ply
format ascii 1.0
element vertex 1379
property float32 x
property float32 y
property float32 z
property float32 CosAngle
property uint32 ObjIdx
property uint32 ObjTag
end_header
-3.1720 -11.7988 -3.9548 0.2243 0 1
-2.5619 -11.3288 -3.7597 0.2359 0 1
-1.9948 -10.8287 -3.5642 0.2442 0 24
-1.4904 -10.4296 -3.4103 0.2542 0 1
-1.0214 -10.0082 -3.2564 0.2665 0 1
-0.5891 -9.5701 -3.1037 0.2763 0 24
-0.1958 -9.2141 -2.9832 0.2909 0 1
0.1679 -8.8432 -2.8630 0.3031 0 1
0.5032 -8.4877 -2.7522 0.3153 0 1
0.8129 -8.1464 -2.6500 0.3274 0 1
1.0994 -7.8192 -2.5559 0.3445 0 1
1.3605 -7.4799 -2.4609 0.3564 0 24
1.6114 -7.2010 -2.3886 0.3687 0 1
1.8348 -6.8865 -2.3069 0.3800 0 24
2.0532 -6.6232 -2.2445 0.3924 0 1
2.2510 -6.3465 -2.1797 0.4030 0 1
2.4351 -6.0778 -2.1194 0.4145 0 1
2.6067 -5.8168 -2.0633 0.4258 0 1
4.1228 -1.9988 -1.5394 0.5836 0 1
4.1666 -1.8169 -1.5272 0.5882 0 1
4.2063 -1.6362 -1.5164 0.5924 0 1
4.2420 -1.4565 -1.5069 0.5962 0 1
4.2745 -1.2779 -1.4990 0.6025 0 1
4.3034 -1.1001 -1.4924 0.6051 0 1
4.3286 -0.9228 -1.4870 0.6073 0 1
4.3502 -0.7459 -1.4829 0.6090 0 1
4.3682 -0.5692 -1.4800 0.6102 0 1
4.3826 -0.3926 -1.4784 0.6109 0 1
4.3936 -0.2160 -1.4780 0.6110 0 1
4.4026 -0.0391 -1.4792 0.6099 0 1
4.4101 0.1383 -1.4824 0.6085 0 1
4.4141 0.3165 -1.4869 0.6067 0 1
4.4146 0.4957 -1.4925 0.6044 0 1
4.4115 0.6759 -1.4995 0.6016 0 1
4.4047 0.8575 -1.5077 0.5984 0 1
4.3919 1.0399 -1.5164 0.5861 0 1
4.3722 1.2229 -1.5254 0.5827 0 1
4.3485 1.4072 -1.5356 0.5788 0 1
4.3207 1.5929 -1.5472 0.5744 0 1
4.2888 1.7801 -1.5601 0.5697 0 1
4.2526 1.9692 -1.5745 0.5645 0 1
4.2120 2.1602 -1.5904 0.5585 0 1
4.1670 2.3534 -1.6079 0.5524 0 1
4.1172 2.5490 -1.6270 0.5459 0 1
4.0624 2.7471 -1.6477 0.5390 0 1
4.0027 2.9481 -1.6702 0.5318 0 1
3.9379 3.1523 -1.6948 0.5241 0 1
3.8673 3.3597 -1.7212 0.5161 0 1
3.7907 3.5706 -1.7496 0.5077 0 1
3.7077 3.7853 -1.7802 0.4989 0 1
3.6181 4.0039 -1.8131 0.4899 0 1
3.5213 4.2268 -1.8484 0.4805 0 1
3.4150 4.4518 -1.8851 0.4847 0 1
3.3000 4.6803 -1.9241 0.4728 0 1
3.1762 4.9131 -1.9656 0.4594 0 1
3.0431 5.1504 -2.0099 0.4493 0 1
2.9003 5.3929 -2.0573 0.4389 0 1
2.7473 5.6412 -2.1081 0.4284 0 1
2.5832 5.8955 -2.1626 0.4176 0 1
2.4071 6.1559 -2.2208 0.4070 0 1
2.2181 6.4231 -2.2831 0.3959 0 1
2.0143 6.6946 -2.3489 0.4075 0 1
1.7926 6.9612 -2.4152 0.3963 0 1
1.5557 7.2345 -2.4862 0.3850 0 1
1.3078 7.5472 -2.5735 0.3519 0 1
1.0403 7.8749 -2.6688 0.3393 0 1
0.7495 8.2030 -2.7675 0.3266 0 1
0.4348 8.5372 -2.8721 0.3173 0 1
0.0946 8.8789 -2.9833 0.3054 0 1
-0.2729 9.2217 -3.0997 0.3125 0 1
-0.6690 9.5672 -3.2223 0.3006 0 1
-1.1000 9.9553 -3.3652 0.2739 0 1
-1.5666 10.3465 -3.5159 0.2657 0 1
-2.0671 10.7190 -3.6677 0.2515 0 24
-2.6181 11.1444 -3.8463 0.2371 0 24
-3.2338 11.6406 -4.0592 0.2218 0 1
-3.8867 12.0834 -4.2647 0.2099 0 24
-4.6161 12.5900 -4.5054 0.1983 0 24
-5.4413 13.1749 -4.7892 0.1868 0 1
-6.3228 13.7179 -5.0750 0.1796 0 1
-7.2891 14.2743 -5.3850 0.1703 0 1
-8.3523 14.8496 -5.7242 0.1611 0 1
-9.5503 15.4867 -6.1131 0.1446 0 1
-10.9297 16.2246 -6.5727 0.1249 0 1
-12.5385 17.0870 -7.1208 0.1132 0 1
-14.3593 18.0028 -7.7370 0.1100 0 24
-16.6457 19.2289 -8.5450 0.1164 0 2
-18.0559 19.2366 -8.8642 0.0958 0 2
-20.6879 20.3358 -9.7466 0.0871 0 2
-23.7592 21.5460 -10.7762 0.0788 0 25
-22.4056 18.7328 -9.8123 0.7737 0 5
-22.5251 17.3423 -9.5512 0.8123 0 5
-27.7405 19.6326 -11.4183 0.8312 0 3
-27.8215 18.0556 -11.1435 0.8517 0 3
-29.9727 17.7807 -11.7089 0.1375 0 3
-30.4176 16.4279 -11.6150 0.3693 0 3
-32.6144 15.9547 -12.1987 0.5912 0 3
-31.1434 13.7115 -11.4329 0.3727 0 5
-38.0886 -25.5608 -15.4116 0.4662 0 9
-24.1712 -17.6713 -10.0600 0.9983 15 6
-29.9311 -23.7871 -12.8453 0.0661 0 2
-25.9180 -22.3563 -11.5000 0.0738 0 2
-22.5259 -21.0686 -10.3628 0.0819 0 2
-19.6334 -19.9029 -9.3931 0.0904 0 2
-17.8451 -19.6085 -8.9079 0.0680 0 1
-15.1788 -18.0898 -7.9340 0.0909 0 1
-13.2114 -17.0972 -7.2595 0.1190 0 1
-11.5812 -16.3029 -6.7189 0.1285 0 1
-10.1336 -15.5544 -6.2372 0.1383 0 1
-8.8526 -14.8628 -5.8123 0.1490 0 1
-7.7171 -14.2288 -5.4385 0.1628 0 1
-6.6931 -13.6211 -5.0991 0.1736 0 1
-5.7691 -13.0410 -4.7911 0.1877 0 24
-4.9633 -12.5624 -4.5382 0.2031 0 1
-4.2176 -12.0751 -4.2974 0.2136 0 1
-3.5242 -11.5646 -4.0619 0.2246 0 24
-2.9176 -11.1664 -3.8777 0.2365 0 1
-2.3492 -10.7402 -3.6938 0.2427 0 1
-1.8264 -10.3233 -3.5223 0.2545 0 1
-1.3472 -9.9279 -3.3662 0.2706 0 1
-0.9024 -9.5061 -3.2082 0.2769 0 24
-0.4995 -9.1708 -3.0858 0.2908 0 1
-0.1250 -8.8146 -2.9618 0.3030 0 1
0.2207 -8.4722 -2.8475 0.3151 0 1
0.5405 -8.1426 -2.7418 0.3273 0 1
0.8367 -7.8259 -2.6444 0.3444 0 1
1.1081 -7.4970 -2.5462 0.3564 0 24
1.3674 -7.2279 -2.4715 0.3685 0 1
1.6049 -6.9417 -2.3938 0.3805 0 1
1.8204 -6.6437 -2.3144 0.3919 0 24
2.0252 -6.3735 -2.2469 0.4013 0 24
2.2235 -6.1313 -2.1913 0.4146 0 1
2.4023 -5.8755 -2.1327 0.4260 0 1
2.5692 -5.6263 -2.0781 0.4369 0 1
2.7250 -5.3832 -2.0272 0.4479 0 1
2.8695 -5.1442 -1.9791 0.4426 0 1
2.9957 -4.8965 -1.9286 0.4542 0 1
3.1126 -4.6559 -1.8817 0.4655 0 1
3.2208 -4.4219 -1.8380 0.4766 0 1
3.3210 -4.1939 -1.7974 0.4873 0 1
3.4145 -3.9727 -1.7600 0.4903 0 1
3.5071 -3.7629 -1.7282 0.5197 0 1
3.5959 -3.5598 -1.7000 0.5283 0 1
3.6787 -3.3598 -1.6739 0.5365 0 1
3.7557 -3.1627 -1.6497 0.5444 0 1
3.8273 -2.9683 -1.6273 0.5519 0 1
3.8937 -2.7763 -1.6067 0.5590 0 1
3.9552 -2.5868 -1.5879 0.5657 0 1
4.0129 -2.3997 -1.5709 0.5718 0 1
4.0659 -2.2145 -1.5556 0.5775 0 1
4.1147 -2.0309 -1.5417 0.5827 0 1
4.1592 -1.8487 -1.5292 0.5874 0 1
4.1996 -1.6678 -1.5182 0.5917 0 1
4.2360 -1.4880 -1.5085 0.5955 0 1
4.2691 -1.3092 -1.5003 0.6020 0 1
4.2986 -1.1313 -1.4934 0.6047 0 1
4.3244 -0.9539 -1.4879 0.6070 0 1
4.3466 -0.7769 -1.4835 0.6087 0 1
4.3653 -0.6002 -1.4805 0.6100 0 1
4.3804 -0.4236 -1.4786 0.6108 0 1
4.3919 -0.2470 -1.4779 0.6110 0 1
4.4009 -0.0702 -1.4788 0.6100 0 1
4.4090 0.1071 -1.4818 0.6088 0 1
4.4136 0.2851 -1.4860 0.6071 0 1
4.4147 0.4641 -1.4914 0.6049 0 1
4.4123 0.6442 -1.4982 0.6022 0 1
4.4062 0.8255 -1.5062 0.5990 0 1
4.3950 1.0080 -1.5150 0.5866 0 1
4.3759 1.1907 -1.5237 0.5833 0 1
4.3529 1.3747 -1.5337 0.5795 0 1
4.3259 1.5601 -1.5450 0.5752 0 1
4.2947 1.7471 -1.5578 0.5705 0 1
4.2592 1.9359 -1.5719 0.5654 0 1
4.2194 2.1265 -1.5875 0.5598 0 1
4.1752 2.3194 -1.6047 0.5535 0 1
4.1263 2.5145 -1.6235 0.5471 0 1
4.0724 2.7121 -1.6439 0.5403 0 1
4.0135 2.9126 -1.6661 0.5331 0 1
3.9497 3.1162 -1.6903 0.5255 0 1
3.8801 3.3231 -1.7164 0.5175 0 1
3.8046 3.5334 -1.7445 0.5092 0 1
3.7228 3.7473 -1.7747 0.5005 0 1
3.6343 3.9652 -1.8072 0.4915 0 1
3.5388 4.1874 -1.8420 0.4822 0 1
3.4347 4.4127 -1.8788 0.4863 0 1
3.3207 4.6398 -1.9170 0.4745 0 1
3.1986 4.8720 -1.9582 0.4612 0 1
3.0671 5.1083 -2.0019 0.4511 0 1
2.9261 5.3500 -2.0488 0.4408 0 1
2.7749 5.5972 -2.0990 0.4302 0 1
2.6128 5.8504 -2.1528 0.4195 0 1
2.4389 6.1097 -2.2103 0.4089 0 1
2.2522 6.3757 -2.2718 0.3978 0 1
2.0518 6.6485 -2.3377 0.4094 0 1
1.8326 6.9140 -2.4032 0.3983 0 1
1.5984 7.1861 -2.4734 0.3870 0 1
1.3526 7.4910 -2.5575 0.3541 0 1
1.0888 7.8165 -2.6516 0.3415 0 1
0.8023 8.1455 -2.7500 0.3287 0 1
0.4918 8.4781 -2.8533 0.3168 0 1
0.1562 8.8180 -2.9632 0.3075 0 1
-0.2064 9.1622 -3.0791 0.3146 0 1
-0.5973 9.5057 -3.2001 0.3027 0 1
-1.0216 9.8850 -3.3389 0.2760 0 1
-1.4822 10.2784 -3.4891 0.2677 0 1
-1.9753 10.6469 -3.6382 0.2536 0 24
-2.5261 11.1046 -3.8263 0.2374 0 1
-3.1231 11.5581 -4.0226 0.2238 0 1
-3.7654 11.9964 -4.2245 0.2115 0 24
-4.4998 12.5461 -4.4782 0.1998 0 1
-5.2937 13.0785 -4.7404 0.1887 0 1
-6.1626 13.6226 -5.0235 0.1814 0 1
-7.1126 14.1750 -5.3285 0.1722 0 1
-8.1569 14.7450 -5.6616 0.1629 0 1
-9.3278 15.3677 -6.0400 0.1464 0 1
-10.6684 16.0805 -6.4837 0.1267 0 1
-12.2395 16.9289 -7.0187 0.1170 0 1
-14.0628 17.8887 -7.6451 0.1055 0 1
-16.0103 18.7609 -8.2866 0.1118 0 1
-17.6331 19.0540 -8.7225 0.0973 0 2
-20.1967 20.1354 -9.5819 0.0886 0 2
-23.1842 21.3248 -10.5835 0.0802 0 25
-22.3955 18.9946 -9.8664 0.7695 0 5
-22.5017 17.5787 -9.5937 0.8251 0 5
-25.0866 18.0215 -10.3780 0.8686 0 21
-27.8079 18.3272 -11.1896 0.8481 0 3
-27.0266 16.2921 -10.6027 0.3165 0 3
-30.4906 16.7465 -11.6878 0.3670 0 3
-37.3027 18.5757 -14.0010 0.9029 0 3
-30.4896 13.6814 -11.2280 0.3983 0 5
-44.1514 13.7108 -15.5329 0.3855 0 5
-38.8311 -25.6633 -15.6384 0.5020 0 9
-35.0537 -25.2496 -14.5147 0.7642 0 9
-30.7107 -24.0549 -13.1067 0.0648 0 2
-26.5734 -22.5964 -11.7197 0.0724 0 2
-23.0820 -21.2852 -10.5492 0.0805 0 2
-20.1093 -20.0995 -9.5526 0.0889 0 2
-18.5167 -20.0601 -9.1722 0.1143 0 2
-15.6017 -18.3295 -8.0872 0.0892 0 1
-13.5189 -17.2422 -7.3614 0.1174 0 1
-11.8546 -16.4408 -6.8100 0.1268 0 1
-10.3751 -15.6820 -6.3176 0.1365 0 1
-9.0668 -14.9808 -5.8834 0.1472 0 1
-7.9077 -14.3376 -5.5013 0.1626 0 1
-6.8649 -13.7250 -5.1560 0.1717 0 1
-5.9383 -13.1713 -4.8543 0.1886 0 1
-5.1015 -12.6502 -4.5828 0.2011 0 1
-4.3435 -12.1590 -4.3380 0.2116 0 1
-3.6524 -11.6886 -4.1144 0.2216 0 1
-3.0223 -11.2419 -3.9112 0.2345 0 1
-2.4458 -10.8154 -3.7255 0.2406 0 1
-1.9079 -10.3574 -3.5384 0.2538 0 24
-1.4283 -9.9956 -3.3925 0.2685 0 1
-0.9769 -9.5723 -3.2328 0.2753 0 24
-0.5684 -9.2348 -3.1086 0.2887 0 1
-0.1886 -8.8760 -2.9829 0.3009 0 1
0.1620 -8.5313 -2.8669 0.3130 0 1
0.4861 -8.1995 -2.7597 0.3252 0 1
0.7863 -7.8801 -2.6607 0.3423 0 1
1.0614 -7.5494 -2.5614 0.3544 0 24
1.3239 -7.2791 -2.4858 0.3664 0 1
1.5645 -6.9913 -2.4070 0.3784 0 1
1.7828 -6.6916 -2.3267 0.3898 0 24
1.9904 -6.4206 -2.2585 0.3993 0 24
2.1909 -6.1770 -2.2020 0.4126 0 1
2.3718 -5.9199 -2.1427 0.4240 0 1
2.5407 -5.6696 -2.0874 0.4350 0 1
4.0458 -1.9615 -1.5663 0.5924 0 1
4.0894 -1.7832 -1.5541 0.5971 0 1
4.1289 -1.6061 -1.5433 0.6012 0 1
4.1648 -1.4300 -1.5340 0.6081 0 1
4.1973 -1.2548 -1.5261 0.6112 0 1
4.2259 -1.0803 -1.5195 0.6139 0 1
4.2510 -0.9063 -1.5142 0.6161 0 1
4.2724 -0.7326 -1.5100 0.6177 0 1
4.2902 -0.5591 -1.5072 0.6189 0 1
4.3045 -0.3856 -1.5055 0.6196 0 1
4.3153 -0.2121 -1.5051 0.6198 0 1
4.3239 -0.0384 -1.5064 0.6186 0 1
4.3312 0.1358 -1.5095 0.6173 0 1
4.3349 0.3108 -1.5140 0.6155 0 1
4.3350 0.4867 -1.5196 0.6132 0 1
4.3316 0.6637 -1.5266 0.6104 0 1
4.3246 0.8419 -1.5348 0.6071 0 1
4.3099 1.0205 -1.5429 0.5950 0 1
4.2900 1.1999 -1.5518 0.5916 0 1
4.2662 1.3806 -1.5621 0.5877 0 1
4.2384 1.5625 -1.5736 0.5834 0 1
4.2064 1.7459 -1.5866 0.5786 0 1
4.1702 1.9310 -1.6009 0.5734 0 1
4.1295 2.1179 -1.6167 0.5678 0 1
4.0845 2.3069 -1.6341 0.5614 0 1
4.0347 2.4980 -1.6531 0.5550 0 1
3.9801 2.6914 -1.6737 0.5481 0 1
3.9205 2.8876 -1.6962 0.5409 0 1
3.8558 3.0866 -1.7206 0.5332 0 1
3.7855 3.2887 -1.7469 0.5252 0 1
3.7092 3.4939 -1.7751 0.5168 0 1
3.6267 3.7025 -1.8055 0.5082 0 1
3.5376 3.9148 -1.8381 0.4991 0 1
3.4414 4.1310 -1.8730 0.4898 0 1
3.3379 4.3513 -1.9105 0.4802 0 1
3.2237 4.5721 -1.9489 0.4786 0 1
3.1009 4.7966 -1.9897 0.4688 0 1
2.9693 5.0256 -2.0335 0.4587 0 1
2.8284 5.2592 -2.0803 0.4484 0 1
2.6776 5.4980 -2.1303 0.4379 0 1
2.5160 5.7421 -2.1839 0.4271 0 1
2.3428 5.9916 -2.2411 0.4166 0 1
2.1573 6.2470 -2.3023 0.4055 0 1
1.9584 6.5088 -2.3678 0.3943 0 1
1.7436 6.7707 -2.4356 0.4059 0 1
1.5119 7.0309 -2.5053 0.3946 0 1
1.2679 7.3171 -2.5870 0.3616 0 1
1.0075 7.6263 -2.6798 0.3491 0 1
0.7248 7.9323 -2.7748 0.3365 0 1
0.4199 8.2457 -2.8762 0.3246 0 1
0.0912 8.5660 -2.9842 0.3154 0 1
-0.2632 8.8953 -3.1001 0.3036 0 1
-0.6451 9.2251 -3.2215 0.3106 0 1
-1.0571 9.5675 -3.3532 0.2839 0 1
-1.5034 9.9291 -3.4984 0.2758 0 1
-1.9846 10.2911 -3.6511 0.2643 0 1
-2.5082 10.6770 -3.8207 0.2456 0 1
-3.0689 11.0469 -3.9941 0.2340 0 24
-3.6907 11.4742 -4.1988 0.2207 0 24
-4.3863 11.9631 -4.4388 0.2082 0 1
-5.1347 12.4327 -4.6859 0.1972 0 1
-5.9372 12.8814 -4.9411 0.1854 0 24
-6.8384 13.3917 -5.2382 0.1797 0 1
-7.8109 13.8870 -5.5504 0.1696 0 1
-8.8796 14.3992 -5.8932 0.1617 0 1
-10.0725 14.9521 -6.2803 0.1454 0 1
-11.4366 15.5854 -6.7343 0.1273 0 1
-13.0191 16.3226 -7.2734 0.1148 0 1
-14.8309 17.1325 -7.8939 0.1139 0 1
-16.7232 17.8168 -8.5124 0.7221 0 2
-18.3445 18.0323 -8.9610 0.0978 0 2
-20.8187 18.8794 -9.7905 0.0896 0 2
-22.3214 18.6624 -10.1356 0.8000 0 5
-22.4227 17.2634 -9.8581 0.8035 0 5
-27.6166 19.5449 -11.7861 0.8317 0 3
-27.7002 17.9769 -11.5037 0.8521 0 3
-29.9512 17.7680 -12.1316 0.4877 0 3
-31.0329 16.7603 -12.2866 0.4547 0 3
-32.6919 15.9926 -12.6783 0.8065 0 3
-31.1088 13.6962 -11.8409 0.3939 0 5
-38.2019 -23.4652 -15.6181 0.0561 0 2
-33.3505 -22.3811 -13.9917 0.0627 0 2
-23.9949 -17.5424 -10.3545 0.7324 15 6
-25.6180 -20.3594 -11.3994 0.0769 0 2
-22.5231 -19.4280 -10.3618 0.0846 0 2
-19.9528 -18.6620 -9.5172 0.9806 0 2
-18.0290 -18.2764 -8.9433 0.0675 0 1
-15.5117 -17.0445 -8.0284 0.0922 0 1
-13.6799 -16.3035 -7.4140 0.1220 0 1
-12.0914 -15.6477 -6.8888 0.1295 0 1
-10.6582 -15.0036 -6.4112 0.1392 0 1
-9.3871 -14.4085 -5.9906 0.1542 0 1
-8.2525 -13.8553 -5.6179 0.1645 0 1
-7.2234 -13.3184 -5.2781 0.1733 0 1
-6.3014 -12.8239 -4.9775 0.1899 0 1
-5.4659 -12.3557 -4.7066 0.2015 0 1
-4.7044 -11.9071 -4.4600 0.2126 0 1
-4.0081 -11.4752 -4.2344 0.2224 0 1
-3.3696 -11.0571 -4.0267 0.2339 0 1
-2.7860 -10.6627 -3.8392 0.2412 0 1
-2.2461 -10.2690 -3.6619 0.2529 0 1
-1.7505 -9.8945 -3.5004 0.2688 0 1
-1.2881 -9.4919 -3.3369 0.2759 0 24
-0.8711 -9.1758 -3.2109 0.2887 0 1
-0.4811 -8.8330 -3.0816 0.3008 0 1
-0.1206 -8.5025 -2.9622 0.3129 0 1
0.2132 -8.1834 -2.8517 0.3250 0 1
0.5228 -7.8756 -2.7496 0.3421 0 1
0.8079 -7.5560 -2.6472 0.3543 0 24
1.0783 -7.2955 -2.5691 0.3661 0 1
1.3274 -7.0165 -2.4876 0.3782 0 1
1.5594 -6.7448 -2.4116 0.3901 0 1
1.7758 -6.4808 -2.3409 0.4019 0 1
1.9707 -6.2018 -2.2669 0.4099 0 24
2.1656 -5.9714 -2.2128 0.4241 0 1
2.3413 -5.7263 -2.1551 0.4354 0 1
2.5055 -5.4869 -2.1013 0.4463 0 1
2.6591 -5.2530 -2.0510 0.4573 0 1
2.7998 -5.0192 -2.0021 0.4519 0 1
2.9247 -4.7804 -1.9523 0.4634 0 1
3.0406 -4.5482 -1.9059 0.4747 0 1
3.1480 -4.3219 -1.8626 0.4858 0 1
3.2475 -4.1011 -1.8224 0.4965 0 1
3.3399 -3.8859 -1.7850 0.5278 0 1
3.4338 -3.6843 -1.7545 0.5287 0 1
3.5220 -3.4866 -1.7264 0.5373 0 1
3.6042 -3.2917 -1.7004 0.5456 0 1
3.6807 -3.0995 -1.6763 0.5534 0 1
3.7519 -2.9098 -1.6540 0.5609 0 1
3.8179 -2.7223 -1.6335 0.5679 0 1
3.8791 -2.5370 -1.6147 0.5746 0 1
3.9364 -2.3540 -1.5978 0.5807 0 1
3.9893 -2.1728 -1.5825 0.5864 0 1
4.0378 -1.9929 -1.5686 0.5916 0 1
4.0821 -1.8144 -1.5562 0.5963 0 1
4.1223 -1.6371 -1.5451 0.6005 0 1
4.1587 -1.4608 -1.5355 0.6075 0 1
4.1918 -1.2855 -1.5274 0.6107 0 1
4.2212 -1.1109 -1.5206 0.6135 0 1
4.2468 -0.9368 -1.5150 0.6157 0 1
4.2689 -0.7630 -1.5107 0.6175 0 1
4.2873 -0.5895 -1.5076 0.6187 0 1
4.3022 -0.4161 -1.5057 0.6195 0 1
4.3136 -0.2426 -1.5051 0.6198 0 1
4.3223 -0.0689 -1.5059 0.6188 0 1
4.3301 0.1052 -1.5089 0.6176 0 1
4.3345 0.2800 -1.5131 0.6158 0 1
4.3353 0.4558 -1.5186 0.6136 0 1
4.3325 0.6326 -1.5253 0.6109 0 1
4.3261 0.8105 -1.5333 0.6077 0 1
4.3130 0.9891 -1.5415 0.5955 0 1
4.2938 1.1684 -1.5502 0.5922 0 1
4.2707 1.3488 -1.5602 0.5884 0 1
4.2436 1.5305 -1.5715 0.5842 0 1
4.2123 1.7136 -1.5842 0.5795 0 1
4.1768 1.8984 -1.5983 0.5744 0 1
4.1370 2.0850 -1.6138 0.5688 0 1
4.0927 2.2735 -1.6310 0.5625 0 1
4.0438 2.4643 -1.6497 0.5561 0 1
3.9900 2.6573 -1.6700 0.5493 0 1
3.9313 2.8529 -1.6921 0.5422 0 1
3.8676 3.0515 -1.7162 0.5346 0 1
3.7983 3.2530 -1.7421 0.5266 0 1
3.7231 3.4576 -1.7700 0.5183 0 1
3.6416 3.6657 -1.8000 0.5097 0 1
3.5537 3.8773 -1.8322 0.5007 0 1
3.4588 4.0928 -1.8667 0.4915 0 1
3.3566 4.3124 -1.9037 0.4819 0 1
3.2444 4.5332 -1.9420 0.4803 0 1
3.1231 4.7569 -1.9824 0.4705 0 1
2.9931 4.9851 -2.0256 0.4605 0 1
2.8539 5.2179 -2.0718 0.4502 0 1
2.7048 5.4557 -2.1213 0.4397 0 1
2.5451 5.6988 -2.1742 0.4290 0 1
2.3741 5.9474 -2.2308 0.4185 0 1
2.1908 6.2018 -2.2913 0.4074 0 1
1.9943 6.4624 -2.3560 0.3962 0 1
1.7827 6.7257 -2.4239 0.4079 0 1
1.5537 6.9848 -2.4927 0.3966 0 1
1.3116 7.2640 -2.5714 0.3638 0 1
1.0547 7.5712 -2.6630 0.3513 0 1
0.7760 7.8783 -2.7578 0.3386 0 1
0.4751 8.1899 -2.8578 0.3267 0 1
0.1507 8.5093 -2.9648 0.3174 0 1
-0.1990 8.8367 -3.0792 0.3057 0 1
-0.5761 9.1680 -3.2001 0.3126 0 1
-0.9821 9.5027 -3.3280 0.2861 0 1
-1.4228 9.8668 -3.4728 0.2778 0 1
-1.8974 10.2267 -3.6234 0.2663 0 1
-2.4128 10.6066 -3.7893 0.2476 0 1
-2.9655 10.9746 -3.9602 0.2368 0 24
-3.5897 11.4367 -4.1757 0.2223 0 1
-4.2619 11.8828 -4.3977 0.2101 0 1
-4.9803 12.3044 -4.6242 0.1992 0 24
-5.7873 12.7929 -4.8914 0.1874 0 24
-6.6769 13.3066 -5.1864 0.1815 0 1
-7.6076 13.7520 -5.4748 0.1739 0 24
-8.6845 14.3079 -5.8306 0.1634 0 1
-9.8516 14.8494 -6.2079 0.1471 0 1
-11.1802 15.4637 -6.6474 0.1290 0 1
-12.7216 16.1826 -7.1708 0.1164 0 1
-14.5121 17.0054 -7.7879 0.1072 0 1
-16.6838 18.0282 -8.5570 0.1200 0 2
-17.9433 17.8888 -8.8265 0.0993 0 2
-20.3600 18.7271 -9.6366 0.0910 0 2
-23.1289 19.6166 -10.5649 0.0830 0 25
-22.4100 17.5071 -9.9066 0.8020 0 5
-25.0182 17.9724 -10.7311 0.7512 0 21
-27.6862 18.2469 -11.5511 0.8487 0 3
-27.9363 16.8404 -11.3634 0.8925 0 3
-32.3201 17.7513 -12.8455 0.4606 0 3
-35.6008 17.7282 -13.8546 0.4270 0 3
-30.5208 13.6955 -11.6536 0.3256 0 5
-44.0765 13.6875 -16.0779 0.2858 0 5
-32.9568 -4.6931 -11.5967 0.9919 0 20
-39.1355 -23.6597 -15.9311 0.0550 0 2
-34.1478 -22.5681 -14.2590 0.0615 0 2
-29.8794 -21.5225 -12.8280 0.0684 0 2
-26.2084 -20.5284 -11.5973 0.0756 0 2
-23.0350 -19.5876 -10.5335 0.0832 0 2
-20.2782 -18.6997 -9.6092 0.0912 0 2
-18.5744 -18.5654 -9.1486 0.0660 0 1
-15.8850 -17.2090 -8.1585 0.0908 0 1
-13.9790 -16.4231 -7.5131 0.1206 0 1
-12.3589 -15.7627 -6.9777 0.1296 0 1
-10.8981 -15.1141 -6.4912 0.1374 0 1
-9.5987 -14.5083 -6.0602 0.1525 0 1
-8.4432 -13.9505 -5.6806 0.1627 0 1
-7.3971 -13.4119 -5.3357 0.1714 0 1
-6.4563 -12.9081 -5.0278 0.1880 0 1
-5.6069 -12.4364 -4.7523 0.1990 0 1
-4.8330 -11.9844 -4.5016 0.2106 0 1
-4.1101 -11.5056 -4.2562 0.2215 0 24
-3.4776 -11.1292 -4.0619 0.2319 0 1
-2.8851 -10.7315 -3.8712 0.2447 0 1
-2.3376 -10.3369 -3.6919 0.2508 0 1
-1.8345 -9.9589 -3.5277 0.2667 0 1
-1.3654 -9.5552 -3.3625 0.2744 0 24
-0.9427 -9.2373 -3.2346 0.2866 0 1
-0.5473 -8.8923 -3.1036 0.2987 0 1
-0.1819 -8.5596 -2.9825 0.3108 0 1
0.1565 -8.2386 -2.8705 0.3229 0 1
0.4701 -7.9284 -2.7668 0.3350 0 1
0.7615 -7.6322 -2.6720 0.3521 0 1
1.0327 -7.3450 -2.5839 0.3640 0 1
1.2850 -7.0650 -2.5015 0.3761 0 1
1.5199 -6.7920 -2.4246 0.3880 0 1
1.7389 -6.5266 -2.3529 0.3999 0 1
1.9366 -6.2469 -2.2783 0.4085 0 24
2.1335 -6.0151 -2.2233 0.4221 0 1
2.3113 -5.7688 -2.1649 0.4335 0 1
2.4775 -5.5285 -2.1104 0.4444 0 1
3.9711 -1.9253 -1.5925 0.6012 0 1
4.0145 -1.7506 -1.5803 0.6058 0 1
4.0539 -1.5769 -1.5696 0.6132 0 1
4.0899 -1.4043 -1.5604 0.6168 0 1
4.1222 -1.2324 -1.5525 0.6199 0 1
4.1507 -1.0611 -1.5459 0.6226 0 1
4.1755 -0.8902 -1.5405 0.6247 0 1
4.1967 -0.7196 -1.5364 0.6264 0 1
4.2144 -0.5492 -1.5336 0.6276 0 1
4.2285 -0.3788 -1.5319 0.6283 0 1
4.2391 -0.2084 -1.5315 0.6284 0 1
4.2475 -0.0377 -1.5327 0.6273 0 1
4.2544 0.1334 -1.5359 0.6260 0 1
4.2578 0.3053 -1.5403 0.6242 0 1
4.2577 0.4780 -1.5460 0.6219 0 1
4.2540 0.6518 -1.5529 0.6191 0 1
4.2464 0.8267 -1.5610 0.6068 0 1
4.2303 1.0017 -1.5686 0.6038 0 1
4.2103 1.1776 -1.5776 0.6004 0 1
4.1865 1.3547 -1.5878 0.5965 0 1
4.1586 1.5331 -1.5993 0.5922 0 1
4.1265 1.7128 -1.6122 0.5875 0 1
4.0903 1.8940 -1.6265 0.5823 0 1
4.0496 2.0769 -1.6422 0.5767 0 1
4.0046 2.2617 -1.6595 0.5704 0 1
3.9549 2.4486 -1.6784 0.5639 0 1
3.9004 2.6375 -1.6990 0.5571 0 1
3.8410 2.8290 -1.7213 0.5499 0 1
3.7766 3.0232 -1.7456 0.5423 0 1
3.7065 3.2200 -1.7717 0.5343 0 1
3.6306 3.4198 -1.7997 0.5260 0 1
3.5485 3.6227 -1.8298 0.5173 0 1
3.4600 3.8289 -1.8621 0.5083 0 1
3.3646 4.0387 -1.8968 0.4991 0 1
3.2620 4.2524 -1.9339 0.4932 0 1
3.1500 4.4676 -1.9725 0.4879 0 1
3.0285 4.6847 -2.0129 0.4781 0 1
2.8986 4.9058 -2.0561 0.4681 0 1
2.7595 5.1311 -2.1022 0.4578 0 1
2.6108 5.3608 -2.1516 0.4473 0 1
2.4517 5.5954 -2.2043 0.4366 0 1
2.2815 5.8347 -2.2606 0.4261 0 1
2.0993 6.0791 -2.3207 0.4150 0 1
1.9043 6.3290 -2.3849 0.4039 0 1
1.6957 6.5848 -2.4536 0.3926 0 1
1.4702 6.8369 -2.5234 0.4042 0 1
1.2301 7.0991 -2.5998 0.3712 0 1
0.9764 7.3911 -2.6901 0.3588 0 1
0.7014 7.6770 -2.7817 0.3463 0 1
0.4059 7.9709 -2.8799 0.3345 0 1
0.0881 8.2723 -2.9851 0.3253 0 1
-0.2538 8.5788 -3.0969 0.3136 0 1
-0.6219 8.8944 -3.2173 0.3018 0 1
-1.0177 9.2108 -3.3438 0.3087 0 1
-1.4447 9.5413 -3.4821 0.2859 0 1
-1.9038 9.8723 -3.6279 0.2744 0 1
-2.3991 10.2125 -3.7854 0.2630 0 1
-2.9395 10.5814 -3.9627 0.2443 0 1
-3.5261 10.9624 -4.1552 0.2346 0 1
-4.1628 11.3534 -4.3634 0.2195 0 1
-4.8419 11.7237 -4.5769 0.2084 0 24
-5.5996 12.1489 -4.8270 0.1965 0 24
-6.4366 12.6048 -5.1069 0.1903 0 1
-7.3261 13.0251 -5.3924 0.1801 0 1
-8.3034 13.4647 -5.7081 0.1669 0 1
-9.3662 13.9037 -6.0491 0.1633 0 1
-10.5456 14.3712 -6.4320 0.1454 0 1
-11.8796 14.8939 -6.8744 0.1287 0 1
-13.4314 15.5158 -7.4050 0.1158 0 1
-15.2859 16.2855 -8.0595 0.1020 0 1
-16.7406 16.4557 -8.4703 0.7487 0 2
-18.5101 16.7859 -9.0165 0.1003 0 2
-20.8086 17.3975 -9.7870 0.0924 0 2
-23.3970 18.0136 -10.6548 0.0849 0 25
-26.3171 18.6252 -11.6338 0.0778 0 25
-26.7943 17.3890 -11.5259 0.5303 0 21
-27.4957 16.3113 -11.5359 0.9497 0 3
-32.8591 17.7465 -13.4755 0.4530 0 3
-36.2286 17.7227 -14.5530 0.4195 0 3
-31.0351 13.6638 -12.2359 0.3841 0 5
-36.6095 14.3894 -14.1938 0.1604 0 21
-40.4182 -20.5495 -16.3611 0.0553 0 2
-35.8821 -20.0989 -14.8404 0.0610 0 2
-31.8626 -19.5713 -13.4928 0.0670 0 2
-28.3053 -18.9953 -12.3003 0.0735 0 2
-23.8664 -17.4485 -10.6679 0.5496 15 6
-22.3695 -17.7778 -10.3103 0.0877 0 2
-20.8129 -17.9527 -9.9179 0.9296 0 2
-18.0589 -16.8906 -8.9223 0.0877 0 1
-15.8546 -16.0722 -8.1463 0.1129 0 1
-14.0920 -15.4845 -7.5548 0.1237 0 1
-12.5319 -14.9354 -7.0350 0.1329 0 1
-11.1310 -14.4049 -6.5688 0.1403 0 1
-9.8706 -13.8949 -6.1501 0.1540 0 1
-8.7525 -13.4345 -5.7857 0.1648 0 1
-7.7264 -12.9720 -5.4481 0.1732 0 1
-6.7960 -12.5303 -5.1436 0.1897 0 1
-5.9516 -12.1120 -4.8696 0.2012 0 1
-5.1784 -11.7057 -4.6187 0.2118 0 1
-4.4692 -11.3119 -4.3888 0.2229 0 1
-3.8023 -10.8861 -4.1608 0.2336 0 24
-3.2164 -10.5544 -3.9813 0.2455 0 1
-2.6626 -10.1903 -3.8005 0.2514 0 1
-2.1521 -9.8391 -3.6342 0.2671 0 1
-1.6804 -9.4984 -3.4806 0.2751 0 1
-1.2432 -9.1614 -3.3361 0.2870 0 1
-0.8386 -8.8342 -3.2020 0.2987 0 1
-0.4639 -8.5169 -3.0778 0.3107 0 1
-0.1164 -8.2096 -2.9626 0.3228 0 1
0.2061 -7.9119 -2.8559 0.3399 0 1
0.5062 -7.6268 -2.7581 0.3519 0 1
0.7858 -7.3495 -2.6671 0.3638 0 1
1.0464 -7.0796 -2.5823 0.3758 0 1
1.2894 -6.8156 -2.5029 0.3878 0 1
1.5161 -6.5574 -2.4286 0.3997 0 1
1.7278 -6.3059 -2.3592 0.4114 0 1
1.9186 -6.0378 -2.2860 0.4195 0 24
2.1101 -5.8185 -2.2333 0.4335 0 1
2.2829 -5.5833 -2.1765 0.4446 0 1
2.4445 -5.3532 -2.1235 0.4557 0 1
2.5958 -5.1280 -2.0739 0.4666 0 1
2.7328 -4.8991 -2.0242 0.4612 0 1
2.8565 -4.6689 -1.9750 0.4727 0 1
2.9713 -4.4445 -1.9291 0.4839 0 1
3.0778 -4.2256 -1.8863 0.4949 0 1
3.1767 -4.0117 -1.8464 0.5056 0 1
3.2713 -3.8060 -1.8109 0.5367 0 1
3.3632 -3.6086 -1.7800 0.5461 0 1
3.4505 -3.4158 -1.7519 0.5463 0 1
3.5321 -3.2259 -1.7261 0.5545 0 1
3.6081 -3.0384 -1.7021 0.5623 0 1
3.6788 -2.8531 -1.6799 0.5697 0 1
3.7445 -2.6699 -1.6594 0.5768 0 1
3.8053 -2.4887 -1.6407 0.5834 0 1
3.8623 -2.3097 -1.6239 0.5895 0 1
3.9149 -2.1322 -1.6086 0.5952 0 1
3.9631 -1.9561 -1.5947 0.6003 0 1
4.0072 -1.7812 -1.5823 0.6050 0 1
4.0472 -1.6073 -1.5713 0.6093 0 1
4.0839 -1.4345 -1.5619 0.6162 0 1
4.1168 -1.2625 -1.5538 0.6194 0 1
4.1459 -1.0911 -1.5469 0.6222 0 1
4.1714 -0.9201 -1.5414 0.6244 0 1
4.1933 -0.7495 -1.5371 0.6262 0 1
4.2116 -0.5791 -1.5340 0.6274 0 1
4.2263 -0.4087 -1.5321 0.6282 0 1
4.2375 -0.2383 -1.5315 0.6284 0 1
4.2459 -0.0677 -1.5323 0.6274 0 1
4.2535 0.1033 -1.5353 0.6262 0 1
4.2575 0.2751 -1.5395 0.6245 0 1
4.2580 0.4477 -1.5449 0.6223 0 1
4.2549 0.6212 -1.5516 0.6196 0 1
4.2483 0.7959 -1.5596 0.6164 0 1
4.2334 0.9709 -1.5672 0.6044 0 1
4.2141 1.1467 -1.5759 0.6010 0 1
4.1909 1.3236 -1.5859 0.5972 0 1
4.1638 1.5017 -1.5972 0.5930 0 1
4.1325 1.6812 -1.6098 0.5884 0 1
4.0970 1.8621 -1.6239 0.5833 0 1
4.0571 2.0447 -1.6394 0.5778 0 1
4.0128 2.2292 -1.6564 0.5714 0 1
3.9640 2.4156 -1.6750 0.5651 0 1
3.9103 2.6042 -1.6953 0.5583 0 1
3.8518 2.7952 -1.7173 0.5512 0 1
3.7883 2.9889 -1.7412 0.5437 0 1
3.7192 3.1853 -1.7669 0.5357 0 1
3.6444 3.3845 -1.7946 0.5275 0 1
3.5634 3.5869 -1.8244 0.5189 0 1
3.4760 3.7925 -1.8563 0.5099 0 1
3.3818 4.0016 -1.8905 0.5007 0 1
3.2805 4.2145 -1.9271 0.4912 0 1
3.1705 4.4299 -1.9657 0.4896 0 1
3.0505 4.6463 -2.0056 0.4799 0 1
2.9220 4.8667 -2.0483 0.4699 0 1
2.7846 5.0912 -2.0939 0.4596 0 1
2.6376 5.3202 -2.1427 0.4492 0 1
2.4804 5.5538 -2.1948 0.4385 0 1
2.3122 5.7924 -2.2505 0.4280 0 1
2.1321 6.0358 -2.3098 0.4170 0 1
1.9395 6.2847 -2.3733 0.4058 0 1
1.7334 6.5395 -2.4412 0.3946 0 1
1.5110 6.7931 -2.5111 0.4062 0 1
1.2728 7.0488 -2.5846 0.3734 0 1
1.0223 7.3391 -2.6738 0.3610 0 1
0.7511 7.6263 -2.7652 0.3484 0 1
0.4594 7.9187 -2.8622 0.3366 0 1
0.1456 8.2194 -2.9663 0.3274 0 1
-0.1920 8.5244 -3.0767 0.3156 0 1
-0.5553 8.8384 -3.1955 0.3039 0 1
-0.9463 9.1564 -3.3216 0.3108 0 1
-1.3676 9.4841 -3.4576 0.2879 0 1
-1.8207 9.8136 -3.6015 0.2764 0 1
-2.3094 10.1522 -3.7569 0.2650 0 1
-2.8414 10.5156 -3.9305 0.2463 0 1
-3.4199 10.8956 -4.1206 0.2349 0 1
-4.0333 11.2455 -4.3109 0.2217 0 24
-4.7159 11.6510 -4.5354 0.2102 0 24
-5.4808 12.1154 -4.7982 0.1987 0 1
-6.2883 12.5320 -5.0594 0.1921 0 1
-7.1643 12.9506 -5.3404 0.1819 0 1
-8.1233 13.3834 -5.6492 0.1686 0 1
-9.1730 13.8265 -5.9872 0.1649 0 1
-10.3265 14.2830 -6.3597 0.1471 0 1
-11.6292 14.7930 -6.7898 0.1303 0 1
-13.1426 15.4006 -7.3055 0.1174 0 1
-14.8724 16.0709 -7.9011 0.1040 0 1
-16.7156 16.6648 -8.5170 0.7446 0 2
-18.1338 16.6795 -8.8903 0.1018 0 2
-20.3853 17.2896 -9.6451 0.0938 0 2
-22.9200 17.9055 -10.4949 0.0862 0 25
-24.9406 17.9167 -11.0809 0.5644 0 21
-27.5646 18.1668 -11.9122 0.8491 0 3
-29.4789 17.7704 -12.4203 0.4915 0 3
-32.3183 17.7504 -13.3048 0.4588 0 3
-35.5987 17.7272 -14.3499 0.4254 0 3
-30.4704 13.6728 -12.0510 0.4171 0 5
-35.8518 14.3846 -13.9391 0.1983 0 21
-43.9954 13.6623 -16.6230 0.3011 0 5
-45.0218 8.2114 -16.5135 0.9243 0 6
-32.8329 -4.6754 -11.9668 0.9917 0 20
-41.2714 -20.6179 -16.6471 0.0543 0 2
-36.6394 -20.1846 -15.0942 0.0599 0 2
-32.5330 -19.6681 -13.7176 0.0659 0 2
-28.8985 -19.0989 -12.4992 0.0724 0 2
-24.2308 -17.4537 -10.7754 0.5475 15 6
-22.8348 -17.8859 -10.4663 0.0864 0 2
-20.9948 -17.8527 -9.9443 0.9272 0 2
-18.5547 -17.1103 -9.1074 0.0684 0 1
-16.1880 -16.1801 -8.2587 0.1113 0 1
-14.3836 -15.5825 -7.6520 0.1222 0 1
-12.7937 -15.0305 -7.1222 0.1312 0 1
-11.3667 -14.4972 -6.6473 0.1386 0 1
-10.0790 -13.9782 -6.2183 0.1482 0 1
-8.9414 -13.5149 -5.8474 0.1620 0 1
-7.8720 -13.0068 -5.4859 0.1751 0 24
-6.9523 -12.6054 -5.1944 0.1878 0 1
-6.0944 -12.1844 -4.9159 0.1993 0 1
-5.3093 -11.7762 -4.6612 0.2099 0 1
-4.5893 -11.3801 -4.4277 0.2209 0 1
-3.9269 -10.9928 -4.2121 0.2307 0 1
-3.3177 -10.6176 -4.0139 0.2435 0 1
-2.7567 -10.2540 -3.8314 0.2493 0 1
-2.2388 -9.8999 -3.6624 0.2650 0 1
-1.7532 -9.5175 -3.4920 0.2730 0 24
-1.3175 -9.2197 -3.3606 0.2849 0 1
-0.9074 -8.8909 -3.2248 0.2966 0 1
-0.5276 -8.5718 -3.0989 0.3086 0 1
-0.1755 -8.2628 -2.9822 0.3207 0 1
0.1512 -7.9633 -2.8740 0.3328 0 1
0.4551 -7.6762 -2.7747 0.3498 0 1
0.7381 -7.3976 -2.6826 0.3617 0 1
1.0020 -7.1265 -2.5968 0.3737 0 1
1.2480 -6.8616 -2.5165 0.3857 0 1
1.4774 -6.6023 -2.4413 0.3976 0 1
1.6917 -6.3496 -2.3711 0.4094 0 1
1.8852 -6.0811 -2.2973 0.4176 0 24
2.0786 -5.8604 -2.2437 0.4315 0 1
2.2534 -5.6242 -2.1862 0.4426 0 1
2.4169 -5.3932 -2.1325 0.4537 0 1
3.8986 -1.8901 -1.6178 0.6099 0 1
3.9417 -1.7188 -1.6057 0.6145 0 1
3.9813 -1.5486 -1.5952 0.6218 0 1
4.0171 -1.3793 -1.5860 0.6254 0 1
4.0492 -1.2106 -1.5781 0.6286 0 1
4.0775 -1.0423 -1.5715 0.6312 0 1
4.1021 -0.8745 -1.5662 0.6333 0 1
4.1232 -0.7070 -1.5621 0.6350 0 1
4.1407 -0.5396 -1.5592 0.6362 0 1
4.1546 -0.3722 -1.5576 0.6368 0 1
4.1651 -0.2047 -1.5572 0.6370 0 1
4.1731 -0.0371 -1.5584 0.6358 0 1
4.1798 0.1311 -1.5615 0.6346 0 1
4.1829 0.2999 -1.5660 0.6328 0 1
4.1825 0.4696 -1.5716 0.6305 0 1
4.1786 0.6403 -1.5785 0.6277 0 1
4.1691 0.8116 -1.5860 0.6155 0 1
4.1529 0.9834 -1.5936 0.6125 0 1
4.1329 1.1560 -1.6025 0.6092 0 1
4.1090 1.3297 -1.6127 0.6053 0 1
4.0811 1.5045 -1.6242 0.6010 0 1
4.0491 1.6806 -1.6370 0.5963 0 1
4.0128 1.8582 -1.6513 0.5912 0 1
3.9722 2.0372 -1.6670 0.5856 0 1
3.9272 2.2180 -1.6842 0.5792 0 1
3.8776 2.4007 -1.7030 0.5728 0 1
3.8232 2.5853 -1.7234 0.5661 0 1
3.7641 2.7724 -1.7457 0.5589 0 1
3.6999 2.9618 -1.7697 0.5513 0 1
3.6301 3.1537 -1.7956 0.5433 0 1
3.5546 3.3483 -1.8235 0.5350 0 1
3.4731 3.5457 -1.8533 0.5264 0 1
3.3851 3.7461 -1.8854 0.5175 0 1
3.2905 3.9498 -1.9196 0.5082 0 1
3.1895 4.1579 -1.9568 0.5023 0 1
3.0790 4.3669 -1.9952 0.4966 0 1
2.9589 4.5770 -2.0352 0.4874 0 1
2.8306 4.7907 -2.0778 0.4774 0 1
2.6933 5.0080 -2.1233 0.4671 0 1
2.5467 5.2294 -2.1720 0.4567 0 1
2.3901 5.4548 -2.2238 0.4460 0 1
2.2228 5.6846 -2.2792 0.4355 0 1
2.0439 5.9187 -2.3382 0.4246 0 1
1.8527 6.1575 -2.4011 0.4134 0 1
1.6485 6.4014 -2.4683 0.4022 0 1
1.4301 6.6506 -2.5402 0.3908 0 1
1.1944 6.8928 -2.6122 0.4025 0 1
0.9467 7.1664 -2.6993 0.3678 0 1
0.6794 7.4358 -2.7882 0.3561 0 1
0.3927 7.7119 -2.8834 0.3443 0 1
0.0852 7.9950 -2.9856 0.3325 0 1
-0.2450 8.2818 -3.0939 0.3235 0 1
-0.5996 8.5750 -3.2098 0.3118 0 1
-0.9806 8.8755 -3.3344 0.3001 0 1
-1.3900 9.1798 -3.4669 0.2959 0 1
-1.8288 9.4833 -3.6064 0.2845 0 1
-2.3007 9.7933 -3.7565 0.2731 0 1
-2.8103 10.1161 -3.9205 0.2545 0 1
-3.3642 10.4591 -4.1026 0.2432 0 1
-3.9470 10.7651 -4.2815 0.2305 0 24
-4.5942 11.1239 -4.4941 0.2189 0 24
-5.3156 11.5327 -4.7418 0.2072 0 1
-6.0767 11.9000 -4.9894 0.2007 0 1
-6.8948 12.2583 -5.2518 0.1907 0 1
-7.7566 12.5781 -5.5181 0.1773 0 24
-8.7238 12.9501 -5.8306 0.1718 0 24
-9.8098 13.3685 -6.1918 0.1644 0 1
-10.9696 13.7530 -6.5690 0.1522 0 1
-12.2533 14.1548 -6.9909 0.1304 0 1
-13.7557 14.6552 -7.5054 0.1176 0 1
-16.0078 15.7354 -8.3819 0.1010 0 1
-16.8136 15.2473 -8.4755 0.8545 0 2
-18.5570 15.5150 -9.0322 0.1032 0 2
-20.6670 15.9117 -9.7396 0.0957 0 2
-22.9999 16.2775 -10.5217 0.0886 0 25
-25.5761 16.5984 -11.3853 0.0819 0 25
-28.4152 16.8568 -12.3371 0.0756 0 25
-31.5335 17.0306 -13.3825 0.0697 0 25
-34.9411 17.0929 -14.5249 0.0642 0 25
-31.1204 13.7013 -12.6971 0.3687 0 5
-36.6165 14.3922 -14.6913 0.9986 0 21
-41.0584 -16.8724 -16.5757 0.0562 0 2
-37.1894 -17.0617 -15.2786 0.0610 0 2
-33.6024 -17.0842 -14.0761 0.0662 0 2
-30.3063 -16.9757 -12.9711 0.0719 0 2
-27.2965 -16.7666 -11.9621 0.0779 0 2
-24.6965 -16.5735 -11.1061 0.5888 0 2
-23.0845 -16.8768 -10.6780 0.7739 0 2
-20.5652 -16.3438 -9.8091 0.0718 0 1
-18.1388 -15.6462 -8.9449 0.0932 0 1
-16.1180 -15.0753 -8.2409 0.1150 0 1
-14.4237 -14.6217 -7.6694 0.1244 0 1
-12.9173 -14.1938 -7.1664 0.1335 0 1
-11.5472 -13.7618 -6.7082 0.1417 0 1
-10.3064 -13.3378 -6.2941 0.1509 0 1
-9.1990 -12.9495 -5.9314 0.1646 0 1
-8.1903 -12.5716 -5.6027 0.1743 0 1
-7.2663 -12.1996 -5.3023 0.1905 0 1
-6.4174 -11.8323 -5.0263 0.2009 0 1
-5.6366 -11.4710 -4.7726 0.2114 0 1
-4.9176 -11.1163 -4.5390 0.2221 0 1
-4.2535 -10.7660 -4.3225 0.2317 0 1
-3.6406 -10.4231 -4.1227 0.2429 0 1
-3.0743 -10.0881 -3.9380 0.2540 0 1
-2.5504 -9.7610 -3.7672 0.2655 0 1
-2.0653 -9.4423 -3.6092 0.2772 0 1
-1.6146 -9.1262 -3.4608 0.2851 0 1
-1.1964 -8.8168 -3.3225 0.2970 0 1
-0.8083 -8.5146 -3.1937 0.3086 0 1
-0.4477 -8.2203 -3.0741 0.3206 0 1
-0.1122 -7.9112 -2.9544 0.3388 0 24
0.1996 -7.6593 -2.8610 0.3496 0 1
0.4906 -7.3913 -2.7661 0.3617 0 1
0.7623 -7.1298 -2.6775 0.3735 0 1
1.0161 -6.8746 -2.5949 0.3854 0 1
1.2532 -6.6244 -2.5175 0.3974 0 1
1.4748 -6.3788 -2.4447 0.4092 0 1
1.6820 -6.1385 -2.3767 0.4199 0 1
1.8688 -5.8811 -2.3043 0.4289 0 24
2.0570 -5.6721 -2.2530 0.4426 0 1
2.2268 -5.4462 -2.1971 0.4539 0 1
2.3859 -5.2249 -2.1448 0.4650 0 1
2.5350 -5.0079 -2.0959 0.4758 0 1
2.6685 -4.7838 -2.0455 0.4704 0 1
2.7909 -4.5616 -1.9969 0.4818 0 1
2.9046 -4.3447 -1.9515 0.4930 0 1
3.0102 -4.1327 -1.9092 0.5039 0 1
3.1083 -3.9254 -1.8697 0.5146 0 1
3.2049 -3.7288 -1.8360 0.5456 0 1
3.2961 -3.5366 -1.8052 0.5549 0 1
3.3813 -3.3473 -1.7766 0.5552 0 1
3.4623 -3.1621 -1.7509 0.5634 0 1
3.5378 -2.9791 -1.7270 0.5712 0 1
3.6080 -2.7982 -1.7050 0.5786 0 1
3.6733 -2.6192 -1.6846 0.5856 0 1
3.7337 -2.4419 -1.6659 0.5921 0 1
3.7904 -2.2667 -1.6491 0.5982 0 1
3.8426 -2.0929 -1.6339 0.6039 0 1
3.8906 -1.9203 -1.6201 0.6090 0 1
3.9344 -1.7488 -1.6077 0.6137 0 1
3.9746 -1.5784 -1.5969 0.6212 0 1
4.0111 -1.4090 -1.5875 0.6248 0 1
4.0438 -1.2401 -1.5794 0.6280 0 1
4.0728 -1.0718 -1.5726 0.6308 0 1
4.0981 -0.9040 -1.5670 0.6330 0 1
4.1197 -0.7364 -1.5627 0.6347 0 1
4.1378 -0.5690 -1.5597 0.6360 0 1
4.1524 -0.4016 -1.5578 0.6368 0 1
4.1635 -0.2341 -1.5571 0.6370 0 1
4.1716 -0.0665 -1.5579 0.6360 0 1
4.1789 0.1015 -1.5609 0.6348 0 1
4.1826 0.2702 -1.5651 0.6331 0 1
4.1829 0.4398 -1.5705 0.6309 0 1
4.1795 0.6102 -1.5772 0.6282 0 1
4.1716 0.7816 -1.5848 0.6160 0 1
4.1561 0.9532 -1.5922 0.6131 0 1
4.1367 1.1256 -1.6009 0.6098 0 1
4.1135 1.2991 -1.6108 0.6060 0 1
4.0863 1.4737 -1.6221 0.6018 0 1
4.0550 1.6496 -1.6347 0.5972 0 1
4.0195 1.8269 -1.6487 0.5921 0 1
3.9796 2.0057 -1.6641 0.5866 0 1
3.9354 2.1861 -1.6810 0.5803 0 1
3.8867 2.3685 -1.6996 0.5740 0 1
3.8331 2.5528 -1.7197 0.5673 0 1
3.7748 2.7394 -1.7416 0.5602 0 1
3.7115 2.9284 -1.7654 0.5526 0 1
3.6428 3.1198 -1.7909 0.5447 0 1
3.5683 3.3139 -1.8184 0.5365 0 1
3.4878 3.5108 -1.8480 0.5279 0 1
3.4010 3.7107 -1.8796 0.5191 0 1
3.3076 3.9138 -1.9134 0.5099 0 1
3.2078 4.1211 -1.9501 0.5041 0 1
3.0992 4.3304 -1.9885 0.4983 0 1
2.9806 4.5399 -2.0280 0.4891 0 1
2.8537 4.7529 -2.0701 0.4791 0 1
2.7181 4.9696 -2.1151 0.4689 0 1
2.5732 5.1902 -2.1632 0.4585 0 1
2.4184 5.4150 -2.2145 0.4479 0 1
2.2530 5.6440 -2.2693 0.4371 0 1
2.0761 5.8773 -2.3275 0.4265 0 1
1.8872 6.1152 -2.3898 0.4154 0 1
1.6853 6.3582 -2.4562 0.4042 0 1
1.4695 6.6065 -2.5272 0.3928 0 1
1.2369 6.8503 -2.5993 0.4045 0 1
0.9917 7.1192 -2.6840 0.3706 0 1
0.7277 7.3880 -2.7721 0.3581 0 1
0.4445 7.6629 -2.8662 0.3464 0 1
0.1407 7.9448 -2.9671 0.3346 0 1
-0.1854 8.2311 -3.0744 0.3255 0 1
-0.5355 8.5230 -3.1889 0.3138 0 1
-0.9118 8.8222 -3.3118 0.3022 0 1
-1.3162 9.1273 -3.4435 0.2980 0 1
-1.7495 9.4295 -3.5812 0.2865 0 1
-2.2153 9.7384 -3.7293 0.2751 0 1
-2.7175 10.0568 -3.8900 0.2565 0 1
-3.2638 10.3983 -4.0696 0.2452 0 1
-3.8388 10.7032 -4.2460 0.2319 0 24
-4.4920 11.0980 -4.4707 0.2208 0 1
-5.1875 11.4669 -4.6997 0.2101 0 1
-5.9232 11.8046 -4.9318 0.1979 0 24
-6.7455 12.1935 -5.2035 0.1866 0 24
-7.5939 12.5111 -5.4650 0.1784 0 24
-8.5487 12.8856 -5.7742 0.1730 0 24
-9.6195 13.3051 -6.1308 0.1660 0 1
-10.7574 13.6840 -6.4997 0.1539 0 1
-12.0176 14.0823 -6.9130 0.1395 0 1
-13.4798 14.5660 -7.4108 0.1191 0 1
-15.5907 15.5433 -8.2207 0.0527 0 1
-16.7716 15.4265 -8.5091 0.8207 0 2
-18.2081 15.4430 -8.9152 0.1046 0 2
-20.2812 15.8440 -9.6102 0.0970 0 2
-22.5734 16.2161 -10.3787 0.0898 0 2
-25.1055 16.5461 -11.2276 0.0830 0 25
-24.8666 14.9900 -10.8421 0.9109 0 21
-30.9655 17.0074 -13.1921 0.0707 0 25
-34.3219 17.0914 -14.3173 0.0651 0 25
-30.5471 13.7073 -12.5024 0.4076 0 5
-41.8139 16.7768 -16.8237 0.8460 0 3
-44.8421 8.1786 -17.0207 0.9975 0 6
-32.7089 -4.6577 -12.3371 0.9915 0 20
-25.3705 -4.6607 -9.6321 0.8450 0 20
-41.7648 -16.8190 -16.8125 0.0555 0 2
-37.8485 -17.0416 -15.4996 0.0602 0 2
-34.2109 -17.0907 -14.2801 0.0653 0 2
-30.8638 -17.0028 -13.1580 0.0709 0 2
-27.8045 -16.8094 -12.1324 0.0768 0 2
-25.0448 -16.5520 -11.2099 0.4610 0 2
-23.3374 -16.8102 -10.7398 0.7338 0 2
-21.0228 -16.4666 -9.9716 0.0716 0 1
-18.5014 -15.7325 -9.0687 0.0920 0 1
-16.4340 -15.1548 -8.3476 0.1135 0 1
-14.7079 -14.7007 -7.7651 0.1220 0 1
-13.1711 -14.2689 -7.2511 0.1319 0 1
-11.7787 -13.8381 -6.7857 0.1401 0 1
-10.5154 -13.4114 -6.3638 0.1492 0 1
-9.3853 -13.0161 -5.9921 0.1630 0 1
-8.3611 -12.6377 -5.6584 0.1726 0 1
-7.4229 -12.2646 -5.3532 0.1886 0 1
-6.5612 -11.8963 -5.0731 0.1991 0 1
-5.7484 -11.4928 -4.7984 0.2095 0 24
-5.0396 -11.1780 -4.5786 0.2202 0 1
-4.3663 -10.8271 -4.3593 0.2298 0 1
-3.7447 -10.4827 -4.1566 0.2410 0 1
-3.1705 -10.1464 -3.9694 0.2520 0 1
-2.6394 -9.8178 -3.7962 0.2635 0 1
-2.1478 -9.4976 -3.6361 0.2751 0 1
-1.6913 -9.1815 -3.4861 0.2830 0 1
-1.2676 -8.8705 -3.3460 0.2949 0 1
-0.8743 -8.5671 -3.2157 0.3065 0 1
-0.5091 -8.2714 -3.0945 0.3185 0 1
-0.1696 -7.9837 -2.9819 0.3305 0 1
0.1464 -7.7070 -2.8784 0.3475 0 1
0.4410 -7.4379 -2.7823 0.3595 0 1
0.7160 -7.1753 -2.6926 0.3714 0 1
0.9728 -6.9189 -2.6090 0.3833 0 1
1.2128 -6.6681 -2.5308 0.3953 0 1
1.4370 -6.4215 -2.4572 0.4072 0 1
1.6466 -6.1804 -2.3883 0.4178 0 1
1.8360 -5.9225 -2.3153 0.4277 0 24
2.0174 -5.6880 -2.2536 0.4376 0 24
2.1978 -5.4855 -2.2066 0.4519 0 1
2.3587 -5.2634 -2.1537 0.4630 0 1
3.8281 -1.8559 -1.6425 0.6185 0 1
3.8712 -1.6881 -1.6306 0.6264 0 1
3.9107 -1.5212 -1.6201 0.6304 0 1
3.9463 -1.3550 -1.6109 0.6340 0 1
3.9781 -1.1893 -1.6031 0.6371 0 1
4.0062 -1.0241 -1.5965 0.6397 0 1
4.0307 -0.8593 -1.5912 0.6419 0 1
4.0515 -0.6947 -1.5871 0.6435 0 1
4.0689 -0.5302 -1.5842 0.6447 0 1
4.0826 -0.3658 -1.5826 0.6453 0 1
4.0929 -0.2012 -1.5822 0.6455 0 1
4.1007 -0.0364 -1.5833 0.6444 0 1
4.1071 0.1288 -1.5865 0.6431 0 1
4.1100 0.2947 -1.5909 0.6413 0 1
4.1094 0.4614 -1.5966 0.6390 0 1
4.1052 0.6290 -1.6035 0.6363 0 1
4.0940 0.7970 -1.6103 0.6241 0 1
4.0778 0.9656 -1.6179 0.6212 0 1
4.0577 1.1350 -1.6268 0.6178 0 1
4.0338 1.3053 -1.6369 0.6140 0 1
4.0058 1.4768 -1.6484 0.6098 0 1
3.9738 1.6494 -1.6612 0.6051 0 1
3.9376 1.8233 -1.6753 0.5999 0 1
3.8971 1.9987 -1.6910 0.5944 0 1
3.8521 2.1756 -1.7081 0.5881 0 1
3.8027 2.3543 -1.7268 0.5817 0 1
3.7484 2.5348 -1.7471 0.5749 0 1
3.6896 2.7175 -1.7692 0.5678 0 1
3.6257 2.9024 -1.7931 0.5602 0 1
3.5563 3.0895 -1.8188 0.5523 0 1
3.4812 3.2791 -1.8464 0.5440 0 1
3.4002 3.4713 -1.8761 0.5354 0 1
3.3129 3.6662 -1.9078 0.5265 0 1
3.2196 3.8647 -1.9421 0.5212 0 1
3.1196 4.0668 -1.9789 0.5114 0 1
3.0106 4.2698 -2.0171 0.5058 0 1
2.8919 4.4734 -2.0566 0.4966 0 1
2.7651 4.6800 -2.0987 0.4866 0 1
2.6298 4.8898 -2.1436 0.4764 0 1
2.4853 5.1032 -2.1915 0.4660 0 1
2.3311 5.3201 -2.2426 0.4554 0 1
2.1666 5.5409 -2.2970 0.4446 0 1
1.9795 5.7324 -2.3415 0.4338 0 24
1.7944 5.9636 -2.4045 0.4228 0 24
1.6034 6.2265 -2.4824 0.4117 0 1
1.3899 6.4638 -2.5527 0.4004 0 1
1.1618 6.7048 -2.6272 0.4120 0 1
0.9186 6.9531 -2.7079 0.3775 0 1
0.6585 7.2074 -2.7943 0.3658 0 1
0.3803 7.4672 -2.8867 0.3541 0 1
0.0824 7.7327 -2.9857 0.3424 0 1
-0.2368 8.0025 -3.0910 0.3334 0 1
-0.5786 8.2753 -3.2028 0.3217 0 1
-0.9451 8.5537 -3.3226 0.3101 0 1
-1.3380 8.8366 -3.4506 0.2994 0 1
-1.7589 9.1208 -3.5864 0.2946 0 1
-2.2092 9.4041 -3.7297 0.2832 0 1
-2.6924 9.6917 -3.8836 0.2720 0 1
-3.2150 9.9954 -4.0538 0.2534 0 1
-3.7782 10.3045 -4.2375 0.2441 0 1
-4.3839 10.6149 -4.4341 0.2292 0 1
-5.0422 10.9395 -4.6507 0.2186 0 1
-5.7328 11.2265 -4.8669 0.2073 0 24
-6.5010 11.5581 -5.1199 0.1960 0 24
-7.3239 11.8765 -5.3872 0.1914 0 1
-8.2080 12.1844 -5.6721 0.1782 0 1
-9.1769 12.5060 -5.9889 0.1688 0 1
-10.2057 12.7952 -6.3191 0.1605 0 1
-11.3496 13.1109 -6.6952 0.1538 0 1
-12.5858 13.4088 -7.1003 0.1418 0 1
-13.9970 13.7588 -7.5778 0.1259 0 1
-15.8953 14.4146 -8.2847 0.0555 0 1
-16.9893 14.2043 -8.5499 0.9236 0 2
-18.4915 14.2368 -9.0103 0.1065 0 2
-20.4063 14.4420 -9.6522 0.0995 0 2
-22.4839 14.5917 -10.3487 0.0928 0 2
-24.7298 14.6705 -11.1016 0.0865 0 25
-27.1454 14.6607 -11.9114 0.0806 0 25
-29.7256 14.5415 -12.7764 0.0751 0 25
-32.4572 14.2899 -13.6922 0.0701 0 25
-35.3158 13.8809 -14.6505 0.0655 0 2
-38.2628 13.2887 -15.6385 0.0614 0 2
-41.2429 12.4890 -16.6376 0.0577 0 2
-44.1828 11.4611 -17.6232 0.0545 0 2
-42.1528 -13.4765 -17.0863 0.0612 0 1
-38.9310 -14.1962 -15.9990 0.0628 0 1
-35.7886 -14.7068 -14.9388 0.0683 0 1
-32.8893 -15.0889 -13.9708 0.0767 0 1
-29.9800 -15.2425 -12.9851 0.0762 0 1
-27.2394 -15.2578 -12.0544 0.0717 0 1
-24.7030 -15.1736 -11.1932 0.0723 0 1
-22.2134 -14.9071 -10.3286 0.0703 0 1
-19.9180 -14.5619 -9.5262 0.1036 0 1
-18.0223 -14.3229 -8.8880 0.1151 0 1
-16.2999 -14.0599 -8.3110 0.1200 0 1
-14.7031 -13.7519 -7.7728 0.1284 0 1
-13.2289 -13.4105 -7.2729 0.1351 0 1
-11.9100 -13.0869 -6.8319 0.1433 0 1
-10.6974 -12.7490 -6.4255 0.1524 0 1
-9.5674 -12.3813 -6.0412 0.1666 0 24
-8.6189 -12.1328 -5.7460 0.1830 0 1
-7.6803 -11.7887 -5.4322 0.1940 0 24
-6.8600 -11.5174 -5.1758 0.2009 0 1
-6.0760 -11.2028 -4.9205 0.2111 0 1
-5.3510 -10.8897 -4.6846 0.2216 0 1
-4.6790 -10.5769 -4.4654 0.2309 0 1
-4.0562 -10.2665 -4.2619 0.2420 0 1
-3.4792 -9.9611 -4.0737 0.2528 0 1
-2.9437 -9.6595 -3.8988 0.2642 0 1
-2.4465 -9.3635 -3.7365 0.2757 0 1
-1.9754 -9.0312 -3.5693 0.2837 0 24
-1.5533 -8.7795 -3.4423 0.2951 0 1
-1.1527 -8.4947 -3.3098 0.3070 0 1
-0.7798 -8.2150 -3.1860 0.3185 0 1
-0.4326 -7.9418 -3.0708 0.3354 0 1
-0.1086 -7.6568 -2.9565 0.3483 0 24
0.1933 -7.4204 -2.8659 0.3594 0 1
0.4758 -7.1682 -2.7737 0.3712 0 1
0.7400 -6.9213 -2.6875 0.3832 0 1
0.9873 -6.6795 -2.6069 0.3950 0 1
1.2188 -6.4421 -2.5314 0.4069 0 1
1.4353 -6.2083 -2.4602 0.4187 0 1
1.6381 -5.9785 -2.3933 0.4293 0 1
1.8212 -5.7312 -2.3218 0.4393 0 24
1.9971 -5.5068 -2.2616 0.4489 0 24
2.1730 -5.3146 -2.2168 0.4632 0 1
2.3296 -5.1016 -2.1653 0.4742 0 1
2.4765 -4.8923 -2.1171 0.4850 0 1
2.6067 -4.6730 -2.0659 0.4795 0 1
2.7277 -4.4584 -2.0179 0.4909 0 1
2.8403 -4.2485 -1.9731 0.5021 0 1
2.9450 -4.0432 -1.9312 0.5129 0 1
3.0439 -3.8441 -1.8931 0.5448 0 1
3.1407 -3.6541 -1.8603 0.5544 0 1
3.2311 -3.4669 -1.8297 0.5637 0 1
3.3156 -3.2823 -1.8013 0.5726 0 1
3.3946 -3.1003 -1.7750 0.5722 0 1
3.4696 -2.9217 -1.7513 0.5800 0 1
3.5394 -2.7449 -1.7293 0.5873 0 1
3.6042 -2.5699 -1.7091 0.5943 0 1
3.6642 -2.3964 -1.6904 0.6008 0 1
3.7205 -2.2249 -1.6737 0.6069 0 1
3.7724 -2.0547 -1.6585 0.6126 0 1
3.8201 -1.8855 -1.6448 0.6177 0 1
3.8639 -1.7175 -1.6325 0.6256 0 1
3.9041 -1.5504 -1.6218 0.6297 0 1
3.9403 -1.3841 -1.6125 0.6334 0 1
3.9728 -1.2184 -1.6044 0.6366 0 1
4.0016 -1.0531 -1.5976 0.6393 0 1
4.0267 -0.8882 -1.5920 0.6415 0 1
4.0481 -0.7236 -1.5877 0.6433 0 1
4.0661 -0.5591 -1.5846 0.6445 0 1
4.0805 -0.3946 -1.5828 0.6453 0 1
4.0914 -0.2301 -1.5821 0.6455 0 1
4.0993 -0.0654 -1.5829 0.6445 0 1
4.1063 0.0997 -1.5859 0.6433 0 1
4.1098 0.2655 -1.5901 0.6416 0 1
4.1098 0.4321 -1.5955 0.6394 0 1
4.1062 0.5995 -1.6022 0.6368 0 1
4.0965 0.7675 -1.6091 0.6246 0 1
4.0809 0.9359 -1.6165 0.6218 0 1
4.0615 1.1052 -1.6251 0.6185 0 1
4.0383 1.2754 -1.6350 0.6147 0 1
4.0110 1.4466 -1.6463 0.6105 0 1
3.9797 1.6190 -1.6588 0.6059 0 1
3.9443 1.7927 -1.6728 0.6009 0 1
3.9045 1.9678 -1.6881 0.5954 0 1
3.8603 2.1444 -1.7049 0.5891 0 1
3.8117 2.3228 -1.7234 0.5828 0 1
3.7583 2.5030 -1.7434 0.5761 0 1
3.7003 2.6852 -1.7652 0.5691 0 1
3.6373 2.8698 -1.7888 0.5616 0 1
3.5689 3.0565 -1.8142 0.5537 0 1
3.4948 3.2457 -1.8415 0.5455 0 1
3.4148 3.4374 -1.8707 0.5370 0 1
3.3287 3.6318 -1.9020 0.5281 0 1
3.2364 3.8296 -1.9358 0.5228 0 1
3.1377 4.0311 -1.9723 0.5132 0 1
3.0306 4.2344 -2.0104 0.5074 0 1
2.9133 4.4375 -2.0495 0.4983 0 1
2.7880 4.6435 -2.0911 0.4884 0 1
2.6542 4.8527 -2.1355 0.4782 0 1
2.5113 5.0655 -2.1829 0.4679 0 1
2.3589 5.2818 -2.2334 0.4573 0 1
2.1962 5.5019 -2.2872 0.4465 0 1
2.0108 5.6923 -2.3308 0.4362 0 24
1.8278 5.9227 -2.3931 0.4245 0 24
1.6395 6.1854 -2.4706 0.4137 0 1
1.4284 6.4218 -2.5400 0.4024 0 1
1.2031 6.6629 -2.6141 0.3910 0 1
0.9624 6.9091 -2.6933 0.3795 0 1
0.7054 7.1624 -2.7787 0.3679 0 1
0.4305 7.4212 -2.8701 0.3562 0 1
0.1361 7.6857 -2.9678 0.3444 0 1
-0.1792 7.9552 -3.0722 0.3354 0 1
-0.5169 8.2270 -3.1826 0.3238 0 1
-0.8789 8.5044 -3.3010 0.3122 0 1
-1.2671 8.7872 -3.4277 0.3014 0 1
-1.6830 9.0710 -3.5620 0.2901 0 1
-2.1279 9.3541 -3.7038 0.2852 0 1
-2.6051 9.6409 -3.8558 0.2740 0 1
-3.1202 9.9408 -4.0227 0.2554 0 1
-3.6765 10.2507 -4.2045 0.2460 0 1
-4.2740 10.5593 -4.3982 0.2352 0 1
-4.9054 10.8434 -4.5950 0.2203 0 24
-5.6043 11.1689 -4.8246 0.2092 0 24
-6.3717 11.5179 -5.0821 0.2029 0 1
-7.1763 11.8232 -5.3399 0.1931 0 1
-8.0458 12.1276 -5.6191 0.1799 0 1
-9.0012 12.4499 -5.9315 0.1704 0 1
-10.0197 12.7456 -6.2595 0.1674 0 1
-11.1433 13.0577 -6.6277 0.1554 0 1
-12.3591 13.3550 -7.0254 0.1466 0 1
-13.7384 13.6967 -7.4900 0.1274 0 1
-15.5007 14.2575 -8.1313 0.0566 0 1
-16.9314 14.3602 -8.5716 0.9212 0 2
-18.1717 14.1960 -8.9030 0.1078 0 2
-20.0587 14.4096 -9.5356 0.1007 0 2
-22.1072 14.5700 -10.2224 0.0939 0 2
-24.3234 14.6625 -10.9654 0.0875 0 25
-26.7093 14.6697 -11.7652 0.0816 0 25
-29.2613 14.5713 -12.6208 0.0761 0 25
-31.9678 14.3447 -13.5281 0.0710 0 25
-34.8064 13.9652 -14.4798 0.0663 0 2
-37.7414 13.4070 -15.4637 0.0621 0 2
-40.7205 12.6453 -16.4624 0.0583 0 2
-43.6736 11.6587 -17.4524 0.0550 0 2
-44.5780 8.1304 -17.4951 0.9735 0 6
-32.5848 -4.6401 -12.7076 0.9911 0 20
-25.2726 -4.6427 -9.9208 0.9856 0 20
-42.7169 -13.3251 -17.2764 0.0599 0 1
-39.4996 -14.0884 -16.1915 0.0621 0 1
-36.3208 -14.6266 -15.1175 0.0675 0 1
-33.3658 -15.0233 -14.1278 0.0738 0 1
-30.4790 -15.2263 -13.1544 0.0706 0 1
-27.7228 -15.2724 -12.2202 0.0708 0 1
-25.1516 -15.2056 -11.3475 0.0713 0 1
-22.6568 -14.9737 -10.4853 0.0693 0 1
-20.2947 -14.6185 -9.6567 0.0774 0 1
-18.3384 -14.3640 -8.9937 0.1138 0 1
-16.5968 -14.1129 -8.4114 0.1185 0 1
-14.9727 -13.8072 -7.8636 0.1269 0 1
-13.4783 -13.4717 -7.3575 0.1336 0 1
-12.0850 -13.0924 -6.8791 0.1385 0 24
-10.9026 -12.8088 -6.4943 0.1507 0 1
-9.7837 -12.4782 -6.1220 0.1642 0 1
-8.7859 -12.1849 -5.7999 0.1813 0 1
-7.8640 -11.8864 -5.5027 0.1911 0 1
-6.9818 -11.5358 -5.2061 0.1989 0 24
-6.2092 -11.2580 -4.9639 0.2092 0 1
-5.4742 -10.9445 -4.7247 0.2197 0 1
-4.7933 -10.6319 -4.5028 0.2290 0 1
-4.1621 -10.3206 -4.2965 0.2400 0 1
-3.5774 -10.0145 -4.1058 0.2517 0 1
-3.0348 -9.7120 -3.9285 0.2622 0 1
-2.5312 -9.4150 -3.7641 0.2736 0 1
-2.0630 -9.1226 -3.6111 0.2813 0 1
-1.6266 -8.8301 -3.4666 0.2931 0 1
-1.2209 -8.5442 -3.3323 0.3049 0 1
-0.8434 -8.2636 -3.2071 0.3165 0 1
-0.4917 -7.9890 -3.0903 0.3284 0 1
-0.1641 -7.7240 -2.9829 0.3453 0 1
0.1418 -7.4653 -2.8828 0.3573 0 1
0.4276 -7.2121 -2.7894 0.3691 0 1
0.6949 -6.9642 -2.7022 0.3811 0 1
0.9450 -6.7216 -2.6207 0.3929 0 1
1.1793 -6.4837 -2.5444 0.4048 0 1
1.3983 -6.2490 -2.4723 0.4166 0 1
1.6035 -6.0185 -2.4048 0.4273 0 1
1.7890 -5.7709 -2.3327 0.4373 0 24
1.9671 -5.5460 -2.2720 0.4475 0 24
2.1445 -5.3524 -2.2262 0.4612 0 1
2.3028 -5.1387 -2.1741 0.4723 0 1
3.7596 -1.8228 -1.6666 0.6304 0 1
3.8028 -1.6582 -1.6548 0.6349 0 1
3.8420 -1.4945 -1.6443 0.6389 0 1
3.8774 -1.3313 -1.6352 0.6425 0 1
3.9090 -1.1686 -1.6274 0.6455 0 1
3.9368 -1.0064 -1.6208 0.6482 0 1
3.9611 -0.8445 -1.6155 0.6503 0 1
3.9818 -0.6827 -1.6114 0.6519 0 1
3.9989 -0.5211 -1.6086 0.6531 0 1
4.0125 -0.3595 -1.6069 0.6538 0 1
4.0227 -0.1977 -1.6065 0.6539 0 1
4.0302 -0.0358 -1.6076 0.6528 0 1
4.0364 0.1266 -1.6108 0.6515 0 1
4.0390 0.2896 -1.6152 0.6497 0 1
4.0381 0.4534 -1.6209 0.6475 0 1
4.0335 0.6180 -1.6277 0.6352 0 1
4.0210 0.7828 -1.6340 0.6327 0 1
4.0047 0.9482 -1.6416 0.6298 0 1
3.9846 1.1145 -1.6504 0.6265 0 1
3.9606 1.2817 -1.6605 0.6226 0 1
3.9327 1.4498 -1.6719 0.6184 0 1
3.9007 1.6191 -1.6846 0.6137 0 1
3.8645 1.7895 -1.6987 0.6086 0 1
3.8241 1.9613 -1.7143 0.6031 0 1
3.7792 2.1344 -1.7313 0.5972 0 1
3.7299 2.3093 -1.7499 0.5904 0 1
3.6759 2.4857 -1.7700 0.5837 0 1
3.6174 2.6643 -1.7920 0.5766 0 1
3.5537 2.8448 -1.8158 0.5691 0 1
3.4847 3.0274 -1.8413 0.5612 0 1
3.4101 3.2122 -1.8687 0.5529 0 1
3.3297 3.3993 -1.8980 0.5444 0 1
3.2435 3.5894 -1.9297 0.5395 0 1
3.1512 3.7826 -1.9638 0.5301 0 1
3.0522 3.9788 -2.0002 0.5205 0 1
2.9445 4.1762 -2.0382 0.5149 0 1
2.8273 4.3735 -2.0773 0.5052 0 1
2.7021 4.5733 -2.1188 0.4958 0 1
2.5686 4.7761 -2.1631 0.4856 0 1
2.4262 4.9819 -2.2103 0.4753 0 1
2.2744 5.1908 -2.2606 0.4647 0 1
2.1127 5.4031 -2.3141 0.4540 0 1
1.9292 5.5867 -2.3576 0.4436 0 24
1.7476 5.8080 -2.4193 0.4319 0 24
1.5537 6.0335 -2.4852 0.4207 0 24
1.3516 6.2857 -2.5645 0.4100 0 1
1.1290 6.5157 -2.6377 0.3986 0 1
0.8918 6.7505 -2.7160 0.3871 0 1
0.6387 6.9908 -2.8001 0.3755 0 1
0.3685 7.2356 -2.8899 0.3639 0 1
0.0797 7.4849 -2.9858 0.3522 0 1
-0.2290 7.7389 -3.0882 0.3405 0 1
-0.5589 7.9935 -3.1962 0.3316 0 1
-0.9117 8.2519 -3.3115 0.3201 0 1
-1.2891 8.5138 -3.4347 0.3094 0 1
-1.6923 8.7755 -3.5649 0.2982 0 1
-2.1237 9.0402 -3.7041 0.2870 0 1
-2.5845 9.3034 -3.8514 0.2821 0 1
-3.0774 9.5675 -4.0089 0.2636 0 1
-3.6103 9.8468 -4.1834 0.2543 0 1
-4.1802 10.1215 -4.3680 0.2436 0 1
-4.7936 10.4001 -4.5678 0.2289 0 1
-5.4567 10.6859 -4.7860 0.2185 0 1
-6.1611 10.9539 -5.0130 0.2131 0 1
-6.9120 11.2086 -5.2526 0.1961 0 24
