ply
format ascii 1.0
element vertex 1406
property float32 x
property float32 y
property float32 z
property float32 CosAngle
property uint32 ObjIdx
property uint32 ObjTag
end_header
8.2258 14.6810 2.9673 0.8557 0 3
7.4644 14.6760 2.9033 0.8746 0 3
7.2708 15.8406 3.0733 0.4507 0 3
7.1745 17.4484 3.3266 0.4164 0 3
6.9718 19.1048 3.5860 0.9226 0 3
6.3727 19.9145 3.6869 0.9356 0 3
3.4466 12.4775 2.2825 0.3821 0 9
2.9629 12.6940 2.2985 0.3523 0 9
4.5569 23.8098 4.2745 0.8815 0 3
2.1784 14.5219 2.5893 0.1430 0 9
1.5985 14.6476 2.5981 0.1539 0 9
1.0956 15.9706 2.8227 0.9498 0 9
0.4234 14.9609 2.6391 0.1367 0 9
-0.1712 14.3734 2.5346 0.3275 0 9
-0.8739 16.7554 2.9584 0.2943 0 9
-1.3910 15.0252 2.6607 0.1326 0 9
-2.0373 15.2839 2.7188 0.2798 0 9
1.9720 -17.8825 2.9671 0.6573 0 22
7.1354 -47.2005 7.8729 0.8228 0 3
3.7153 -19.2937 3.2404 0.5569 0 22
7.2010 -30.6936 5.1995 0.2589 0 3
7.8087 -28.1447 4.8171 0.8049 0 3
9.2003 -28.6384 4.9609 0.9416 0 3
7.2552 -19.8114 3.4796 0.3609 0 9
7.2969 -17.6888 3.1558 0.1468 0 9
13.1347 -28.5304 5.1800 0.8991 0 3
10.3065 -20.2071 3.7411 0.0498 0 9
9.0691 -16.1430 3.0537 0.1905 0 9
10.1169 -16.4251 3.1815 0.1633 0 9
19.9154 -29.5995 5.8837 0.8225 0 3
20.1386 -27.4784 5.6186 0.6479 0 3
22.5856 -28.3526 5.9783 0.7960 0 3
24.7029 -28.5742 6.2295 0.7509 0 3
25.2597 -26.9483 6.0916 0.7110 0 3
26.8995 -26.4795 6.2251 0.6969 0 3
24.9962 -22.7016 5.5689 0.0779 0 2
21.8458 -18.2934 4.6992 0.9589 0 9
22.1380 -17.0726 4.6107 0.0941 0 2
5.9220 -4.1985 1.1972 0.9296 14 6
21.5874 -14.0362 4.2467 0.1296 0 1
21.0899 -12.5365 4.0463 0.1275 0 1
20.5357 -11.1153 3.8511 0.1196 0 1
8.4963 -4.1663 1.5606 0.7232 0 9
8.7309 -3.8541 1.5740 0.3709 0 9
18.7408 -7.3879 3.3223 0.1283 0 1
18.3378 -6.3901 3.2027 0.1332 0 1
17.3085 -5.2615 2.9835 0.1458 0 25
17.1043 -4.4569 2.9151 0.1492 0 25
16.9367 -3.6933 2.8589 0.1521 0 25
16.8022 -2.9621 2.8138 0.1546 0 25
16.6982 -2.2561 2.7789 0.1565 0 2
17.2899 -1.6317 2.8642 0.1532 0 24
17.3613 -0.9366 2.8674 0.1571 0 1
17.3970 -0.2382 2.8694 0.1570 0 1
17.5513 0.4654 2.8956 0.1557 0 1
17.7737 1.1875 2.9378 0.1553 0 1
18.0210 1.9341 2.9891 0.1526 0 1
18.2882 2.7101 3.0491 0.1502 0 1
18.5783 3.5213 3.1185 0.1488 0 1
18.8779 4.3708 3.1957 0.1560 0 1
18.9648 5.2022 3.2433 0.1553 0 1
19.0849 6.0697 3.3029 0.1534 0 1
18.9474 6.8761 3.3243 0.1707 0 1
18.7675 7.6778 3.3442 0.1697 0 1
12.7299 5.8156 2.3082 0.7799 0 14
11.6143 5.8812 2.1470 0.4256 0 14
10.9499 6.1096 2.0680 0.4183 0 14
10.8666 6.6495 2.1011 0.3593 0 14
20.5399 13.7329 4.0749 0.1064 0 2
20.4967 14.9300 4.1821 0.5755 0 3
18.6185 14.7428 3.9167 0.6072 0 3
17.0282 14.6346 3.7030 0.7655 0 3
15.7895 14.7137 3.5594 0.6623 0 0
14.5518 14.6966 3.4109 0.6911 0 0
13.4116 14.6808 3.2794 0.7188 0 0
12.2460 14.5376 3.1349 0.7502 0 3
11.4063 14.7015 3.0688 0.7753 0 3
10.4707 14.6778 2.9735 0.6004 0 3
5.9654 9.1163 1.7968 0.9171 22 6
8.7870 14.6843 2.8222 0.8431 0 3
8.0009 14.6791 2.7572 0.8630 0 3
7.3855 14.9505 2.7501 0.4720 0 3
7.3037 16.4153 2.9631 0.4381 0 3
7.2065 18.1253 3.2169 0.4035 0 3
6.9501 19.7589 3.4544 0.3684 0 3
6.8051 22.1539 3.8222 0.3328 0 3
3.3703 12.7811 2.1800 0.4281 0 9
6.4351 29.1020 4.9155 0.9617 0 3
2.5556 14.2529 2.3881 0.3502 0 9
1.8863 13.6605 2.2743 0.0223 0 9
2.4354 25.0244 4.1466 0.2634 0 9
0.7680 13.5030 2.2306 0.1085 0 9
0.3937 23.6962 3.9086 0.1763 0 9
-0.3702 15.6922 2.5887 0.8039 0 9
-0.9852 15.4224 2.5487 0.2035 0 9
-1.6710 16.0101 2.6548 0.1336 0 9
3.8307 -38.9021 6.4469 0.9855 0 6
2.5560 -18.3562 3.0566 0.5752 0 22
3.4386 -19.0523 3.1929 0.6352 0 22
7.7977 -35.0747 5.9258 0.9622 0 3
7.3384 -27.7015 4.7262 0.2849 0 3
8.6834 -28.1545 4.8592 0.9449 0 3
9.0366 -25.5978 4.4770 0.9328 0 3
7.0634 -17.7067 3.1440 0.5841 0 9
12.3070 -27.5759 4.9803 0.9039 0 3
14.1902 -28.6433 5.2719 0.8872 0 3
15.6491 -28.6338 5.3816 0.8692 0 3
9.8879 -16.4814 3.1698 0.6716 0 9
11.4077 -17.3900 3.4300 0.2052 0 9
21.1603 -29.5913 5.9997 0.8066 0 3
22.4723 -28.8966 6.0372 0.6192 0 3
24.1287 -28.5780 6.1684 0.7583 0 3
25.2724 -27.6011 6.1720 0.7846 0 3
26.2641 -26.4651 6.1492 0.3279 0 3
25.5424 -23.7479 5.7519 0.0754 0 2
21.7459 -18.6461 4.7243 0.2461 0 9
22.4757 -17.7555 4.7239 0.0918 0 2
5.8808 -4.2734 1.1989 0.9034 14 6
21.6973 -14.4711 4.3012 0.1277 0 1
21.2271 -12.9561 4.1014 0.1258 0 1
20.7224 -11.5314 3.9111 0.1185 0 1
20.1259 -10.1624 3.7184 0.1239 0 1
8.5848 -3.9101 1.5558 0.9285 0 9
18.8845 -7.7006 3.3635 0.1210 0 1
18.4483 -6.6713 3.2354 0.1319 0 1
17.3752 -5.5043 3.0059 0.1447 0 2
17.1597 -4.6860 2.9337 0.1483 0 25
16.9818 -3.9114 2.8740 0.1513 0 25
16.8380 -3.1716 2.8258 0.1539 0 25
16.7254 -2.4591 2.7880 0.1560 0 25
17.3609 -1.8433 2.8793 0.1545 0 1
17.3561 -1.1398 2.8686 0.1570 0 1
17.3837 -0.4412 2.8679 0.1570 0 1
17.4929 0.2594 2.8853 0.1562 0 1
17.7058 0.9753 2.9245 0.1541 0 1
17.9453 1.7142 2.9731 0.1535 0 1
18.2084 2.4812 3.0307 0.1512 0 1
18.4899 3.2813 3.0970 0.1499 0 1
18.8110 4.1244 3.1761 0.1461 0 1
18.9362 4.9572 3.2282 0.1560 0 1
19.0465 5.8134 3.2843 0.1543 0 1
19.0037 6.6464 3.3203 0.1745 0 1
18.8172 7.4427 3.3373 0.1700 0 1
12.6736 5.6119 2.2859 0.7623 0 14
11.9319 5.8679 2.1929 0.4296 0 14
10.9977 5.9689 2.0637 0.5002 0 14
10.8702 6.4783 2.0870 0.3732 0 14
10.9789 7.1563 2.1614 0.6176 0 14
14.5043 10.3079 2.9347 0.1847 0 9
19.0761 14.7458 3.9764 0.5981 0 3
17.3641 14.5741 3.7388 0.6291 0 3
16.1698 14.7190 3.6062 0.6537 0 0
14.9007 14.7014 3.4522 0.6828 0 0
13.7337 14.6853 3.3160 0.7109 0 0
12.5431 14.5421 3.1672 0.7427 0 3
11.6853 14.7034 3.0975 0.7682 0 3
10.7457 14.6972 3.0027 0.7924 0 3
9.8605 14.6913 2.9181 0.8154 0 3
9.0225 14.6858 2.8426 0.8370 0 3
8.2255 14.6806 2.7753 0.8573 0 3
7.4624 14.6721 2.7148 0.3492 0 3
7.3289 15.9671 2.8975 0.4480 0 3
7.2366 17.5993 3.1383 0.4136 0 3
6.9858 19.1432 3.3608 0.3787 0 3
7.4012 23.1285 4.0050 0.3180 0 3
3.5429 12.8262 2.1945 0.2503 0 9
6.5812 28.1958 4.7751 0.2708 0 3
2.6523 13.8583 2.3270 0.1109 0 9
2.1890 14.5927 2.4336 0.3340 0 9
2.5724 23.5728 3.9108 0.5702 0 9
0.9223 13.4444 2.2225 0.1979 0 9
0.4388 15.5059 2.5583 0.0186 0 9
-0.1856 15.5877 2.5710 0.3840 0 9
-0.8173 15.6696 2.5878 0.9879 0 9
-1.4469 15.6296 2.5887 0.1298 0 9
1.9652 -17.8201 2.7531 0.6294 0 22
7.1574 -47.3461 7.3531 0.8217 0 3
3.7002 -19.2154 3.0049 0.6508 0 22
7.4398 -31.7119 5.0019 0.2558 0 3
7.6595 -27.6068 4.3995 0.9544 0 3
8.4872 -26.4187 4.2611 0.3285 0 3
10.8639 -29.6654 4.8513 0.9306 0 3
12.2009 -29.5768 4.9131 0.9164 0 3
13.1344 -28.5296 4.8230 0.9007 0 3
14.6084 -28.6413 4.9372 0.8837 0 3
9.4685 -16.8540 2.9686 0.1538 0 9
17.5888 -28.5562 5.1502 0.5321 0 3
19.9160 -29.6004 5.4785 0.8239 0 3
20.2558 -27.6383 5.2619 0.8839 0 3
22.6232 -28.3999 5.5757 0.6254 0 3
23.7582 -27.4813 5.5784 0.7300 0 3
24.8227 -26.4821 5.5738 0.7023 0 3
23.4706 -23.1041 5.0574 0.0800 0 2
21.9943 -19.9752 4.5625 0.0887 0 2
20.8292 -17.4420 4.1719 0.0970 0 2
20.8023 -16.0425 4.0340 0.6200 0 2
5.9357 -4.2082 1.1173 0.9932 14 6
19.8493 -12.9061 3.6357 0.1315 0 1
19.4100 -11.5380 3.4675 0.1247 0 1
18.8597 -10.2081 3.2931 0.1247 0 1
8.5503 -4.1928 1.4624 0.6012 0 9
8.7027 -3.8417 1.4608 0.6528 0 9
17.3051 -6.8219 2.8564 0.1392 0 1
16.9831 -5.9180 2.7617 0.1470 0 1
16.1322 -4.9039 2.5892 0.1567 0 25
15.9668 -4.1605 2.5337 0.1601 0 25
15.8306 -3.4521 2.4881 0.1631 0 25
15.7211 -2.7715 2.4514 0.1655 0 25
15.9408 -2.1538 2.4701 0.1698 0 2
16.2507 -1.5337 2.5065 0.1679 0 1
16.2609 -0.8772 2.5007 0.1683 0 1
16.2950 -0.2231 2.5025 0.1691 0 1
16.4312 0.4357 2.5241 0.1674 0 1
16.6233 1.1106 2.5584 0.1652 0 1
16.8457 1.8079 2.6017 0.1616 0 1
17.0802 2.5311 2.6515 0.1612 0 1
17.3360 3.2859 2.7095 0.1577 0 1
17.6226 4.0801 2.7777 0.1559 0 1
17.7463 4.8679 2.8258 0.1645 0 1
17.8428 5.6747 2.8752 0.1634 0 1
17.8474 6.4769 2.9155 0.1839 0 1
17.6654 7.2269 2.9309 0.1806 0 1
12.5986 5.7556 2.1270 0.3993 0 14
11.5164 5.8315 1.9823 0.4456 0 14
10.7458 5.9957 1.8896 0.5249 0 14
10.6279 6.5034 1.9133 0.4386 0 14
10.7168 7.1652 1.9796 0.6586 0 14
19.3508 14.0953 3.6763 0.1100 0 2
18.6198 14.7438 3.6471 0.6083 0 3
17.1079 14.7030 3.4640 0.7633 0 3
15.7883 14.7126 3.3140 0.6635 0 0
14.5508 14.6955 3.1757 0.6924 0 0
13.4106 14.6798 3.0533 0.7201 0 0
12.2456 14.5372 2.9188 0.7515 0 3
11.4059 14.7011 2.8573 0.7767 0 3
10.4829 14.6950 2.7719 0.8006 0 3
5.9758 9.1321 1.6759 0.9995 22 6
8.7867 14.6839 2.6277 0.8446 0 3
8.0007 14.6787 2.5671 0.8645 0 3
7.4417 15.0643 2.5801 0.4693 0 3
7.3636 16.5499 2.7816 0.4353 0 3
7.2707 18.2868 3.0219 0.4007 0 3
8.2439 23.4372 3.8152 0.3655 0 3
7.4047 24.1058 3.8724 0.9426 0 3
5.6980 21.6084 3.4316 0.9538 0 3
2.8259 12.7795 2.0098 0.3206 0 9
4.2701 23.8150 3.7154 0.6429 0 3
3.4896 25.2715 3.9175 0.2213 0 9
1.3987 14.3717 2.2173 0.0655 0 9
0.8947 15.7302 2.4194 0.9088 0 9
0.3908 23.5257 3.6131 0.8146 0 9
-0.3639 15.4243 2.3692 0.7368 0 9
-0.9706 15.1939 2.3379 0.3371 0 9
-2.5926 24.8406 3.8352 0.5414 0 9
-2.2350 15.3919 2.3884 0.3676 0 9
2.5484 -18.3015 2.8375 0.6439 0 22
3.4322 -19.0173 2.9675 0.6436 0 22
6.9280 -31.1630 4.9022 0.9665 0 3
7.4224 -28.0185 4.4509 0.2818 0 3
7.8973 -25.6059 4.1148 0.9467 0 3
10.4523 -29.6081 4.8216 0.9344 0 3
7.6781 -19.2477 3.1822 0.6627 0 9
8.1717 -18.3100 3.0790 0.4557 0 9
9.8715 -19.9258 3.4147 0.4121 0 9
9.2504 -16.9257 2.9620 0.6364 0 9
9.7604 -16.2690 2.9134 0.4561 0 9
19.4198 -29.6036 5.4368 0.8302 0 3
21.1609 -29.5922 5.5865 0.8080 0 3
20.3877 -26.2161 5.0998 0.9021 0 3
24.0211 -28.4505 5.7178 0.0588 0 3
24.5845 -26.8497 5.5903 0.0680 0 3
23.9754 -24.1588 5.2266 0.0774 0 2
22.3864 -20.8137 4.6939 0.0862 0 2
21.1413 -18.1277 4.2765 0.0946 0 2
20.3355 -16.0648 3.9796 0.6285 0 2
5.9109 -4.2953 1.1220 0.6726 14 6
19.9677 -13.3175 3.6857 0.1297 0 1
19.5744 -11.9474 3.5215 0.1366 0 1
19.0152 -10.5814 3.3416 0.1229 0 1
18.4546 -9.3185 3.1747 0.1196 0 1
8.5912 -3.9130 1.4497 0.8556 0 9
17.4090 -7.0990 2.8871 0.1377 0 1
17.0046 -6.1492 2.7767 0.1414 0 24
16.1862 -5.1276 2.6073 0.1556 0 25
16.0117 -4.3725 2.5488 0.1592 0 25
15.8673 -3.6547 2.5004 0.1623 0 25
15.7503 -2.9667 2.4611 0.1648 0 25
15.6584 -2.3022 2.4304 0.1669 0 2
16.2520 -1.7255 2.5097 0.1677 0 1
16.2556 -1.0675 2.5016 0.1682 0 1
16.2819 -0.4132 2.5011 0.1692 0 1
16.3806 0.2429 2.5157 0.1683 0 1
16.5646 0.9125 2.5475 0.1659 0 1
16.7776 1.6026 2.5881 0.1624 0 1
17.0125 2.3183 2.6366 0.1621 0 1
17.2579 3.0627 2.6915 0.1588 0 1
17.5366 3.8450 2.7569 0.1570 0 1
17.7224 4.6395 2.8132 0.1653 0 1
17.8132 5.4370 2.8600 0.1643 0 1
17.9049 6.2621 2.9128 0.1841 0 1
17.7146 7.0066 2.9253 0.1833 0 1
12.9583 5.7379 2.1762 0.3686 0 14
11.8322 5.8189 2.0248 0.4448 0 14
10.8385 5.8825 1.8937 0.5903 0 14
10.6430 6.3429 1.9026 0.4640 0 14
10.6501 6.9420 1.9522 0.3653 0 14
19.1413 13.6033 3.6060 0.1122 0 2
19.0774 14.7468 3.7027 0.5992 0 3
17.3635 14.5735 3.4810 0.6303 0 3
16.1685 14.7178 3.3574 0.6549 0 0
14.8996 14.7003 3.2141 0.6841 0 0
13.7328 14.6842 3.0873 0.7122 0 0
12.5427 14.5416 2.9489 0.7440 0 3
11.6850 14.7029 2.8840 0.7695 0 3
10.7454 14.6967 2.7957 0.7938 0 3
9.8602 14.6909 2.7170 0.8168 0 3
9.0223 14.6854 2.6467 0.8385 0 3
8.2253 14.6802 2.5840 0.8589 0 3
7.4641 14.6754 2.5283 0.9544 0 3
7.3877 16.0951 2.7195 0.4452 0 3
7.2995 17.7522 2.9475 0.4108 0 3
7.0522 19.3250 3.1590 0.3758 0 3
7.7146 24.1078 3.8869 0.9391 0 3
3.5673 12.9144 2.0574 0.0740 0 9
4.6454 19.9023 3.1383 0.9608 0 3
2.8613 14.9505 2.3375 0.4811 0 9
1.7959 16.4568 2.5421 0.1652 0 9
1.0032 14.6234 2.2508 0.1904 0 9
0.4130 14.5922 2.2417 0.8012 0 9
-0.2768 23.2449 3.5698 0.0779 0 9
-0.7982 15.3032 2.3532 0.6798 0 9
-1.4935 16.1324 2.4879 0.6047 0 9
-2.1167 15.8795 2.4600 0.3330 0 9
1.9571 -17.7472 2.5396 0.6330 0 22
2.7882 -18.4436 2.6532 0.6626 0 22
3.6885 -19.1543 2.7745 0.6856 0 22
7.3089 -31.1539 4.5515 0.9656 0 3
7.5697 -27.2833 4.0273 0.2893 0 3
9.5333 -29.6748 4.4333 0.9448 0 3
10.8530 -29.6357 4.4890 0.9321 0 3
12.2122 -29.6042 4.5550 0.9179 0 3
12.6948 -27.5749 4.3178 0.9022 0 3
14.6088 -28.6421 4.5733 0.8851 0 3
16.0856 -28.6325 4.6713 0.8665 0 3
17.6296 -28.6224 4.7814 0.8466 0 3
19.9166 -29.6012 5.0747 0.8252 0 3
20.4947 -27.9642 4.9314 0.6101 0 3
21.8996 -27.4914 4.9993 0.7777 0 3
22.8986 -26.4870 4.9801 0.7293 0 3
22.0886 -23.5653 4.5941 0.0817 0 2
20.7215 -20.3979 4.1358 0.0907 0 2
19.6432 -17.8399 3.7743 0.0994 0 2
19.1908 -16.0701 3.5603 0.6517 0 2
19.0441 -14.6866 3.4207 0.1342 0 1
5.9535 -4.2208 1.0380 0.9919 14 6
18.3538 -11.9337 3.1139 0.1399 0 1
17.8274 -10.5972 2.9499 0.1292 0 1
17.3333 -9.3820 2.8034 0.1256 0 1
8.5743 -4.2046 1.3583 0.5973 0 9
8.7406 -3.8584 1.3590 0.6920 0 9
16.0673 -6.3340 2.4565 0.1515 0 1
15.2694 -5.3209 2.3000 0.1637 0 25
15.1089 -4.5928 2.2461 0.1676 0 25
14.9743 -3.9019 2.2010 0.1710 0 25
14.8632 -3.2411 2.1638 0.1740 0 25
14.7737 -2.6045 2.1338 0.1764 0 25
15.3005 -2.0673 2.1961 0.1764 0 1
15.2840 -1.4424 2.1836 0.1788 0 1
15.2986 -0.8253 2.1792 0.1802 0 1
15.3326 -0.2099 2.1811 0.1800 0 1
15.4536 0.4098 2.1988 0.1787 0 1
15.6202 1.0436 2.2267 0.1761 0 1
15.8126 1.6971 2.2620 0.1733 0 1
16.0197 2.3739 2.3035 0.1713 0 1
16.2375 3.0777 2.3507 0.1668 0 1
16.4893 3.8178 2.4074 0.1629 0 1
16.6702 4.5728 2.4587 0.1735 0 1
16.7476 5.3264 2.4997 0.1706 0 1
16.8483 6.1143 2.5494 0.1710 0 1
16.6990 6.8316 2.5663 0.1909 0 1
12.5651 5.7403 1.9649 0.3955 0 14
11.3791 5.7620 1.8142 0.3704 0 14
10.5620 5.8932 1.7203 0.5820 0 14
10.4316 6.3832 1.7395 0.4978 0 14
10.4488 6.9860 1.7878 0.3796 0 14
17.6488 12.8555 3.1057 0.1208 0 2
18.2750 14.4708 3.3156 0.1132 0 2
16.9799 14.5930 3.1845 0.6402 0 3
15.7871 14.7115 3.0693 0.6646 0 0
14.5497 14.6945 2.9413 0.6936 0 0
13.4097 14.6788 2.8279 0.7214 0 0
12.2452 14.5367 2.7035 0.7528 0 3
11.4056 14.7006 2.6465 0.7780 0 3
10.4826 14.6946 2.5674 0.8020 0 3
5.9737 9.1290 1.5518 0.5643 0 8
8.7865 14.6835 2.4339 0.8460 0 3
8.0004 14.6783 2.3778 0.8660 0 3
7.4985 15.1794 2.4081 0.4665 0 3
7.4243 16.6863 2.5977 0.4324 0 3
7.3358 18.4506 2.8242 0.3978 0 3
8.3249 23.6676 3.5686 0.3625 0 3
7.4045 24.1052 3.5867 0.9442 0 3
6.4621 24.5062 3.6048 0.9554 0 3
3.1795 14.3790 2.0946 0.7546 0 9
3.9682 22.1309 3.1980 0.9760 0 3
1.9892 14.4053 2.0684 0.4669 0 9
2.2914 23.5452 3.3648 0.2595 0 9
0.9254 16.2706 2.3180 0.8944 0 9
0.2512 15.1212 2.1511 0.5674 0 9
-0.3422 14.5051 2.0637 0.5113 0 9
-1.6358 15.6736 2.2415 0.2459 0 9
-2.2719 15.6459 2.2488 0.4017 0 9
3.8134 -38.7262 5.5349 0.8088 0 6
2.5430 -18.2627 2.6227 0.7340 0 22
3.4214 -18.9573 2.7400 0.6453 0 22
6.9901 -31.4422 4.5814 0.2421 0 3
7.5173 -28.3768 4.1754 0.2787 0 3
9.1346 -29.6174 4.4085 0.9482 0 3
10.4737 -29.6687 4.4752 0.9360 0 3
7.7365 -19.3940 2.9699 0.5212 0 9
12.4769 -27.9566 4.3545 0.4212 0 3
14.1910 -28.6448 4.5469 0.8902 0 3
15.5612 -28.4729 4.6153 0.9830 0 3
9.7503 -16.2522 2.6958 0.1690 0 9
19.4203 -29.6045 5.0360 0.8316 0 3
21.1616 -29.5931 5.1747 0.8093 0 3
20.5504 -26.4254 4.7615 0.9964 0 3
22.7970 -27.0006 5.0263 0.7371 0 3
22.5564 -24.6348 4.7509 0.0790 0 2
21.0844 -21.2458 4.2574 0.0882 0 2
19.9320 -18.5317 3.8711 0.0970 0 2
19.0087 -16.2992 3.5616 0.1054 0 2
19.1410 -15.1211 3.4696 0.1356 0 1
5.9476 -4.3220 1.0457 0.3390 14 6
18.4461 -12.3026 3.1537 0.1381 0 1
17.9728 -10.9698 2.9949 0.1275 0 1
17.5017 -9.7392 2.8489 0.1338 0 1
16.9482 -8.5579 2.7005 0.1304 0 1
8.6364 -3.9336 1.3498 0.9138 0 9
16.1483 -6.5849 2.4805 0.1456 0 1
15.3213 -5.5405 2.3174 0.1624 0 2
15.1527 -4.8002 2.2608 0.1665 0 25
15.0109 -4.0992 2.2133 0.1701 0 25
14.8932 -3.4304 2.1738 0.1731 0 25
14.7976 -2.7873 2.1418 0.1757 0 25
14.7798 -2.1730 2.1248 0.1831 0 2
15.2058 -1.6145 2.1750 0.1791 0 24
15.2922 -1.0042 2.1798 0.1801 0 1
15.3208 -0.3888 2.1799 0.1801 0 1
15.4095 0.2285 2.1920 0.1792 0 1
15.5694 0.8577 2.2179 0.1771 0 1
15.7540 1.5048 2.2510 0.1742 0 1
15.9625 2.1752 2.2914 0.1722 0 1
16.1704 2.8697 2.3360 0.1679 0 1
16.4127 3.5985 2.3899 0.1641 0 1
16.6520 4.3593 2.4483 0.1742 0 1
16.7227 5.1042 2.4869 0.1715 0 1
16.8165 5.8814 2.5340 0.1702 0 1
16.7497 6.6250 2.5620 0.1942 0 1
12.9470 5.7329 2.0140 0.5209 0 14
11.6350 5.7219 1.8442 0.2323 0 14
10.7221 5.8193 1.7352 0.5716 0 14
10.4583 6.2329 1.7317 0.5238 0 14
10.4196 6.7917 1.7691 0.4363 0 14
17.4871 12.4277 3.0514 0.1230 0 2
18.0810 13.9766 3.2506 0.1155 0 2
17.3628 14.5730 3.2242 0.6313 0 3
10.0634 9.1604 1.9356 0.4999 0 20
14.8985 14.6993 2.9769 0.6853 0 0
13.7318 14.6832 2.8595 0.7134 0 0
12.5457 14.5452 2.7321 0.7452 0 3
11.6771 14.6931 2.6695 0.7708 0 3
10.7451 14.6963 2.5895 0.7952 0 3
6.1236 9.1237 1.5629 0.3618 22 6
9.0220 14.6850 2.4514 0.8399 0 3
8.2251 14.6798 2.3934 0.8603 0 3
7.5179 14.7812 2.3587 0.4762 0 3
7.4472 16.2247 2.5392 0.4424 0 3
7.3632 17.9073 2.7540 0.4079 0 3
7.1196 19.5097 2.9540 0.3728 0 3
7.7144 24.1072 3.6002 0.9407 0 3
6.8442 24.7774 3.6562 0.3011 0 3
3.1745 13.6006 1.9865 0.3017 0 9
2.8496 14.8892 2.1562 0.2352 0 9
2.0097 13.3972 1.9269 0.3206 0 9
1.6962 15.5430 2.2239 0.9456 0 9
1.0785 15.7203 2.2413 0.7554 0 9
0.4306 15.2157 2.1651 0.0797 0 9
-0.1811 15.2101 2.1636 0.1752 0 9
-0.8819 16.9078 2.4082 0.0768 0 9
-1.4632 15.8055 2.2577 0.4000 0 9
2.7792 -18.3842 2.4347 0.6374 0 22
3.6787 -19.1035 2.5475 0.6400 0 22
7.3075 -31.1479 4.1895 0.3955 0 3
7.6639 -27.6225 3.7537 0.2862 0 3
9.5079 -29.5958 4.0706 0.9462 0 3
10.8645 -29.6670 4.1371 0.9335 0 3
12.2325 -29.6534 4.2005 0.3936 0 3
12.6952 -27.5756 3.9753 0.9036 0 3
14.6092 -28.6429 4.2104 0.8864 0 3
16.0860 -28.6333 4.3007 0.8678 0 3
17.6301 -28.6232 4.4021 0.8478 0 3
19.9172 -29.6021 4.6721 0.8265 0 3
20.4729 -27.9346 4.5352 0.9759 0 3
21.1979 -26.6106 4.4551 0.0730 0 3
20.8193 -24.0819 4.1685 0.0830 0 2
19.5526 -20.8597 3.7439 0.0924 0 2
18.5549 -18.2652 3.4094 0.1015 0 2
17.7516 -16.1220 3.1401 0.1102 0 2
17.9302 -15.0145 3.0624 0.1372 0 1
17.6245 -13.5918 2.9145 0.1378 0 1
5.9713 -4.2335 0.9585 0.9904 14 6
16.8973 -10.9867 2.6393 0.1334 0 1
16.4584 -9.7834 2.5072 0.1354 0 1
15.9637 -8.6406 2.3770 0.1334 0 1
8.6559 -4.2446 1.2624 0.4098 0 9
8.7441 -3.8600 1.2516 0.8729 0 9
15.0174 -5.9201 2.1138 0.1646 0 1
14.3409 -4.9973 1.9887 0.1745 0 25
14.2103 -4.3197 1.9449 0.1784 0 25
14.1006 -3.6742 1.9081 0.1819 0 25
14.0098 -3.0550 1.8777 0.1848 0 25
13.9365 -2.4569 1.8531 0.1873 0 25
14.4341 -1.9502 1.9073 0.1896 0 1
14.4331 -1.3621 1.8984 0.1920 0 1
14.4492 -0.7795 1.8948 0.1923 0 1
14.4803 -0.1983 1.8963 0.1922 0 1
14.5888 0.3868 1.9110 0.1895 0 1
14.7356 0.9845 1.9339 0.1873 0 1
14.9022 1.5994 1.9626 0.1846 0 1
15.0864 2.2356 1.9971 0.1821 0 1
15.2709 2.8945 2.0353 0.1787 0 1
15.4820 3.5845 2.0810 0.1738 0 1
15.7013 4.3070 2.1320 0.1822 0 1
15.7673 5.0146 2.1666 0.1793 0 1
15.8456 5.7505 2.2074 0.1782 0 1
14.1675 5.7960 2.0045 0.4955 0 14
12.5762 5.7453 1.8105 0.3839 0 14
11.2454 5.6944 1.6506 0.4007 0 14
10.4241 5.8162 1.5631 0.4398 0 14
10.2556 6.2756 1.5744 0.3982 0 14
10.2266 6.8375 1.6109 0.4163 0 14
16.2261 11.8192 2.6287 0.1316 0 2
16.7108 13.2321 2.7912 0.1240 0 2
16.9792 14.5925 2.9317 0.6412 0 3
15.7859 14.7104 2.8255 0.6657 0 0
14.5487 14.6934 2.7077 0.6947 0 0
13.4088 14.6778 2.6033 0.7225 0 0
12.2448 14.5362 2.4888 0.7540 0 3
11.4052 14.7002 2.4364 0.7792 0 3
10.4823 14.6941 2.3636 0.8032 0 3
6.0115 9.1868 1.4377 0.5616 0 8
8.7862 14.6830 2.2407 0.8473 0 3
8.0002 14.6779 2.1890 0.8673 0 3
7.5561 15.2958 2.2340 0.4636 0 3
7.4828 16.8179 2.4104 0.4295 0 3
7.4019 18.6169 2.6235 0.3948 0 3
8.4073 23.9018 3.3179 0.3595 0 3
7.4043 24.1046 3.3020 0.9457 0 3
6.4619 24.5056 3.3186 0.9568 0 3
2.9401 13.2963 1.7832 0.1846 0 9
4.0153 22.3936 2.9792 0.2138 0 3
2.4291 17.5915 2.3254 0.4149 0 9
2.3304 23.9453 3.1504 0.0678 0 9
1.3070 22.9802 3.0141 0.1191 0 9
0.2525 15.2010 1.9908 0.5325 0 9
-0.3886 16.4713 2.1575 0.1932 0 9
-0.9654 15.1129 1.9830 0.9711 0 9
3.8158 -38.7507 5.0989 0.5475 0 6
2.5356 -18.2101 2.4076 0.7525 0 22
3.4099 -18.8936 2.5140 0.6342 0 22
7.0915 -31.8981 4.2790 0.6901 0 3
7.6236 -28.7779 3.8984 0.2756 0 3
9.1533 -29.6780 4.0669 0.9496 0 3
10.4552 -29.6163 4.1128 0.9373 0 3
7.8828 -19.7610 2.7859 0.2928 0 9
12.5830 -28.1944 4.0430 0.4183 0 3
9.7804 -19.7419 2.8850 0.6195 0 9
15.6504 -28.6361 4.2733 0.8734 0 3
17.1740 -28.6262 4.3714 0.8538 0 3
19.4209 -29.6053 4.6365 0.8328 0 3
21.1482 -29.5743 4.7610 0.8105 0 3
20.5468 -26.4208 4.3828 0.6584 0 3
21.2531 -25.1721 4.3140 0.0802 0 2
19.8887 -21.7213 3.8566 0.0897 0 2
18.8220 -18.9661 3.4990 0.0989 0 2
17.9682 -16.7059 3.2128 0.1077 0 2
18.2542 -15.6521 3.1488 0.1272 0 2
17.7228 -14.0007 2.9576 0.1431 0 1
17.4018 -12.6454 2.8168 0.1426 0 1
17.0329 -11.3601 2.6810 0.1313 0 1
16.5763 -10.1175 2.5430 0.1303 0 1
16.1037 -8.9612 2.4133 0.1314 0 1
15.6468 -7.9007 2.2953 0.1382 0 1
8.6705 -3.9492 1.2476 0.8683 0 9
15.0087 -6.1202 2.1225 0.1645 0 24
14.3831 -5.2012 2.0028 0.1733 0 25
14.2460 -4.5130 1.9569 0.1773 0 25
14.1304 -3.8588 1.9181 0.1809 0 25
14.0343 -3.2325 1.8859 0.1840 0 25
13.9561 -2.6288 1.8597 0.1866 0 25
14.4461 -2.1239 1.9120 0.1892 0 1
14.4312 -1.5322 1.9004 0.1918 0 1
14.4430 -0.9485 1.8954 0.1923 0 1
14.4697 -0.3672 1.8954 0.1923 0 1
14.5496 0.2158 1.9055 0.1901 0 1
14.6909 0.8093 1.9267 0.1880 0 1
14.8516 1.4186 1.9536 0.1854 0 1
15.0343 2.0487 1.9869 0.1819 0 1
15.2148 2.7001 2.0235 0.1798 0 1
15.4169 3.3802 2.0668 0.1749 0 1
15.6513 4.0973 2.1186 0.1707 0 1
15.7461 4.8061 2.1558 0.1802 0 1
15.8210 5.5332 2.1948 0.1792 0 1
15.8737 6.2785 2.2353 0.2021 0 1
12.9615 5.7393 1.8562 0.3774 0 14
11.6192 5.7141 1.6955 0.3901 0 14
10.6087 5.7578 1.5806 0.3151 0 14
10.2889 6.1319 1.5684 0.4752 0 14
10.2234 6.6638 1.5980 0.3850 0 14
16.1000 11.4420 2.5864 0.1338 0 2
16.5611 12.8018 2.7410 0.1262 0 2
17.1105 14.3612 2.9252 0.1183 0 2
10.0353 9.1349 1.7770 0.6009 0 20
14.8974 14.6982 2.7404 0.6863 0 0
13.7309 14.6822 2.6324 0.7145 0 0
12.5397 14.5382 2.5141 0.7464 0 3
11.6842 14.7020 2.4591 0.7720 0 3
10.7448 14.6958 2.3839 0.7964 0 3
6.1151 9.1109 1.4369 0.9151 22 6
9.0218 14.6846 2.2568 0.8412 0 3
8.2249 14.6794 2.2034 0.8616 0 3
7.5744 14.8923 2.1879 0.4734 0 3
7.5074 16.3561 2.3566 0.4395 0 3
7.4279 18.0646 2.5577 0.4050 0 3
7.1881 19.6974 2.7457 0.3698 0 3
7.7142 24.1066 3.3144 0.9421 0 3
6.7710 24.5126 3.3301 0.3632 0 3
2.9997 15.6736 2.0897 0.7559 0 9
2.1707 14.4707 1.9161 0.8922 0 9
1.7042 15.6162 2.0570 0.4850 0 9
-0.1824 15.3155 2.0057 0.5080 0 9
-0.8048 15.4303 2.0233 0.3970 0 9
2.7665 -18.3004 2.2153 0.6400 0 22
3.6664 -19.0394 2.3207 0.6198 0 22
7.6183 -32.4726 3.9923 0.2463 0 3
7.7600 -27.9692 3.4742 0.2830 0 3
9.5321 -29.6710 3.7302 0.3194 0 3
10.8648 -29.6677 3.7816 0.9348 0 3
12.2347 -29.6589 3.8401 0.9205 0 3
12.7176 -27.6244 3.6400 0.4254 0 3
14.6096 -28.6437 3.8486 0.8876 0 3
16.0865 -28.6341 3.9311 0.8690 0 3
17.6306 -28.6240 4.0238 0.8490 0 3
19.3254 -28.7225 4.1436 0.0635 0 3
19.8064 -27.0251 4.0104 0.5387 0 3
19.6376 -24.6519 3.7724 0.0840 0 2
18.4655 -21.3593 3.3795 0.0937 0 2
17.5441 -18.7170 3.0706 0.1032 0 2
16.8031 -16.5407 2.8222 0.1122 0 2
16.9233 -15.3698 2.7363 0.1406 0 1
16.6356 -13.9304 2.5971 0.1377 0 1
16.3530 -12.6112 2.4718 0.1447 0 1
5.9929 -4.2488 0.8793 0.8996 14 6
15.5940 -10.1393 2.2263 0.1396 0 1
15.1811 -9.0242 2.1139 0.1364 0 1
14.7852 -8.0028 2.0123 0.1433 0 1
8.6840 -4.2584 1.1577 0.5341 0 9
8.7484 -3.8619 1.1446 0.8554 0 9
13.6458 -5.3794 1.7556 0.1809 0 25
13.5210 -4.7116 1.7138 0.1853 0 25
13.4148 -4.0779 1.6782 0.1893 0 25
13.3253 -3.4722 1.6482 0.1927 0 25
13.2512 -2.8896 1.6233 0.1957 0 25
13.1912 -2.3255 1.6032 0.1981 0 2
13.6747 -1.8476 1.6516 0.2019 0 1
5.6860 -0.5366 0.6836 0.1739 25 14
5.5967 -0.3019 0.6709 0.1772 25 14
5.4939 -0.0752 0.6576 0.1564 25 14
5.5260 0.1465 0.6617 0.1554 25 14
5.6883 0.3800 0.6824 0.1743 25 14
14.0770 1.5108 1.6946 0.1881 0 1
14.2477 2.1113 1.7240 0.1861 0 1
14.4127 2.7318 1.7558 0.1819 0 1
14.5970 3.3796 1.7934 0.1857 0 1
14.8001 4.0598 1.8369 0.1802 0 1
14.8880 4.7350 1.8699 0.1902 0 1
14.9534 5.4267 1.9040 0.1868 0 1
15.0317 6.1495 1.9439 0.1852 0 1
12.5992 5.7559 1.6579 0.3810 0 14
11.2478 5.6956 1.5090 0.4036 0 14
10.2510 5.7197 1.4050 0.5892 0 14
9.8397 6.0211 1.3807 0.4758 0 14
9.7519 6.5201 1.4041 0.8858 0 14
9.7998 7.1382 1.4511 0.4902 0 14
15.3967 12.1916 2.3506 0.1347 0 2
15.8436 13.6165 2.5005 0.1267 0 2
15.6494 14.5832 2.5603 0.6720 0 3
14.5476 14.6923 2.4748 0.6957 0 0
13.4078 14.6768 2.3794 0.7236 0 0
12.2444 14.5358 2.2748 0.7550 0 3
11.3978 14.6906 2.2255 0.7803 0 3
10.4755 14.6846 2.1590 0.8044 0 3
6.0498 9.2452 1.3224 0.5588 0 8
8.7860 14.6826 2.0480 0.8485 0 3
8.0000 14.6775 2.0008 0.8685 0 3
7.6143 15.4138 2.0577 0.4607 0 3
7.5481 16.9646 2.2225 0.4266 0 3
7.4691 18.7857 2.4197 0.3918 0 3
7.6119 21.6404 2.7458 0.6519 0 3
7.4041 24.1040 3.0181 0.9470 0 3
7.1099 26.9626 3.3375 0.2843 0 3
1.3522 13.8938 1.6708 0.6160 0 9
0.9876 17.3634 2.0816 0.6048 0 9
0.2609 15.7058 1.8801 0.9450 0 9
-0.3454 14.6376 1.7525 0.5694 0 9
-0.9952 15.5792 1.8685 0.1379 0 9
2.5156 -18.0664 2.1833 0.5035 0 22
4.4505 -24.6591 2.9992 0.9929 0 6
4.3500 -19.5668 2.3992 0.5300 0 22
7.7230 -29.1532 3.6098 0.2724 0 3
9.1535 -29.6788 3.7174 0.9509 0 3
10.4461 -29.5905 3.7560 0.9386 0 3
11.8098 -29.6051 3.8150 0.9248 0 3
12.6906 -28.4355 3.7271 0.4153 0 3
13.9545 -28.1675 3.7625 0.6433 0 3
10.0976 -18.4760 2.5202 0.4384 0 9
17.1744 -28.6270 3.9958 0.8549 0 3
19.4086 -29.5866 4.2352 0.8339 0 3
19.3153 -27.0112 3.9746 0.3410 0 3
20.0397 -25.7687 3.9072 0.0811 0 2
18.7763 -22.2386 3.4837 0.0909 0 2
17.7907 -19.4300 3.1532 0.1005 0 2
17.0029 -17.1330 2.8891 0.1096 0 2
17.2520 -16.0400 2.8195 0.1300 0 2
16.7167 -14.3338 2.6357 0.1392 0 1
16.4301 -12.9795 2.5062 0.1427 0 1
16.1274 -11.7193 2.3862 0.1271 0 1
15.7006 -10.4716 2.2589 0.1376 0 1
15.3078 -9.3432 2.1465 0.1343 0 1
14.8943 -8.2882 2.0402 0.1413 0 1
14.5639 -7.3540 1.9528 0.1609 0 1
8.6614 -3.9450 1.1392 0.9434 0 9
13.6856 -5.5806 1.7690 0.1796 0 2
13.5553 -4.9019 1.7253 0.1841 0 25
13.4439 -4.2589 1.6879 0.1882 0 25
13.3497 -3.6456 1.6564 0.1918 0 25
13.2712 -3.0568 1.6301 0.1949 0 25
13.2072 -2.4877 1.6086 0.1975 0 25
13.6808 -2.0114 1.6551 0.2000 0 1
13.6765 -1.4521 1.6462 0.2026 0 1
5.6217 -0.3692 0.6743 0.1763 25 14
5.5288 -0.1403 0.6620 0.1553 25 14
5.4719 0.0811 0.6550 0.1570 25 14
5.6450 0.3110 0.6767 0.1757 25 14
5.7994 0.5540 0.6973 0.1705 25 14
14.1962 1.9345 1.7149 0.1858 0 1
14.3623 2.5488 1.7459 0.1830 0 1
14.5426 3.1885 1.7820 0.1868 0 1
14.7382 3.8583 1.8235 0.1826 0 1
14.8721 4.5393 1.8612 0.1911 0 1
14.9326 5.2226 1.8935 0.1878 0 1
15.0081 5.9362 1.9318 0.1864 0 1
13.0036 5.7580 1.7022 0.3412 0 14
11.6195 5.7143 1.5498 0.3930 0 14
10.5012 5.6994 1.4301 0.5305 0 14
9.9076 5.9047 1.3805 0.3045 0 14
9.7688 6.3675 1.3957 0.7912 0 14
9.7596 6.9360 1.4331 0.4772 0 14
15.2804 11.8118 2.3117 0.1370 0 2
15.7057 13.1821 2.4542 0.1291 0 2
10.0633 9.1603 1.6288 0.8322 0 20
14.8092 14.6111 2.4900 0.1120 0 3
13.7299 14.6812 2.4059 0.7156 0 0
12.5393 14.5377 2.2979 0.7475 0 3
11.6839 14.7015 2.2477 0.7731 0 3
10.7375 14.6859 2.1775 0.5988 0 3
6.0584 9.0265 1.3012 0.5680 0 8
9.0215 14.6842 2.0628 0.8424 0 3
8.2246 14.6790 2.0140 0.8628 0 3
7.6316 15.0047 2.0149 0.4705 0 3
7.5685 16.4892 2.1716 0.4366 0 3
7.4936 18.2243 2.3585 0.4020 0 3
7.2577 19.8882 2.5340 0.3668 0 3
7.7140 24.1060 3.0294 0.9435 0 3
4.0512 14.6664 1.8212 0.5324 0 9
1.1449 16.6883 2.0022 0.4533 0 9
0.4256 15.0366 1.8005 0.7853 0 9
-0.1959 16.4481 1.9688 0.4032 0 9
-0.7879 15.1066 1.8106 0.9205 0 9
1.1446 -38.8794 4.2189 0.9944 0 22
4.2739 -38.7554 4.2291 0.3385 0 6
2.7551 -18.2247 1.9992 0.6418 0 22
6.2810 -32.6174 3.6029 0.9777 0 3
8.7408 -37.2573 4.1509 0.2431 0 3
7.8584 -28.3238 3.1882 0.2798 0 3
9.5340 -29.6771 3.3810 0.9487 0 3
10.8650 -29.6685 3.4270 0.9359 0 3
12.2118 -29.6033 3.4734 0.9217 0 3
12.8244 -27.8564 3.3263 0.4224 0 3
14.4126 -28.2574 3.4406 0.6060 0 3
16.0869 -28.6348 3.5625 0.8701 0 3
17.5886 -28.5559 3.6378 0.8500 0 3
18.1828 -27.0243 3.5330 0.8030 0 3
18.5234 -25.2744 3.3989 0.0846 0 2
17.4423 -21.8960 3.0364 0.0947 0 2
16.5944 -19.1950 2.7522 0.1044 0 2
15.9138 -16.9776 2.5240 0.1139 0 2
16.2033 -15.9503 2.4662 0.1349 0 2
15.6887 -14.2485 2.2988 0.1448 0 1
15.4399 -12.9291 2.1843 0.1415 0 1
15.1589 -11.6903 2.0764 0.1326 0 1
6.0161 -4.2652 0.7999 0.8973 14 6
14.4580 -9.4006 1.8706 0.1436 0 1
14.0986 -8.3807 1.7790 0.1510 0 1
13.8072 -7.4734 1.7029 0.1683 0 1
8.7314 -4.2816 1.0548 0.4438 0 9
8.7864 -3.8787 1.0418 0.8463 0 9
12.8927 -5.0825 1.5032 0.1917 0 25
12.7917 -4.4575 1.4693 0.1962 0 25
12.7054 -3.8622 1.4404 0.2001 0 25
12.6326 -3.2917 1.4160 0.2036 0 25
12.5722 -2.7415 1.3957 0.2065 0 25
12.5232 -2.2078 1.3793 0.2090 0 2
12.9947 -1.7557 1.4223 0.2128 0 1
5.3587 -0.5057 0.5838 0.1848 25 14
5.2509 -0.2833 0.5704 0.1636 25 14
5.1582 -0.0706 0.5595 0.2407 25 14
5.1783 0.1373 0.5619 0.2397 25 14
5.3465 0.3572 0.5812 0.1605 25 14
5.5028 0.5906 0.6003 0.1797 25 14
13.4760 1.9970 1.4777 0.1957 0 1
13.6209 2.5817 1.5037 0.1936 0 1
13.7804 3.1906 1.5342 0.1889 0 1
13.9607 3.8295 1.5702 0.1846 0 1
14.0955 4.4829 1.6044 0.1930 0 1
14.1468 5.1340 1.6324 0.1951 0 1
14.2099 5.8133 1.6653 0.1912 0 1
12.6030 5.7576 1.5029 0.3499 0 14
11.2508 5.6971 1.3679 0.4040 0 14
10.2448 5.7162 1.2725 0.5903 0 14
9.8925 6.0534 1.2580 0.9402 0 14
9.8029 6.5542 1.2791 0.8407 0 14
9.8876 7.2022 1.3268 0.4946 0 14
14.2770 11.3050 1.9753 0.1455 0 2
14.6236 12.5680 2.0915 0.1374 0 2
15.0335 14.0092 2.2289 0.1289 0 2
14.4311 14.5747 2.2247 0.7017 0 3
13.4069 14.6758 2.1561 0.7245 0 0
12.3019 14.6040 2.0712 0.6467 0 3
11.4045 14.6993 2.0180 0.7813 0 3
10.4752 14.6842 1.9565 0.8054 0 3
6.0884 9.3042 1.2061 0.5560 0 8
8.7857 14.6822 1.8559 0.8496 0 3
7.9998 14.6771 1.8131 0.8696 0 3
7.6733 15.5332 1.8792 0.4577 0 3
7.6113 17.1067 2.0309 0.4236 0 3
7.5372 18.9571 2.2128 0.3887 0 3
7.9806 22.6886 2.6088 0.4531 0 3
7.4039 24.1034 2.7350 0.9482 0 3
3.6599 13.8794 1.5569 0.0533 0 9
2.5180 14.0433 1.5475 0.7843 0 9
1.9139 13.8604 1.5177 0.3475 0 9
1.3937 14.3206 1.5606 0.2326 0 9
0.8494 14.9338 1.6224 0.9674 0 9
0.2329 14.0219 1.5211 0.2042 0 9
-0.3620 15.3428 1.6646 0.2802 0 9
-1.7378 16.6504 1.8158 0.6366 0 9
0.6898 -38.8571 4.2154 0.5513 0 22
2.5095 -18.0223 1.9737 0.7437 0 22
4.4666 -24.7484 2.7277 0.1192 0 6
8.5623 -38.5142 4.2795 0.0337 0 3
7.8248 -29.5374 3.3143 0.2692 0 3
9.1537 -29.6795 3.3689 0.9521 0 3
10.4637 -29.6405 3.4095 0.9398 0 3
11.8101 -29.6059 3.4573 0.9260 0 3
12.7998 -28.6802 3.4066 0.4123 0 3
13.7995 -27.8545 3.3717 0.6308 0 3
10.0574 -18.4023 2.2747 0.7042 0 9
17.1135 -28.5254 3.6082 0.8560 0 3
18.0681 -27.5432 3.5730 0.8348 0 3
18.8950 -26.4234 3.5234 0.0816 0 2
17.7286 -22.7968 3.1324 0.0918 0 2
16.8212 -19.9229 2.8282 0.1016 0 2
16.0972 -17.5804 2.5855 0.1112 0 2
15.9762 -16.0984 2.4601 0.7223 0 2
15.7580 -14.6510 2.3338 0.1426 0 1
15.5154 -13.3037 2.2169 0.1464 0 1
15.2585 -12.0540 2.1092 0.1465 0 1
14.8958 -10.8244 1.9972 0.1412 0 1
14.5727 -9.7193 1.9000 0.1414 0 1
14.1977 -8.6657 1.8042 0.1489 0 1
13.8730 -7.7199 1.7220 0.1560 0 1
13.6728 -6.9040 1.6614 0.1732 0 1
8.7048 -3.9648 1.0375 0.9529 0 9
12.9251 -5.2705 1.5140 0.1904 0 25
12.8195 -4.6358 1.4786 0.1949 0 25
12.7291 -4.0324 1.4483 0.1990 0 25
12.6525 -3.4552 1.4226 0.2026 0 25
12.5885 -2.8995 1.4012 0.2057 0 25
12.5363 -2.3614 1.3837 0.2083 0 25
12.9946 -1.9105 1.4246 0.2124 0 1
12.9986 -1.3801 1.4178 0.2135 0 1
5.2843 -0.3470 0.5744 0.1624 25 14
5.1803 -0.1315 0.5621 0.2396 25 14
5.1448 0.0763 0.5581 0.2414 25 14
5.2941 0.2916 0.5751 0.1622 25 14
5.4608 0.5216 0.5950 0.1813 25 14
13.4309 1.8302 1.4703 0.1967 0 1
13.5784 2.4097 1.4958 0.1946 0 1
13.7317 3.0107 1.5248 0.1901 0 1
13.9062 3.6404 1.5592 0.1859 0 1
14.0789 4.2972 1.5966 0.1940 0 1
14.1312 4.9423 1.6238 0.1961 0 1
14.1901 5.6126 1.6552 0.1924 0 1
13.0971 5.7994 1.5536 0.2539 0 14
11.6270 5.7180 1.4054 0.3837 0 14
10.4827 5.6894 1.2937 0.5574 0 14
9.9482 5.9289 1.2561 0.9427 0 14
9.8186 6.4000 1.2713 0.8798 0 14
9.8249 6.9823 1.3074 0.6893 0 14
14.1863 10.9660 1.9449 0.1478 0 2
14.5170 12.1844 2.0557 0.1398 0 2
14.9070 13.5695 2.1865 0.1314 0 2
14.7746 14.5769 2.2512 0.6935 0 3
13.7289 14.6801 2.1801 0.7165 0 0
12.5389 14.5372 2.0823 0.7484 0 3
11.6835 14.7011 2.0368 0.7741 0 3
10.7441 14.6950 1.9745 0.7985 0 3
6.0965 9.0832 1.1866 0.5651 0 8
9.0212 14.6837 1.8693 0.8435 0 3
8.2244 14.6786 1.8250 0.8640 0 3
7.6895 15.1186 1.8398 0.4676 0 3
7.6305 16.6241 1.9840 0.4336 0 3
7.5602 18.3863 2.1563 0.3989 0 3
8.2079 22.4919 2.5970 0.9158 0 3
7.7138 24.1054 2.7452 0.9447 0 3
7.2446 26.2270 2.9513 0.2917 0 3
1.4766 13.5311 1.4764 0.2042 0 9
1.1068 16.1337 1.7541 0.6301 0 9
0.3871 13.6767 1.4841 0.3132 0 9
-0.1965 16.5033 1.7902 0.9393 0 9
-2.3941 25.8612 2.8171 0.3606 0 9
-0.4191 -38.9065 3.7846 0.9944 0 22
1.1454 -38.9077 3.7861 0.9908 0 22
4.2713 -38.7322 3.7902 0.8035 0 6
7.8651 -40.8437 4.0458 0.0320 0 3
8.7865 -37.4517 3.7418 0.9717 0 3
7.9591 -28.6865 2.8957 0.2766 0 3
9.5161 -29.6215 3.0262 0.9497 0 3
10.8458 -29.6161 3.0678 0.9370 0 3
12.2121 -29.6041 3.1149 0.9227 0 3
12.9328 -28.0917 3.0081 0.4193 0 3
14.3378 -28.1109 3.0694 0.5984 0 3
16.0546 -28.5773 3.1883 0.8710 0 3
16.6556 -27.0411 3.0891 0.3407 0 3
17.4593 -25.9490 3.0421 0.0848 0 2
16.4676 -22.4694 2.7097 0.0952 0 2
15.6922 -19.6991 2.4497 0.1053 0 2
15.0710 -17.4328 2.2415 0.1151 0 2
15.0951 -16.1042 2.1470 0.7430 0 2
14.8354 -14.6037 2.0248 0.1440 0 1
14.5829 -13.2442 1.9161 0.1496 0 1
14.3686 -12.0321 1.8229 0.1484 0 1
14.0526 -10.8372 1.7261 0.1453 0 1
6.0430 -4.2843 0.7205 0.6681 14 6
13.4660 -8.7557 1.5623 0.1533 0 1
13.1758 -7.8322 1.4909 0.1618 0 1
12.9908 -7.0315 1.4368 0.1791 0 1
12.8420 -6.2973 1.3912 0.1857 0 1
8.8201 -3.8935 0.9378 0.8630 0 9
12.2200 -4.8173 1.2776 0.2025 0 25
12.1385 -4.2298 1.2503 0.2070 0 25
12.0688 -3.6687 1.2269 0.2109 0 25
12.0098 -3.1294 1.2072 0.2144 0 25
11.9608 -2.6082 1.1907 0.2173 0 25
12.3700 -2.1808 1.2218 0.2189 0 2
12.3298 -1.6659 1.2102 0.2221 0 24
5.0929 -0.4806 0.4976 0.2430 25 14
5.0160 -0.2706 0.4886 0.2475 25 14
4.9407 -0.0677 0.4806 0.2442 25 14
4.9610 0.1315 0.4827 0.2431 25 14
5.0749 0.3391 0.4947 0.2444 25 14
5.1946 0.5575 0.5082 0.2380 25 14
12.7849 1.8946 1.2571 0.2065 0 1
12.9151 2.4479 1.2786 0.2044 0 1
13.0510 3.0217 1.3030 0.2006 0 1
13.2037 3.6219 1.3317 0.1954 0 1
13.3624 4.2498 1.3639 0.2038 0 1
13.4127 4.8676 1.3879 0.2003 0 1
13.4652 5.5086 1.4151 0.2020 0 1
13.5141 6.1738 1.4452 0.2240 0 1
11.2706 5.7071 1.2288 0.7756 0 14
10.2451 5.7164 1.1411 0.6122 0 14
9.9261 6.0739 1.1319 0.9748 0 14
9.8368 6.5768 1.1510 0.8208 0 14
9.8982 7.2099 1.1911 0.4941 0 14
13.3112 10.5403 1.6515 0.1562 0 2
13.5804 11.6714 1.7417 0.1481 0 2
13.8959 12.9491 1.8475 0.1397 0 2
14.2690 14.4109 1.9726 0.1308 0 2
13.3075 14.5669 1.9191 0.7303 0 3
12.3556 14.6678 1.8654 0.6439 0 3
11.4042 14.6988 1.8096 0.7823 0 3
10.4814 14.6928 1.7555 0.8063 0 3
6.1273 9.3638 1.0885 0.5531 0 8
8.7855 14.6818 1.6642 0.8506 0 3
7.9996 14.6767 1.6259 0.8707 0 3
7.7331 15.6542 1.6983 0.4547 0 3
7.6755 17.2508 1.8365 0.4205 0 3
7.5962 19.1054 1.9998 0.9223 0 3
7.9986 22.7399 2.3447 0.9099 0 3
7.4038 24.1028 2.4525 0.9493 0 3
7.2914 27.6510 2.7815 0.2779 0 3
2.5471 14.2057 1.4038 0.5295 0 9
1.3845 14.2262 1.3903 0.1136 0 9
0.9396 16.5196 1.6094 0.0945 0 9
0.4061 24.4436 2.3779 0.8588 0 9
-1.7801 17.0561 1.6680 0.4581 0 9
-0.8731 -38.8804 3.7828 0.9156 0 22
0.6904 -38.8909 3.7834 0.5410 0 6
2.2563 -38.8916 3.7893 0.9840 0 22
2.4993 -17.9490 1.7627 0.6263 0 22
3.3591 -18.6118 1.8396 0.6832 0 6
9.4159 -42.3538 4.2202 0.9731 0 3
7.9290 -29.9309 3.0117 0.2659 0 3
9.1366 -29.6239 3.0154 0.9532 0 3
10.4748 -29.6718 3.0607 0.9408 0 3
11.8104 -29.6067 3.1004 0.9270 0 3
12.9140 -28.9360 3.0821 0.4092 0 3
13.7698 -27.7946 3.0171 0.5974 0 3
10.0651 -18.4164 2.0414 0.9252 0 9
16.5221 -27.5396 3.1238 0.8230 0 3
11.2788 -17.1935 2.0001 0.7801 0 20
16.7299 -23.3957 2.7976 0.0922 0 2
15.8994 -20.4447 2.5192 0.1024 0 2
15.2383 -18.0481 2.2975 0.1123 0 2
14.7629 -16.1232 2.1264 0.7502 0 2
14.9208 -15.0350 2.0603 0.1415 0 1
14.6531 -13.6237 1.9461 0.1426 0 1
14.4293 -12.3725 1.8488 0.1550 0 1
14.1425 -11.1724 1.7531 0.1431 0 1
13.8510 -10.0651 1.6654 0.1518 0 1
13.5514 -9.0381 1.5844 0.1512 0 1
13.2562 -8.0910 1.5106 0.1597 0 1
13.0369 -7.2546 1.4512 0.1774 0 1
12.8854 -6.5064 1.4041 0.1833 0 1
8.7359 -3.9789 0.9337 0.9962 0 9
12.2460 -4.9936 1.2864 0.2012 0 25
12.1609 -4.3976 1.2578 0.2057 0 25
12.0879 -3.8293 1.2333 0.2098 0 25
12.0259 -3.2841 1.2126 0.2134 0 25
11.9740 -2.7580 1.1952 0.2165 0 25
11.9317 -2.2475 1.1810 0.2191 0 2
12.3795 -1.8201 1.2171 0.2232 0 1
5.1164 -0.5432 0.5005 0.2416 25 14
5.0377 -0.3308 0.4911 0.2463 25 14
4.9636 -0.1260 0.4830 0.2430 25 14
4.9273 0.0731 0.4793 0.2448 25 14
5.0419 0.2777 0.4912 0.2462 25 14
5.1588 0.4928 0.5041 0.2399 25 14
12.7454 1.7368 1.2512 0.2075 0 1
12.8783 2.2854 1.2722 0.2054 0 1
13.0100 2.8525 1.2955 0.2018 0 1
13.1571 3.4443 1.3229 0.1967 0 1
13.3238 4.0667 1.3550 0.1920 0 1
13.3969 4.6854 1.3805 0.2014 0 1
13.4507 5.3201 1.4069 0.2032 0 1
13.5051 5.9800 1.4366 0.1990 0 1
11.6474 5.7280 1.2625 0.3823 0 14
10.4717 5.6834 1.1589 0.5591 0 14
9.9714 5.9427 1.1291 0.8795 0 14
9.8535 6.4227 1.1441 0.8802 0 14
9.8625 7.0091 1.1769 0.6430 0 14
13.2405 10.2349 1.6278 0.1585 0 2
13.4978 11.3290 1.7141 0.1505 0 2
13.7988 12.5608 1.8150 0.1422 0 2
14.1538 13.9645 1.9340 0.1334 0 2
13.6250 14.5689 1.9402 0.7224 0 3
12.5385 14.5368 1.8673 0.7493 0 3
11.6832 14.7006 1.8265 0.7750 0 3
10.7372 14.6855 1.7695 0.7995 0 3
6.1349 9.1404 1.0708 0.5622 0 8
9.0210 14.6833 1.6762 0.8445 0 3
8.2242 14.6782 1.6365 0.8650 0 3
7.7482 15.2339 1.6624 0.4645 0 3
7.6933 16.7609 1.7938 0.4305 0 3
7.6279 18.5509 1.9510 0.3958 0 3
8.2302 22.5531 2.3352 0.9144 0 3
7.7136 24.1048 2.4617 0.9458 0 3
7.3335 26.5491 2.6791 0.2885 0 3
2.6711 24.4768 2.3949 0.4063 0 9
1.7525 25.5449 2.4905 0.9208 0 9
0.3873 13.6847 1.3316 0.2550 0 9
-0.1843 15.4728 1.5051 0.3942 0 9
-1.4285 27.3874 2.6675 0.1469 0 9
-36.0970 -34.0337 4.2712 0.9246 0 20
-0.4191 -38.9090 3.3500 0.9956 0 22
6.4417 -42.6117 3.7103 0.9860 0 3
4.7481 -24.6571 2.1618 0.9942 0 6
8.8211 -37.5994 3.3249 0.9716 0 3
8.0621 -29.0579 2.5962 0.2733 0 3
9.5345 -29.6786 2.6837 0.9507 0 3
10.8364 -29.5902 2.7130 0.9379 0 3
12.2357 -29.6612 2.7624 0.9236 0 3
13.0428 -28.3306 2.6851 0.4162 0 3
14.3726 -28.1789 2.7233 0.6467 0 3
15.4807 -27.5557 2.7211 0.8454 0 3
16.3567 -26.5558 2.6852 0.8503 0 3
15.5286 -23.0795 2.3949 0.0955 0 2
14.8257 -20.2292 2.1592 0.1059 0 2
14.2641 -17.9063 1.9709 0.1160 0 2
13.9436 -16.1287 1.8355 0.7700 0 2
14.0532 -14.9927 1.7692 0.1459 0 1
13.8026 -13.5870 1.6674 0.1523 0 1
13.6064 -12.3573 1.5824 0.1514 0 1
13.3514 -11.1803 1.4993 0.1482 0 1
13.1028 -10.1047 1.4245 0.1572 0 1
6.0745 -4.3066 0.6411 0.6653 14 6
12.5964 -8.1902 1.2935 0.1641 0 1
12.3996 -7.3707 1.2419 0.1836 0 1
12.2669 -6.6397 1.2009 0.1862 0 1
12.1515 -5.9587 1.1652 0.1965 0 1
8.8390 -3.9019 0.8318 0.8220 0 9
11.6152 -4.5789 1.0749 0.2133 0 25
11.5500 -4.0248 1.0530 0.2177 0 25
11.4940 -3.4940 1.0343 0.2217 0 25
11.4467 -2.9827 1.0184 0.2251 0 25
11.4072 -2.4875 1.0052 0.2281 0 25
11.8196 -2.0837 1.0333 0.2290 0 1
11.8148 -1.5963 1.0264 0.2318 0 1
4.8840 -0.4609 0.4223 0.2537 25 14
4.8128 -0.2596 0.4149 0.2506 25 14
4.7385 -0.0649 0.4080 0.2548 25 14
4.7585 0.1262 0.4098 0.2537 25 14
4.8691 0.3253 0.4201 0.2550 25 14
4.9784 0.5343 0.4311 0.2486 25 14
12.1731 1.8039 1.0595 0.2187 0 1
12.2801 2.3276 1.0761 0.2152 0 1
12.3977 2.8704 1.0956 0.2114 0 1
12.5278 3.4365 1.1184 0.2071 0 1
12.6728 4.0304 1.1449 0.2014 0 1
12.7398 4.6234 1.1668 0.2111 0 1
12.7860 5.2308 1.1893 0.2071 0 1
12.8372 5.8646 1.2151 0.2085 0 1
11.3562 5.7504 1.0959 0.8262 0 14
10.2540 5.7213 1.0109 0.6467 0 14
9.8778 6.0444 0.9970 0.9605 0 14
9.7902 6.5457 1.0139 0.7691 0 14
9.8496 7.1745 1.0491 0.5139 0 14
12.4696 9.8738 1.3693 0.1670 0 2
12.6779 10.8958 1.4392 0.1588 0 2
12.9203 12.0400 1.5205 0.1504 0 2
13.2044 13.3358 1.6157 0.1415 0 2
13.3070 14.5664 1.6986 0.7311 0 3
12.3868 14.7048 1.6553 0.7577 0 3
11.4038 14.6984 1.6016 0.7831 0 3
10.4811 14.6924 1.5538 0.8072 0 3
6.1668 9.4240 0.9696 0.5501 0 8
8.7852 14.6814 1.4730 0.8515 0 3
7.9993 14.6763 1.4390 0.8716 0 3
7.7937 15.7769 1.5150 0.4517 0 3
7.7405 17.3971 1.6393 0.4174 0 3
7.5960 19.1049 1.7700 0.9233 0 3
8.4802 24.1091 2.2003 0.9376 0 3
7.4036 24.1022 2.1707 0.9503 0 3
7.3853 28.0074 2.4937 0.2746 0 3
3.1676 14.3252 1.2631 0.5606 0 9
1.4056 14.4432 1.2493 0.4325 0 9
0.8166 14.3567 1.2380 0.2586 0 9
0.4218 25.3902 2.1862 0.4634 0 9
-0.3904 16.5469 1.4250 0.4484 0 9
-1.0829 16.9529 1.4625 0.5283 0 9
-36.6390 -33.7450 4.2884 0.9119 0 20
2.2567 -38.8979 3.3545 0.9971 0 22
3.3621 -18.6287 1.6297 0.7103 0 6
9.4160 -42.3541 3.7354 0.9741 0 3
8.0358 -30.3341 2.7016 0.2627 0 3
9.1368 -29.6246 2.6690 0.9541 0 3
10.4750 -29.6725 2.7091 0.9418 0 3
11.8332 -29.6638 2.7495 0.9279 0 3
13.0265 -29.1881 2.7518 0.4061 0 3
13.7688 -27.7925 2.6703 0.6610 0 3
10.0840 -18.4510 1.8103 0.9862 0 9
9.9382 -16.5654 1.6631 0.7538 0 20
11.3050 -17.2335 1.7744 0.5355 0 20
15.0133 -20.9952 2.2221 0.1029 0 2
14.4152 -18.5362 2.0216 0.1131 0 2
13.9302 -16.4989 1.8590 0.1230 0 2
13.8625 -13.9686 1.6943 0.1397 0 1
13.6691 -12.7088 1.6069 0.1491 0 1
13.4325 -11.5177 1.5234 0.1459 0 1
13.1710 -10.4049 1.4451 0.1550 0 1
12.9215 -9.3897 1.3751 0.1544 0 1
12.6647 -8.4467 1.3106 0.1620 0 1
12.4415 -7.5938 1.2549 0.1817 0 1
12.3037 -6.8466 1.2122 0.1881 0 1
12.1357 -6.1278 1.1704 0.1964 0 24
8.7639 -3.9917 0.8291 0.7065 0 9
11.6360 -4.7449 1.0819 0.2119 0 25
11.5679 -4.1832 1.0590 0.2165 0 25
11.5094 -3.6460 1.0394 0.2206 0 25
11.4596 -3.1294 1.0227 0.2242 0 25
11.4179 -2.6299 1.0087 0.2273 0 25
11.6521 -2.1948 1.0208 0.2321 0 2
11.7707 -1.7306 1.0243 0.2311 0 24
4.9054 -0.5208 0.4247 0.2523 25 14
4.8337 -0.3174 0.4170 0.2569 25 14
4.7596 -0.1208 0.4099 0.2536 25 14
4.7275 0.0701 0.4070 0.2554 25 14
4.8369 0.2664 0.4171 0.2493 25 14
4.9458 0.4724 0.4277 0.2505 25 14
12.1437 1.6548 1.0552 0.2196 0 1
12.2480 2.1736 1.0709 0.2148 0 1
12.3623 2.7105 1.0896 0.2125 0 1
12.4886 3.2694 1.1114 0.2084 0 1
12.6285 3.8545 1.1367 0.2028 0 1
12.7282 4.4516 1.1609 0.2122 0 1
12.7716 5.0515 1.1824 0.2083 0 1
12.8242 5.6785 1.2075 0.2098 0 1
11.6876 5.7478 1.1213 0.3705 0 14
10.4645 5.6795 1.0251 0.6378 0 14
9.9333 5.9200 0.9955 0.9517 0 14
9.8060 6.3918 1.0077 0.7738 0 14
9.8060 6.9689 1.0357 0.6753 0 14
12.4146 9.5965 1.3509 0.1692 0 2
12.6141 10.5873 1.4178 0.1612 0 2
12.8460 11.6934 1.4955 0.1529 0 2
13.1170 12.9416 1.5864 0.1441 0 2
13.4368 14.3678 1.6936 0.1350 0 2
12.5381 14.5363 1.6527 0.7501 0 3
11.6828 14.7002 1.6166 0.7758 0 3
10.7368 14.6850 1.5662 0.8003 0 3
6.1737 9.1983 0.9537 0.5593 0 8
9.0207 14.6829 1.4836 0.8454 0 3
8.2239 14.6778 1.4485 0.8659 0 3
7.8076 15.3507 1.4827 0.4615 0 3
7.7539 16.8930 1.6003 0.4274 0 3
7.6966 18.7181 1.7424 0.3927 0 3
8.2526 22.6145 2.0725 0.9128 0 3
7.7135 24.1042 2.1789 0.9468 0 3
7.4245 26.8784 2.4007 0.2852 0 3
2.7634 14.4385 1.2656 0.2786 0 9
2.7487 25.1884 2.1814 0.1174 0 9
0.6763 23.8977 2.0583 0.2349 0 9
-1.3380 25.6521 2.2115 0.3886 0 9
-2.3408 25.2851 2.1862 0.2108 0 9
-30.6349 17.9691 2.6616 0.7884 0 3
-30.5390 16.2999 2.5942 0.8434 0 3
-35.9034 -33.8512 3.6979 0.8629 0 20
-0.4192 -38.9129 2.9163 0.9964 0 22
4.7577 -24.7065 1.8855 0.6149 0 6
9.9359 -42.3510 3.2599 0.9724 0 3
8.1676 -29.4383 2.2894 0.2701 0 3
9.5347 -29.6793 2.3361 0.9515 0 3
10.8367 -29.5912 2.3616 0.9875 0 3
12.2360 -29.6619 2.4046 0.9244 0 3
13.1544 -28.5731 2.3573 0.4130 0 3
14.0527 -27.5519 2.3178 0.8646 0 3
10.3656 -18.4508 1.5860 0.2763 0 9
10.2435 -16.6308 1.4638 0.3174 0 20
13.9851 -20.7854 1.8774 0.1061 0 2
13.4839 -18.3983 1.7094 0.1165 0 2
13.0763 -16.4152 1.5727 0.1266 0 2
13.0598 -13.9328 1.4311 0.1546 0 1
12.8845 -12.6833 1.3549 0.1541 0 1
12.6879 -11.5231 1.2844 0.1519 0 1
12.4675 -10.4401 1.2186 0.1601 0 1
12.2549 -9.4508 1.1598 0.1586 0 1
6.1232 -4.3412 0.5625 0.3345 14 6
11.8360 -7.6958 1.0580 0.1772 0 1
11.7140 -6.9632 1.0212 0.1908 0 1
11.6116 -6.2850 0.9895 0.2011 0 1
11.1965 -5.4904 0.9345 0.2137 0 25
8.8409 -3.9027 0.7242 0.9001 0 9
11.0685 -4.3634 0.8916 0.2240 0 25
11.0168 -3.8390 0.8743 0.2285 0 25
10.9725 -3.3354 0.8594 0.2324 0 25
10.9349 -2.8493 0.8468 0.2359 0 25
10.9036 -2.3777 0.8363 0.2388 0 25
11.3001 -1.9921 0.8599 0.2406 0 1
6.1028 -0.8246 0.4615 0.9607 25 14
4.6919 -0.4428 0.3532 0.2643 25 14
4.6209 -0.2493 0.3468 0.2612 25 14
4.5526 -0.0623 0.3412 0.2655 25 14
4.5722 0.1212 0.3428 0.2643 25 14
4.6748 0.3123 0.3511 0.2580 25 14
4.7799 0.5130 0.3603 0.2591 25 14
11.6123 1.7208 0.8797 0.2294 0 1
11.7051 2.2186 0.8928 0.2265 0 1
11.8047 2.7331 0.9080 0.2208 0 1
11.9175 3.2691 0.9261 0.2165 0 1
12.0416 3.8297 0.9469 0.2117 0 1
12.1339 4.4035 0.9673 0.2241 0 1
12.1663 4.9772 0.9851 0.2201 0 1
12.2064 5.5764 1.0057 0.2156 0 1
11.4124 5.7789 0.9586 0.7516 0 14
10.2655 5.7277 0.8809 0.6466 0 14
9.9185 6.0693 0.8714 0.9070 0 14
9.8533 6.5879 0.8882 0.8688 0 14
9.9022 7.2129 0.9181 0.5116 0 14
11.7293 9.2877 1.1212 0.1776 0 2
11.8893 10.2180 1.1748 0.1695 0 2
12.0742 11.2516 1.2368 0.1610 0 2
12.2893 12.4116 1.3089 0.1522 0 2
12.5416 13.7285 1.3935 0.1429 0 2
12.3442 14.6542 1.4359 0.7584 0 3
11.4035 14.6979 1.3941 0.7838 0 3
10.4808 14.6920 1.3524 0.8079 0 3
6.2066 9.4849 0.8495 0.5471 0 8
8.7850 14.6810 1.2821 0.8523 0 3
7.9991 14.6759 1.2526 0.8724 0 3
7.8552 15.9012 1.3291 0.4485 0 3
7.8066 17.5456 1.4391 0.4142 0 3
7.5963 19.1058 1.5408 0.5484 0 3
8.4800 24.1085 1.9152 0.9384 0 3
7.4399 24.2205 1.8988 0.3078 0 3
3.8598 14.6374 1.1344 0.3932 0 9
2.6308 14.6724 1.1171 0.9808 0 9
1.5265 15.6847 1.1810 0.8141 0 9
1.3903 24.4451 1.8349 0.9338 0 9
0.2647 15.9310 1.1940 0.5756 0 9
-0.5978 25.3376 1.8993 0.2363 0 9
-1.6606 15.9104 1.1988 0.1225 0 9
-30.6449 18.4595 2.6810 0.7827 0 3
-30.6203 16.8058 2.6176 0.5470 0 3
-36.5711 -33.6825 3.7259 0.9234 0 20
2.2563 -38.8916 2.9194 0.9625 0 22
9.4162 -42.3549 3.2516 0.9748 0 3
8.1453 -30.7476 2.3837 0.2594 0 3
9.1370 -29.6254 2.3233 0.9549 0 3
10.0796 -28.5522 2.2691 0.2104 0 3
11.8335 -29.6645 2.3934 0.9287 0 3
13.1408 -29.4442 2.4163 0.4029 0 3
13.7271 -27.7084 2.3173 0.6127 0 3
10.1044 -18.4885 1.5789 0.9963 0 9
9.9410 -16.5701 1.4481 0.9278 0 20
14.1527 -21.5745 1.9336 0.1030 0 2
13.6186 -19.0448 1.7546 0.1135 0 2
13.1866 -16.9564 1.6097 0.1237 0 2
13.5336 -16.0292 1.5721 0.1466 0 2
13.1347 -14.3449 1.4576 0.1415 0 1
12.9381 -13.0371 1.3764 0.1517 0 1
12.7598 -11.8634 1.3057 0.1483 0 1
12.5283 -10.7424 1.2367 0.1578 0 1
12.3265 -9.7378 1.1772 0.1571 0 1
12.0915 -8.7866 1.1201 0.1642 0 1
6.2422 -4.1633 0.5623 0.5588 14 7
11.7476 -7.1702 1.0314 0.1889 0 1
11.6375 -6.4759 0.9980 0.1994 0 1
11.5539 -5.8341 0.9700 0.2056 0 1
8.7829 -4.0003 0.7232 0.9893 0 9
11.0849 -4.5201 0.8971 0.2227 0 25
11.0311 -3.9890 0.8791 0.2272 0 25
10.9847 -3.4798 0.8635 0.2313 0 25
10.9452 -2.9890 0.8503 0.2349 0 25
10.9120 -2.5134 0.8392 0.2380 0 25
11.3029 -2.1290 0.8619 0.2391 0 1
6.0829 -0.8943 0.4608 0.9623 25 14
4.7114 -0.5002 0.3551 0.2629 25 14
4.6415 -0.3048 0.3486 0.2599 25 14
4.5720 -0.1160 0.3427 0.2643 25 14
4.5436 0.0674 0.3405 0.2660 25 14
4.6443 0.2558 0.3486 0.2599 25 14
4.7501 0.4537 0.3576 0.2611 25 14
11.5865 1.5789 0.8763 0.2303 0 1
11.6782 2.0725 0.8888 0.2271 0 1
11.7738 2.5815 0.9033 0.2219 0 1
11.8836 3.1110 0.9206 0.2178 0 1
12.0043 3.6640 0.9406 0.2131 0 1
12.1249 4.2406 0.9626 0.2214 0 1
12.1561 4.8081 0.9796 0.2213 0 1
12.1939 5.3994 0.9994 0.2169 0 1
12.2400 6.0194 1.0222 0.2121 0 1
10.5024 5.7001 0.8955 0.5625 0 14
9.9769 5.9460 0.8704 0.9484 0 14
9.8659 6.4308 0.8825 0.8830 0 14
9.8581 7.0059 0.9063 0.6401 0 14
11.6869 9.0340 1.1070 0.1799 0 2
11.8405 9.9380 1.1584 0.1719 0 2
12.0176 10.9394 1.2178 0.1635 0 2
12.2234 12.0599 1.2868 0.1548 0 2
12.4640 13.3275 1.3675 0.1457 0 2
12.5377 14.5359 1.4385 0.7508 0 3
11.6825 14.6997 1.4071 0.7765 0 3
10.7432 14.6937 1.3641 0.8011 0 3
9.8582 14.6879 1.3256 0.8243 0 3
8.4881 13.8160 1.2152 0.8503 0 21
8.2237 14.6774 1.2608 0.8667 0 3
7.8678 15.4691 1.3006 0.4584 0 3
7.8216 17.0405 1.4051 0.4243 0 3
7.7665 18.8880 1.5304 0.3895 0 3
8.2729 22.6700 1.8085 0.9522 0 3
7.7133 24.1036 1.8965 0.9476 0 3
7.5176 27.2154 2.1159 0.2820 0 3
3.3940 14.5412 1.1190 0.3206 0 9
2.5177 23.0715 1.7392 0.3506 0 9
1.5710 22.8999 1.7201 0.5054 0 9
0.6370 22.5091 1.6875 0.9693 0 6
-0.3108 26.1016 1.9562 0.5488 0 9
-1.4636 15.8097 1.1898 0.1651 0 9
-30.9802 25.6360 2.5657 0.3048 0 3
-31.1743 23.7521 2.5006 0.3127 0 3
-31.2937 21.9128 2.4375 0.7510 0 3
-31.4383 20.1810 2.3836 0.7724 0 3
-31.6592 18.5699 2.3419 0.3340 0 3
