ply
format ascii 1.0
element vertex 1376
property float32 x
property float32 y
property float32 z
property float32 CosAngle
property uint32 ObjIdx
property uint32 ObjTag
end_header
3.4375 -8.9781 -1.7501 0.2873 0 1
3.6507 -8.4950 -1.6832 0.2987 0 1
3.8450 -8.0394 -1.6223 0.3093 0 1
4.0222 -7.6079 -1.5666 0.3233 0 1
4.1860 -7.2010 -1.5163 0.3340 0 1
4.3363 -6.8134 -1.4703 0.3444 0 1
4.4722 -6.4396 -1.4273 0.3455 0 1
4.5824 -6.0626 -1.3835 0.3565 0 1
4.6828 -5.7032 -1.3434 0.3671 0 1
4.7757 -5.3613 -1.3071 0.3808 0 1
4.8615 -5.0345 -1.2741 0.3907 0 1
4.9399 -4.7201 -1.2438 0.4002 0 1
5.0114 -4.4169 -1.2161 0.4093 0 1
5.0743 -4.1219 -1.1901 0.4078 0 1
5.1325 -3.8372 -1.1666 0.4329 0 1
5.1972 -3.5689 -1.1477 0.4401 0 1
5.2580 -3.3076 -1.1308 0.4467 0 1
5.3139 -3.0517 -1.1155 0.4528 0 1
5.3652 -2.8005 -1.1018 0.4585 0 1
5.4122 -2.5535 -1.0894 0.4636 0 1
5.4550 -2.3103 -1.0784 0.4684 0 1
5.4939 -2.0704 -1.0688 0.4727 0 1
5.5290 -1.8332 -1.0604 0.4764 0 1
5.5604 -1.5985 -1.0533 0.4796 0 1
4.0038 -0.9785 -0.7503 0.5376 25 14
3.8385 -0.7760 -0.7129 0.9689 25 14
3.8368 -0.6163 -0.7074 0.9765 25 14
3.8351 -0.4587 -0.7031 0.9824 25 14
3.8329 -0.3027 -0.6999 0.9745 25 14
3.8304 -0.1478 -0.6978 0.9774 25 14
3.8201 0.0063 -0.6954 0.8657 25 14
3.8288 0.1604 -0.6976 0.8630 25 14
3.8305 0.3152 -0.6997 0.9749 25 14
3.8316 0.4711 -0.7028 0.9705 25 14
3.8329 0.6286 -0.7071 0.9646 25 14
3.8368 0.7889 -0.7131 0.5623 25 14
4.2162 1.0452 -0.7908 0.8614 25 14
5.7157 1.6636 -1.0837 0.4608 0 1
5.7051 1.9126 -1.0954 0.4558 0 1
5.6887 2.1652 -1.1081 0.4560 0 1
5.6618 2.4199 -1.1209 0.4462 0 1
5.6300 2.6790 -1.1350 0.4406 0 1
5.5938 2.9433 -1.1507 0.4346 0 1
5.5530 3.2134 -1.1680 0.4282 0 1
5.5072 3.4898 -1.1869 0.4208 0 1
5.4561 3.7733 -1.2077 0.4136 0 1
5.3995 4.0646 -1.2303 0.4060 0 1
5.3347 4.3627 -1.2546 0.4096 0 1
5.2567 4.6640 -1.2793 0.4016 0 1
5.1719 4.9745 -1.3063 0.3933 0 1
5.0795 5.2952 -1.3358 0.3847 0 1
4.9792 5.6270 -1.3678 0.3757 0 1
4.8709 5.9724 -1.4030 0.3646 0 1
4.7568 6.3367 -1.4424 0.3546 0 1
4.6166 6.6945 -1.4804 0.3822 0 1
4.4560 7.0527 -1.5187 0.3726 0 1
4.2835 7.4250 -1.5605 0.3626 0 1
4.1071 7.8309 -1.6097 0.3425 0 1
3.9199 8.2662 -1.6655 0.3310 0 1
3.7159 8.7260 -1.7266 0.3193 0 1
3.4897 9.2053 -1.7922 0.3091 0 1
3.2467 9.7278 -1.8669 0.2967 0 1
2.9792 10.2869 -1.9496 0.2842 0 1
2.7100 10.9944 -2.0614 0.2573 0 2
2.3836 11.6719 -2.1687 0.2436 0 2
2.0192 12.4156 -2.2899 0.2296 0 2
1.6097 13.2390 -2.4279 0.2153 0 2
1.1463 14.1612 -2.5864 0.1993 0 2
0.6103 15.0442 -2.7410 0.1850 0 1
0.0051 16.2368 -2.9558 0.1692 0 1
-0.7048 17.6511 -3.2159 0.1500 0 1
-1.5495 19.2944 -3.5238 0.1427 0 1
-2.5417 21.0149 -3.8535 0.1349 0 1
-3.7261 23.0030 -4.2422 0.1247 0 1
-5.1515 25.3070 -4.7015 0.1180 0 1
-6.8716 27.9537 -5.2404 0.1028 0 1
-9.1051 31.5132 -5.9715 0.0786 0 1
-12.1835 36.5817 -7.0192 0.0717 0 1
-16.5638 43.7768 -8.5208 0.0656 0 2
-16.2601 28.2266 -5.9301 0.5382 0 15
-28.7764 38.3841 -8.7333 0.6112 0 3
-28.8915 35.4706 -8.3282 0.6409 0 3
-28.8260 32.6182 -7.9245 0.9689 0 3
-29.0817 30.3545 -7.6527 0.6975 0 3
-28.5953 27.5391 -7.2272 0.6023 0 3
-29.2299 25.9672 -7.1177 0.7499 0 3
-20.1500 16.4999 -4.7411 0.6053 0 22
-29.3435 22.1181 -6.6894 0.7978 0 3
-29.3917 20.3539 -6.5084 0.8200 0 3
-29.4342 18.6781 -6.3462 0.8410 0 3
-34.2153 19.8285 -7.1991 0.8607 0 3
-31.6524 16.6802 -6.5133 0.4930 0 3
-39.3382 18.7495 -7.9332 0.8961 0 3
-44.3275 18.9794 -8.7782 0.9118 0 3
-27.7571 9.3247 -5.3306 0.9633 0 22
-27.7304 8.0902 -5.2586 0.9233 0 22
-31.4106 -18.0121 -6.5916 0.8296 0 22
-25.7449 -17.6552 -5.6829 0.4172 15 6
-32.3498 -33.4587 -8.4725 0.9660 0 20
-31.1871 -34.9669 -8.5296 0.9921 0 20
-16.4970 -43.0061 -8.3853 0.4079 0 2
-12.4721 -36.8859 -7.0884 0.0662 0 1
-9.3254 -31.7318 -6.0209 0.0811 0 1
-6.9393 -27.6832 -5.1955 0.0855 0 1
-5.0741 -24.3576 -4.5294 0.0969 0 1
-3.6245 -21.7464 -4.0134 0.1190 0 24
-2.5040 -19.9391 -3.6583 0.1303 0 1
-1.5589 -18.3605 -3.3545 0.1496 0 1
-0.7572 -17.0151 -3.1006 0.1392 0 1
-0.0671 -15.8059 -2.8774 0.1782 0 1
0.5309 -14.7485 -2.6866 0.1893 0 1
1.0553 -13.8217 -2.5235 0.2081 0 1
1.5139 -12.9436 -2.3724 0.2178 0 24
1.9214 -12.1648 -2.2420 0.2265 0 24
2.2860 -11.4603 -2.1274 0.2357 0 1
2.6074 -10.7899 -2.0208 0.2502 0 1
2.8964 -10.1746 -1.9258 0.2626 0 1
3.1568 -9.6042 -1.8404 0.2755 0 1
3.3934 -9.0761 -1.7640 0.2850 0 1
3.6105 -8.5872 -1.6958 0.2965 0 1
3.8085 -8.1267 -1.6338 0.3077 0 1
3.9885 -7.6899 -1.5770 0.3182 0 1
4.1550 -7.2789 -1.5258 0.3319 0 1
4.3079 -6.8878 -1.4789 0.3424 0 1
4.4485 -6.5142 -1.4360 0.3527 0 1
4.5617 -6.1348 -1.3917 0.3543 0 1
4.6639 -5.7722 -1.3509 0.3650 0 1
4.7580 -5.4267 -1.3139 0.3788 0 1
4.8454 -5.0974 -1.2803 0.3888 0 1
4.9251 -4.7807 -1.2495 0.3984 0 1
4.9979 -4.4753 -1.2213 0.4076 0 1
5.0628 -4.1791 -1.1951 0.4061 0 1
5.1193 -3.8904 -1.1705 0.4315 0 1
5.1847 -3.6207 -1.1512 0.4387 0 1
5.2465 -3.3583 -1.1340 0.4454 0 1
5.3034 -3.1013 -1.1184 0.4516 0 1
5.3556 -2.8492 -1.1043 0.4574 0 1
5.4033 -2.6015 -1.0917 0.4627 0 1
5.4469 -2.3576 -1.0805 0.4675 0 1
5.4866 -2.1170 -1.0706 0.4719 0 1
5.5224 -1.8794 -1.0620 0.4757 0 1
5.5546 -1.6443 -1.0546 0.4790 0 1
4.1854 -1.0579 -0.7859 0.8667 25 14
3.8494 -0.8098 -0.7161 0.6494 25 14
3.8371 -0.6473 -0.7084 0.9751 25 14
3.8354 -0.4893 -0.7039 0.9814 25 14
3.8334 -0.3331 -0.7005 0.9737 25 14
3.8309 -0.1780 -0.6982 0.9770 25 14
3.8212 -0.0237 -0.6956 0.8654 25 14
3.8271 0.1302 -0.6971 0.8636 25 14
3.8302 0.2849 -0.6992 0.9755 25 14
3.8314 0.4405 -0.7021 0.9715 25 14
3.8326 0.5976 -0.7061 0.9659 25 14
3.8339 0.7569 -0.7114 0.9588 25 14
3.9980 0.9578 -0.7484 0.5357 25 14
5.7174 1.6154 -1.0816 0.4617 0 1
5.7075 1.8636 -1.0930 0.4568 0 1
5.6923 2.1155 -1.1055 0.4570 0 1
5.6675 2.3698 -1.1183 0.4472 0 1
5.6366 2.6280 -1.1322 0.4418 0 1
5.6013 2.8912 -1.1475 0.4358 0 1
5.5613 3.1601 -1.1645 0.4295 0 1
5.5165 3.4352 -1.1831 0.4222 0 1
5.4665 3.7173 -1.2034 0.4150 0 1
5.4110 4.0070 -1.2257 0.4075 0 1
5.3492 4.3048 -1.2500 0.4111 0 1
5.2725 4.6044 -1.2743 0.4032 0 1
5.1890 4.9131 -1.3009 0.3950 0 1
5.0982 5.2316 -1.3298 0.3864 0 1
4.9995 5.5612 -1.3613 0.3774 0 1
4.8921 5.9029 -1.3957 0.3665 0 1
4.7799 6.2642 -1.4344 0.3566 0 1
4.6466 6.6260 -1.4733 0.3840 0 1
4.4883 6.9816 -1.5110 0.3745 0 1
4.3182 7.3510 -1.5520 0.3646 0 1
4.1418 7.7484 -1.5994 0.3447 0 1
3.9578 8.1793 -1.6542 0.3333 0 1
3.7572 8.6341 -1.7142 0.3216 0 1
3.5355 9.1094 -1.7788 0.3156 0 1
3.2960 9.6229 -1.8517 0.2992 0 1
3.0336 10.1745 -1.9328 0.2866 0 1
2.7440 10.7669 -2.0227 0.2739 0 1
2.4503 11.5349 -2.1467 0.2461 0 2
2.0938 12.2646 -2.2650 0.2321 0 2
1.6938 13.0714 -2.3995 0.2178 0 2
1.2416 13.9718 -2.5535 0.2033 0 2
0.7186 14.8344 -2.7037 0.1876 0 1
0.1308 15.9893 -2.9109 0.1718 0 1
-0.5562 17.3496 -3.1600 0.1526 0 1
-1.3743 18.9821 -3.4646 0.1451 0 1
-2.3345 20.6637 -3.7857 0.1373 0 1
-3.4775 22.5922 -4.1613 0.1243 0 1
-4.8517 24.8320 -4.6060 0.1149 0 1
-6.5037 27.3841 -5.1238 0.1092 0 1
-8.6021 30.6751 -5.7997 0.0869 0 1
-11.5122 35.4946 -6.7930 0.0740 0 1
-15.3633 41.5892 -8.0712 0.0666 0 1
-16.2092 28.6569 -5.9936 0.5325 0 15
-17.2630 27.8440 -5.9640 0.0340 0 15
-31.3388 -16.6473 -6.8672 0.8628 0 22
-31.2611 -18.2545 -7.0055 0.9015 0 22
-32.1174 -33.7453 -9.0153 0.9957 0 20
-30.6742 -34.9412 -8.9976 0.9988 0 20
-17.2150 -40.8712 -8.5823 0.0590 0 2
-13.4363 -35.8682 -7.4122 0.0621 0 1
-10.2133 -31.0069 -6.3175 0.0807 0 1
-7.7342 -27.1037 -5.4544 0.0874 0 24
-5.8155 -23.9987 -4.7786 0.0965 0 1
-4.3038 -21.5056 -4.2442 0.1169 0 24
-3.1252 -19.7049 -3.8609 0.1331 0 1
-2.1419 -18.2136 -3.5489 0.1547 0 1
-1.3002 -16.8880 -3.2778 0.1624 0 1
-0.5765 -15.7406 -3.0481 0.1784 0 1
0.0532 -14.7121 -2.8471 0.1895 0 1
0.6058 -13.8089 -2.6748 0.2083 0 1
1.0919 -12.9572 -2.5163 0.2187 0 24
1.5283 -12.2326 -2.3856 0.2276 0 1
1.9051 -11.4749 -2.2510 0.2360 0 24
2.2511 -10.8403 -2.1425 0.2504 0 1
2.5583 -10.2333 -2.0413 0.2628 0 1
2.8351 -9.6696 -1.9500 0.2747 0 1
3.0862 -9.1465 -1.8681 0.2880 0 1
3.3147 -8.6574 -1.7940 0.2999 0 1
3.5243 -8.2008 -1.7273 0.3087 0 1
3.7163 -7.7704 -1.6668 0.3194 0 1
3.8932 -7.3639 -1.6119 0.3333 0 1
4.0559 -6.9772 -1.5618 0.3440 0 1
4.2056 -6.6079 -1.5158 0.3544 0 1
4.3385 -6.2472 -1.4719 0.3554 0 1
4.4496 -5.8868 -1.4280 0.3663 0 1
4.5510 -5.5426 -1.3878 0.3805 0 1
4.6458 -5.2155 -1.3517 0.3906 0 1
4.7326 -4.9010 -1.3184 0.4005 0 1
4.8119 -4.5978 -1.2879 0.4100 0 1
4.8826 -4.3034 -1.2595 0.4088 0 1
4.9450 -4.0168 -1.2329 0.4176 0 1
5.0091 -3.7449 -1.2103 0.4427 0 1
5.0741 -3.4844 -1.1911 0.4498 0 1
5.1352 -3.2304 -1.1740 0.4564 0 1
5.1915 -2.9814 -1.1585 0.4625 0 1
5.2431 -2.7367 -1.1445 0.4682 0 1
5.2904 -2.4960 -1.1320 0.4733 0 1
5.3334 -2.2588 -1.1209 0.4781 0 1
5.3725 -2.0246 -1.1111 0.4823 0 1
5.4078 -1.7931 -1.1025 0.4861 0 1
5.4394 -1.5637 -1.0952 0.4893 0 1
4.0210 -0.9828 -0.8010 0.0491 25 14
3.8365 -0.7756 -0.7575 0.9674 25 14
3.8348 -0.6159 -0.7516 0.9749 25 14
3.8331 -0.4584 -0.7471 0.9809 25 14
3.8314 -0.3025 -0.7437 0.9852 25 14
3.8296 -0.1478 -0.7416 0.9880 25 14
3.8265 0.0063 -0.7405 0.9979 25 14
3.8291 0.1604 -0.7416 0.9880 25 14
3.8301 0.3152 -0.7437 0.9853 25 14
3.8310 0.4710 -0.7470 0.9810 25 14
3.8319 0.6284 -0.7515 0.9751 25 14
3.8353 0.7886 -0.7577 0.6511 25 14
4.1826 1.0369 -0.8339 0.8665 25 14
5.5860 1.6259 -1.1259 0.4705 0 1
5.5743 1.8687 -1.1377 0.4656 0 1
5.5573 2.1152 -1.1507 0.4604 0 1
5.5289 2.3631 -1.1636 0.4554 0 1
5.4962 2.6153 -1.1779 0.4498 0 1
5.4590 2.8724 -1.1937 0.4438 0 1
5.4171 3.1348 -1.2112 0.4375 0 1
5.3703 3.4031 -1.2303 0.4306 0 1
5.3182 3.6779 -1.2513 0.4234 0 1
5.2605 3.9599 -1.2742 0.4158 0 1
5.1976 4.2506 -1.2993 0.4078 0 1
5.1201 4.5428 -1.3246 0.4115 0 1
5.0346 4.8425 -1.3518 0.4032 0 1
4.9418 5.1516 -1.3815 0.3946 0 1
4.8410 5.4708 -1.4137 0.3856 0 1
4.7320 5.8021 -1.4489 0.3745 0 1
4.6175 6.1510 -1.4884 0.3646 0 1
4.4910 6.5125 -1.5309 0.3921 0 1
4.3318 6.8561 -1.5694 0.3824 0 1
4.1608 7.2125 -1.6113 0.3725 0 1
3.9834 7.5951 -1.6597 0.3524 0 1
3.7980 8.0090 -1.7153 0.3409 0 1
3.5962 8.4449 -1.7762 0.3292 0 1
3.3751 8.9032 -1.8426 0.3232 0 1
3.1346 9.3921 -1.9161 0.3067 0 1
2.8720 9.9167 -1.9979 0.2942 0 1
2.5822 10.4757 -2.0879 0.2791 0 1
2.2632 11.0822 -2.1889 0.2556 0 1
1.9126 11.7604 -2.3057 0.2426 0 1
1.5199 12.5006 -2.4369 0.2296 0 1
1.0786 13.3246 -2.5870 0.2148 0 1
0.5770 14.2250 -2.7551 0.1953 0 1
0.0048 15.2588 -2.9529 0.1735 0 1
-0.6585 16.4909 -3.1938 0.1661 0 1
-1.4412 17.9456 -3.4840 0.1502 0 1
-2.3524 19.4495 -3.7913 0.1424 0 1
-3.4262 21.1515 -4.1465 0.1324 0 1
-4.7042 23.1096 -4.5638 0.1221 0 1
-6.2397 25.3831 -5.0583 0.1160 0 1
-8.0840 27.9792 -5.6360 0.0962 0 1
-10.5982 31.8216 -6.4906 0.0799 0 1
-13.8868 36.7016 -7.5938 0.0718 0 1
-17.6332 41.4810 -8.7225 0.0581 0 2
-15.9146 30.3906 -6.6387 0.5027 0 15
-16.8385 29.2307 -6.5281 0.5420 0 15
-16.5104 26.1683 -5.9877 0.8929 0 15
-27.6422 40.1386 -9.4313 0.5829 0 3
-28.6085 38.1601 -9.2295 0.6135 0 3
-30.6759 37.6612 -9.3998 0.7656 0 3
-28.8381 32.6319 -8.4274 0.6719 0 3
-28.9329 30.1992 -8.0934 0.6996 0 3
-29.0166 27.9448 -7.7959 0.7263 0 3
-18.6037 16.5271 -4.8156 0.6846 0 6
-27.5963 22.5973 -6.9024 0.1826 0 3
-29.2122 22.0190 -7.0791 0.7997 0 3
-29.2637 20.2653 -6.8884 0.8219 0 3
-29.3091 18.5987 -6.7174 0.8428 0 3
-30.6713 17.7747 -6.8601 0.4981 0 3
-33.6906 17.7543 -7.3696 0.4637 0 3
-39.1813 18.6748 -8.3995 0.8978 0 3
-39.1709 16.7715 -8.2459 0.5633 0 3
-27.6635 9.2932 -5.6474 0.9137 0 22
-27.6547 8.0681 -5.5748 0.9664 0 22
-31.3408 -16.3337 -6.8393 0.8779 0 22
-31.2656 -17.9289 -6.9747 0.9119 0 22
-32.3643 -33.4737 -9.0104 0.9959 0 20
-30.9617 -34.7142 -9.0016 0.9975 0 20
-18.2337 -42.3555 -8.9238 0.0567 0 2
-14.2107 -37.0459 -7.6784 0.0604 0 24
-10.7645 -31.8357 -6.5034 0.0790 0 1
-8.1985 -27.8973 -5.6269 0.0851 0 1
-6.1587 -24.5691 -4.9017 0.0941 0 1
-4.5681 -21.9287 -4.3347 0.1147 0 24
-3.3392 -20.0346 -3.9305 0.1279 0 1
-2.3211 -18.4827 -3.6048 0.1523 0 1
-1.4547 -17.1338 -3.3276 0.1600 0 1
-0.7100 -15.9543 -3.0905 0.1760 0 1
-0.0633 -14.9050 -2.8844 0.1871 0 1
0.5031 -13.9776 -2.7067 0.2066 0 1
1.0037 -13.1461 -2.5514 0.2184 0 1
1.4479 -12.3799 -2.4121 0.2251 0 1
1.8339 -11.6107 -2.2747 0.2333 0 24
2.1871 -10.9646 -2.1636 0.2479 0 1
2.5007 -10.3483 -2.0602 0.2604 0 1
2.7832 -9.7767 -1.9671 0.2723 0 1
3.0390 -9.2458 -1.8834 0.2856 0 1
3.2717 -8.7507 -1.8079 0.2976 0 1
3.4846 -8.2877 -1.7398 0.3065 0 1
3.6801 -7.8529 -1.6783 0.3172 0 1
3.8597 -7.4416 -1.6223 0.3311 0 1
4.0252 -7.0514 -1.5712 0.3419 0 1
4.1773 -6.6788 -1.5245 0.3524 0 1
4.3156 -6.3196 -1.4809 0.3533 0 1
4.4287 -5.9559 -1.4363 0.3642 0 1
4.5318 -5.6086 -1.3954 0.3749 0 1
4.6279 -5.2784 -1.3585 0.3887 0 1
4.7162 -4.9616 -1.3247 0.3986 0 1
4.7970 -4.6563 -1.2937 0.4081 0 1
4.8697 -4.3605 -1.2650 0.4070 0 1
4.9332 -4.0721 -1.2379 0.4159 0 1
4.9958 -3.7965 -1.2143 0.4412 0 1
5.0616 -3.5347 -1.1947 0.4484 0 1
5.1237 -3.2797 -1.1773 0.4551 0 1
5.1809 -3.0297 -1.1614 0.4613 0 1
5.2334 -2.7843 -1.1472 0.4671 0 1
5.2815 -2.5428 -1.1343 0.4724 0 1
5.3253 -2.3049 -1.1229 0.4772 0 1
5.3652 -2.0702 -1.1129 0.4816 0 1
5.4012 -1.8381 -1.1041 0.4854 0 1
5.4335 -1.6084 -1.0966 0.4887 0 1
4.1523 -1.0495 -0.8288 0.8718 25 14
3.8468 -0.8092 -0.7607 0.6485 25 14
3.8352 -0.6470 -0.7527 0.9736 25 14
3.8335 -0.4891 -0.7479 0.9798 25 14
3.8317 -0.3329 -0.7443 0.9845 25 14
3.8300 -0.1780 -0.7420 0.9876 25 14
3.8268 -0.0238 -0.7406 0.9978 25 14
3.8288 0.1303 -0.7414 0.9884 25 14
3.8299 0.2848 -0.7432 0.9860 25 14
3.8308 0.4404 -0.7462 0.9820 25 14
3.8317 0.5975 -0.7505 0.9764 25 14
3.8326 0.7567 -0.7560 0.9693 25 14
3.9859 0.9549 -0.7932 0.5396 25 14
5.5879 1.5789 -1.1237 0.4714 0 1
5.5769 1.8209 -1.1353 0.4666 0 1
5.5622 2.0671 -1.1483 0.4613 0 1
5.5348 2.3143 -1.1609 0.4564 0 1
5.5029 2.5657 -1.1750 0.4509 0 1
5.4666 2.8217 -1.1905 0.4450 0 1
5.4257 3.0830 -1.2076 0.4387 0 1
5.3798 3.3501 -1.2264 0.4320 0 1
5.3288 3.6236 -1.2471 0.4249 0 1
5.2722 3.9042 -1.2696 0.4173 0 1
5.2103 4.1930 -1.2942 0.4094 0 1
5.1359 4.4852 -1.3195 0.4131 0 1
5.0519 4.7832 -1.3463 0.4049 0 1
4.9605 5.0904 -1.3755 0.3963 0 1
4.8613 5.4076 -1.4072 0.3874 0 1
4.7536 5.7359 -1.4416 0.3781 0 1
4.6406 6.0817 -1.4804 0.3666 0 1
4.5179 6.4424 -1.5227 0.3564 0 1
4.3638 6.7880 -1.5616 0.3843 0 1
4.1952 7.1417 -1.6029 0.3745 0 1
4.0179 7.5166 -1.6494 0.3546 0 1
3.8355 7.9264 -1.7040 0.3432 0 1
3.6370 8.3578 -1.7639 0.3316 0 1
3.4203 8.8127 -1.8293 0.3256 0 1
3.1831 9.2934 -1.9010 0.3091 0 1
2.9253 9.8114 -1.9813 0.2966 0 1
2.6412 10.3635 -2.0696 0.2816 0 1
2.3276 10.9575 -2.1678 0.2668 0 1
1.9843 11.6232 -2.2818 0.2452 0 1
1.6003 12.3505 -2.4100 0.2321 0 1
1.1631 13.0879 -2.5427 0.2112 0 24
0.6800 14.0371 -2.7196 0.1978 0 1
0.1231 15.0438 -2.9113 0.1848 0 1
-0.5206 16.2407 -3.1445 0.1687 0 1
-1.2780 17.6531 -3.4251 0.1494 0 1
-2.1622 19.1387 -3.7273 0.1431 0 1
-3.2016 20.8002 -4.0726 0.1354 0 1
-4.4215 22.6300 -4.4621 0.1232 0 24
-5.9199 24.9261 -4.9578 0.1137 0 1
-7.6500 27.2797 -5.4828 0.1029 0 24
-10.0419 30.9613 -6.2988 0.0791 0 1
-13.1727 35.6592 -7.3565 0.0742 0 1
-16.8376 40.4909 -8.4862 0.4183 0 2
-16.0709 28.4125 -6.3169 0.5407 0 15
-16.2987 26.2887 -5.9858 0.6986 0 15
-26.7969 39.5740 -9.2488 0.5668 0 3
-25.6165 -13.6076 -5.9475 0.8907 15 6
-25.5793 -14.9367 -6.0735 0.7449 15 6
-25.4007 -17.7144 -6.3496 0.9215 15 6
-32.0755 -33.7014 -9.5396 0.9951 0 20
-30.6076 -34.8654 -9.5126 0.9988 0 20
-23.4862 -41.0836 -9.7031 0.9844 0 20
-19.0850 -40.6577 -9.2092 0.0581 0 2
-15.1857 -36.0534 -8.0214 0.0636 0 1
-11.5947 -30.9521 -6.7771 0.0796 0 1
-8.9907 -27.2952 -5.8924 0.0878 0 1
-6.8929 -24.1554 -5.1505 0.0947 0 1
-5.2433 -21.6376 -4.5650 0.1156 0 24
-3.9654 -19.8145 -4.1433 0.1283 0 1
-2.9007 -18.2897 -3.7970 0.1528 0 1
-1.9990 -16.9985 -3.5094 0.1604 0 1
-1.2212 -15.8617 -3.2619 0.1765 0 1
-0.5437 -14.8457 -3.0460 0.1873 0 1
0.0504 -13.9440 -2.8591 0.2067 0 1
0.5762 -13.1330 -2.6954 0.2185 0 1
1.0441 -12.3909 -2.5496 0.2310 0 1
1.4584 -11.6730 -2.4120 0.2331 0 1
1.8225 -10.9771 -2.2816 0.2461 0 24
2.1588 -10.3959 -2.1771 0.2605 0 1
2.4581 -9.8327 -2.0781 0.2725 0 1
2.7288 -9.3072 -1.9887 0.2860 0 1
2.9756 -8.8186 -1.9083 0.2980 0 1
3.2004 -8.3590 -1.8353 0.3099 0 1
3.4058 -7.9252 -1.7687 0.3188 0 1
3.5962 -7.5194 -1.7090 0.3323 0 1
3.7717 -7.1341 -1.6546 0.3432 0 1
3.9332 -6.7661 -1.6047 0.3539 0 1
4.0819 -6.4137 -1.5588 0.3643 0 1
4.2121 -6.0651 -1.5141 0.3653 0 1
4.3237 -5.7202 -1.4702 0.3762 0 1
4.4268 -5.3915 -1.4304 0.3903 0 1
4.5223 -5.0769 -1.3941 0.4004 0 1
4.6098 -4.7738 -1.3607 0.4102 0 1
4.6885 -4.4799 -1.3296 0.4094 0 1
4.7582 -4.1937 -1.3005 0.4185 0 1
4.8215 -3.9165 -1.2737 0.4273 0 1
4.8910 -3.6565 -1.2521 0.4524 0 1
4.9562 -3.4034 -1.2327 0.4595 0 1
5.0176 -3.1564 -1.2154 0.4661 0 1
5.0741 -2.9140 -1.1997 0.4722 0 1
5.1260 -2.6756 -1.1856 0.4778 0 1
5.1734 -2.4409 -1.1729 0.4830 0 1
5.2167 -2.2093 -1.1616 0.4877 0 1
5.2559 -1.9807 -1.1517 0.4920 0 1
5.2913 -1.7544 -1.1430 0.4957 0 1
5.3229 -1.5303 -1.1356 0.4989 0 1
4.0856 -0.9985 -0.8624 0.0269 25 14
3.8345 -0.7752 -0.8021 0.9658 25 14
3.8328 -0.6156 -0.7960 0.9733 25 14
3.8311 -0.4582 -0.7911 0.9792 25 14
3.8294 -0.3024 -0.7876 0.9836 25 14
3.8252 -0.1476 -0.7849 0.9953 25 14
3.8205 0.0063 -0.7834 0.9973 25 14
3.8261 0.1603 -0.7852 0.9949 25 14
3.8281 0.3150 -0.7876 0.9837 25 14
3.8291 0.4708 -0.7910 0.9794 25 14
3.8300 0.6281 -0.7958 0.9735 25 14
3.8347 0.7885 -0.8027 0.6498 25 14
4.1494 1.0287 -0.8765 0.8715 25 14
5.4636 1.5902 -1.1667 0.4876 0 1
5.4510 1.8274 -1.1788 0.4826 0 1
5.4305 2.0670 -1.1914 0.4705 0 1
5.4013 2.3086 -1.2044 0.4651 0 1
5.3678 2.5543 -1.2189 0.4596 0 1
5.3299 2.8044 -1.2349 0.4536 0 1
5.2871 3.0596 -1.2525 0.4472 0 1
5.2394 3.3202 -1.2718 0.4404 0 1
5.1865 3.5868 -1.2930 0.4332 0 1
5.1279 3.8601 -1.3160 0.4256 0 1
5.0641 4.1414 -1.3413 0.4176 0 1
4.9897 4.4271 -1.3677 0.4213 0 1
4.9039 4.7168 -1.3951 0.4130 0 1
4.8108 5.0150 -1.4249 0.4044 0 1
4.7097 5.3225 -1.4572 0.3954 0 1
4.6002 5.6405 -1.4924 0.3844 0 1
4.4855 5.9752 -1.5319 0.3745 0 1
4.3606 6.3234 -1.5749 0.3643 0 1
4.2138 6.6694 -1.6176 0.3923 0 1
4.0446 7.0109 -1.6596 0.3823 0 1
3.8665 7.3722 -1.7069 0.3622 0 1
3.6829 7.7663 -1.7624 0.3508 0 1
3.4834 8.1802 -1.8230 0.3392 0 1
3.2664 8.6163 -1.8894 0.3272 0 1
3.0296 9.0774 -1.9622 0.3166 0 1
2.7711 9.5682 -2.0425 0.3017 0 1
2.4872 10.0905 -2.1309 0.2892 0 1
2.1751 10.6510 -2.2290 0.2743 0 1
1.8322 11.2656 -2.3402 0.2527 0 1
1.4525 11.9461 -2.4675 0.2397 0 1
1.0211 12.6153 -2.5951 0.2226 0 24
0.5478 13.5049 -2.7713 0.2126 0 1
0.0046 14.4103 -2.9547 0.1925 0 1
-0.6183 15.4851 -3.1776 0.1704 0 1
-1.3449 16.7469 -3.4448 0.1570 0 1
-2.1856 18.0709 -3.7323 0.1503 0 1
-3.1671 19.5521 -4.0612 0.1405 0 1
-4.3189 21.2169 -4.4395 0.1316 0 1
-5.6914 23.1524 -4.8885 0.1205 0 1
-7.3231 25.3459 -5.4095 0.1147 0 1
-9.3518 28.0792 -6.0683 0.0918 0 1
-12.0645 31.8856 -6.9901 0.0784 0 1
-15.4944 36.4496 -8.1208 0.0737 0 1
-19.5314 41.2542 -9.3588 0.0572 0 2
-15.7730 30.1203 -6.9714 0.5026 0 15
-15.9859 27.7506 -6.5665 0.5547 0 15
-16.4719 26.1073 -6.3294 0.8703 0 15
-28.4418 37.9377 -9.7220 0.6157 0 3
-30.6749 37.6601 -9.9592 0.7639 0 3
-28.6846 32.4582 -8.8816 0.6740 0 3
-31.2904 32.6600 -9.2740 0.7121 0 3
-28.7061 27.6458 -8.1716 0.5808 0 3
-18.5534 16.4824 -5.0885 0.7089 0 6
-29.0220 23.7648 -7.6912 0.7783 0 3
-29.0814 21.9205 -7.4670 0.8016 0 3
-27.9406 19.3490 -6.9685 0.0660 0 3
-29.1846 18.5197 -7.0871 0.8445 0 3
-30.6698 17.7738 -7.2682 0.4970 0 3
-33.6888 17.7534 -7.8080 0.4627 0 3
-37.6889 17.9635 -8.5606 0.0906 0 3
-39.2933 16.8239 -8.7641 0.1826 0 3
-43.9394 16.7560 -9.6422 0.9829 0 3
-27.5219 9.2457 -5.9530 0.9307 0 22
-27.5485 8.0372 -5.8840 0.9558 0 22
-25.6261 -13.3554 -5.9251 0.7202 15 6
-31.1936 -17.8877 -7.3729 0.9390 0 22
-32.3652 -33.4746 -9.5471 0.9943 0 20
-30.8934 -34.6375 -9.5165 0.9984 0 20
-20.1720 -42.1092 -9.5736 0.0559 0 2
-16.1979 -37.6265 -8.3994 0.0747 0 2
-12.1843 -31.7634 -6.9755 0.0778 0 1
-9.4590 -27.9747 -6.0549 0.0855 0 1
-7.2660 -24.7245 -5.2839 0.0923 0 1
-5.5288 -22.0563 -4.6623 0.1134 0 24
-4.2006 -20.1644 -4.2232 0.1259 0 1
-3.0927 -18.5555 -3.8571 0.1504 0 1
-2.1653 -17.2423 -3.5631 0.1579 0 1
-1.3646 -16.0723 -3.3073 0.1741 0 1
-0.6692 -15.0374 -3.0863 0.1863 0 1
-0.0599 -14.1112 -2.8934 0.2043 0 1
0.4782 -13.2859 -2.7259 0.2161 0 1
0.9568 -12.5309 -2.5768 0.2286 0 1
1.3813 -11.8103 -2.4381 0.2306 0 1
1.7583 -11.1317 -2.3107 0.2433 0 1
2.0966 -10.5109 -2.1976 0.2581 0 1
2.4020 -9.9398 -2.0967 0.2701 0 1
2.6779 -9.4070 -2.0054 0.2823 0 1
2.9292 -8.9117 -1.9234 0.2957 0 1
3.1581 -8.4467 -1.8490 0.3076 0 1
3.3670 -8.0080 -1.7812 0.3193 0 1
3.5602 -7.5969 -1.7202 0.3302 0 1
3.7385 -7.2080 -1.6649 0.3411 0 1
3.9026 -6.8367 -1.6141 0.3519 0 1
4.0538 -6.4814 -1.5675 0.3623 0 1
4.1891 -6.1344 -1.5231 0.3631 0 1
4.3027 -5.7865 -1.4785 0.3741 0 1
4.4072 -5.4544 -1.4378 0.3882 0 1
4.5043 -5.1374 -1.4009 0.3985 0 1
4.5933 -4.8322 -1.3670 0.4084 0 1
4.6741 -4.5370 -1.3356 0.4075 0 1
4.7451 -4.2489 -1.3060 0.4168 0 1
4.8096 -3.9700 -1.2787 0.4256 0 1
4.8776 -3.7067 -1.2561 0.4509 0 1
4.9437 -3.4524 -1.2364 0.4581 0 1
5.0060 -3.2043 -1.2187 0.4648 0 1
5.0634 -2.9610 -1.2027 0.4710 0 1
5.1162 -2.7219 -1.1882 0.4767 0 1
5.1645 -2.4865 -1.1753 0.4820 0 1
5.2085 -2.2544 -1.1637 0.4869 0 1
5.2486 -2.0252 -1.1535 0.4912 0 1
5.2847 -1.7985 -1.1446 0.4950 0 1
5.3171 -1.5739 -1.1370 0.4983 0 1
4.1349 -1.0451 -0.8745 0.9699 25 14
3.8441 -0.8087 -0.8054 0.6475 25 14
3.8332 -0.6466 -0.7971 0.9719 25 14
3.8315 -0.4888 -0.7920 0.9782 25 14
3.8298 -0.3327 -0.7882 0.9828 25 14
3.8262 -0.1778 -0.7854 0.9947 25 14
3.8207 -0.0237 -0.7834 0.9972 25 14
3.8250 0.1301 -0.7847 0.9955 25 14
3.8279 0.2847 -0.7870 0.9843 25 14
3.8289 0.4402 -0.7902 0.9803 25 14
3.8298 0.5972 -0.7947 0.9748 25 14
3.8306 0.7563 -0.8006 0.9676 25 14
3.9736 0.9520 -0.8378 0.5400 25 14
5.4656 1.5443 -1.1645 0.4886 0 1
5.4537 1.7807 -1.1763 0.4837 0 1
5.4358 2.0202 -1.1890 0.4714 0 1
5.4074 2.2611 -1.2017 0.4661 0 1
5.3747 2.5059 -1.2159 0.4607 0 1
5.3376 2.7552 -1.2316 0.4548 0 1
5.2959 3.0093 -1.2489 0.4485 0 1
5.2492 3.2687 -1.2679 0.4418 0 1
5.1973 3.5342 -1.2887 0.4347 0 1
5.1398 3.8061 -1.3114 0.4271 0 1
5.0770 4.0858 -1.3362 0.4192 0 1
5.0057 4.3714 -1.3627 0.4229 0 1
4.9213 4.6595 -1.3896 0.4147 0 1
4.8296 4.9560 -1.4189 0.4061 0 1
4.7301 5.2616 -1.4507 0.3972 0 1
4.6222 5.5773 -1.4853 0.3880 0 1
4.5087 5.9088 -1.5240 0.3765 0 1
4.3859 6.2542 -1.5662 0.3663 0 1
4.2455 6.6040 -1.6098 0.3942 0 1
4.0786 6.9432 -1.6511 0.3843 0 1
3.9007 7.2973 -1.6966 0.3644 0 1
3.7200 7.6878 -1.7511 0.3531 0 1
3.5238 8.0976 -1.8107 0.3415 0 1
3.3103 8.5291 -1.8759 0.3296 0 1
3.0773 8.9844 -1.9472 0.3191 0 1
2.8236 9.4700 -2.0262 0.3041 0 1
2.5449 9.9856 -2.1129 0.2916 0 1
2.2383 10.5371 -2.2087 0.2769 0 1
1.9016 11.1391 -2.3170 0.2552 0 1
1.5301 11.8084 -2.4414 0.2422 0 1
1.1078 12.4655 -2.5660 0.2274 0 24
0.6463 13.3411 -2.7387 0.2152 0 1
0.1163 14.2220 -2.9162 0.1950 0 1
-0.4891 15.2570 -3.1299 0.1730 0 1
-1.1932 16.4808 -3.3881 0.1597 0 1
-2.0112 17.8018 -3.6733 0.1527 0 1
-2.9628 19.2488 -3.9932 0.1429 0 1
-4.0790 20.8768 -4.3615 0.1339 0 1
-5.4039 22.7535 -4.7951 0.1229 0 1
-6.9818 24.8970 -5.3018 0.1124 0 1
-8.9025 27.4483 -5.9166 0.0941 0 1
-11.4729 31.0576 -6.7886 0.0807 0 1
-14.7696 35.5177 -7.8871 0.0759 0 1
-18.4896 39.8613 -9.0096 0.0594 0 2
-15.7405 30.6423 -7.0633 0.9198 0 15
-15.9439 28.1879 -6.6401 0.5447 0 15
-16.2107 26.1466 -6.3079 0.9603 0 15
-17.7301 26.1839 -6.4838 0.6916 0 15
-21.5578 -4.5209 -4.7713 0.2479 16 6
-25.6513 -9.8790 -5.9543 0.8276 15 6
-31.0927 -16.5166 -7.6264 0.8976 0 22
-31.0445 -18.1281 -7.7872 0.9249 0 22
-25.3204 -17.6585 -6.6868 0.9218 15 6
-32.0013 -33.6233 -10.0547 0.9960 0 20
-30.3432 -34.5642 -9.9628 0.9744 0 20
-20.8764 -40.1881 -9.8098 0.0575 0 2
-16.5421 -35.2404 -8.4327 0.4668 0 2
-12.9945 -30.8511 -7.2514 0.0743 0 1
-10.2170 -27.2743 -6.3089 0.0900 0 1
-7.9784 -24.2219 -5.5241 0.0951 0 1
-6.2230 -21.8077 -4.9124 0.1102 0 1
-4.8208 -19.8938 -4.4340 0.1264 0 1
-3.6699 -18.3380 -4.0510 0.1495 0 1
-2.7078 -17.0731 -3.7445 0.1584 0 1
-1.8753 -15.9467 -3.4781 0.1744 0 1
-1.1510 -14.9501 -3.2480 0.1868 0 1
-0.5148 -14.0567 -3.0469 0.2045 0 1
0.0479 -13.2543 -2.8711 0.2162 0 1
0.5492 -12.5175 -2.7141 0.2288 0 1
0.9962 -11.8218 -2.5698 0.2304 0 1
1.3943 -11.1600 -2.4362 0.2433 0 1
1.7509 -10.5465 -2.3158 0.2581 0 1
2.0734 -9.9848 -2.2090 0.2702 0 1
2.3650 -9.4603 -2.1123 0.2825 0 1
2.6301 -8.9706 -2.0249 0.2960 0 1
2.8722 -8.5121 -1.9460 0.3080 0 1
3.0933 -8.0792 -1.8740 0.3199 0 1
3.2960 -7.6698 -1.8083 0.3348 0 1
3.4835 -7.2836 -1.7489 0.3423 0 1
3.6571 -6.9173 -1.6949 0.3532 0 1
3.8171 -6.5665 -1.6452 0.3638 0 1
3.9649 -6.2297 -1.5996 0.3742 0 1
4.0923 -5.8926 -1.5540 0.3751 0 1
4.2042 -5.5622 -1.5103 0.3896 0 1
4.3088 -5.2477 -1.4708 0.4000 0 1
4.4047 -4.9449 -1.4345 0.4102 0 1
4.4915 -4.6514 -1.4006 0.4096 0 1
4.5689 -4.3656 -1.3688 0.4191 0 1
4.6394 -4.0890 -1.3396 0.4282 0 1
4.7070 -3.8235 -1.3136 0.4545 0 1
4.7778 -3.5719 -1.2922 0.4620 0 1
4.8431 -3.3258 -1.2726 0.4692 0 1
4.9047 -3.0854 -1.2552 0.4757 0 1
4.9614 -2.8492 -1.2393 0.4818 0 1
5.0134 -2.6168 -1.2250 0.4874 0 1
5.0610 -2.3878 -1.2122 0.4925 0 1
5.1044 -2.1618 -1.2008 0.4973 0 1
5.1438 -1.9384 -1.1907 0.5015 0 1
5.1792 -1.7173 -1.1820 0.5052 0 1
5.2109 -1.4981 -1.1745 0.5084 0 1
4.1228 -1.0076 -0.9193 0.9724 25 14
3.8325 -0.7748 -0.8470 0.9640 25 14
3.8308 -0.6153 -0.8404 0.9715 25 14
3.8292 -0.4579 -0.8354 0.9774 25 14
3.8245 -0.3020 -0.8310 0.9908 25 14
3.8190 -0.1474 -0.8279 0.9946 25 14
3.8145 0.0063 -0.8263 0.9965 25 14
3.8200 0.1601 -0.8282 0.9942 25 14
3.8255 0.3148 -0.8315 0.9903 25 14
3.8271 0.4705 -0.8352 0.9776 25 14
3.8280 0.6278 -0.8403 0.9717 25 14
3.8342 0.7883 -0.8479 0.6483 25 14
4.1291 1.0236 -0.9215 0.9701 25 14
5.3461 1.5560 -1.2061 0.4972 0 1
5.3326 1.7877 -1.2183 0.4922 0 1
5.3089 2.0207 -1.2305 0.4801 0 1
5.2790 2.2563 -1.2436 0.4747 0 1
5.2448 2.4957 -1.2582 0.4692 0 1
5.2062 2.7393 -1.2743 0.4633 0 1
5.1627 2.9876 -1.2921 0.4569 0 1
5.1143 3.2408 -1.3115 0.4501 0 1
5.0606 3.4997 -1.3328 0.4430 0 1
5.0012 3.7648 -1.3560 0.4354 0 1
4.9368 4.0373 -1.3814 0.4274 0 1
4.8654 4.3168 -1.4089 0.4311 0 1
4.7793 4.5969 -1.4364 0.4228 0 1
4.6860 4.8849 -1.4663 0.4142 0 1
4.5848 5.1814 -1.4987 0.4053 0 1
4.4753 5.4873 -1.5338 0.3960 0 1
4.3603 5.8084 -1.5732 0.3843 0 1
4.2356 6.1421 -1.6161 0.3741 0 1
4.1000 6.4892 -1.6627 0.3637 0 1
3.9342 6.8195 -1.7054 0.3922 0 1
3.7558 7.1611 -1.7516 0.3720 0 1
3.5741 7.5369 -1.8069 0.3607 0 1
3.3771 7.9305 -1.8671 0.3490 0 1
3.1631 8.3440 -1.9329 0.3371 0 1
2.9291 8.7761 -2.0041 0.3004 0 1
2.6763 9.2410 -2.0840 0.3116 0 1
2.3986 9.7310 -2.1710 0.2991 0 1
2.0938 10.2530 -2.2668 0.2865 0 1
1.7596 10.8192 -2.3744 0.2714 0 1
1.3906 11.4364 -2.4955 0.2498 0 1
0.9753 12.0491 -2.6185 0.2414 0 24
0.5216 12.8578 -2.7875 0.2228 0 1
0.0043 13.6633 -2.9597 0.2099 0 1
-0.5819 14.5733 -3.1593 0.1897 0 1
-1.2597 15.6857 -3.4087 0.1675 0 1
-2.0388 16.8570 -3.6781 0.1585 0 1
-2.9408 18.1546 -3.9838 0.1492 0 1
-3.9882 19.5925 -4.3310 0.1401 0 1
-5.2165 21.2208 -4.7336 0.1282 0 1
-6.6714 23.0901 -5.2062 0.1198 0 1
-8.4149 25.2661 -5.7685 0.1072 0 1
-10.6146 28.0535 -6.4972 0.0896 0 1
-13.4633 31.6716 -7.4546 0.0813 0 1
-16.8043 35.4940 -8.5066 0.4650 0 2
-15.6702 29.9240 -7.3169 0.5058 0 15
-15.8652 27.5411 -6.8848 0.5605 0 15
-16.4470 26.0677 -6.6766 0.8702 0 15
-28.2763 37.7170 -10.2110 0.6179 0 3
-30.6739 37.6589 -10.5210 0.7621 0 3
-28.5321 32.2855 -9.3331 0.6760 0 3
-31.2894 32.6589 -9.7971 0.7105 0 3
-28.7315 27.6702 -8.6405 0.7302 0 3
-28.8145 25.5982 -8.3489 0.7557 0 3
-27.9835 22.9144 -7.8346 0.9526 0 3
-28.9513 21.8224 -7.8532 0.8033 0 3
-29.0093 20.0891 -7.6435 0.8253 0 3
-29.0606 18.4410 -7.4554 0.8462 0 3
-28.1648 16.3221 -7.0513 0.9148 0 3
-33.6870 17.7524 -8.2483 0.4616 0 3
-37.1961 17.7286 -8.9256 0.4266 0 3
-43.8081 18.7570 -10.3227 0.9165 0 3
-27.4118 9.2087 -6.2639 0.9740 0 22
-27.4368 8.0046 -6.1910 0.9567 0 22
-25.6524 -9.6485 -5.9367 0.9396 15 6
-31.1036 -16.2101 -7.5976 0.8604 0 22
-31.0513 -17.8061 -7.7536 0.7688 0 22
-32.2875 -33.3943 -10.0618 0.9952 0 20
-30.6673 -34.3841 -9.9801 0.9727 0 20
-22.0202 -41.5870 -10.1932 0.0554 0 2
-16.9193 -35.3192 -8.4831 0.0665 0 2
-13.6068 -31.6076 -7.4541 0.0665 0 1
-10.6993 -27.8921 -6.4711 0.0877 0 1
-8.3777 -24.7766 -5.6654 0.0913 0 1
-6.4996 -22.1165 -4.9933 0.1121 0 24
-5.0729 -20.2375 -4.5193 0.1248 0 1
-3.8764 -18.6083 -4.1174 0.1471 0 1
-2.8857 -17.3136 -3.8021 0.1560 0 1
-2.0288 -16.1555 -3.5270 0.1713 0 1
-1.2852 -15.1366 -3.2906 0.1844 0 1
-0.6330 -14.2224 -3.0838 0.2020 0 1
-0.0570 -13.4059 -2.9039 0.2145 0 1
0.4556 -12.6566 -2.7434 0.2263 0 1
0.9129 -11.9559 -2.5974 0.2280 0 1
1.3200 -11.2859 -2.4613 0.2408 0 1
1.6841 -10.6621 -2.3382 0.2535 0 1
2.0074 -10.0639 -2.2229 0.2665 0 24
2.3102 -9.5601 -2.1304 0.2801 0 1
2.5801 -9.0634 -2.0413 0.2937 0 1
2.8266 -8.5996 -1.9608 0.3057 0 1
3.0516 -8.1620 -1.8875 0.3176 0 1
3.2575 -7.7476 -1.8205 0.3293 0 1
3.4478 -7.3571 -1.7600 0.3401 0 1
3.6242 -6.9876 -1.7051 0.3511 0 1
3.7868 -6.6339 -1.6546 0.3618 0 1
3.9369 -6.2945 -1.6082 0.3722 0 1
4.0693 -5.9589 -1.5630 0.3729 0 1
4.1831 -5.6257 -1.5186 0.3839 0 1
4.2891 -5.3082 -1.4783 0.3980 0 1
4.3866 -5.0032 -1.4413 0.4082 0 1
4.4756 -4.7084 -1.4071 0.4077 0 1
4.5543 -4.4207 -1.3748 0.4173 0 1
4.6261 -4.1424 -1.3451 0.4265 0 1
4.6924 -3.8733 -1.3180 0.4529 0 1
4.7644 -3.6207 -1.2962 0.4606 0 1
4.8307 -3.3735 -1.2763 0.4677 0 1
4.8931 -3.1321 -1.2584 0.4744 0 1
4.9507 -2.8951 -1.2423 0.4806 0 1
5.0036 -2.6620 -1.2277 0.4863 0 1
5.0521 -2.4324 -1.2146 0.4916 0 1
5.0963 -2.2058 -1.2029 0.4964 0 1
5.1364 -1.9819 -1.1926 0.5007 0 1
5.1726 -1.7603 -1.1836 0.5045 0 1
5.2050 -1.5408 -1.1758 0.5078 0 1
4.1222 -1.0419 -0.9210 0.9706 25 14
3.8415 -0.8081 -0.8503 0.6464 25 14
3.8312 -0.6463 -0.8416 0.9702 25 14
3.8295 -0.4886 -0.8362 0.9764 25 14
3.8255 -0.3324 -0.8318 0.9899 25 14
3.8201 -0.1775 -0.8284 0.9940 25 14
3.8145 -0.0237 -0.8263 0.9965 25 14
3.8190 0.1299 -0.8277 0.9948 25 14
3.8244 0.2844 -0.8307 0.9912 25 14
3.8269 0.4400 -0.8344 0.9785 25 14
3.8278 0.5969 -0.8392 0.9730 25 14
3.8287 0.7559 -0.8453 0.9659 25 14
3.9697 0.9510 -0.8842 0.0497 25 14
5.3483 1.5112 -1.2039 0.4981 0 1
5.3355 1.7421 -1.2158 0.4932 0 1
5.3143 1.9750 -1.2281 0.4810 0 1
5.2852 2.2100 -1.2409 0.4758 0 1
5.2519 2.4486 -1.2552 0.4703 0 1
5.2141 2.6914 -1.2710 0.4645 0 1
5.1716 2.9386 -1.2885 0.4582 0 1
5.1242 3.1909 -1.3076 0.4515 0 1
5.0715 3.4487 -1.3285 0.4444 0 1
5.0133 3.7125 -1.3513 0.4369 0 1
4.9498 3.9834 -1.3763 0.4290 0 1
4.8803 4.2619 -1.4035 0.4207 0 1
4.7967 4.5416 -1.4309 0.4245 0 1
4.7048 4.8279 -1.4602 0.4159 0 1
4.6052 5.1227 -1.4921 0.4070 0 1
4.4974 5.4267 -1.5267 0.3978 0 1
4.3835 5.7447 -1.5653 0.3863 0 1
4.2608 6.0758 -1.6075 0.3762 0 1
4.1274 6.4202 -1.6533 0.3657 0 1
3.9678 6.7546 -1.6969 0.3941 0 1
3.7907 7.0914 -1.7418 0.3840 0 1
3.6108 7.4621 -1.7957 0.3629 0 1
3.4169 7.8521 -1.8549 0.3513 0 1
3.2064 8.2615 -1.9196 0.3395 0 1
2.9750 8.6857 -1.9887 0.3199 0 1
2.7277 9.1487 -2.0679 0.3140 0 1
2.4549 9.6328 -2.1533 0.3016 0 1
2.1557 10.1482 -2.2473 0.2890 0 1
1.8275 10.7051 -2.3524 0.2740 0 1
1.4655 11.3098 -2.4703 0.2523 0 1
1.0586 11.9129 -2.5907 0.2433 0 24
0.6157 12.7089 -2.7562 0.2253 0 1
0.1104 13.4997 -2.9243 0.2124 0 1
-0.4611 14.3851 -3.1176 0.1923 0 1
-1.1190 15.4567 -3.3569 0.1700 0 1
-1.8775 16.6190 -3.6228 0.1609 0 1
-2.7535 17.8888 -3.9206 0.1508 0 1
-3.7713 19.3021 -4.2601 0.1424 0 1
-4.9604 20.8859 -4.6500 0.1324 0 1
-6.3688 22.7110 -5.1093 0.1205 0 1
-8.0386 24.7849 -5.6441 0.1105 0 1
-10.1312 27.4256 -6.3332 0.0927 0 1
-12.8630 30.9327 -7.2567 0.0836 0 1
-16.5305 35.6377 -8.5097 0.0777 0 2
-15.6671 30.4993 -7.4272 0.6524 0 15
-15.8241 27.9762 -6.9623 0.5457 0 15
-16.1779 26.0938 -6.6505 0.9112 0 15
-17.7147 26.1612 -6.8438 0.6193 0 15
-30.9580 -16.4451 -8.0010 0.9296 0 22
-30.8987 -18.0429 -8.1668 0.8060 0 22
-25.2994 -17.6438 -7.0400 0.3788 15 6
-31.9592 -33.5792 -10.5806 0.9630 0 20
-30.2916 -34.5053 -10.4798 0.9737 0 20
-22.5518 -39.4490 -10.3714 0.0572 0 2
-17.5822 -33.8465 -8.7054 0.0681 0 2
-14.3979 -30.6725 -7.7337 0.0671 0 1
-11.3925 -27.0478 -6.6988 0.0893 0 1
-9.0680 -24.2070 -5.9000 0.0936 0 1
-7.1898 -21.8277 -5.2453 0.1085 0 1
-5.6831 -19.9158 -4.7271 0.1240 0 1
-4.4510 -18.3677 -4.3136 0.1421 0 1
-3.4231 -17.1046 -3.9814 0.1598 0 1
-2.5377 -16.0005 -3.6977 0.1717 0 1
-1.7661 -15.0180 -3.4514 0.1848 0 1
-1.0890 -14.1452 -3.2381 0.2022 0 1
-0.4891 -13.3530 -3.0498 0.2147 0 1
0.0457 -12.6253 -2.8817 0.2265 0 1
0.5239 -11.9412 -2.7281 0.2290 0 1
0.9517 -11.2938 -2.5869 0.2406 0 1
1.3353 -10.6879 -2.4584 0.2534 0 1
1.6809 -10.1247 -2.3425 0.2682 0 1
1.9882 -9.5742 -2.2319 0.2789 0 24
2.2783 -9.1134 -2.1441 0.2926 0 1
2.5379 -8.6560 -2.0588 0.3060 0 1
2.7753 -8.2249 -1.9813 0.3180 0 1
2.9927 -7.8163 -1.9103 0.3298 0 1
3.1933 -7.4306 -1.8460 0.3439 0 1
3.3774 -7.0619 -1.7867 0.3553 0 1
3.5487 -6.7123 -1.7330 0.3631 0 1
3.7072 -6.3774 -1.6837 0.3737 0 1
3.8538 -6.0552 -1.6382 0.3841 0 1
3.9786 -5.7289 -1.5920 0.3849 0 1
4.0916 -5.4133 -1.5488 0.3993 0 1
4.1964 -5.1108 -1.5093 0.4097 0 1
4.2915 -4.8177 -1.4726 0.4095 0 1
4.3767 -4.5325 -1.4381 0.4193 0 1
4.4547 -4.2565 -1.4063 0.4288 0 1
4.5258 -3.9889 -1.3769 0.4379 0 1
4.5982 -3.7352 -1.3521 0.4641 0 1
4.6692 -3.4907 -1.3306 0.4716 0 1
4.7346 -3.2513 -1.3109 0.4787 0 1
4.7963 -3.0172 -1.2933 0.4852 0 1
4.8531 -2.7870 -1.2773 0.4913 0 1
4.9052 -2.5604 -1.2629 0.4969 0 1
4.9529 -2.3368 -1.2500 0.5021 0 1
4.9964 -2.1161 -1.2385 0.5068 0 1
5.0358 -1.8977 -1.2283 0.5110 0 1
5.0713 -1.6815 -1.2195 0.5147 0 1
5.1030 -1.4670 -1.2119 0.5179 0 1
4.1101 -1.0045 -0.9657 0.9730 25 14
3.8305 -0.7744 -0.8920 0.9622 25 14
3.8287 -0.6149 -0.8851 0.9778 25 14
3.8236 -0.4573 -0.8789 0.9847 25 14
3.8183 -0.3015 -0.8742 0.9900 25 14
3.8129 -0.1472 -0.8709 0.9937 25 14
3.8084 0.0063 -0.8692 0.9956 25 14
3.8140 0.1598 -0.8713 0.9933 25 14
3.8194 0.3143 -0.8747 0.9894 25 14
3.8246 0.4702 -0.8795 0.9840 25 14
3.8260 0.6275 -0.8849 0.9698 25 14
3.8336 0.7882 -0.8933 0.6468 25 14
4.1164 1.0205 -0.9680 0.9707 25 14
5.2331 1.5231 -1.2440 0.5067 0 1
5.2186 1.7494 -1.2563 0.4943 0 1
5.1921 1.9762 -1.2680 0.4897 0 1
5.1615 2.2061 -1.2812 0.4844 0 1
5.1268 2.4396 -1.2959 0.4789 0 1
5.0875 2.6769 -1.3121 0.4729 0 1
5.0435 2.9185 -1.3300 0.4666 0 1
4.9944 3.1649 -1.3495 0.4598 0 1
4.9401 3.4164 -1.3709 0.4527 0 1
4.8802 3.6737 -1.3942 0.4451 0 1
4.8151 3.9378 -1.4197 0.4371 0 1
4.7437 4.2088 -1.4474 0.4287 0 1
4.6603 4.4825 -1.4758 0.4326 0 1
4.5669 4.7608 -1.5057 0.4240 0 1
4.4658 5.0469 -1.5381 0.4150 0 1
4.3565 5.3416 -1.5732 0.4058 0 1
4.2413 5.6500 -1.6125 0.3941 0 1
4.1170 5.9701 -1.6552 0.3840 0 1
3.9820 6.3024 -1.7015 0.3735 0 1
3.8291 6.6374 -1.7490 0.4019 0 1
3.6517 6.9626 -1.7945 0.3917 0 1
3.4711 7.3196 -1.8490 0.3704 0 1
3.2766 7.6945 -1.9088 0.3588 0 1
3.0648 8.0845 -1.9734 0.3389 0 1
2.8306 8.4810 -2.0407 0.3277 0 1
2.5874 8.9341 -2.1229 0.3215 0 1
2.3157 9.3947 -2.2085 0.3091 0 1
2.0184 9.8836 -2.3024 0.2965 0 1
1.6929 10.4090 -2.4070 0.2815 0 1
1.3345 10.9752 -2.5235 0.2685 0 1
0.9344 11.5440 -2.6435 0.2572 0 24
0.4976 12.2671 -2.8022 0.2330 0 1
0.0041 12.9340 -2.9521 0.2244 0 24
-0.5511 13.8004 -3.1524 0.2071 0 1
-1.1840 14.7437 -3.3760 0.1777 0 1
-1.9090 15.7837 -3.6288 0.1687 0 1
-2.7416 16.9249 -3.9134 0.1588 0 1
-3.7026 18.1891 -4.2367 0.1505 0 1
-4.8101 19.5674 -4.5991 0.1365 0 1
-6.1135 21.1591 -5.0270 0.1287 0 1
-7.5985 22.8148 -5.4885 0.1121 0 24
-9.5212 25.1638 -6.1408 0.1058 0 1
-11.8730 27.9305 -6.9270 0.0884 0 1
-14.8008 31.2623 -7.8947 0.0867 0 1
-15.5920 29.7747 -7.6713 0.4880 0 15
-15.7631 27.3639 -7.2078 0.5631 0 15
-16.5021 26.1551 -7.0586 0.8816 0 15
-23.7016 34.4166 -9.5379 0.3247 0 21
-28.1119 37.4977 -10.6967 0.6199 0 3
-26.5664 32.6160 -9.6014 0.9929 0 3
-23.0573 26.0906 -7.9472 0.7079 0 5
-26.7735 27.9453 -8.8332 0.5536 0 3
-28.5900 27.5340 -9.0596 0.7320 0 3
-31.1386 27.6628 -9.5067 0.6526 0 3
-28.7551 23.5462 -8.4828 0.7817 0 3
-28.8216 21.7247 -8.2378 0.8049 0 3
-28.8829 20.0015 -8.0187 0.8269 0 3
-28.9371 18.3626 -7.8223 0.8477 0 3
-30.6668 17.7720 -8.0899 0.4947 0 3
-31.0314 16.3529 -8.0060 0.0654 0 3
-37.1940 17.7276 -9.4042 0.4255 0 3
-41.3378 17.6993 -10.2635 0.3899 0 3
-43.8863 16.7357 -10.7204 0.5287 0 3
-27.3291 9.1809 -6.5803 0.9907 0 22
-27.3378 7.9757 -6.4998 0.9343 0 22
-30.9938 -16.1528 -7.9772 0.9196 0 22
-30.8723 -17.7034 -8.1227 0.7961 0 22
-32.2915 -33.3983 -10.6033 0.9609 0 20
-30.6150 -34.3255 -10.4980 0.9720 0 20
-22.6222 -38.8596 -10.2629 0.6162 0 9
-18.4318 -34.8100 -8.9902 0.0660 0 2
-15.1294 -31.5828 -7.9930 0.0694 0 1
-11.9003 -27.6435 -6.8693 0.0871 0 1
-9.4937 -24.7493 -6.0502 0.0913 0 1
-7.4912 -22.1548 -5.3379 0.1099 0 24
-5.9546 -20.2621 -4.8203 0.1216 0 1
-4.6744 -18.6479 -4.3879 0.1397 0 1
-3.6118 -17.3378 -4.0422 0.1574 0 1
-2.7012 -16.2064 -3.7500 0.1693 0 1
-1.9090 -15.2016 -3.4969 0.1824 0 1
-1.2146 -14.3053 -3.2768 0.2008 0 1
-0.6009 -13.5022 -3.0849 0.2123 0 1
-0.0542 -12.7539 -2.9110 0.2245 0 24
0.4346 -12.0735 -2.7575 0.2265 0 1
0.8717 -11.4165 -2.6133 0.2382 0 1
1.2636 -10.8038 -2.4827 0.2509 0 1
1.6160 -10.2309 -2.3641 0.2658 0 1
1.9295 -9.6731 -2.2513 0.2763 0 24
2.2248 -9.2067 -2.1618 0.2902 0 1
2.4889 -8.7431 -2.0748 0.3037 0 1
2.7305 -8.3073 -1.9959 0.3157 0 1
2.9516 -7.8946 -1.9237 0.3275 0 1
3.1554 -7.5048 -1.8582 0.3416 0 1
3.3426 -7.1326 -1.7979 0.3531 0 1
3.5162 -6.7793 -1.7431 0.3610 0 1
3.6772 -6.4418 -1.6930 0.3716 0 1
3.8260 -6.1172 -1.6468 0.3821 0 1
3.9556 -5.7925 -1.6009 0.3827 0 1
4.0701 -5.4737 -1.5569 0.3972 0 1
4.1766 -5.1690 -1.5168 0.4077 0 1
4.2739 -4.8746 -1.4797 0.4075 0 1
4.3607 -4.5875 -1.4446 0.4174 0 1
4.4400 -4.3098 -1.4123 0.4269 0 1
4.5124 -4.0406 -1.3825 0.4362 0 1
4.5837 -3.7836 -1.3566 0.4625 0 1
4.6557 -3.5381 -1.3347 0.4701 0 1
4.7222 -3.2977 -1.3146 0.4773 0 1
4.7846 -3.0626 -1.2966 0.4840 0 1
4.8424 -2.8317 -1.2803 0.4901 0 1
4.8954 -2.6044 -1.2656 0.4958 0 1
4.9439 -2.3803 -1.2524 0.5011 0 1
4.9882 -2.1590 -1.2406 0.5059 0 1
5.0284 -1.9402 -1.2302 0.5102 0 1
5.0647 -1.7236 -1.2211 0.5140 0 1
5.0971 -1.5088 -1.2133 0.5173 0 1
4.1095 -1.0387 -0.9675 0.9712 25 14
3.8388 -0.8076 -0.8954 0.6453 25 14
3.8292 -0.6460 -0.8863 0.9683 25 14
3.8246 -0.4879 -0.8800 0.9835 25 14
3.8193 -0.3318 -0.8750 0.9891 25 14
3.8140 -0.1773 -0.8714 0.9931 25 14
3.8084 -0.0237 -0.8693 0.9956 25 14
3.8129 0.1297 -0.8708 0.9939 25 14
3.8183 0.2840 -0.8739 0.9903 25 14
3.8236 0.4396 -0.8785 0.9852 25 14
3.8258 0.5966 -0.8838 0.9711 25 14
3.8267 0.7555 -0.8903 0.9640 25 14
4.1167 0.9863 -0.9662 0.9725 25 14
5.2354 1.4793 -1.2417 0.5076 0 1
5.2218 1.7050 -1.2538 0.5027 0 1
5.1976 1.9316 -1.2656 0.4906 0 1
5.1678 2.1609 -1.2785 0.4854 0 1
5.1339 2.3936 -1.2929 0.4800 0 1
5.0956 2.6302 -1.3088 0.4741 0 1
5.0525 2.8709 -1.3264 0.4679 0 1
5.0044 3.1163 -1.3456 0.4612 0 1
4.9511 3.3668 -1.3666 0.4541 0 1
4.8923 3.6229 -1.3895 0.4466 0 1
4.8283 3.8856 -1.4146 0.4387 0 1
4.7581 4.1553 -1.4418 0.4304 0 1
4.6777 4.4289 -1.4703 0.4342 0 1
4.5857 4.7058 -1.4997 0.4257 0 1
4.4862 4.9903 -1.5316 0.4168 0 1
4.3785 5.2833 -1.5662 0.4076 0 1
4.2645 5.5887 -1.6045 0.3961 0 1
4.1421 5.9066 -1.6466 0.3860 0 1
4.0092 6.2364 -1.6922 0.3756 0 1
3.8624 6.5751 -1.7405 0.4039 0 1
3.6873 6.8981 -1.7853 0.3938 0 1
3.5073 7.2483 -1.8379 0.3727 0 1
3.3159 7.6199 -1.8967 0.3611 0 1
3.1084 8.0089 -1.9608 0.3493 0 1
2.8778 8.4020 -2.0271 0.3299 0 1
2.6378 8.8470 -2.1071 0.3239 0 1
2.3708 9.3025 -2.1911 0.3115 0 1
2.0787 9.7856 -2.2833 0.2989 0 1
1.7589 10.3029 -2.3856 0.2840 0 1
1.4074 10.8613 -2.4998 0.2710 0 1
1.0148 11.4198 -2.6168 0.2585 0 24
0.5877 12.1314 -2.7722 0.2355 0 1
0.1046 12.7877 -2.9188 0.2271 0 24
-0.4372 13.6376 -3.1143 0.2096 0 1
-1.0528 14.5417 -3.3277 0.1803 0 1
-1.7597 15.5756 -3.5776 0.1711 0 1
-2.5693 16.6918 -3.8547 0.1590 0 1
-3.5037 17.9324 -4.1703 0.1490 0 1
-4.5790 19.2800 -4.5229 0.1410 0 1
-5.8440 20.8396 -4.9400 0.1291 0 1
-7.3213 22.5733 -5.4164 0.1195 0 1
-9.1205 24.6896 -6.0075 0.1048 0 1
-11.3604 27.3193 -6.7531 0.0943 0 1
-14.1931 30.5985 -7.6987 0.0839 0 1
-15.5715 30.3133 -7.7783 0.4804 0 15
-15.7315 27.8125 -7.2932 0.5416 0 15
-16.1581 26.0618 -6.9989 0.8977 0 15
-17.7080 26.1513 -7.2085 0.5816 0 15
-30.8510 -16.3882 -8.3817 0.9405 0 22
-30.7440 -17.9526 -8.5420 0.9013 0 22
-31.9100 -33.5275 -11.1054 0.9007 0 20
-30.1755 -34.3731 -10.9743 0.3991 0 20
-28.1002 -37.7411 -11.2896 0.6294 0 20
-22.7555 -36.3316 -10.2858 0.9052 0 9
-18.9678 -33.1798 -9.1699 0.0678 0 2
-15.8346 -30.4824 -8.2416 0.0709 0 1
-12.5514 -26.7389 -7.0872 0.0845 0 1
-10.1386 -24.0707 -6.2667 0.0984 0 1
-8.1537 -21.7664 -5.5769 0.1062 0 1
-6.5547 -19.8995 -5.0269 0.1223 0 1
-5.2402 -18.3639 -4.5820 0.1403 0 1
-4.1457 -17.1079 -4.2235 0.1580 0 1
-3.2057 -16.0187 -3.9196 0.1699 0 1
-2.3877 -15.0546 -3.6572 0.1828 0 1
-1.6688 -14.1904 -3.4282 0.1965 0 1
-1.0338 -13.4278 -3.2313 0.2125 0 1
-0.4656 -12.7126 -3.0522 0.2242 0 1
0.0435 -12.0406 -2.8890 0.2267 0 1
0.5002 -11.4024 -2.7384 0.2383 0 1
0.9108 -10.8086 -2.6025 0.2508 0 1
1.2809 -10.2521 -2.4789 0.2635 0 1
1.6159 -9.7330 -2.3672 0.2778 0 1
1.9140 -9.2173 -2.2587 0.2887 0 24
2.1974 -8.7899 -2.1739 0.3039 0 1
2.4515 -8.3613 -2.0906 0.3160 0 1
2.6842 -7.9551 -2.0144 0.3279 0 1
2.8986 -7.5707 -1.9450 0.3430 0 1
3.0962 -7.2047 -1.8815 0.3537 0 1
3.2779 -6.8539 -1.8229 0.3651 0 1
3.4460 -6.5181 -1.7690 0.3729 0 1
3.6030 -6.1980 -1.7201 0.3835 0 1
3.7482 -5.8894 -1.6750 0.3939 0 1
3.8706 -5.5734 -1.6281 0.3983 0 1
3.9844 -5.2714 -1.5854 0.4090 0 1
4.0880 -4.9788 -1.5457 0.4090 0 1
4.1815 -4.6942 -1.5083 0.4191 0 1
4.2671 -4.4190 -1.4739 0.4289 0 1
4.3455 -4.1522 -1.4421 0.4384 0 1
4.4172 -3.8932 -1.4127 0.4475 0 1
4.4939 -3.6504 -1.3891 0.4736 0 1
4.5649 -3.4128 -1.3675 0.4811 0 1
4.6304 -3.1797 -1.3477 0.4882 0 1
4.6921 -2.9516 -1.3300 0.4947 0 1
4.7489 -2.7272 -1.3139 0.5008 0 1
4.8011 -2.5060 -1.2994 0.5064 0 1
4.8488 -2.2877 -1.2864 0.5115 0 1
4.8923 -2.0720 -1.2748 0.5162 0 1
4.9318 -1.8585 -1.2645 0.5204 0 1
4.9673 -1.6470 -1.2556 0.5241 0 1
4.9990 -1.4371 -1.2480 0.5273 0 1
4.1110 -1.0048 -1.0154 0.9062 25 14
3.8286 -0.7740 -0.9372 0.8950 25 14
3.8224 -0.6139 -0.9289 0.9769 25 14
3.8173 -0.4565 -0.9224 0.9837 25 14
3.8121 -0.3010 -0.9175 0.9890 25 14
3.8067 -0.1469 -0.9140 0.9928 25 14
3.8024 0.0063 -0.9123 0.9946 25 14
3.8079 0.1596 -0.9144 0.9923 25 14
3.8133 0.3138 -0.9180 0.9885 25 14
3.8185 0.4695 -0.9231 0.9830 25 14
3.8236 0.6271 -0.9297 0.9761 25 14
3.8331 0.7881 -0.9389 0.6453 25 14
4.1037 1.0173 -1.0144 0.9712 25 14
5.1241 1.4914 -1.2805 0.5161 0 1
5.1067 1.7119 -1.2923 0.5038 0 1
5.0797 1.9334 -1.3041 0.4992 0 1
5.0486 2.1578 -1.3173 0.4939 0 1
5.0134 2.3856 -1.3321 0.4884 0 1
4.9736 2.6170 -1.3484 0.4825 0 1
4.9290 2.8523 -1.3664 0.4762 0 1
4.8795 3.0920 -1.3860 0.4694 0 1
4.8246 3.3366 -1.4074 0.4623 0 1
4.7643 3.5864 -1.4308 0.4548 0 1
4.6987 3.8426 -1.4564 0.4468 0 1
4.6268 4.1051 -1.4841 0.4384 0 1
4.5465 4.3730 -1.5135 0.4422 0 1
4.4532 4.6422 -1.5434 0.4337 0 1
4.3523 4.9186 -1.5758 0.4248 0 1
4.2433 5.2028 -1.6108 0.4155 0 1
4.1282 5.4992 -1.6498 0.4039 0 1
4.0043 5.8066 -1.6924 0.3938 0 1
3.8700 6.1252 -1.7384 0.3833 0 1
3.7244 6.4559 -1.7882 0.3726 0 1
3.5538 6.7760 -1.8358 0.4015 0 1
3.3733 7.1135 -1.8890 0.3802 0 1
3.1815 7.4710 -1.9483 0.3686 0 1
2.9699 7.8341 -2.0102 0.3488 0 1
2.7400 8.2097 -2.0766 0.3377 0 1
2.4992 8.6294 -2.1556 0.3078 0 1
2.2380 9.0794 -2.2436 0.3190 0 1
1.9479 9.5382 -2.3358 0.3064 0 1
1.6307 10.0269 -2.4374 0.2914 0 1
1.2832 10.5536 -2.5508 0.2785 0 1
0.8973 11.0847 -2.6683 0.2700 0 24
0.4755 11.7221 -2.8148 0.2378 0 1
0.0039 12.3449 -2.9619 0.2369 0 24
-0.5238 13.1181 -3.1500 0.2125 0 1
-1.1174 13.9139 -3.3491 0.2044 0 1
-1.7932 14.8261 -3.5832 0.1767 0 1
-2.5648 15.8335 -3.8485 0.1668 0 1
-3.4492 16.9443 -4.1489 0.1571 0 1
-4.4605 18.1452 -4.4832 0.1479 0 1
-5.6313 19.4904 -4.8677 0.1352 0 1
-6.9927 20.9960 -5.3097 0.1271 0 1
-8.6156 22.7703 -5.8413 0.1132 0 1
-10.6180 24.9783 -6.5121 0.0999 0 1
-13.0818 27.6313 -7.3351 0.0918 0 1
-16.0431 30.6361 -8.2975 0.0821 0 1
-15.6982 27.2511 -7.5457 0.5492 0 15
-16.4258 26.0342 -7.3858 0.8394 0 15
-23.5902 34.2547 -9.9792 0.9953 0 21
-27.9486 37.2799 -11.1792 0.6219 0 3
-30.6720 37.6565 -11.6529 0.7583 0 3
-22.9372 25.9546 -8.3106 0.6981 0 5
-23.0473 24.0560 -7.9933 0.7432 0 5
-23.1390 22.2843 -7.7078 0.6046 0 5
-31.1374 27.6618 -9.9932 0.6509 0 3
-28.6225 23.4376 -8.8761 0.7833 0 3
-28.5541 21.5230 -8.5793 0.9880 0 3
-28.7324 19.8974 -8.3855 0.5624 0 3
-28.8140 18.2845 -8.1879 0.8491 0 3
-29.0540 16.8374 -8.0570 0.6534 0 3
-33.6835 17.7506 -9.1353 0.4593 0 3
-33.6372 16.0323 -8.9405 0.5019 0 3
-37.3982 16.0125 -9.7609 0.2884 0 3
-27.2556 9.1562 -6.8986 0.9834 0 22
-27.2400 7.9471 -6.8082 0.9229 0 22
-46.7807 7.7025 -11.3753 0.8790 0 6
-22.4629 -4.5266 -5.4979 0.3894 16 6
-30.8708 -16.0888 -8.3525 0.8760 0 22
-30.7731 -17.6465 -8.5113 0.8957 0 22
-32.2316 -33.3364 -11.1257 0.9616 0 20
-30.3797 -34.0616 -10.9508 0.9153 0 20
-30.8019 -37.4654 -11.6371 0.5242 0 20
-28.5107 -37.6702 -11.3351 0.6364 0 20
-23.1812 -36.3722 -10.3486 0.4949 0 9
-19.8444 -34.0880 -9.4638 0.0657 0 2
-16.5283 -31.2151 -8.4746 0.5144 0 2
-13.1073 -27.3617 -7.2793 0.0823 0 1
-10.5666 -24.5455 -6.4118 0.0962 0 1
-8.4718 -22.0852 -5.6754 0.1064 0 24
-6.8431 -20.2381 -5.1259 0.1199 0 1
-5.4773 -18.6377 -4.6609 0.1379 0 1
-4.3455 -17.3357 -4.2881 0.1556 0 1
-3.3789 -16.2199 -3.9752 0.1676 0 1
-2.5391 -15.2344 -3.7056 0.1804 0 1
-1.8024 -14.3522 -3.4706 0.1941 0 1
-1.1524 -13.5735 -3.2684 0.2111 0 1
-0.5718 -12.8483 -3.0858 0.2225 0 1
-0.0517 -12.1634 -2.9184 0.2274 0 24
0.4139 -11.4994 -2.7609 0.2344 0 24
0.8339 -10.9213 -2.6280 0.2483 0 1
1.2116 -10.3590 -2.5024 0.2610 0 1
1.5529 -9.8317 -2.3882 0.2754 0 1
1.8569 -9.3094 -2.2776 0.2863 0 24
2.1451 -8.8769 -2.1912 0.3002 0 1
2.4036 -8.4432 -2.1063 0.3136 0 1
2.6403 -8.0328 -2.0288 0.3256 0 1
2.8580 -7.6441 -1.9581 0.3408 0 1
3.0589 -7.2752 -1.8936 0.3515 0 1
3.2436 -6.9213 -1.8339 0.3629 0 1
3.4140 -6.5822 -1.7791 0.3741 0 1
3.5732 -6.2597 -1.7294 0.3815 0 1
3.7207 -5.9489 -1.6835 0.3919 0 1
3.8475 -5.6342 -1.6370 0.3924 0 1
3.9629 -5.3295 -1.5935 0.4069 0 1
4.0688 -5.0356 -1.5533 0.4070 0 1
4.1638 -4.7491 -1.5154 0.4172 0 1
4.2510 -4.4721 -1.4804 0.4271 0 1
4.3307 -4.2037 -1.4481 0.4366 0 1
4.4037 -3.9432 -1.4183 0.4458 0 1
4.4794 -3.6975 -1.3936 0.4721 0 1
4.5515 -3.4589 -1.3716 0.4797 0 1
4.6180 -3.2249 -1.3514 0.4868 0 1
4.6804 -2.9959 -1.3333 0.4935 0 1
4.7382 -2.7708 -1.3170 0.4996 0 1
4.7912 -2.5490 -1.3021 0.5053 0 1
4.8398 -2.3302 -1.2888 0.5105 0 1
4.8841 -2.1140 -1.2769 0.5154 0 1
4.9244 -1.9001 -1.2664 0.5196 0 1
4.9606 -1.6882 -1.2573 0.5234 0 1
4.9931 -1.4780 -1.2494 0.5267 0 1
4.1115 -1.0392 -1.0175 0.9043 25 14
3.8376 -0.8073 -0.9409 0.6073 25 14
3.8234 -0.6450 -0.9303 0.9754 25 14
3.8183 -0.4871 -0.9236 0.9825 25 14
3.8131 -0.3313 -0.9183 0.9881 25 14
3.8078 -0.1770 -0.9146 0.9921 25 14
3.8023 -0.0236 -0.9123 0.9946 25 14
3.8068 0.1295 -0.9139 0.9929 25 14
3.8122 0.2835 -0.9172 0.9893 25 14
3.8175 0.4389 -0.9220 0.9842 25 14
3.8226 0.5961 -0.9282 0.9776 25 14
3.8247 0.7551 -0.9354 0.9620 25 14
4.1041 0.9832 -1.0126 0.9729 25 14
5.1266 1.4485 -1.2782 0.5170 0 1
5.1114 1.6689 -1.2901 0.5046 0 1
5.0853 1.8899 -1.3017 0.5002 0 1
5.0550 2.1137 -1.3146 0.4949 0 1
5.0206 2.3408 -1.3291 0.4895 0 1
4.9817 2.5714 -1.3451 0.4837 0 1
4.9381 2.8060 -1.3627 0.4774 0 1
4.8896 3.0448 -1.3820 0.4708 0 1
4.8358 3.2884 -1.4031 0.4637 0 1
4.7765 3.5371 -1.4260 0.4563 0 1
4.7120 3.7920 -1.4512 0.4484 0 1
4.6414 4.0533 -1.4785 0.4401 0 1
4.5639 4.3212 -1.5080 0.4439 0 1
4.4720 4.5890 -1.5374 0.4354 0 1
4.3727 4.8640 -1.5693 0.4265 0 1
4.2652 5.1466 -1.6038 0.4174 0 1
4.1512 5.4403 -1.6419 0.4059 0 1
4.0293 5.7457 -1.6838 0.3958 0 1
3.8971 6.0620 -1.7291 0.3854 0 1
3.7538 6.3902 -1.7782 0.3748 0 1
3.5890 6.7142 -1.8267 0.4035 0 1
3.4091 7.0454 -1.8779 0.3824 0 1
3.2202 7.3999 -1.9363 0.3709 0 1
3.0127 7.7625 -1.9978 0.3510 0 1
2.7864 8.1350 -2.0632 0.3399 0 1
2.5467 8.5415 -2.1385 0.3102 0 1
2.2918 8.9927 -2.2266 0.3214 0 1
2.0066 9.4464 -2.3171 0.3089 0 1
1.6949 9.9279 -2.4165 0.2939 0 1
1.3538 10.4479 -2.5277 0.2810 0 1
0.9750 10.9714 -2.6428 0.2724 0 24
0.5618 11.5975 -2.7859 0.2403 0 1
0.0999 12.2131 -2.9304 0.2395 0 24
-0.4158 12.9708 -3.1137 0.2150 0 1
-0.9957 13.7525 -3.3083 0.2023 0 1
-1.6539 14.6395 -3.5348 0.1791 0 1
