ply
format ascii 1.0
element vertex 1559
property float32 x
property float32 y
property float32 z
property float32 I
end_header
-17.6501 16.5397 -3.3039 0.9070
-19.0863 16.4940 -3.4455 0.9032
-29.9497 18.4292 -4.8032 0.8676
-28.8904 16.2117 -4.5249 0.8748
-33.8317 -33.2705 -6.4811 0.8257
-31.5600 -36.4782 -6.5884 0.8231
-20.1467 -27.4748 -4.6535 0.8715
-7.4191 -38.6128 -5.3705 0.8532
-4.9736 -33.0057 -4.5591 0.8739
-0.6464 -22.4556 -3.0684 0.9133
0.2349 -20.4492 -2.7933 0.9208
1.5745 -17.0647 -2.3407 0.9332
2.5340 -14.5411 -2.0161 0.9422
2.9250 -13.5375 -1.8917 0.9456
3.5707 -11.8221 -1.6868 0.9514
4.0823 -10.4061 -1.5268 0.9559
4.8307 -8.1529 -1.2944 0.9625
4.9758 -7.6756 -1.2494 0.9637
5.1102 -7.2278 -1.2091 0.9649
5.3092 -6.3555 -1.1311 0.9671
5.3917 -5.9501 -1.0967 0.9681
5.4662 -5.5647 -1.0654 0.9690
5.6583 -4.5155 -0.9888 0.9712
5.7666 -3.8863 -0.9498 0.9723
5.9263 -3.0270 -0.9089 0.9735
6.0101 -2.4825 -0.8882 0.9741
6.0473 -2.2173 -0.8798 0.9743
6.0820 -1.9561 -0.8726 0.9745
3.8476 -0.7415 -0.5352 0.9843
3.8389 -0.5807 -0.5303 0.9844
3.8301 -0.4225 -0.5263 0.9846
3.8212 -0.2664 -0.5232 0.9847
3.8134 -0.1119 -0.5211 0.9847
3.8194 0.1956 -0.5224 0.9847
3.8290 0.3511 -0.5252 0.9846
3.8392 0.5086 -0.5290 0.9845
3.8494 0.6686 -0.5337 0.9844
4.0299 0.8683 -0.5631 0.9835
6.2885 1.8954 -0.8971 0.9738
6.2800 2.1722 -0.9076 0.9735
6.2242 3.0359 -0.9459 0.9724
6.1148 3.9591 -0.9950 0.9710
6.0667 4.2841 -1.0144 0.9705
5.9981 4.6084 -1.0332 0.9699
5.7732 5.6646 -1.1047 0.9679
5.5837 6.4391 -1.1641 0.9662
5.4504 6.8219 -1.1927 0.9654
5.1515 7.6346 -1.2580 0.9635
4.8150 8.5465 -1.3399 0.9612
4.4815 9.7066 -1.4603 0.9578
4.1306 9.9841 -1.4758 0.9573
3.8435 10.4639 -1.5226 0.9560
3.3284 11.9571 -1.6953 0.9511
3.0186 12.8214 -1.7991 0.9482
2.6649 13.7850 -1.9177 0.9449
1.7853 16.1003 -2.2126 0.9367
1.2312 17.5162 -2.3984 0.9316
-0.2308 22.2939 -3.0452 0.9139
-2.5346 27.8144 -3.8149 0.8934
-4.1317 31.3262 -4.3158 0.8802
-6.2675 36.2081 -5.0191 0.8621
-9.2313 42.9603 -6.0018 0.8374
-32.0109 32.6618 -6.2466 0.8314
-29.8861 21.9931 -5.0683 0.8609
-33.5353 22.6559 -5.5279 0.8493
-34.6588 17.7525 -5.3188 0.8545
-42.7121 17.6989 -6.3150 0.8297
-31.6065 -36.3649 -6.5809 0.8232
-20.2416 -27.4733 -4.6610 0.8713
-5.0921 -33.2794 -4.5985 0.8729
-3.2167 -28.7109 -3.9461 0.8899
-0.7010 -22.5724 -3.0846 0.9129
0.9313 -18.8070 -2.5720 0.9268
1.5436 -17.1551 -2.3526 0.9328
2.0720 -15.8484 -2.1831 0.9375
3.2484 -12.6800 -1.7879 0.9485
3.5545 -11.8657 -1.6919 0.9512
3.8266 -11.1240 -1.6068 0.9536
4.2866 -9.8133 -1.4627 0.9577
4.9680 -7.7017 -1.2518 0.9637
5.1029 -7.2523 -1.2112 0.9648
5.2124 -6.8083 -1.1712 0.9660
5.3873 -5.9724 -1.0986 0.9681
5.4622 -5.5860 -1.0671 0.9690
5.6552 -4.5341 -0.9900 0.9712
5.8216 -3.6096 -0.9356 0.9727
5.8754 -3.3233 -0.9220 0.9731
5.9237 -3.0426 -0.9096 0.9735
6.0080 -2.4976 -0.8887 0.9741
6.0801 -1.9708 -0.8730 0.9745
6.1115 -1.7124 -0.8669 0.9747
4.1607 -0.9870 -0.5841 0.9829
3.8217 -0.2752 -0.5233 0.9847
3.8138 -0.1206 -0.5212 0.9847
3.8098 0.0330 -0.5204 0.9847
3.8387 0.4997 -0.5287 0.9845
3.8488 0.6595 -0.5334 0.9844
4.8189 7.8413 -1.3612 0.9635
4.6473 8.2928 -1.4059 0.9623
4.4667 8.7819 -1.4571 0.9609
4.2658 9.2948 -1.5125 0.9595
4.0932 9.9576 -1.5922 0.9574
3.7630 10.3171 -1.6242 0.9566
2.8485 12.2231 -1.8562 0.9505
2.5017 13.1001 -1.9724 0.9475
2.0293 13.5710 -2.0294 0.9460
1.6486 15.1813 -2.2584 0.9401
1.1788 17.3324 -2.5693 0.9322
-2.3785 25.4618 -3.7820 0.9018
-5.6124 31.9912 -4.8036 0.8769
-8.0038 36.8406 -5.5756 0.8586
-16.1438 46.4165 -7.2680 0.8198
-28.4566 36.9081 -6.8925 0.8282
-29.4098 35.1244 -6.7752 0.8309
-29.4877 32.4674 -6.4865 0.8375
-17.6491 16.5387 -3.5771 0.9068
-29.7552 21.7929 -5.4546 0.8615
-33.6967 22.6539 -6.0050 0.8486
-29.8232 18.3513 -5.1788 0.8680
-34.7847 15.9881 -5.6618 0.8566
-42.9804 17.6960 -6.8742 0.8287
-27.9800 5.3596 -4.2133 0.8912
-33.8712 -33.3093 -7.0258 0.8252
-32.2562 -34.3827 -6.9724 0.8264
-31.4451 -36.3454 -7.1078 0.8234
-0.5891 -20.4645 -3.0278 0.9206
0.8940 -17.2615 -2.5563 0.9325
2.4011 -13.7781 -2.0684 0.9450
3.1140 -12.0418 -1.8395 0.9510
3.9138 -9.9768 -1.5850 0.9576
4.3249 -8.8543 -1.4574 0.9609
4.6615 -7.8675 -1.3525 0.9637
4.8085 -7.4175 -1.3073 0.9649
5.0505 -6.5659 -1.2251 0.9671
5.4456 -4.7168 -1.0655 0.9713
5.6165 -3.7851 -1.0017 0.9730
5.6747 -3.5008 -0.9861 0.9734
5.7769 -2.9507 -0.9594 0.9741
5.8619 -2.4213 -0.9380 0.9747
5.9350 -1.9089 -0.9220 0.9751
4.0700 -0.9558 -0.6183 0.9832
3.8256 -0.5787 -0.5722 0.9845
3.7960 0.0414 -0.5614 0.9848
3.8057 0.1949 -0.5636 0.9847
3.8361 0.6663 -0.5758 0.9844
3.9780 0.8571 -0.6018 0.9837
6.0920 2.6734 -0.9839 0.9735
6.0626 2.9571 -0.9976 0.9731
5.9480 3.8511 -1.0480 0.9718
5.8348 4.4829 -1.0882 0.9707
5.4160 6.2457 -1.2226 0.9671
5.2945 6.6267 -1.2544 0.9663
5.1505 7.0073 -1.2862 0.9654
4.8287 7.8174 -1.3589 0.9635
4.6569 8.2660 -1.4032 0.9624
4.4775 8.7539 -1.4542 0.9610
4.2776 9.2650 -1.5092 0.9596
4.1057 9.9240 -1.5883 0.9575
3.7825 10.2978 -1.6225 0.9566
3.4390 10.6718 -1.6582 0.9557
2.8667 12.1764 -1.8500 0.9507
-0.2128 20.5618 -3.0411 0.9202
-3.7088 28.1192 -4.1947 0.8916
-5.4970 31.7568 -4.7665 0.8778
-29.3155 38.2008 -7.1215 0.8231
-17.5689 16.5386 -3.5685 0.9070
-18.9964 16.4918 -3.7205 0.9033
-29.7139 23.7680 -5.6274 0.8574
-33.5338 22.6549 -5.9852 0.8490
-29.8215 18.4437 -5.1858 0.8678
-38.3385 17.7270 -6.2468 0.8430
-42.7094 17.6978 -6.8373 0.8295
-28.0635 6.6239 -4.2645 0.8899
-14.7500 -4.4276 -2.2776 0.9396
-34.0602 -33.3436 -7.0493 0.8247
-31.4915 -36.2326 -7.0997 0.8236
-9.4932 -40.1183 -6.0971 0.8465
-4.4720 -29.2266 -4.3727 0.8873
-2.8576 -25.5063 -3.7958 0.9014
-1.6176 -22.6454 -3.3576 0.9123
-0.6389 -20.5712 -3.0438 0.9201
1.4415 -16.0195 -2.3788 0.9370
2.3779 -13.8304 -2.0754 0.9448
2.7610 -12.9202 -1.9540 0.9480
3.9011 -10.0110 -1.5890 0.9575
4.4920 -8.3738 -1.4054 0.9623
4.6529 -7.8937 -1.3551 0.9636
4.8005 -7.4421 -1.3098 0.9648
5.0450 -6.5895 -1.2274 0.9670
5.3028 -5.4229 -1.1217 0.9698
5.3758 -5.0720 -1.0931 0.9706
5.6716 -3.5166 -0.9869 0.9734
5.7252 -3.2383 -0.9728 0.9738
5.8598 -2.4359 -0.9385 0.9747
5.9331 -1.9231 -0.9224 0.9751
3.8354 -0.7482 -0.5779 0.9843
3.8174 -0.4299 -0.5681 0.9846
3.8086 -0.2742 -0.5647 0.9847
3.7996 -0.1202 -0.5622 0.9847
3.8355 0.6572 -0.5755 0.9844
4.6727 7.6034 -1.4211 0.9645
4.4989 8.0280 -1.4654 0.9634
4.1222 8.9819 -1.5737 0.9608
3.4141 10.6772 -1.7850 0.9556
3.0624 11.0991 -1.8334 0.9544
2.3739 12.4311 -2.0153 0.9500
1.5529 14.3002 -2.2905 0.9434
0.4832 17.4750 -2.7837 0.9316
-2.1769 23.3042 -3.7270 0.9096
-3.4541 25.7381 -4.1352 0.9002
-7.0201 32.3128 -5.2654 0.8746
-9.7812 37.6473 -6.1939 0.8542
-28.9937 37.6047 -7.5612 0.8250
-17.6477 16.5374 -3.8512 0.9067
-32.0108 27.6632 -6.7369 0.8425
-29.5805 23.5514 -6.0209 0.8580
-29.6230 21.6961 -5.8469 0.8618
-33.6953 22.6529 -6.4653 0.8484
-34.5128 19.3666 -6.3018 0.8519
-33.0608 16.8394 -5.9080 0.8605
-38.6503 17.7649 -6.7735 0.8417
-42.9777 17.6949 -7.4010 0.8284
-45.9491 16.7888 -7.7899 0.8202
-19.5502 -4.2358 -3.1853 0.9222
-31.6888 -17.1147 -5.7349 0.8643
-32.1381 -34.2567 -7.4797 0.8267
-31.1095 -35.9575 -7.5713 0.8248
-11.2034 -40.4255 -6.6798 0.8437
-5.6565 -29.4394 -4.7736 0.8857
-3.8677 -25.6662 -4.1331 0.9002
-0.5474 -19.0151 -3.0292 0.9258
0.8355 -16.1321 -2.5723 0.9367
1.3871 -15.0334 -2.4040 0.9407
1.8617 -13.9927 -2.2478 0.9444
2.9731 -11.4970 -1.8910 0.9530
3.5228 -10.1660 -1.7132 0.9574
4.1674 -8.5318 -1.5120 0.9623
4.5036 -7.6008 -1.4068 0.9648
4.6520 -7.1760 -1.3618 0.9660
4.9888 -5.9719 -1.2391 0.9690
5.0756 -5.6012 -1.2036 0.9698
5.2311 -4.9132 -1.1428 0.9714
5.4157 -3.9759 -1.0698 0.9732
5.4741 -3.6892 -1.0511 0.9736
5.5869 -3.1434 -1.0208 0.9744
5.6364 -2.8789 -1.0078 0.9747
5.6816 -2.6193 -0.9962 0.9750
5.7229 -2.3638 -0.9860 0.9752
5.7945 -1.8637 -0.9692 0.9756
5.8261 -1.6182 -0.9628 0.9758
3.8378 -0.7397 -0.6224 0.9843
3.8352 -0.5801 -0.6176 0.9844
3.8224 -0.4217 -0.6124 0.9845
3.7958 -0.1114 -0.6047 0.9847
3.7978 0.1945 -0.6055 0.9847
3.8164 0.5056 -0.6130 0.9845
3.8265 0.6646 -0.6184 0.9844
3.9174 0.8441 -0.6381 0.9839
5.9963 1.5470 -0.9861 0.9752
5.9781 2.0678 -1.0073 0.9747
5.9628 2.3353 -1.0197 0.9744
5.9394 2.6065 -1.0328 0.9741
5.9088 2.8820 -1.0468 0.9737
5.8738 3.1637 -1.0624 0.9733
5.7897 3.7486 -1.0983 0.9724
5.6797 4.3637 -1.1405 0.9714
5.5312 5.0064 -1.1880 0.9702
5.3540 5.6940 -1.2446 0.9688
5.0027 6.8061 -1.3451 0.9664
4.8485 7.1855 -1.3803 0.9655
3.0827 11.0746 -1.8305 0.9545
2.7290 11.5913 -1.8962 0.9529
2.0138 13.2619 -2.1360 0.9471
1.5792 14.2416 -2.2817 0.9436
1.1378 16.1879 -2.5841 0.9364
0.5203 17.3905 -2.7704 0.9320
-0.1971 19.0460 -3.0330 0.9258
-2.1121 23.1780 -3.7061 0.9100
-6.8917 32.0725 -5.2237 0.8756
-9.6001 37.2974 -6.1327 0.8556
-23.2433 43.2121 -7.8132 0.8198
-29.1457 37.9796 -7.6233 0.8237
-29.4023 30.0002 -6.6889 0.8435
-17.5661 16.5360 -3.8416 0.9069
-29.6206 21.7977 -5.8562 0.8616
-33.5324 22.6540 -6.4439 0.8488
-29.6956 18.3658 -5.5599 0.8681
-32.8785 16.8406 -5.8823 0.8610
-38.6488 17.8705 -6.7803 0.8416
-19.7140 -4.2245 -3.2105 0.9216
-32.1826 -34.1486 -7.4720 0.8269
-8.1133 -34.2866 -5.6104 0.8670
-5.7723 -29.6785 -4.8145 0.8847
-3.9558 -25.8535 -4.1647 0.8995
-1.4813 -20.7380 -3.3107 0.9192
-0.5931 -19.0989 -3.0427 0.9255
0.1624 -17.6207 -2.8060 0.9311
0.8022 -16.2002 -2.5828 0.9364
1.8363 -14.0454 -2.2556 0.9442
2.2608 -13.1493 -2.1246 0.9474
2.9559 -11.5381 -1.8966 0.9529
3.2466 -10.8381 -1.8016 0.9552
4.1569 -8.5596 -1.5152 0.9622
4.6440 -7.1994 -1.3642 0.9659
4.9836 -5.9933 -1.2412 0.9689
5.0709 -5.6217 -1.2056 0.9698
5.1524 -5.2691 -1.1735 0.9706
5.2950 -4.6075 -1.1177 0.9720
5.3568 -4.2948 -1.0933 0.9726
5.4128 -3.9927 -1.0710 0.9731
5.5297 -3.4286 -1.0360 0.9740
5.6337 -2.8937 -1.0085 0.9747
5.6792 -2.6338 -0.9969 0.9750
5.7584 -2.1262 -0.9775 0.9754
5.7926 -1.8776 -0.9696 0.9756
5.8244 -1.6320 -0.9632 0.9758
4.0201 -0.9537 -0.6579 0.9834
3.8379 -0.7487 -0.6227 0.9843
3.8353 -0.5891 -0.6179 0.9844
3.7966 -0.1201 -0.6049 0.9847
3.7887 0.0328 -0.6033 0.9848
3.8158 0.4967 -0.6127 0.9845
4.5347 7.3788 -1.4777 0.9655
4.3592 7.7787 -1.5214 0.9645
4.1813 8.2207 -1.5736 0.9633
3.9873 8.6879 -1.6310 0.9620
3.7716 9.1753 -1.6926 0.9605
3.5385 9.7014 -1.7619 0.9590
2.7038 11.6020 -2.0326 0.9528
1.9419 12.9869 -2.2404 0.9481
1.5362 14.1463 -2.4278 0.9439
0.4528 16.3764 -2.7952 0.9357
-0.2249 17.8257 -3.0417 0.9302
-1.0353 19.5589 -3.3418 0.9236
-2.0029 21.4413 -3.6742 0.9163
-6.2672 28.8472 -5.0367 0.8871
-28.9835 37.5914 -8.0989 0.8248
-27.4956 27.9278 -6.6868 0.8530
-17.6393 16.5295 -4.1245 0.9066
-33.6938 22.6519 -6.9272 0.8481
-29.5722 18.1969 -5.9243 0.8686
-43.3227 17.8370 -7.9937 0.8269
-31.5519 -17.0407 -6.1183 0.8646
-31.3184 -36.1990 -8.1670 0.8235
-13.1586 -40.9919 -7.3455 0.8397
-9.5368 -34.4119 -6.0926 0.8651
-6.9858 -29.8235 -5.2262 0.8831
-3.4784 -23.0828 -3.9828 0.9096
-2.2959 -20.9210 -3.5910 0.9181
-1.3224 -19.1231 -3.2706 0.9252
-0.5103 -17.7269 -3.0258 0.9306
0.1876 -16.3337 -2.7870 0.9359
1.3095 -14.1923 -2.4318 0.9438
2.5286 -11.7028 -2.0428 0.9526
3.1275 -10.3549 -1.8456 0.9571
4.0203 -8.2307 -1.5629 0.9635
4.6375 -6.5593 -1.3706 0.9679
4.7446 -6.1682 -1.3277 0.9689
4.8419 -5.7961 -1.2886 0.9698
5.0900 -4.7806 -1.1914 0.9721
5.2218 -4.1672 -1.1399 0.9733
5.3988 -3.3306 -1.0823 0.9746
5.5034 -2.8110 -1.0544 0.9752
5.5491 -2.5582 -1.0425 0.9755
5.5907 -2.3093 -1.0321 0.9758
5.6627 -1.8213 -1.0149 0.9762
5.6932 -1.5813 -1.0081 0.9763
3.8253 -0.2667 -0.6543 0.9846
3.8121 -0.1119 -0.6507 0.9846
3.8055 0.0415 -0.6493 0.9847
3.8234 0.3506 -0.6551 0.9845
3.8307 0.5075 -0.6593 0.9844
5.8559 1.5108 -1.0319 0.9758
5.8370 2.0190 -1.0538 0.9752
5.7620 2.8105 -1.0938 0.9743
5.5879 3.9460 -1.1672 0.9726
5.5312 4.2496 -1.1901 0.9721
5.4593 4.5553 -1.2131 0.9716
5.3804 4.8699 -1.2382 0.9710
5.2944 5.1948 -1.2655 0.9704
5.2008 5.5310 -1.2954 0.9697
5.0988 5.8799 -1.3279 0.9689
4.5444 7.3571 -1.4754 0.9655
4.3687 7.7545 -1.5186 0.9645
3.7843 9.1471 -1.6890 0.9606
3.3304 10.3347 -1.8526 0.9569
2.7244 11.5717 -2.0283 0.9529
2.3514 12.1635 -2.1138 0.9510
1.9642 12.9352 -2.2323 0.9483
1.5587 14.0567 -2.4130 0.9442
1.0721 15.2527 -2.6088 0.9398
-0.1836 17.7349 -3.0261 0.9306
-3.0876 23.4099 -4.0288 0.9086
-4.4694 25.8203 -4.4710 0.8991
-11.3741 37.8136 -6.7373 0.8519
-28.9773 37.7601 -8.1210 0.8244
-29.2531 29.8480 -7.1307 0.8440
-29.3869 25.5122 -6.6398 0.8539
-29.4424 23.5507 -6.4328 0.8581
-34.3685 19.3883 -6.7327 0.8520
-34.5178 15.9604 -6.4885 0.8570
-44.5107 18.4443 -8.2206 0.8224
-17.8406 -4.5812 -3.1427 0.9280
-13.4051 -41.4366 -7.4306 0.8380
-9.7062 -34.7169 -6.1505 0.8639
-3.5538 -23.2258 -4.0089 0.9091
-1.3723 -19.2121 -3.2863 0.9248
-0.5528 -17.7995 -3.0384 0.9303
0.1512 -16.4013 -2.7985 0.9356
0.7557 -15.2597 -2.6068 0.9399
1.2818 -14.2452 -2.4403 0.9436
1.7454 -13.3505 -2.2972 0.9468
2.5098 -11.7447 -2.0491 0.9524
2.8274 -11.0368 -1.9439 0.9548
3.8163 -8.7365 -1.6266 0.9621
4.0100 -8.2570 -1.5661 0.9634
4.1858 -7.8031 -1.5108 0.9647
4.3478 -7.3760 -1.4609 0.9659
4.4968 -6.9712 -1.4154 0.9669
4.7389 -6.1897 -1.3301 0.9689
4.9262 -5.4612 -1.2549 0.9706
5.0098 -5.1233 -1.2226 0.9713
5.0859 -4.7986 -1.1930 0.9720
5.1553 -4.4858 -1.1660 0.9727
5.2184 -4.1839 -1.1412 0.9732
5.2724 -3.8891 -1.1178 0.9738
5.3360 -3.6137 -1.0996 0.9742
5.4504 -3.0829 -1.0684 0.9749
5.5007 -2.8254 -1.0551 0.9752
5.5885 -2.3232 -1.0326 0.9757
5.6608 -1.8349 -1.0153 0.9761
5.6916 -1.5947 -1.0085 0.9763
3.8391 -0.7489 -0.6674 0.9843
3.8365 -0.5892 -0.6622 0.9844
3.8260 -0.2755 -0.6545 0.9846
4.5684 6.8037 -1.4919 0.9672
4.4041 7.1664 -1.5313 0.9664
3.8583 8.4070 -1.6839 0.9631
3.6474 8.8732 -1.7465 0.9617
2.8894 10.4719 -1.9776 0.9568
2.6107 11.2025 -2.0940 0.9543
1.8943 12.6685 -2.3319 0.9493
1.4684 13.5223 -2.4761 0.9462
0.9749 14.3351 -2.6157 0.9433
0.4258 15.3995 -2.8045 0.9393
-0.2102 16.6591 -3.0330 0.9345
-0.9616 18.1669 -3.3118 0.9287
-5.6747 26.1200 -4.8660 0.8970
-16.1017 29.7730 -6.1619 0.8714
-29.1094 29.5669 -7.5534 0.8448
-17.6082 16.5004 -4.3930 0.9065
-19.1236 16.5263 -4.6012 0.9023
-29.3607 21.5039 -6.6252 0.8625
-29.4069 19.7699 -6.4507 0.8658
-34.2290 19.2074 -7.1452 0.8525
-31.6088 16.0998 -6.4577 0.8657
-17.7044 -4.5891 -3.3295 0.9283
-33.6973 -33.1384 -8.6038 0.8252
-30.7113 -35.4973 -8.5450 0.8263
-18.4696 -27.4391 -6.0214 0.8742
-11.1342 -34.6856 -6.6317 0.8623
-6.1631 -26.3111 -4.9195 0.8960
-3.1729 -21.0558 -3.8764 0.9171
-2.1151 -19.2736 -3.5297 0.9242
0.7442 -14.3696 -2.6194 0.9432
1.6860 -12.6724 -2.3273 0.9494
2.0737 -11.8997 -2.1989 0.9521
2.4171 -11.1867 -2.0835 0.9545
3.2538 -9.3897 -1.8091 0.9604
3.4826 -8.8775 -1.7360 0.9620
3.8827 -7.9489 -1.6105 0.9647
4.0572 -7.5224 -1.5559 0.9658
4.2183 -7.1193 -1.5065 0.9669
4.3662 -6.7351 -1.4612 0.9679
4.6044 -5.9859 -1.3748 0.9698
4.7946 -5.2912 -1.2999 0.9714
5.0260 -4.3534 -1.2105 0.9733
5.0868 -4.0595 -1.1848 0.9739
5.1470 -3.7787 -1.1624 0.9744
5.2109 -3.5118 -1.1439 0.9748
5.4221 -2.4996 -1.0869 0.9760
5.4641 -2.2569 -1.0762 0.9763
5.5671 -1.5463 -1.0518 0.9768
3.9576 -0.9294 -0.7401 0.9836
3.8364 -0.5803 -0.7063 0.9843
3.8347 -0.4230 -0.7023 0.9844
3.8323 -0.2672 -0.6994 0.9845
3.8286 -0.1124 -0.6973 0.9845
3.8221 0.0417 -0.6958 0.9846
3.8296 0.1962 -0.6981 0.9845
3.8319 0.5076 -0.7037 0.9844
5.7137 1.7222 -1.0864 0.9760
5.6547 2.4816 -1.1242 0.9752
5.6219 2.7421 -1.1387 0.9749
5.5425 3.2797 -1.1724 0.9742
5.4430 3.8437 -1.2130 0.9733
5.2366 4.7398 -1.2858 0.9717
4.8434 6.0622 -1.4126 0.9689
4.7267 6.4307 -1.4529 0.9681
4.5773 6.7836 -1.4898 0.9673
4.4137 7.1456 -1.5290 0.9664
3.8696 8.3813 -1.6806 0.9632
3.4294 9.3366 -1.8107 0.9604
3.1802 9.8686 -1.8875 0.9587
2.9057 10.4385 -1.9725 0.9569
2.2925 11.8590 -2.1988 0.9521
1.9168 12.6229 -2.3243 0.9494
1.4938 13.4716 -2.4675 0.9464
0.4589 15.3361 -2.7931 0.9395
-1.7985 19.7365 -3.6078 0.9226
-2.8378 21.5159 -3.9508 0.9155
-7.4086 28.7833 -5.4107 0.8862
-16.0885 29.9105 -6.1828 0.8710
-28.8102 37.5423 -8.6149 0.8250
-17.5326 16.5044 -4.3834 0.9067
-29.0013 25.1775 -6.9916 0.8554
-29.3077 23.4430 -6.8322 0.8585
-29.3579 21.6044 -6.6357 0.8623
-29.4044 19.8652 -6.4600 0.8656
-31.4799 16.1242 -6.4388 0.8661
-38.3468 17.7308 -7.6910 0.8422
-44.3371 18.3723 -8.7369 0.8227
-27.7509 8.9603 -5.3087 0.8882
-31.4352 -16.8857 -6.4960 0.8650
-34.0862 -33.3690 -8.6837 0.8237
-32.0536 -34.0118 -8.5080 0.8269
-30.7830 -35.4174 -8.5426 0.8263
-15.3665 -41.6894 -8.0885 0.8347
-11.3212 -34.9951 -6.6958 0.8611
-6.2717 -26.5042 -4.9582 0.8952
-3.2383 -21.1641 -3.8977 0.9166
-2.1699 -19.3678 -3.5479 0.9238
-1.2775 -17.8841 -3.2640 0.9297
-0.5148 -16.5757 -3.0190 0.9348
0.7142 -14.4219 -2.6287 0.9430
1.2176 -13.5313 -2.4733 0.9463
2.7093 -10.5755 -1.9874 0.9566
3.8724 -7.9737 -1.6137 0.9646
4.4898 -6.3810 -1.4204 0.9688
4.5986 -6.0065 -1.3771 0.9697
4.7896 -5.3098 -1.3018 0.9713
4.8744 -4.9848 -1.2692 0.9721
4.9517 -4.6719 -1.2393 0.9727
5.0222 -4.3701 -1.2119 0.9733
5.0836 -4.0758 -1.1862 0.9739
5.1433 -3.7939 -1.1635 0.9743
5.2074 -3.5266 -1.1449 0.9748
5.4196 -2.5134 -1.0876 0.9760
5.4618 -2.2705 -1.0768 0.9762
5.5001 -2.0309 -1.0673 0.9764
5.5346 -1.7940 -1.0592 0.9766
5.5655 -1.5594 -1.0522 0.9768
3.8293 -0.1211 -0.6975 0.9845
3.8295 0.1875 -0.6980 0.9845
3.8307 0.3425 -0.7001 0.9845
3.8319 0.4988 -0.7035 0.9844
3.9275 7.7217 -1.6765 0.9653
3.0548 9.5535 -1.9410 0.9600
2.7839 10.0898 -2.0255 0.9583
1.7927 11.9888 -2.3458 0.9518
1.3847 12.7517 -2.4822 0.9491
0.9251 13.6026 -2.6384 0.9460
0.4021 14.5427 -2.8153 0.9424
-0.8965 16.9369 -3.2822 0.9332
-2.6811 19.9777 -3.9007 0.9212
-5.1741 23.8159 -4.7163 0.9055
-6.8001 26.1733 -5.2332 0.8957
-11.5803 33.2956 -6.8219 0.8662
-15.1668 38.5333 -8.0137 0.8447
-19.4595 44.1383 -9.3348 0.8216
-16.1844 27.2445 -6.1324 0.8789
-28.6514 37.1606 -9.0805 0.8260
-28.8715 31.7889 -8.3102 0.8395
-27.2156 27.6433 -7.5070 0.8538
-17.6214 16.5128 -4.6733 0.9063
-27.5787 21.9577 -6.8220 0.8662
-29.2799 19.6845 -6.8276 0.8661
-29.3235 18.0438 -6.6629 0.8691
-40.5227 16.6841 -8.4805 0.8365
-27.6656 7.6503 -5.5547 0.8896
-17.6933 -4.5862 -3.5371 0.9282
-16.5329 -40.0909 -8.3921 0.8380
-12.8140 -35.0087 -7.2144 0.8591
-9.7086 -30.2444 -6.1470 0.8786
-4.0766 -21.2168 -4.1809 0.9157
-2.9214 -19.3870 -3.7941 0.9232
-1.1517 -16.6551 -3.2308 0.9342
0.1668 -14.5235 -2.8107 0.9425
3.1344 -9.0450 -1.8525 0.9617
3.3587 -8.5617 -1.7798 0.9632
3.5651 -8.1112 -1.7146 0.9645
3.7537 -7.6849 -1.6551 0.9658
3.9280 -7.2828 -1.6013 0.9668
4.4717 -5.8134 -1.4193 0.9706
4.8281 -4.5346 -1.2818 0.9734
4.8966 -4.2413 -1.2536 0.9740
5.0879 -3.4289 -1.1873 0.9753
5.1480 -3.1758 -1.1706 0.9757
5.2540 -2.6836 -1.1417 0.9762
5.3003 -2.4435 -1.1295 0.9765
5.3426 -2.2067 -1.1186 0.9767
5.3808 -1.9730 -1.1091 0.9769
5.4461 -1.5126 -1.0938 0.9772
3.9427 -0.9259 -0.7837 0.9836
3.8361 -0.7393 -0.7560 0.9842
3.8344 -0.5800 -0.7505 0.9843
3.8327 -0.4228 -0.7462 0.9844
3.8310 -0.2671 -0.7432 0.9845
3.8293 0.1962 -0.7420 0.9845
3.8303 0.3512 -0.7443 0.9845
3.8312 0.5075 -0.7479 0.9844
3.8720 0.8343 -0.7665 0.9840
5.5926 1.4429 -1.1177 0.9767
5.4878 2.6767 -1.1816 0.9754
5.3582 3.4693 -1.2353 0.9743
5.3048 3.7460 -1.2567 0.9739
5.2457 4.0303 -1.2801 0.9734
5.0998 4.6159 -1.3311 0.9724
5.0125 4.9182 -1.3590 0.9718
4.8147 5.5522 -1.4222 0.9705
4.5873 6.2410 -1.4989 0.9689
4.4521 6.5980 -1.5403 0.9681
4.2899 6.9451 -1.5797 0.9673
4.1156 7.3051 -1.6226 0.9664
3.0693 9.5244 -1.9365 0.9601
2.5021 10.6274 -2.1128 0.9565
1.8143 11.9479 -2.3386 0.9520
1.4090 12.7067 -2.4740 0.9492
0.9527 13.5535 -2.6293 0.9461
0.4334 14.4860 -2.8046 0.9427
-0.8539 16.8565 -3.2662 0.9335
-2.6226 19.8841 -3.8813 0.9215
-5.0907 23.6910 -4.6893 0.9060
-6.7010 26.0340 -5.2023 0.8963
-8.6931 28.9005 -5.8403 0.8843
-11.4048 33.0322 -6.7626 0.8673
-14.9437 38.2208 -7.9416 0.8460
-19.1309 43.6608 -9.2247 0.8235
-16.9139 26.1558 -6.0277 0.8808
-28.6443 37.3262 -9.1051 0.8256
-19.0384 16.5282 -4.8790 0.9024
-29.2773 19.7793 -6.8375 0.8659
-29.3212 18.1342 -6.6717 0.8690
-34.5002 15.9522 -7.3556 0.8565
-43.1619 17.8853 -9.0413 0.8267
-27.6660 7.7180 -5.5583 0.8896
-31.2695 -18.4557 -7.0266 0.8625
-16.5770 -39.9404 -8.3685 0.8385
-12.9336 -35.0889 -7.2369 0.8587
-7.4487 -26.6425 -5.3535 0.8934
-5.5945 -23.6424 -4.7016 0.9058
-0.4842 -15.5927 -3.0189 0.9384
0.6779 -13.6900 -2.6525 0.9457
1.9562 -11.3776 -2.2341 0.9541
2.2973 -10.7504 -2.1274 0.9562
2.6001 -10.1496 -2.0276 0.9582
3.1211 -9.0732 -1.8568 0.9617
3.3466 -8.5882 -1.7837 0.9631
3.7435 -7.7082 -1.6583 0.9657
4.0794 -6.9206 -1.5546 0.9678
4.4658 -5.8331 -1.4217 0.9705
4.6599 -5.1660 -1.3463 0.9721
4.8239 -4.5513 -1.2834 0.9733
4.8930 -4.2576 -1.2552 0.9739
5.1448 -3.1900 -1.1715 0.9756
5.2513 -2.6973 -1.1424 0.9762
5.2978 -2.4569 -1.1301 0.9765
5.3403 -2.2200 -1.1192 0.9767
5.3788 -1.9861 -1.1096 0.9769
3.8362 -0.7484 -0.7564 0.9842
3.8345 -0.5890 -0.7508 0.9843
3.8328 -0.4316 -0.7464 0.9844
3.8275 0.0331 -0.7407 0.9845
3.8292 0.1874 -0.7419 0.9845
3.8302 0.3425 -0.7442 0.9845
3.8312 0.4987 -0.7477 0.9844
3.8321 0.6566 -0.7524 0.9843
4.3200 6.4337 -1.5890 0.9689
3.9897 7.1195 -1.6734 0.9672
3.6226 7.8933 -1.7807 0.9652
3.4176 8.3142 -1.8431 0.9640
1.7160 11.4761 -2.3792 0.9537
1.3222 12.1759 -2.5112 0.9512
-0.1859 14.7296 -3.0204 0.9416
-1.6030 17.1608 -3.5340 0.9320
-2.4870 18.5319 -3.8338 0.9265
-3.5221 20.0766 -4.1794 0.9201
-4.7384 21.8105 -4.5763 0.9129
-6.1931 23.8368 -5.0497 0.9043
-7.8909 26.0193 -5.5749 0.8949
-10.1587 29.2080 -6.3407 0.8814
-16.7984 38.1022 -8.5380 0.8436
-21.4844 43.8582 -10.0137 0.8192
-15.8364 29.2823 -6.8258 0.8729
-16.0606 27.0361 -6.4478 0.8795
-16.9601 26.0973 -6.3817 0.8807
-26.6562 37.6118 -9.4523 0.8284
-28.4871 36.9476 -9.5660 0.8265
-28.7571 31.6630 -8.7701 0.8398
-17.6258 16.5169 -4.9528 0.9061
-29.0440 23.1243 -7.6121 0.8593
-27.5588 18.5274 -6.8089 0.8732
-29.2000 17.9678 -7.0298 0.8694
-29.0713 16.3132 -6.8351 0.8727
-42.9965 17.7027 -9.5340 0.8271
-43.7679 15.9919 -9.5544 0.8267
-25.9299 -10.1891 -5.7124 0.8925
-14.4200 -34.9673 -7.7554 0.8569
-11.0579 -30.2110 -6.5963 0.8769
-8.5616 -26.6713 -5.7435 0.8919
-6.5539 -23.6487 -5.0317 0.9047
-3.7436 -19.4838 -4.0680 0.9222
-2.7178 -18.0356 -3.7398 0.9282
-1.0827 -15.6573 -3.2180 0.9379
-0.4220 -14.6589 -3.0069 0.9419
1.5303 -11.5018 -2.3791 0.9537
2.2212 -10.2803 -2.1565 0.9580
3.4461 -7.8406 -1.7561 0.9656
3.6336 -7.4389 -1.6975 0.9668
3.8062 -7.0570 -1.6440 0.9678
3.9651 -6.6920 -1.5949 0.9687
4.2364 -5.9919 -1.5046 0.9705
4.3459 -5.6499 -1.4615 0.9713
4.6275 -4.7109 -1.3540 0.9734
4.7724 -4.1337 -1.2946 0.9745
4.8362 -3.8594 -1.2687 0.9751
4.9700 -3.3495 -1.2289 0.9758
5.0304 -3.1033 -1.2119 0.9762
5.1369 -2.6238 -1.1827 0.9767
5.1834 -2.3896 -1.1703 0.9770
5.2258 -2.1585 -1.1593 0.9772
5.2643 -1.9302 -1.1497 0.9774
5.2988 -1.7043 -1.1413 0.9775
3.9301 -0.9229 -0.8277 0.9837
3.8325 -0.5797 -0.7947 0.9843
3.8290 -0.2670 -0.7870 0.9844
3.8239 -0.1122 -0.7844 0.9845
3.8273 0.1961 -0.7858 0.9845
3.8283 0.3511 -0.7883 0.9844
5.4709 1.4115 -1.1585 0.9772
5.4611 1.6460 -1.1695 0.9770
5.4476 1.8843 -1.1819 0.9767
5.2762 3.1222 -1.2570 0.9753
5.2272 3.3844 -1.2768 0.9749
5.1129 3.9283 -1.3220 0.9740
5.0476 4.2118 -1.3479 0.9735
4.9694 4.4979 -1.3743 0.9730
4.7866 5.0905 -1.4327 0.9719
4.4553 6.0614 -1.5424 0.9698
3.8213 7.4709 -1.7206 0.9663
3.6336 7.8702 -1.7774 0.9652
3.2075 8.7325 -1.9075 0.9627
2.9653 9.2019 -1.9823 0.9613
2.7002 9.7004 -2.0646 0.9597
2.0890 10.8058 -2.2566 0.9561
1.3456 12.1349 -2.5034 0.9514
0.9012 12.8218 -2.6355 0.9489
-0.1519 14.6728 -3.0087 0.9418
-0.8006 15.8054 -3.2449 0.9374
-1.5571 17.0878 -3.5182 0.9323
-2.4335 18.4504 -3.8158 0.9268
-3.4592 19.9839 -4.1584 0.9205
-6.1046 23.7172 -5.0215 0.9048
-7.8166 25.9864 -5.5641 0.8951
-12.9153 33.0327 -7.2723 0.8652
-16.7800 38.2955 -8.5728 0.8431
-16.8743 26.0947 -6.3717 0.8808
-26.9202 35.0796 -9.0665 0.8348
-27.0784 27.6290 -7.9321 0.8539
-19.0355 16.5256 -5.1686 0.9022
-29.0404 23.2292 -7.6250 0.8591
-27.5561 18.6165 -6.8187 0.8730
-29.1975 18.0577 -7.0391 0.8692
-32.6445 16.7207 -7.5204 0.8609
-38.3275 17.7219 -8.6581 0.8416
-42.9935 17.8156 -9.5422 0.8269
-43.9090 16.1564 -9.5932 0.8261
-25.6068 -9.9951 -5.6362 0.8938
-25.5579 -15.0846 -6.0850 0.8859
-31.8945 -33.8430 -9.5351 0.8271
-18.4084 -39.7530 -8.9824 0.8362
-14.6527 -35.3041 -7.8375 0.8555
-11.2164 -30.4301 -6.6497 0.8760
-6.6527 -23.7951 -5.0660 0.9040
-5.0757 -21.4499 -4.5195 0.9139
-3.8083 -19.5804 -4.0900 0.9218
-2.7709 -18.1096 -3.7564 0.9279
-1.8859 -16.8331 -3.4730 0.9332
-1.1226 -15.7167 -3.2308 0.9377
-0.4569 -14.7127 -3.0181 0.9417
0.6438 -13.0003 -2.6688 0.9482
1.1060 -12.2916 -2.5304 0.9509
1.5088 -11.5401 -2.3863 0.9536
1.8719 -10.8877 -2.2652 0.9559
2.2038 -10.3127 -2.1623 0.9579
2.4990 -9.7547 -2.0647 0.9597
2.7662 -9.2344 -1.9765 0.9614
3.6234 -7.4610 -1.7007 0.9667
4.1036 -6.3616 -1.5522 0.9696
4.2299 -6.0116 -1.5072 0.9704
4.3400 -5.6688 -1.4639 0.9713
4.6229 -4.7276 -1.3558 0.9734
4.7687 -4.1495 -1.2961 0.9745
4.8321 -3.8741 -1.2699 0.9750
4.9665 -3.3635 -1.2299 0.9758
5.1341 -2.6371 -1.1834 0.9767
5.2622 -1.9430 -1.1502 0.9774
5.2970 -1.7169 -1.1417 0.9775
3.8342 -0.7480 -0.8010 0.9842
3.8309 -0.4314 -0.7904 0.9844
3.8242 -0.1209 -0.7845 0.9845
3.8215 0.0331 -0.7836 0.9845
3.8301 0.6563 -0.7968 0.9843
4.1951 6.2477 -1.6301 0.9697
4.0512 6.5921 -1.6760 0.9688
3.8799 6.9235 -1.7192 0.9680
3.7010 7.2763 -1.7683 0.9671
3.5145 7.6578 -1.8251 0.9661
3.3122 8.0577 -1.8871 0.9650
3.0923 8.4782 -1.9548 0.9637
2.5915 9.3925 -2.1106 0.9609
2.3054 9.8926 -2.2003 0.9593
1.9914 10.4279 -2.2997 0.9575
1.2582 11.5863 -2.5245 0.9534
0.3625 13.1081 -2.8405 0.9477
-0.7895 14.9166 -3.2357 0.9407
-1.4950 16.0042 -3.4818 0.9363
-2.3170 17.2647 -3.7733 0.9312
-4.3670 20.1008 -4.4557 0.9193
-5.6674 21.8135 -4.8820 0.9119
-7.2038 23.7536 -5.3768 0.9034
-11.4869 29.1842 -6.7937 0.8795
-17.8876 36.5157 -8.8078 0.8467
-15.9445 26.8406 -6.7625 0.8801
-28.7608 26.9514 -8.5379 0.8510
-19.0910 16.4981 -5.4656 0.9019
-28.7664 22.9033 -7.9650 0.8603
-34.8380 17.7446 -8.4689 0.8521
-38.5513 17.7193 -9.1906 0.8406
-42.9641 17.6893 -10.0646 0.8268
-25.6597 -10.0829 -5.9720 0.8933
-31.0147 -18.4003 -7.8116 0.8628
-33.2155 -32.6645 -10.0911 0.8264
-31.7399 -33.8323 -10.0487 0.8271
-30.7087 -35.4943 -10.1667 0.8252
-19.8678 -38.9520 -9.4717 0.8361
-5.9332 -21.4090 -4.8123 0.9131
-0.4000 -13.8950 -3.0111 0.9447
0.1505 -13.1053 -2.8390 0.9478
0.6412 -12.3803 -2.6853 0.9505
1.4681 -11.0346 -2.4113 0.9555
1.8130 -10.4035 -2.2875 0.9577
2.1341 -9.8772 -2.1889 0.9595
2.9187 -8.4226 -1.9309 0.9642
3.9942 -6.1614 -1.5906 0.9704
4.2270 -5.4953 -1.5018 0.9720
4.3298 -5.1831 -1.4629 0.9727
4.5087 -4.5899 -1.3937 0.9740
4.5846 -4.3059 -1.3624 0.9746
4.6538 -4.0309 -1.3336 0.9751
4.7924 -3.5184 -1.2878 0.9760
4.8570 -3.2733 -1.2687 0.9763
4.9176 -3.0337 -1.2516 0.9766
4.9733 -2.7982 -1.2361 0.9769
5.0244 -2.5663 -1.2221 0.9772
5.0711 -2.3378 -1.2096 0.9774
5.1136 -2.1122 -1.1984 0.9776
5.1521 -1.8891 -1.1887 0.9778
5.1868 -1.6682 -1.1802 0.9779
3.9273 -0.9223 -0.8739 0.9836
3.8321 -0.7386 -0.8454 0.9842
3.8305 -0.5794 -0.8392 0.9843
3.8178 -0.1121 -0.8273 0.9845
3.8158 0.0417 -0.8266 0.9845
3.8213 0.1957 -0.8288 0.9845
3.8273 0.5070 -0.8363 0.9843
5.3434 1.6106 -1.2089 0.9774
5.3022 2.0766 -1.2335 0.9770
5.2713 2.3133 -1.2470 0.9767
5.1516 3.0484 -1.2966 0.9758
4.9201 4.1054 -1.3880 0.9741
4.8449 4.3852 -1.4155 0.9736
4.5585 5.2568 -1.5072 0.9719
4.4474 5.5664 -1.5434 0.9713
4.2026 6.2283 -1.6275 0.9697
3.8899 6.9045 -1.7166 0.9681
3.5254 7.6358 -1.8218 0.9662
2.8668 8.8962 -2.0246 0.9625
2.3222 9.8636 -2.1950 0.9594
2.0098 10.3964 -2.2937 0.9576
1.2874 11.6100 -2.5303 0.9533
0.3909 13.0636 -2.8310 0.9479
-0.7525 14.8555 -3.2220 0.9409
-1.4525 15.9396 -3.4670 0.9366
-2.2677 17.1932 -3.7565 0.9315
-8.9628 25.9595 -5.9489 0.8937
-11.3324 28.9844 -6.7412 0.8804
-17.6306 36.1985 -8.7217 0.8481
-15.7191 29.2236 -7.1879 0.8730
-15.9323 26.9591 -6.7833 0.8797
-16.8519 26.0600 -6.7224 0.8807
-28.3161 36.8985 -10.0750 0.8267
-32.0033 32.6541 -9.9040 0.8293
-19.0109 16.5043 -5.4534 0.9021
-28.9077 23.1231 -8.0186 0.8594
-28.9686 21.3179 -7.7910 0.8631
-29.0743 17.9815 -7.4050 0.8694
-28.9548 16.3343 -7.2012 0.8728
-34.6460 17.7459 -8.4320 0.8527
-27.4512 7.6581 -6.1734 0.8899
-25.6551 -10.0140 -5.9656 0.8934
-31.0184 -18.3075 -7.8020 0.8629
-33.2993 -32.5987 -10.0941 0.8264
-30.5003 -35.0921 -10.0713 0.8267
-23.2383 -41.1385 -10.2346 0.8242
-20.1686 -39.3210 -9.5725 0.8345
-16.4475 -35.5184 -8.4786 0.8520
-12.5753 -30.2987 -7.1060 0.8744
-9.9052 -26.8727 -6.2038 0.8894
-7.6865 -23.7596 -5.4093 0.9028
-1.0587 -14.8210 -3.2186 0.9410
-0.4330 -13.9416 -3.0214 0.9445
0.6150 -12.4195 -2.6935 0.9504
1.4473 -11.0701 -2.4183 0.9553
2.1172 -9.9074 -2.1945 0.9594
2.6668 -8.9024 -2.0130 0.9627
2.9059 -8.4474 -1.9351 0.9641
3.6820 -6.8639 -1.6872 0.9686
4.3243 -5.2003 -1.4650 0.9727
4.5805 -4.3217 -1.3641 0.9746
4.6500 -4.0462 -1.3352 0.9751
4.7887 -3.5323 -1.2890 0.9759
5.1501 -1.9016 -1.1892 0.9778
5.2160 -1.4615 -1.1734 0.9781
3.8322 -0.7476 -0.8458 0.9841
3.8289 -0.4312 -0.8346 0.9844
3.8181 -0.1207 -0.8275 0.9845
3.8154 0.0330 -0.8265 0.9845
4.0766 6.0713 -1.6691 0.9704
3.7755 6.7372 -1.7627 0.9688
3.5965 7.0709 -1.8107 0.9680
3.4122 7.4349 -1.8671 0.9670
2.9934 8.2070 -1.9939 0.9648
2.5044 9.0767 -2.1491 0.9621
2.2247 9.5463 -2.2373 0.9606
1.9183 10.0453 -2.3342 0.9589
0.7991 11.7498 -2.6880 0.9528
0.3455 12.4950 -2.8530 0.9500
-0.7452 14.0790 -3.2179 0.9438
-2.1587 16.0855 -3.7043 0.9356
-3.0386 17.3201 -4.0136 0.9304
-4.0448 18.6180 -4.3486 0.9248
-5.2145 20.0703 -4.7330 0.9184
-6.5856 21.7152 -5.1793 0.9111
-8.2076 23.5984 -5.7027 0.9026
-12.7842 28.9973 -7.2331 0.8781
-15.9100 32.4785 -8.2547 0.8621
-15.6408 28.9207 -7.5045 0.8738
-15.8395 26.6638 -7.0787 0.8805
-16.9228 26.0400 -7.0883 0.8804
-28.2653 36.6599 -10.5657 0.8270
-23.1078 25.4429 -7.8448 0.8685
-32.0037 27.6570 -9.6543 0.8407
-28.7796 22.9137 -8.3964 0.8599
-28.8434 21.1251 -8.1602 0.8636
-28.9569 17.8183 -7.7603 0.8698
-34.3657 17.5040 -8.8026 0.8537
-38.5490 17.7183 -9.6835 0.8402
-38.7016 15.9344 -9.5528 0.8422
-27.3073 9.9775 -6.6357 0.8876
-27.3419 7.5608 -6.4748 0.8901
-30.9511 -16.7162 -8.0289 0.8656
-30.8789 -18.3197 -8.1949 0.8630
-31.6580 -33.7450 -10.5609 0.8271
-25.0297 -40.6248 -10.8910 0.8222
-21.5092 -38.2801 -10.0220 0.8351
-16.8243 -32.9850 -8.4514 0.8591
-13.7586 -29.8892 -7.5101 0.8737
-10.9215 -26.4836 -6.5385 0.8891
-8.6813 -23.7179 -5.7647 0.9016
-6.8813 -21.4368 -5.1387 0.9118
-5.4307 -19.5958 -4.6412 0.9200
-3.2441 -16.8838 -3.9241 0.9319
-2.3814 -15.8030 -3.6477 0.9365
-1.6286 -14.8408 -3.4077 0.9406
-0.9671 -13.9862 -3.1999 0.9441
0.6117 -11.8107 -2.6993 0.9526
1.4066 -10.5724 -2.4343 0.9572
1.7458 -10.0182 -2.3211 0.9591
2.0532 -9.5025 -2.2189 0.9609
2.3323 -9.0190 -2.1262 0.9625
2.5876 -8.5672 -2.0427 0.9639
2.8209 -8.1405 -1.9664 0.9653
3.0348 -7.7361 -1.8967 0.9665
3.5825 -6.6422 -1.7225 0.9695
3.8829 -5.9896 -1.6292 0.9711
4.0029 -5.6617 -1.5826 0.9720
4.1145 -5.3490 -1.5403 0.9727
4.2174 -5.0485 -1.5015 0.9734
4.3103 -4.7566 -1.4651 0.9740
4.5404 -3.9327 -1.3710 0.9757
4.9162 -2.5111 -1.2600 0.9776
5.0056 -2.0676 -1.2361 0.9780
5.0442 -1.8495 -1.2263 0.9782
5.0788 -1.6335 -1.2177 0.9783
5.1097 -1.4192 -1.2104 0.9785
3.9298 -0.9229 -0.9214 0.9836
3.8224 -0.4217 -0.8777 0.9843
3.8171 -0.2661 -0.8733 0.9844
3.8116 -0.1119 -0.8704 0.9845
3.8097 0.0416 -0.8696 0.9845
3.8206 0.3503 -0.8757 0.9844
3.8262 0.6645 -0.8864 0.9842
3.8675 0.8333 -0.9030 0.9839
5.2416 1.3523 -1.2355 0.9780
5.2128 1.8031 -1.2589 0.9776
5.1852 2.0307 -1.2710 0.9774
5.1537 2.2617 -1.2846 0.9772
5.1179 2.4963 -1.2997 0.9769
5.0322 2.9778 -1.3346 0.9763
4.9818 3.2255 -1.3546 0.9759
4.9261 3.4786 -1.3764 0.9756
4.8649 3.7378 -1.4003 0.9751
4.7983 4.0037 -1.4264 0.9747
4.7252 4.2769 -1.4547 0.9742
4.5427 4.8311 -1.5136 0.9732
4.0841 6.0527 -1.6666 0.9705
3.9461 6.3886 -1.7139 0.9697
3.6064 7.0509 -1.8076 0.9680
3.4230 7.4139 -1.8638 0.9671
2.7687 8.5918 -2.0603 0.9636
2.5194 9.0510 -2.1444 0.9622
2.2411 9.5191 -2.2321 0.9607
1.9363 10.0163 -2.3285 0.9590
1.2294 11.0873 -2.5461 0.9553
0.8233 11.7133 -2.6801 0.9530
-0.1360 13.1352 -2.9982 0.9475
-0.7106 14.0284 -3.2060 0.9440
-1.3684 15.0171 -3.4418 0.9400
-3.9844 18.5426 -4.3288 0.9251
-10.1034 25.8409 -6.3328 0.8924
-12.6266 28.8165 -7.1809 0.8789
-15.7142 32.2639 -8.1910 0.8631
-27.9968 39.6940 -11.0867 0.8193
-28.1537 36.6869 -10.5550 0.8272
-23.0840 25.5328 -7.8563 0.8683
-32.0022 32.6529 -10.4354 0.8290
-28.6158 26.9377 -8.9700 0.8511
-31.8585 27.6580 -9.6294 0.8411
-28.6325 22.9030 -8.3687 0.8603
-28.8399 21.2232 -8.1728 0.8634
-28.8991 19.5238 -7.9602 0.8667
-42.6905 17.6900 -10.5473 0.8273
-30.8872 -18.2301 -8.1861 0.8632
-33.4635 -32.7595 -10.6885 0.8252
-30.5957 -35.2019 -10.6452 0.8258
-17.0512 -33.2433 -8.5275 0.8579
-11.0673 -26.6654 -6.5896 0.8883
-5.5047 -19.6889 -4.6662 0.9195
-4.3027 -18.1831 -4.2648 0.9262
-3.2965 -16.9492 -3.9410 0.9316
-1.6685 -14.8924 -3.4204 0.9404
-1.0023 -14.0323 -3.2109 0.9439
0.5867 -11.8480 -2.7075 0.9525
1.3865 -10.6052 -2.4412 0.9571
1.7276 -10.0483 -2.3271 0.9590
2.0366 -9.5306 -2.2244 0.9608
2.5738 -8.5920 -2.0472 0.9639
2.8083 -8.1639 -1.9705 0.9652
3.0232 -7.7582 -1.9004 0.9664
3.4037 -7.0085 -1.7783 0.9685
4.2118 -5.0652 -1.5036 0.9733
4.5366 -3.9475 -1.3726 0.9756
4.7450 -3.2135 -1.3080 0.9768
4.9134 -2.5237 -1.2607 0.9776
5.0421 -1.8618 -1.2268 0.9782
5.0770 -1.6456 -1.2181 0.9783
5.1081 -1.4312 -1.2108 0.9785
3.8278 -0.5879 -0.8839 0.9842
3.8119 -0.1205 -0.8705 0.9845
3.8263 6.2262 -1.7534 0.9704
3.6761 6.5598 -1.8042 0.9695
3.4973 6.8758 -1.8509 0.9688
2.6640 8.3314 -2.0987 0.9647
2.1491 9.2218 -2.2719 0.9618
1.8504 9.6896 -2.3669 0.9602
1.5238 10.1909 -2.4723 0.9585
1.1619 10.6999 -2.5823 0.9567
0.7684 11.2975 -2.7169 0.9545
-1.3262 14.1968 -3.4211 0.9430
-2.0325 15.1449 -3.6663 0.9391
-3.7642 17.3261 -4.2541 0.9297
-6.0564 19.9703 -5.0070 0.9177
-7.4889 21.5319 -5.4697 0.9105
-9.2303 23.4509 -6.0468 0.9015
-11.3783 25.8083 -6.7673 0.8905
-14.0189 28.6181 -7.6460 0.8771
-16.9233 26.0407 -7.4515 0.8801
-27.8381 39.2795 -11.5513 0.8203
-28.1441 33.6127 -10.5185 0.8350
-23.0790 23.4417 -7.8928 0.8734
-23.1472 21.6910 -7.6112 0.8777
-32.0024 27.6559 -10.1483 0.8403
-28.4796 22.6749 -8.7345 0.8609
-28.7773 19.3466 -8.3199 0.8671
-31.6575 17.7644 -8.7098 0.8613
-38.5467 17.7173 -10.1788 0.8399
-42.9585 17.6870 -11.1466 0.8260
-27.2210 7.5273 -6.7763 0.8903
-30.8275 -16.6495 -8.4063 0.8658
-30.7230 -18.2272 -8.5711 0.8633
-18.1884 -32.3700 -8.9087 0.8584
-15.1454 -29.6934 -7.9976 0.8719
-12.0508 -26.1792 -6.9148 0.8882
-9.7390 -23.6163 -6.1292 0.9003
-7.8290 -21.3895 -5.4650 0.9106
-6.2865 -19.5837 -4.9349 0.9189
-5.0179 -18.1061 -4.5080 0.9256
-3.9565 -16.8910 -4.1624 0.9311
-3.0409 -15.8264 -3.8667 0.9359
-2.2425 -14.8818 -3.6109 0.9400
-1.5403 -14.0363 -3.3880 0.9436
-0.3621 -12.5798 -3.0196 0.9495
0.1368 -11.9122 -2.8583 0.9522
0.5843 -11.2825 -2.7107 0.9546
0.9870 -10.6968 -2.5774 0.9568
1.3499 -10.1461 -2.4558 0.9588
2.2504 -8.7020 -2.1566 0.9637
2.5002 -8.2778 -2.0747 0.9651
2.7291 -7.8754 -1.9998 0.9663
3.1346 -7.1319 -1.8692 0.9685
3.3136 -6.7838 -1.8114 0.9694
3.4795 -6.4513 -1.7587 0.9703
3.6341 -6.1333 -1.7105 0.9711
3.7750 -5.8232 -1.6651 0.9719
3.8953 -5.5095 -1.6189 0.9726
4.2003 -4.6353 -1.5009 0.9746
4.4342 -3.8408 -1.4075 0.9762
4.5796 -3.3621 -1.3631 0.9769
4.7608 -2.6786 -1.3107 0.9778
4.8120 -2.4579 -1.2965 0.9780
4.8589 -2.2400 -1.2837 0.9782
4.9401 -1.8114 -1.2625 0.9786
3.8213 -0.5780 -0.9273 0.9842
3.8109 -0.2657 -0.9166 0.9844
3.8037 0.0415 -0.9127 0.9845
3.8092 0.1951 -0.9151 0.9844
3.8197 0.5060 -0.9245 0.9843
3.8242 0.6642 -0.9313 0.9842
5.1332 1.3244 -1.2720 0.9784
5.1008 1.7643 -1.2950 0.9780
5.0407 2.2121 -1.3208 0.9776
5.0044 2.4409 -1.3359 0.9774
4.9634 2.6734 -1.3526 0.9771
4.8105 3.3970 -1.4130 0.9761
4.6082 4.1710 -1.4913 0.9748
4.5242 4.4391 -1.5208 0.9743
4.0981 5.5755 -1.6602 0.9719
3.9716 5.8859 -1.7036 0.9712
3.8344 6.2077 -1.7506 0.9704
3.1297 7.5649 -1.9643 0.9669
2.9125 7.9294 -2.0268 0.9658
2.4350 8.7476 -2.1786 0.9633
2.1651 9.1963 -2.2668 0.9619
1.8679 9.6625 -2.3613 0.9603
1.1831 10.6690 -2.5755 0.9568
0.7917 11.2635 -2.7091 0.9546
-0.1297 12.5266 -3.0057 0.9498
-0.6749 13.3230 -3.2007 0.9466
-2.7808 16.0651 -3.9119 0.9351
-3.7089 17.2602 -4.2358 0.9300
-4.7591 18.4896 -4.5809 0.9245
-5.9822 19.8880 -4.9830 0.9181
-9.1224 23.3318 -6.0107 0.9021
-11.2449 25.6632 -6.7226 0.8911
-16.7876 31.2101 -8.5029 0.8644
-16.8374 26.0376 -7.4396 0.8803
-27.8283 39.4550 -11.5843 0.8199
-28.1226 36.6463 -11.0833 0.8269
-22.9613 25.3971 -8.2148 0.8686
-23.0821 23.5515 -7.9121 0.8731
-23.1446 21.7873 -7.6265 0.8774
-28.6440 22.9121 -8.8008 0.8599
-30.7999 22.6656 -9.1752 0.8544
-28.8296 17.8302 -8.1332 0.8698
-31.4919 17.7655 -8.6753 0.8618
-38.3208 17.7188 -10.1297 0.8406
-42.6878 17.6889 -11.0867 0.8269
-27.2205 7.5937 -6.7805 0.8903
-30.7242 -18.1339 -8.5599 0.8635
-25.0801 -17.6681 -7.3608 0.8814
-33.3967 -32.6940 -11.2134 0.8251
-28.0759 -38.1067 -11.3566 0.8231
-18.4230 -32.6142 -8.9874 0.8572
-15.3553 -29.9370 -8.0726 0.8707
-12.1984 -26.3426 -6.9652 0.8874
-7.9249 -21.5004 -5.4979 0.9100
-6.3658 -19.6774 -4.9621 0.9184
-3.0891 -15.8828 -3.8822 0.9356
-1.5775 -14.0802 -3.3994 0.9434
-0.9519 -13.3263 -3.2056 0.9465
-0.3919 -12.6181 -3.0290 0.9494
0.1101 -11.9491 -2.8671 0.9520
0.5604 -11.3168 -2.7186 0.9545
1.6612 -9.6619 -2.3522 0.9605
2.2356 -8.7266 -2.1614 0.9636
2.9289 -7.5161 -1.9354 0.9674
3.1241 -7.1520 -1.8726 0.9684
3.3039 -6.8030 -1.8146 0.9694
3.6257 -6.1509 -1.7131 0.9711
3.7680 -5.8413 -1.6678 0.9718
3.8887 -5.5267 -1.6214 0.9726
4.0011 -5.2261 -1.5792 0.9733
4.1031 -4.9344 -1.5397 0.9739
4.1954 -4.6510 -1.5028 0.9746
4.2799 -4.3769 -1.4688 0.9751
4.7017 -2.9152 -1.3273 0.9775
4.8093 -2.4702 -1.2972 0.9780
4.8563 -2.2522 -1.2844 0.9782
4.9730 -1.6119 -1.2543 0.9787
5.0040 -1.4021 -1.2469 0.9788
4.0234 -0.9545 -0.9921 0.9831
3.8270 -0.7466 -0.9355 0.9841
3.8216 -0.5870 -0.9277 0.9842
3.8164 -0.4298 -0.9215 0.9843
3.8112 -0.2744 -0.9168 0.9844
3.8033 0.0329 -0.9126 0.9845
3.8142 0.3410 -0.9188 0.9844
3.8194 0.4971 -0.9241 0.9843
3.8571 5.7443 -1.7414 0.9719
3.7203 6.0536 -1.7883 0.9711
3.5720 6.3741 -1.8390 0.9703
3.4045 6.6934 -1.8900 0.9695
2.8114 7.7080 -2.0650 0.9667
1.7868 9.3565 -2.3974 0.9615
1.4689 9.8232 -2.4998 0.9599
1.1212 10.3247 -2.6138 0.9581
0.7375 10.8433 -2.7354 0.9562
-1.2559 13.4445 -3.3985 0.9458
-1.9125 14.2512 -3.6189 0.9424
-2.6621 15.1742 -3.8774 0.9384
-3.5039 16.1280 -4.1538 0.9342
-4.4852 17.2632 -4.4891 0.9291
-5.5963 18.4532 -4.8532 0.9235
-6.8795 19.7797 -5.2707 0.9172
-8.3849 21.3029 -5.7620 0.9099
-16.9368 26.0615 -7.8227 0.8797
-22.9710 23.3320 -8.2406 0.8737
-28.5149 22.7030 -9.1736 0.8604
-33.2647 22.3634 -10.0883 0.8476
-31.6559 17.7635 -9.1359 0.8609
-34.8323 17.7417 -9.8384 0.8511
-38.2400 17.5763 -10.5923 0.8406
-38.6880 15.9288 -10.5301 0.8415
-27.1152 9.9073 -7.2657 0.8877
-30.7058 -16.5837 -8.7832 0.8659
-24.9639 -17.6711 -7.6978 0.8815
-30.3597 -35.0909 -11.6784 0.8258
-27.9064 -38.0570 -11.8775 0.8231
-22.8232 -33.9071 -10.2870 0.8449
-19.4457 -31.5616 -9.3302 0.8582
-13.1753 -25.8308 -7.2980 0.8873
-10.7431 -23.3385 -6.4663 0.8994
-7.1410 -19.5098 -5.2289 0.9179
-5.7955 -18.0541 -4.7723 0.9248
-4.6712 -16.8551 -4.4021 0.9304
-3.7035 -15.8109 -4.0871 0.9352
-2.1191 -14.0623 -3.5792 0.9430
-0.8746 -12.6473 -3.1907 0.9491
-0.3452 -11.9935 -3.0198 0.9517
0.1306 -11.3746 -2.8630 0.9542
1.2976 -9.7527 -2.4762 0.9602
1.6165 -9.2762 -2.3699 0.9619
1.9007 -8.7969 -2.2651 0.9636
2.4180 -8.0058 -2.1048 0.9661
2.8511 -7.2677 -1.9649 0.9683
3.0423 -6.9218 -1.9029 0.9693
3.3822 -6.2709 -1.7932 0.9710
3.6725 -5.6650 -1.6992 0.9725
3.7932 -5.3651 -1.6537 0.9733
3.9031 -5.0742 -1.6112 0.9739
4.0033 -4.7923 -1.5716 0.9746
4.0953 -4.5195 -1.5350 0.9752
4.2571 -3.9983 -1.4699 0.9762
4.3341 -3.7540 -1.4431 0.9766
4.4794 -3.2885 -1.3986 0.9773
4.5440 -3.0623 -1.3791 0.9777
4.6605 -2.6221 -1.3459 0.9782
4.7117 -2.4066 -1.3316 0.9784
4.8012 -1.9831 -1.3074 0.9788
4.8398 -1.7746 -1.2974 0.9790
4.9052 -1.3624 -1.2813 0.9792
4.0429 -0.9494 -1.0452 0.9830
3.8245 -0.5785 -0.9735 0.9842
3.8068 -0.2654 -0.9604 0.9844
3.7976 0.0415 -0.9558 0.9845
3.8031 0.1948 -0.9584 0.9844
3.8198 0.6634 -0.9758 0.9841
5.0287 1.2974 -1.3071 0.9788
5.0159 1.5119 -1.3185 0.9786
4.9929 1.7270 -1.3297 0.9784
4.9645 1.9443 -1.3419 0.9782
4.8952 2.3876 -1.3708 0.9778
4.8538 2.6144 -1.3876 0.9775
4.7563 3.0795 -1.4261 0.9769
4.6997 3.3187 -1.4480 0.9765
4.6377 3.5632 -1.4720 0.9762
4.5702 3.8134 -1.4981 0.9757
4.1068 5.1402 -1.6559 0.9732
3.9904 5.4289 -1.6958 0.9726
3.7283 6.0359 -1.7856 0.9712
3.5807 6.3558 -1.8360 0.9704
3.4148 6.6761 -1.8873 0.9695
3.2336 7.0038 -1.9415 0.9687
3.0373 7.3416 -1.9996 0.9678
2.8239 7.6881 -2.0614 0.9668
2.3517 8.4486 -2.2072 0.9645
2.0937 8.8931 -2.2994 0.9630
1.4875 9.7958 -2.4937 0.9600
1.1416 10.2956 -2.6071 0.9582
0.7601 10.8145 -2.7285 0.9563
0.3402 11.3696 -2.8628 0.9542
-0.1239 11.9730 -3.0136 0.9518
-0.6417 12.6681 -3.1924 0.9490
-1.2213 13.4020 -3.3870 0.9460
-2.6173 15.1204 -3.8621 0.9387
-4.4270 17.1995 -4.4699 0.9294
-5.5295 18.3828 -4.8314 0.9239
-6.8020 19.7011 -5.2456 0.9176
-10.1216 23.0996 -6.3474 0.9012
-16.8503 26.0575 -7.8100 0.8799
-27.6609 39.2177 -12.0786 0.8204
-22.8189 25.2396 -8.5637 0.8691
-22.9662 23.4332 -8.2580 0.8734
-23.0202 21.6702 -7.9571 0.8777
-28.3447 22.6728 -9.1354 0.8610
-28.7541 17.7835 -8.5092 0.8698
-31.4903 17.7646 -9.0997 0.8615
-27.1097 9.9750 -7.2703 0.8877
-46.6493 9.0455 -11.9595 0.8220
-30.7098 -16.4960 -8.7737 0.8661
-30.6093 -18.0660 -8.9456 0.8636
-31.6308 -33.5632 -11.6075 0.8268
-30.3397 -34.9074 -11.6403 0.8263
-28.1089 -35.1000 -11.3177 0.8307
-19.6851 -31.7886 -9.4105 0.8571
-16.5421 -29.2843 -8.4650 0.8705
-10.8652 -23.4634 -6.5078 0.8988
-7.2247 -19.6007 -5.2576 0.9174
-5.8644 -18.1275 -4.7952 0.9244
-3.7543 -15.8657 -4.1034 0.9350
-2.9055 -14.9389 -3.8303 0.9392
-2.1585 -14.1067 -3.5918 0.9428
-0.9061 -12.6848 -3.2007 0.9489
0.9257 -10.2874 -2.5996 0.9583
1.8851 -8.8214 -2.2703 0.9635
2.4048 -8.0278 -2.1092 0.9660
2.6309 -7.6480 -2.0356 0.9672
3.2093 -6.6083 -1.8490 0.9702
3.7867 -5.3817 -1.6562 0.9732
4.3297 -3.7674 -1.4445 0.9766
4.4055 -3.5321 -1.4212 0.9770
4.5404 -3.0749 -1.3801 0.9776
4.6013 -2.8530 -1.3626 0.9779
4.6574 -2.6344 -1.3467 0.9782
4.7560 -2.2056 -1.3195 0.9786
4.7989 -1.9949 -1.3080 0.9788
4.9036 -1.3740 -1.2817 0.9792
4.1171 -0.9767 -1.0650 0.9827
3.8160 -0.4297 -0.9665 0.9843
3.8073 -0.2741 -0.9607 0.9844
3.7996 -0.1202 -0.9568 0.9844
3.7973 0.0328 -0.9557 0.9845
3.8028 0.1861 -0.9582 0.9844
3.1341 6.8290 -1.9799 0.9694
2.9383 7.1482 -2.0365 0.9685
2.5010 7.8215 -2.1638 0.9666
2.2600 8.1909 -2.2390 0.9655
2.0065 8.6101 -2.3296 0.9641
1.7271 9.0439 -2.4261 0.9626
1.0802 9.9473 -2.6365 0.9595
-0.1450 11.4909 -3.0281 0.9536
-1.1932 12.7735 -3.3805 0.9483
-2.5039 14.2723 -3.8182 0.9418
-3.2945 15.1642 -4.0890 0.9378
-5.2003 17.1476 -4.7216 0.9286
-6.3533 18.2669 -5.0961 0.9231
-7.6345 19.3964 -5.4926 0.9174
-16.4329 27.6627 -8.4783 0.8754
-18.9537 29.1649 -9.1653 0.8660
-25.7043 30.6989 -10.5503 0.8474
-22.7196 25.0155 -8.9044 0.8695
-28.3845 22.5992 -9.5604 0.8606
-33.1206 22.2665 -10.5162 0.8478
-34.8304 17.7407 -10.2998 0.8507
-38.2009 17.5583 -11.0783 0.8404
-42.9529 17.6847 -12.2399 0.8252
-27.0087 9.8684 -7.5770 0.8879
-27.0406 7.4774 -7.3926 0.8904
-46.4098 8.8899 -12.4513 0.8225
-24.9140 -17.6358 -8.0432 0.8814
-28.1237 -32.5065 -11.3263 0.8371
-27.9488 -35.0628 -11.8151 0.8307
-24.4447 -33.3361 -10.8926 0.8428
-20.5727 -30.5636 -9.7080 0.8586
-16.8240 -27.3064 -8.4513 0.8758
-14.1831 -25.2418 -7.6293 0.8871
-11.6996 -22.9378 -6.7849 0.8990
-6.5667 -17.9407 -5.0341 0.9240
-5.3836 -16.7711 -4.6413 0.9297
-2.7014 -14.0597 -3.7725 0.9425
-1.3915 -12.6804 -3.3613 0.9486
-0.8334 -12.0527 -3.1835 0.9513
0.5360 -10.3489 -2.7306 0.9580
0.9091 -9.8531 -2.6073 0.9599
1.2489 -9.3865 -2.4951 0.9616
1.8346 -8.4911 -2.2890 0.9647
2.1016 -8.1266 -2.2118 0.9659
2.7664 -7.0519 -1.9961 0.9692
3.1289 -6.4058 -1.8785 0.9709
3.2903 -6.1005 -1.8264 0.9717
3.5752 -5.5150 -1.7319 0.9732
3.9029 -4.6720 -1.6041 0.9751
3.9949 -4.4086 -1.5677 0.9757
4.0794 -4.1529 -1.5339 0.9762
4.1570 -3.9043 -1.5027 0.9767
4.3132 -3.4421 -1.4541 0.9774
4.4474 -2.9972 -1.4132 0.9781
4.5637 -2.5677 -1.3798 0.9786
4.6149 -2.3572 -1.3655 0.9788
4.7429 -1.7391 -1.3311 0.9793
4.8082 -1.3355 -1.3149 0.9796
4.1235 -0.9683 -1.1161 0.9826
3.8148 -0.2660 -1.0076 0.9843
3.8091 -0.1118 -1.0041 0.9844
3.8083 0.1951 -1.0048 0.9844
3.8274 0.6648 -1.0236 0.9841
3.8766 0.8353 -1.0449 0.9837
4.8272 2.1184 -1.3891 0.9784
4.7484 2.5576 -1.4211 0.9779
4.6502 3.0108 -1.4597 0.9773
4.5310 3.4812 -1.5056 0.9766
4.4632 3.7242 -1.5317 0.9762
4.3892 3.9727 -1.5599 0.9758
4.3084 4.2273 -1.5905 0.9753
4.1140 4.7443 -1.6547 0.9744
4.0038 5.0112 -1.6901 0.9738
3.6273 5.8724 -1.8188 0.9719
3.1448 6.8114 -1.9769 0.9694
2.9498 7.1299 -2.0332 0.9686
2.0214 8.5859 -2.3242 0.9642
1.7437 9.0200 -2.4208 0.9627
1.4357 9.4546 -2.5198 0.9612
1.1000 9.9202 -2.6300 0.9596
0.7309 10.3983 -2.7467 0.9578
-0.1186 11.4575 -3.0192 0.9537
-0.6115 12.0713 -3.1849 0.9512
-3.2472 15.1119 -4.0729 0.9381
-4.1228 16.0175 -4.3582 0.9339
-5.1397 17.0871 -4.7017 0.9288
-6.2841 18.2009 -5.0737 0.9234
-7.6003 19.4389 -5.4997 0.9173
-11.1054 22.8013 -6.6829 0.9004
-13.3970 24.9066 -7.4521 0.8896
-25.6171 30.7361 -10.5431 0.8475
-22.7276 25.1386 -8.9299 0.8692
-28.3799 22.7009 -9.5762 0.8604
-38.3162 17.7167 -11.1234 0.8398
-38.5344 15.9678 -10.9911 0.8415
-26.9984 9.9341 -7.5804 0.8878
-46.4106 8.9992 -12.4570 0.8224
-24.0303 -25.4983 -9.2324 0.8651
-28.1331 -32.3686 -11.3004 0.8374
-20.8139 -30.7710 -9.7889 0.8576
-11.8256 -23.0553 -6.8276 0.8984
-9.7841 -21.1288 -6.1354 0.9082
-8.0715 -19.4474 -5.5482 0.9166
-5.4453 -16.8320 -4.6616 0.9294
-2.7429 -14.1029 -3.7857 0.9423
-1.4246 -12.7159 -3.3716 0.9484
-0.8635 -12.0883 -3.1934 0.9511
-0.3565 -11.4786 -3.0261 0.9536
0.1006 -10.9103 -2.8750 0.9559
0.8890 -9.8801 -2.6139 0.9598
2.0875 -8.1484 -2.2164 0.9658
2.3279 -7.7710 -2.1375 0.9670
3.5681 -5.5315 -1.7345 0.9731
3.9899 -4.4233 -1.5696 0.9757
4.0749 -4.1672 -1.5358 0.9762
4.1528 -3.9181 -1.5044 0.9767
4.3091 -3.4548 -1.4553 0.9774
4.3791 -3.2302 -1.4339 0.9777
4.4438 -3.0095 -1.4142 0.9780
4.6121 -2.3690 -1.3662 0.9788
4.6592 -2.1607 -1.3533 0.9790
4.7021 -1.9547 -1.3418 0.9792
4.7408 -1.7505 -1.3316 0.9793
4.7756 -1.5480 -1.3228 0.9794
4.8066 -1.3468 -1.3153 0.9796
3.8463 -0.7503 -1.0326 0.9839
3.8151 -0.2747 -1.0079 0.9843
3.8079 0.1864 -1.0046 0.9844
3.8140 0.3410 -1.0090 0.9843
2.8554 6.9464 -2.0683 0.9693
2.6485 7.2614 -2.1286 0.9684
1.0419 9.5946 -2.6577 0.9608
0.6825 10.0356 -2.7700 0.9591
-1.1317 12.1145 -3.3507 0.9508
-1.7090 12.7348 -3.5384 0.9481
-3.0975 14.2577 -4.0180 0.9413
-3.9243 15.1043 -4.2976 0.9373
-4.8375 15.9513 -4.5903 0.9332
-7.0872 18.0060 -5.3289 0.9229
-8.4714 19.2149 -5.7830 0.9166
-10.1573 20.7351 -6.3585 0.9087
-12.1724 22.5075 -7.0466 0.8993
-14.4610 24.3433 -7.7974 0.8892
-22.6297 24.9165 -9.2692 0.8697
-22.6948 23.0514 -8.9083 0.8744
-28.2837 26.5043 -10.6744 0.8514
-22.9232 19.8098 -8.3434 0.8819
-23.0079 18.3184 -8.0990 0.8851
-23.0359 16.8716 -7.8632 0.8883
-28.2792 19.0117 -9.3840 0.8682
-33.1143 18.5819 -10.4569 0.8542
-42.9501 17.6836 -12.7912 0.8247
-26.8946 9.8267 -7.8853 0.8880
-27.9821 -32.3428 -11.7776 0.8374
-21.5481 -29.3860 -10.0350 0.8597
-17.7998 -26.4442 -8.7784 0.8761
-12.5993 -22.4231 -7.0831 0.8988
-8.7992 -19.1154 -5.7951 0.9164
-7.3311 -17.7772 -5.2955 0.9233
-5.0270 -15.6601 -4.5293 0.9340
-4.1012 -14.7983 -4.2289 0.9383
-2.5583 -13.3149 -3.7338 0.9453
-0.3150 -10.9426 -3.0147 0.9556
0.1197 -10.4227 -2.8705 0.9577
0.5146 -9.9352 -2.7397 0.9596
1.2034 -9.0448 -2.5128 0.9629
1.5039 -8.6299 -2.4124 0.9643
2.8716 -6.5335 -1.9653 0.9708
3.3508 -5.6553 -1.8102 0.9731
3.4808 -5.3694 -1.7622 0.9738
3.5985 -5.0897 -1.7166 0.9745
3.7069 -4.8192 -1.6743 0.9751
3.8068 -4.5570 -1.6352 0.9757
3.8987 -4.3025 -1.5989 0.9762
3.9833 -4.0551 -1.5654 0.9767
4.1452 -3.5905 -1.5102 0.9775
4.4147 -2.7235 -1.4285 0.9787
4.4704 -2.5152 -1.4126 0.9789
4.6108 -1.9045 -1.3738 0.9795
4.7144 -1.3094 -1.3474 0.9799
3.8599 -0.7439 -1.0825 0.9838
3.8419 -0.5812 -1.0700 0.9840
3.8350 -0.4231 -1.0625 0.9841
3.8200 0.0417 -1.0521 0.9843
3.8219 0.1958 -1.0539 0.9842
