ply
format ascii 1.0
element vertex 1593
property float32 x
property float32 y
property float32 z
property float32 I
end_header
7.8631 19.1052 1.0885 0.9206
7.7218 24.1024 1.3334 0.9036
1.0831 15.7067 0.8295 0.9389
0.4825 16.8358 0.8874 0.9348
-31.2991 34.6159 2.4587 0.8295
-32.3093 23.7896 2.1139 0.8515
-37.0905 -33.3316 2.6273 0.8189
8.4038 -28.4900 1.5650 0.8878
11.3928 -29.6156 1.6718 0.8806
11.8984 -27.5690 1.5820 0.8867
12.7543 -26.5636 1.5525 0.8887
12.6147 -23.7741 1.4180 0.8978
11.3768 -11.7509 0.8617 0.9366
10.9082 -8.8386 0.7397 0.9453
10.5979 -6.6500 0.6592 0.9511
10.5406 -6.0377 0.6400 0.9525
8.8516 -4.1648 0.5154 0.9616
10.0524 -2.8796 0.5509 0.9590
10.3529 -1.6537 0.5524 0.9589
4.3498 -0.5165 0.2308 0.9826
4.2686 -0.3336 0.2256 0.9830
4.2382 -0.1603 0.2235 0.9832
4.2247 0.0101 0.2226 0.9832
6.0915 1.0030 0.3253 0.9756
10.8960 3.1779 0.5980 0.9556
10.9889 3.6903 0.6107 0.9546
11.0814 4.2241 0.6248 0.9536
11.1026 4.7516 0.6363 0.9528
11.1264 5.3006 0.6493 0.9518
10.8884 5.7350 0.6484 0.9519
10.1863 5.8999 0.6202 0.9539
10.0610 6.3806 0.6277 0.9534
10.8907 7.5371 0.6978 0.9483
10.9724 8.2650 0.7237 0.9465
10.7240 10.3194 0.7841 0.9421
11.1607 13.6884 0.9305 0.9317
8.4672 14.6781 0.8928 0.9344
7.9629 16.7905 0.9791 0.9283
8.5609 22.5771 1.2721 0.9078
8.0479 24.1045 1.3389 0.9032
1.7982 14.7588 0.7833 0.9422
0.7067 17.2922 0.9118 0.9330
-31.4748 32.9091 2.3992 0.8333
-31.7089 30.5920 2.3214 0.8382
-36.3476 -33.4743 2.0546 0.8205
-35.0459 -34.9807 2.0589 0.8202
5.9397 -42.6923 1.7922 0.8415
8.8912 -40.0165 1.7044 0.8486
7.8725 -29.7329 1.2789 0.8841
8.5193 -27.6350 1.2024 0.8907
11.6374 -23.4987 1.0903 0.9003
9.9767 -16.6352 0.8065 0.9253
11.2621 -15.7545 0.8052 0.9254
10.9604 -14.0984 0.7425 0.9310
10.5184 -9.7828 0.5973 0.9441
10.2652 -8.1123 0.5440 0.9490
6.2644 -4.1797 0.3131 0.9703
8.8806 -4.0470 0.4058 0.9617
9.6867 -3.5052 0.4283 0.9596
9.6571 -2.2265 0.4121 0.9611
9.9970 -1.4721 0.4202 0.9604
4.1329 -0.4397 0.1728 0.9835
4.0990 -0.1050 0.1705 0.9837
4.1006 0.0599 0.1705 0.9837
4.1767 0.3979 0.1745 0.9833
10.2514 1.8167 0.4329 0.9592
10.3164 2.2592 0.4391 0.9586
10.3840 2.7156 0.4463 0.9579
10.6182 4.1966 0.4747 0.9553
10.6314 4.7041 0.4834 0.9545
10.5325 6.8612 0.5227 0.9509
10.4303 7.4081 0.5319 0.9501
10.4926 8.1060 0.5513 0.9483
10.0743 9.1650 0.5663 0.9469
10.4718 13.1681 0.6995 0.9349
10.6147 14.5086 0.7475 0.9306
9.0262 14.6813 0.7166 0.9333
8.2292 14.6762 0.6996 0.9349
7.7243 24.1103 1.0527 0.9036
7.8112 28.2411 1.2183 0.8893
3.7734 25.0948 1.0552 0.9034
0.9273 13.4464 0.5604 0.9475
-0.2880 24.9407 1.0371 0.9050
-32.2651 30.3777 1.8426 0.8374
-32.2253 27.9844 1.7746 0.8429
-31.1380 22.9272 1.6078 0.8566
-32.0711 18.1116 1.5314 0.8629
-35.0443 -34.1362 2.0342 0.8221
5.4104 -42.6969 1.7895 0.8417
8.6347 -34.2964 1.4705 0.8680
8.2809 -28.0733 1.2170 0.8894
10.0674 -29.6781 1.3031 0.8821
10.6322 -27.6385 1.2313 0.8882
11.5130 -26.6761 1.2081 0.8902
11.2404 -16.1365 0.8177 0.9243
11.0185 -14.5355 0.7584 0.9296
10.8348 -13.1592 0.7088 0.9340
10.7911 -12.0819 0.6736 0.9372
10.6680 -11.0188 0.6377 0.9404
10.2992 -8.3452 0.5512 0.9483
9.8113 -5.6200 0.4701 0.9557
9.1202 -3.8515 0.4116 0.9611
9.3488 -3.5124 0.4152 0.9608
9.6547 -2.7657 0.4176 0.9606
9.9882 -2.0101 0.4236 0.9600
9.9945 -1.5964 0.4208 0.9603
4.1045 -0.1552 0.1708 0.9837
4.1290 0.1760 0.1718 0.9836
4.1653 0.3457 0.1738 0.9834
10.2353 1.6853 0.4313 0.9593
10.5962 4.0392 0.4715 0.9556
10.6270 4.5481 0.4806 0.9548
10.6603 5.6149 0.5010 0.9529
10.4639 7.2417 0.5291 0.9503
10.4876 7.8998 0.5459 0.9488
10.1136 8.2755 0.5434 0.9490
10.0522 8.9233 0.5589 0.9476
10.1285 9.7463 0.5844 0.9453
10.2158 10.6536 0.6137 0.9426
10.4328 12.7956 0.6865 0.9360
10.5689 14.0823 0.7321 0.9319
6.3323 9.1842 0.4638 0.9563
8.4670 14.6777 0.7046 0.9344
8.0289 16.9298 0.7791 0.9277
8.0477 24.1039 1.0566 0.9033
0.7177 17.5613 0.7308 0.9321
-32.3236 33.7965 1.9445 0.8293
-32.2780 31.1410 1.8649 0.8356
-34.8642 -34.7993 1.5016 0.8211
8.1312 -45.0843 1.3965 0.8325
7.8505 -29.6497 0.9350 0.8845
10.1568 -28.7832 0.9304 0.8850
9.9864 -18.2787 0.6349 0.9200
10.0062 -16.6842 0.5930 0.9251
10.5852 -16.1414 0.5884 0.9257
10.3603 -14.4929 0.5431 0.9312
10.1949 -12.0787 0.4818 0.9387
10.1013 -11.0357 0.4561 0.9419
9.7135 -7.0612 0.3661 0.9531
6.2707 -4.1839 0.2298 0.9703
9.3859 -5.2253 0.3275 0.9579
9.0906 -4.5925 0.3105 0.9601
8.8984 -4.0551 0.2981 0.9616
9.0302 -3.6844 0.2973 0.9617
9.3093 -3.3686 0.3018 0.9612
9.2843 -2.5375 0.2934 0.9622
3.9800 -0.4235 0.1220 0.9841
3.9726 -0.2618 0.1214 0.9842
3.9659 -0.1016 0.1209 0.9842
3.9686 0.0579 0.1210 0.9842
9.8611 1.7475 0.3053 0.9607
10.0294 3.0584 0.3196 0.9589
10.0959 3.5280 0.3260 0.9581
10.1672 4.0183 0.3333 0.9572
10.1926 4.5100 0.3398 0.9564
10.2092 5.5373 0.3540 0.9546
9.8491 8.2617 0.3919 0.9499
9.6126 9.4784 0.4115 0.9474
9.7407 11.2862 0.4545 0.9421
9.8197 12.3481 0.4809 0.9388
9.9114 13.5473 0.5117 0.9350
9.1928 13.6873 0.5026 0.9361
8.2290 14.6758 0.5129 0.9349
8.1175 15.9474 0.5455 0.9309
7.9000 19.1948 0.6327 0.9203
7.8136 24.3888 0.7807 0.9026
3.4368 14.7018 0.4602 0.9414
1.5161 13.8475 0.4246 0.9458
0.9229 13.3826 0.4089 0.9477
-31.9578 32.6085 1.3918 0.8330
-32.0968 30.2192 1.3438 0.8383
-32.0634 27.8438 1.2945 0.8437
-31.7562 16.2866 1.0879 0.8669
-37.1400 -33.3762 1.5221 0.8189
6.0238 -47.5377 1.4607 0.8255
5.1665 -24.6698 0.7683 0.9041
9.0352 -35.8871 1.1281 0.8623
8.2946 -28.1199 0.8937 0.8893
9.9400 -29.3027 0.9432 0.8835
10.4877 -27.2628 0.8904 0.8897
10.8823 -25.2146 0.8372 0.8959
10.4064 -14.9393 0.5550 0.9297
10.0403 -10.3705 0.4400 0.9439
9.9510 -9.4840 0.4190 0.9465
9.7242 -7.2518 0.3698 0.9526
6.2096 -4.2535 0.2294 0.9703
9.3696 -4.8777 0.3220 0.9586
8.9771 -3.7911 0.2971 0.9618
9.1922 -3.4535 0.2993 0.9615
9.2876 -2.6605 0.2945 0.9621
9.6156 -1.9351 0.2990 0.9615
3.9823 -0.4729 0.1222 0.9841
3.9748 -0.3106 0.1215 0.9842
3.9615 0.0095 0.1208 0.9843
4.0194 0.3336 0.1229 0.9840
9.8469 1.6214 0.3042 0.9609
9.9504 2.4729 0.3125 0.9598
10.1909 4.3614 0.3379 0.9566
10.1974 4.8580 0.3443 0.9558
10.2061 5.3756 0.3516 0.9549
9.9471 7.4926 0.3796 0.9514
10.0202 8.1991 0.3947 0.9495
9.5960 9.2340 0.4060 0.9481
9.6533 10.0670 0.4252 0.9457
9.7189 10.9872 0.4472 0.9430
9.7945 12.0127 0.4725 0.9399
9.4187 13.6606 0.5058 0.9358
8.8416 13.9957 0.5046 0.9359
8.0475 24.1033 0.7746 0.9033
7.9344 27.3823 0.8690 0.8922
2.9468 14.4155 0.4485 0.9428
2.3309 14.3122 0.4420 0.9436
0.7209 17.6398 0.5382 0.9318
-32.0104 33.4690 1.4118 0.8308
-36.0677 -33.2165 0.9510 0.8219
-34.7681 -34.7034 0.9528 0.8216
5.3855 -38.7094 0.7580 0.8553
7.6214 -34.3014 0.6815 0.8689
7.9794 -30.1365 0.6046 0.8827
9.7030 -27.4972 0.5655 0.8899
9.9373 -24.9208 0.5203 0.8982
9.7728 -21.9059 0.4652 0.9085
9.6421 -19.4696 0.4214 0.9167
9.5358 -17.4539 0.3857 0.9235
9.6937 -16.1632 0.3655 0.9274
9.6418 -12.4023 0.3047 0.9391
9.5421 -10.4248 0.2741 0.9450
9.3475 -8.0179 0.2389 0.9519
9.3183 -7.3640 0.2304 0.9536
6.2833 -4.1924 0.1465 0.9702
8.6638 -3.9482 0.1847 0.9626
8.9524 -2.8381 0.1821 0.9631
3.9633 -0.4217 0.0773 0.9842
9.5000 1.6835 0.1871 0.9621
9.5921 2.5085 0.1923 0.9611
9.6443 2.9410 0.1956 0.9605
9.7416 6.3459 0.2255 0.9546
9.6374 6.8450 0.2293 0.9538
9.5746 8.0314 0.2424 0.9512
9.0987 8.2774 0.2386 0.9520
9.1266 8.9992 0.2486 0.9500
9.1608 9.7896 0.2600 0.9478
9.1997 10.6594 0.2731 0.9452
9.2444 11.6247 0.2881 0.9423
9.2959 12.7060 0.3053 0.9390
9.0256 14.6805 0.3342 0.9334
8.2288 14.6754 0.3263 0.9349
8.1604 17.7633 0.3791 0.9248
7.9746 19.3761 0.4064 0.9196
7.9023 24.6657 0.5023 0.9016
8.0187 28.9914 0.5834 0.8866
-31.9602 32.6109 0.8856 0.8330
-34.5691 27.6631 0.8587 0.8377
-31.8555 23.4554 0.7672 0.8536
-31.7940 17.9552 0.7082 0.8641
-34.6400 17.7656 0.7550 0.8558
-37.1382 -33.3745 0.9684 0.8189
-34.9029 -33.9985 0.9450 0.8229
6.0239 -47.5386 0.9294 0.8255
8.6243 -29.2374 0.5912 0.8852
9.4901 -27.9763 0.5730 0.8885
9.9958 -25.9841 0.5400 0.8946
9.6788 -20.1582 0.4337 0.9144
9.5658 -18.0281 0.3958 0.9216
9.4804 -16.2537 0.3649 0.9275
9.8052 -15.3572 0.3534 0.9297
9.6937 -13.9161 0.3289 0.9344
9.5599 -10.7035 0.2783 0.9442
9.3588 -8.2278 0.2417 0.9514
6.2340 -4.2702 0.1466 0.9702
9.0253 -5.6632 0.2067 0.9583
8.9958 -4.6832 0.1967 0.9602
8.6670 -4.0780 0.1858 0.9624
8.9630 -3.3674 0.1857 0.9624
8.9547 -2.9594 0.1829 0.9630
9.1259 -2.2216 0.1822 0.9631
9.2707 -1.8657 0.1834 0.9629
9.2825 -1.4827 0.1823 0.9631
3.9187 -0.1482 0.0761 0.9844
3.9160 0.1669 0.0760 0.9844
3.9416 0.3271 0.0767 0.9843
9.5292 1.9654 0.1887 0.9618
9.5768 2.3801 0.1914 0.9613
9.6281 2.8082 0.1945 0.9607
9.6824 3.2516 0.1981 0.9600
9.7398 3.7127 0.2022 0.9592
9.7914 4.6646 0.2104 0.9575
9.7913 5.1571 0.2146 0.9567
9.7923 5.6717 0.2195 0.9557
9.6693 6.6918 0.2281 0.9540
9.3070 8.2618 0.2414 0.9514
9.1171 8.7732 0.2454 0.9506
9.1873 10.3862 0.2689 0.9460
9.2302 11.3206 0.2833 0.9432
8.8601 14.0250 0.3217 0.9358
8.4665 14.6769 0.3286 0.9345
8.1674 17.2218 0.3697 0.9266
8.1371 19.1055 0.4028 0.9203
8.0355 27.7314 0.5600 0.8909
2.9405 14.3847 0.2848 0.9430
0.0154 23.7304 0.4603 0.9094
-31.9698 33.4266 0.8971 0.8311
5.9401 -42.6953 0.3583 0.8416
5.4892 -24.7052 0.2103 0.9037
9.0601 -25.6752 0.2263 0.8968
8.8479 -16.1948 0.1534 0.9288
9.1099 -13.8917 0.1381 0.9357
9.0918 -11.6948 0.1231 0.9425
9.0425 -9.8789 0.1113 0.9478
8.9879 -9.0598 0.1061 0.9502
8.9526 -8.3265 0.1016 0.9523
8.9324 -7.6618 0.0978 0.9540
8.9231 -7.0517 0.0945 0.9555
8.9374 -6.4971 0.0918 0.9568
8.6607 -5.2883 0.0843 0.9602
8.6547 -4.8182 0.0823 0.9612
8.6493 -4.3695 0.0805 0.9620
8.6446 -3.9394 0.0790 0.9627
8.6336 -2.7370 0.0753 0.9644
8.6371 -2.3606 0.0744 0.9648
8.9247 -1.6831 0.0755 0.9643
3.9331 -0.2592 0.0328 0.9844
3.8952 0.0569 0.0324 0.9845
3.9204 0.2150 0.0326 0.9844
3.9653 0.5394 0.0333 0.9841
9.1646 1.6241 0.0774 0.9635
9.3810 3.7076 0.0838 0.9605
9.4242 4.1700 0.0857 0.9596
9.4167 4.6278 0.0872 0.9589
9.2840 6.5940 0.0946 0.9555
8.6876 8.5663 0.1014 0.9524
8.7008 9.2981 0.1058 0.9503
8.7330 10.9816 0.1166 0.9454
6.6138 9.0399 0.0931 0.9562
8.7753 13.0656 0.1308 0.9390
8.8018 14.3163 0.1397 0.9350
8.2315 17.9180 0.1639 0.9242
8.8063 24.1069 0.2133 0.9024
8.1647 25.4847 0.2224 0.8985
9.2449 33.4244 0.2882 0.8705
3.5157 15.0391 0.1284 0.9401
-31.8415 38.1954 0.4133 0.8196
-30.0755 30.6878 0.3571 0.8421
-30.1595 28.3952 0.3443 0.8473
-29.8528 18.4793 0.2918 0.8690
-34.6382 17.7647 0.3235 0.8558
-34.1030 -36.0014 0.4122 0.8201
3.8953 -18.5998 0.1579 0.9268
9.0864 -26.7861 0.2351 0.8930
9.0071 -23.4139 0.2085 0.9045
8.8946 -18.5249 0.1708 0.9211
9.1254 -14.2926 0.1409 0.9344
9.0948 -11.9977 0.1251 0.9416
9.0843 -11.0332 0.1188 0.9444
9.0520 -10.1348 0.1129 0.9471
9.0046 -9.3007 0.1076 0.9495
8.9378 -7.8577 0.0989 0.9535
8.9258 -7.2324 0.0955 0.9551
8.9301 -6.6596 0.0926 0.9564
8.6626 -5.4356 0.0850 0.9599
8.6564 -4.9584 0.0829 0.9609
8.6417 -3.6494 0.0780 0.9632
8.9499 -1.8011 0.0759 0.9641
4.4915 -0.7174 0.0378 0.9820
3.9618 -0.4705 0.0332 0.9842
3.9411 -0.3080 0.0329 0.9843
3.8894 0.0093 0.0323 0.9846
3.9127 0.1668 0.0325 0.9845
9.2303 2.2940 0.0790 0.9627
9.3203 3.1300 0.0817 0.9614
9.4115 4.0279 0.0851 0.9599
9.4189 4.4871 0.0867 0.9591
9.4116 4.9571 0.0884 0.9583
9.3941 5.9576 0.0925 0.9565
9.3165 6.4476 0.0942 0.9557
9.1498 8.1223 0.1017 0.9522
8.6966 9.0693 0.1044 0.9510
8.7275 10.7041 0.1148 0.9463
8.7464 11.6539 0.1211 0.9434
8.7933 13.9192 0.1368 0.9363
8.4663 14.6765 0.1408 0.9345
8.2367 17.3680 0.1598 0.9260
8.1369 19.1050 0.1726 0.9203
9.0152 23.7751 0.2113 0.9033
8.1392 28.0893 0.2431 0.8896
0.9649 23.6107 0.1964 0.9098
-35.9013 -33.0632 -0.1352 0.8226
-34.5266 -34.4624 -0.1351 0.8227
8.0121 -44.4237 -0.1251 0.8348
5.4788 -24.6585 -0.0700 0.9039
8.1229 -30.6783 -0.0879 0.8808
8.1563 -26.4576 -0.0767 0.8952
8.2021 -20.5694 -0.0613 0.9152
8.2184 -18.4216 -0.0559 0.9225
8.5823 -12.0058 -0.0409 0.9427
8.5978 -11.0593 -0.0388 0.9455
8.6021 -10.1917 -0.0369 0.9481
8.5784 -9.3720 -0.0352 0.9504
8.5633 -8.6317 -0.0337 0.9525
8.5815 -6.7817 -0.0303 0.9572
8.5324 -6.2026 -0.0292 0.9587
8.3285 -5.0855 -0.0270 0.9617
8.3334 -3.7976 -0.0254 0.9640
8.3358 -3.0163 -0.0246 0.9652
8.3368 -2.6429 -0.0242 0.9656
8.3379 -2.2788 -0.0239 0.9660
3.9505 -0.4203 -0.0110 0.9842
3.9426 0.3756 -0.0110 0.9843
8.8839 1.9455 -0.0252 0.9643
8.9573 2.7315 -0.0259 0.9632
8.9964 3.1438 -0.0264 0.9626
9.0313 3.5694 -0.0269 0.9619
9.0698 4.4573 -0.0280 0.9604
9.0560 4.9118 -0.0285 0.9596
9.0212 5.8767 -0.0298 0.9578
8.2849 8.8536 -0.0336 0.9527
8.2549 13.4268 -0.0437 0.9389
8.2458 14.7057 -0.0467 0.9348
8.2224 17.8982 -0.0546 0.9242
8.1637 25.4818 -0.0741 0.8985
8.1327 29.4035 -0.0845 0.8851
8.0914 34.6127 -0.0985 0.8675
1.7335 25.1375 -0.0698 0.9041
-31.5191 37.8087 -0.1364 0.8213
-31.4108 32.0503 -0.1243 0.8357
-34.5665 27.6610 -0.1226 0.8377
-31.3170 21.1723 -0.1047 0.8597
-31.5071 16.1589 -0.0981 0.8679
-38.3084 17.7403 -0.1170 0.8446
-34.7629 -33.8621 -0.1344 0.8236
-33.7883 -35.6692 -0.1361 0.8216
7.9863 -47.5965 -0.1337 0.8244
3.9054 -18.6479 -0.0528 0.9266
8.1472 -27.6199 -0.0798 0.8912
8.1748 -24.0990 -0.0705 0.9032
8.2138 -19.0317 -0.0574 0.9204
8.5673 -14.6883 -0.0471 0.9342
8.5563 -13.4012 -0.0440 0.9384
8.5750 -12.3101 -0.0416 0.9418
8.5891 -9.6165 -0.0357 0.9497
8.5590 -8.1573 -0.0328 0.9538
8.5559 -7.5219 -0.0316 0.9555
6.2173 -4.2588 -0.0209 0.9703
8.3298 -4.7713 -0.0266 0.9623
8.3343 -3.5196 -0.0251 0.9645
8.3365 -2.7551 -0.0243 0.9655
8.3533 -2.3929 -0.0241 0.9658
8.6363 -2.1024 -0.0246 0.9651
8.6219 -1.7351 -0.0244 0.9654
4.1482 -0.6626 -0.0116 0.9833
3.9532 -0.4694 -0.0110 0.9842
3.9373 -0.3077 -0.0109 0.9843
3.9113 -0.1479 -0.0108 0.9845
3.8858 0.0093 -0.0108 0.9846
3.9094 0.1666 -0.0108 0.9845
3.9348 0.3265 -0.0109 0.9843
3.9540 0.4888 -0.0110 0.9842
4.3159 0.7106 -0.0121 0.9827
8.9082 2.2139 -0.0254 0.9639
8.9457 2.6091 -0.0258 0.9634
9.0209 3.4387 -0.0267 0.9621
9.0557 3.8756 -0.0273 0.9614
9.0739 4.3227 -0.0278 0.9606
9.0603 4.7721 -0.0284 0.9599
9.0272 5.7250 -0.0296 0.9581
8.9885 6.2206 -0.0303 0.9572
8.2769 10.1514 -0.0363 0.9490
8.2574 13.0709 -0.0428 0.9400
8.2487 14.2993 -0.0457 0.9361
8.1367 19.1045 -0.0575 0.9203
8.1939 21.6090 -0.0640 0.9117
8.0999 24.2604 -0.0709 0.9028
8.1054 32.8597 -0.0938 0.8734
2.9733 14.5453 -0.0411 0.9423
1.9045 15.6308 -0.0436 0.9390
-31.4644 32.8982 -0.1261 0.8335
-31.3994 30.2934 -0.1209 0.8399
-35.4675 -32.6637 -0.6679 0.8246
-34.4191 -34.3551 -0.6737 0.8232
2.2522 -38.8939 -0.5397 0.8557
6.4508 -46.3660 -0.6485 0.8292
6.8017 -37.7123 -0.5308 0.8579
7.3537 -23.8540 -0.3458 0.9050
7.4589 -21.1376 -0.3105 0.9142
8.0432 -16.2411 -0.2511 0.9301
8.0136 -14.6679 -0.2315 0.9353
8.1546 -10.4893 -0.1840 0.9482
8.1717 -9.6817 -0.1755 0.9506
8.1774 -8.9339 -0.1678 0.9527
8.1870 -8.2525 -0.1610 0.9546
8.2319 -7.0610 -0.1502 0.9575
8.2738 -6.5386 -0.1461 0.9587
8.0208 -4.8976 -0.1302 0.9631
8.0438 -3.6656 -0.1225 0.9653
8.0498 -3.2844 -0.1204 0.9658
8.0551 -2.9148 -0.1187 0.9663
8.0597 -2.5551 -0.1171 0.9667
8.1751 -2.2343 -0.1174 0.9667
8.3593 -1.9273 -0.1188 0.9663
3.9509 -0.5818 -0.0553 0.9842
3.8999 -0.0999 -0.0540 0.9845
3.9391 0.3753 -0.0548 0.9843
3.9484 0.5371 -0.0552 0.9842
8.5877 1.8806 -0.1218 0.9654
8.6173 2.2536 -0.1234 0.9650
8.6493 2.6375 -0.1253 0.9645
8.6797 3.0331 -0.1274 0.9639
8.7475 4.2989 -0.1350 0.9618
8.7059 5.1853 -0.1404 0.9603
8.6798 5.6542 -0.1435 0.9594
8.6496 6.1434 -0.1470 0.9584
8.4353 7.0758 -0.1525 0.9569
8.3559 8.2393 -0.1626 0.9541
7.8631 9.8877 -0.1750 0.9507
7.7719 12.6413 -0.2056 0.9424
7.7319 13.7892 -0.2190 0.9387
7.6851 15.0978 -0.2347 0.9345
7.6299 16.6085 -0.2532 0.9295
7.4836 20.4861 -0.3021 0.9164
7.3847 23.0502 -0.3353 0.9077
7.2596 26.2467 -0.3772 0.8968
7.0969 30.3584 -0.4319 0.8827
2.6867 14.0117 -0.1976 0.9445
6.8545 45.5858 -0.6386 0.8316
0.4218 14.7186 -0.2040 0.9428
-31.4509 32.0913 -0.6224 0.8355
-31.4322 27.2956 -0.5767 0.8466
-34.5652 27.6600 -0.6133 0.8377
-31.4148 23.1310 -0.5404 0.8555
-33.5272 22.6666 -0.5606 0.8505
-36.4491 22.5625 -0.5938 0.8424
-31.4892 17.7830 -0.5010 0.8653
-34.7391 -33.8389 -0.6718 0.8237
-16.9628 -27.2172 -0.4443 0.8796
7.1714 -28.4843 -0.4069 0.8891
7.3165 -24.8040 -0.3582 0.9017
8.0226 -15.1196 -0.2371 0.9338
8.0620 -12.6270 -0.2075 0.9418
8.1440 -10.7435 -0.1868 0.9475
8.1742 -9.1520 -0.1700 0.9521
8.1929 -7.8084 -0.1568 0.9557
8.2614 -6.6940 -0.1473 0.9584
8.3013 -6.1907 -0.1435 0.9594
6.2338 -4.2700 -0.1047 0.9702
8.0269 -4.5978 -0.1281 0.9637
8.0348 -4.1828 -0.1255 0.9644
8.3547 -2.0338 -0.1191 0.9662
3.8822 0.0093 -0.0538 0.9846
3.9061 0.1665 -0.0542 0.9845
4.0980 0.6748 -0.0575 0.9835
8.5472 1.7628 -0.1209 0.9657
8.6077 2.1392 -0.1229 0.9651
8.6985 3.3158 -0.1290 0.9634
8.7257 3.7344 -0.1315 0.9627
8.7531 4.1700 -0.1343 0.9620
8.7135 5.0469 -0.1395 0.9605
8.3706 8.0548 -0.1609 0.9546
7.9704 8.3120 -0.1595 0.9550
7.8929 8.9228 -0.1650 0.9535
6.7571 9.0033 -0.1559 0.9560
7.7830 12.3200 -0.2019 0.9434
7.6476 16.1258 -0.2472 0.9311
7.3009 25.1960 -0.3634 0.9004
7.1510 28.9904 -0.4136 0.8874
1.9186 15.7470 -0.2198 0.9385
-31.4748 38.7057 -0.6911 0.8191
-35.6800 -32.8594 -1.2097 0.8236
-34.3044 -34.2406 -1.2087 0.8237
-18.1751 -27.4208 -0.8204 0.8767
4.7644 -48.4398 -1.2138 0.8230
6.8531 -19.4209 -0.5136 0.9209
6.9827 -17.5114 -0.4701 0.9273
7.4652 -15.0740 -0.4195 0.9349
7.4962 -13.7208 -0.3899 0.9394
7.7303 -9.9436 -0.3141 0.9509
7.7882 -8.5087 -0.2877 0.9549
7.8404 -7.2920 -0.2670 0.9581
7.7011 -5.5983 -0.2374 0.9626
6.2492 -4.1696 -0.1874 0.9704
7.7622 -3.9213 -0.2169 0.9658
7.7926 -2.8198 -0.2067 0.9674
7.8004 -2.4728 -0.2041 0.9678
8.0785 -2.2079 -0.2089 0.9670
8.0960 -1.8666 -0.2072 0.9673
3.9220 -0.2584 -0.0980 0.9844
3.8963 -0.0998 -0.0972 0.9845
3.9104 0.2145 -0.0977 0.9845
3.9400 0.5359 -0.0992 0.9842
8.3349 2.1797 -0.2148 0.9661
8.4453 4.1504 -0.2347 0.9630
8.3951 5.0001 -0.2437 0.9617
8.0220 7.9100 -0.2810 0.9559
7.7896 8.3243 -0.2843 0.9554
7.3423 11.9424 -0.3496 0.9455
7.2781 12.9800 -0.3711 0.9422
7.2038 14.1523 -0.3960 0.9384
7.0142 17.0425 -0.4596 0.9289
6.8911 18.8642 -0.5009 0.9228
-31.5286 34.8697 -1.1724 0.8285
-34.5639 27.6589 -1.1040 0.8377
-34.0039 17.4394 -0.9530 0.8582
-36.3523 16.8345 -0.9991 0.8519
-33.3953 -35.2542 -1.2110 0.8234
5.2679 -41.5724 -1.0450 0.8456
5.7847 -34.4754 -0.8718 0.8695
6.8085 -20.0711 -0.5286 0.9187
6.9460 -18.0562 -0.4825 0.9255
7.0992 -16.4491 -0.4468 0.9308
7.4647 -15.5468 -0.4301 0.9333
7.5920 -11.8908 -0.3518 0.9451
7.6598 -10.9963 -0.3342 0.9478
7.7169 -10.1801 -0.3186 0.9502
7.8317 -7.4642 -0.2698 0.9576
7.9731 -6.4604 -0.2559 0.9598
7.9990 -5.9653 -0.2488 0.9609
6.2503 -4.2814 -0.1889 0.9701
6.4953 -4.0757 -0.1912 0.9698
7.7584 -4.0390 -0.2181 0.9656
7.7703 -3.6561 -0.2142 0.9662
7.7808 -3.2859 -0.2106 0.9668
7.7981 -2.5772 -0.2048 0.9677
7.8301 -2.2430 -0.2031 0.9679
8.0907 -1.9696 -0.2077 0.9672
4.0099 -0.6405 -0.1013 0.9839
3.9275 -0.3070 -0.0982 0.9844
3.9040 -0.1476 -0.0974 0.9845
3.8786 0.0093 -0.0967 0.9846
3.9028 0.1664 -0.0974 0.9845
3.9372 0.4867 -0.0989 0.9843
4.0366 0.6647 -0.1020 0.9838
8.4189 3.6031 -0.2284 0.9640
8.4392 4.0204 -0.2331 0.9633
8.4307 4.4405 -0.2376 0.9626
8.2853 6.2409 -0.2587 0.9593
8.0721 7.1656 -0.2692 0.9577
7.9546 8.2954 -0.2866 0.9551
6.7456 8.9880 -0.2803 0.9560
7.2986 12.6523 -0.3643 0.9432
7.2276 13.7806 -0.3881 0.9396
7.0473 16.5466 -0.4485 0.9306
6.9309 18.2784 -0.4875 0.9248
6.6166 22.8345 -0.5929 0.9093
6.3979 25.9371 -0.6662 0.8986
6.1142 29.9098 -0.7613 0.8850
5.7323 35.1977 -0.8893 0.8670
1.9550 24.0699 -0.6022 0.9079
0.6966 17.0437 -0.4254 0.9340
-31.2903 38.4788 -1.2368 0.8200
-31.5294 35.7370 -1.1885 0.8264
-31.2855 32.7112 -1.1288 0.8343
-33.8534 32.6609 -1.1731 0.8284
3.9968 -40.6356 -1.4712 0.8492
4.7109 -33.8606 -1.2318 0.8721
5.2227 -28.9577 -1.0602 0.8889
6.1438 -19.9293 -0.7514 0.9199
6.6175 -16.5953 -0.6437 0.9310
6.9549 -14.0437 -0.5646 0.9392
7.3326 -10.2575 -0.4543 0.9508
7.4783 -8.1701 -0.3991 0.9566
7.5306 -7.5908 -0.3853 0.9581
7.5450 -7.0173 -0.3713 0.9596
7.4228 -5.3960 -0.3306 0.9639
7.5054 -3.7916 -0.3030 0.9669
7.5345 -3.0742 -0.2932 0.9680
7.5466 -2.7307 -0.2892 0.9684
7.5581 -2.3960 -0.2857 0.9688
7.8296 -2.1399 -0.2924 0.9680
7.8486 -1.8095 -0.2902 0.9683
3.9338 -0.5793 -0.1433 0.9842
3.9165 -0.2581 -0.1414 0.9844
3.8821 0.0567 -0.1399 0.9846
3.9071 0.2143 -0.1410 0.9845
3.9225 0.3737 -0.1420 0.9844
4.1153 0.7293 -0.1506 0.9834
8.0201 1.7563 -0.2958 0.9677
8.0703 2.1105 -0.3006 0.9672
8.1071 2.8330 -0.3094 0.9662
8.1506 4.0056 -0.3272 0.9643
8.1054 4.8276 -0.3399 0.9629
7.9822 6.1666 -0.3634 0.9604
7.8740 6.6050 -0.3703 0.9597
7.7662 7.0652 -0.3783 0.9588
7.6462 8.1710 -0.4032 0.9562
7.1504 8.9916 -0.4139 0.9551
7.0300 10.4670 -0.4543 0.9508
6.6683 14.5155 -0.5755 0.9381
6.5387 15.8872 -0.6190 0.9335
6.3851 17.4791 -0.6705 0.9282
6.2008 19.3549 -0.7323 0.9219
4.8672 32.3689 -1.1794 0.8772
-31.1098 37.3178 -1.7505 0.8233
-31.1201 31.7538 -1.6019 0.8370
-34.6834 32.6545 -1.7164 0.8264
-31.1275 22.9195 -1.3928 0.8567
-33.5244 22.6647 -1.4580 0.8505
-36.1335 22.3672 -1.5311 0.8436
-36.1291 18.5293 -1.4630 0.8500
-34.6778 16.0590 -1.3769 0.8582
-42.6585 17.7092 -1.6642 0.8312
-33.1105 -34.9537 -1.7347 0.8247
1.8637 -40.7992 -1.4715 0.8492
4.5204 -35.6738 -1.2956 0.8659
5.0835 -30.2965 -1.1069 0.8843
5.5009 -26.2666 -0.9669 0.8982
5.8222 -23.1253 -0.8592 0.9090
6.0767 -20.6009 -0.7739 0.9176
7.1393 -12.2401 -0.5106 0.9449
7.2324 -11.3277 -0.4842 0.9476
7.3107 -10.4951 -0.4608 0.9501
7.4252 -9.0182 -0.4209 0.9543
7.5120 -7.7590 -0.3891 0.9577
7.4179 -5.5319 -0.3334 0.9636
7.5003 -3.9046 -0.3047 0.9667
7.5163 -3.5366 -0.2993 0.9673
7.5305 -3.1802 -0.2945 0.9678
7.5540 -2.4965 -0.2867 0.9687
7.8614 -1.5821 -0.2889 0.9684
3.9278 -0.4664 -0.1425 0.9843
3.9003 -0.1475 -0.1406 0.9845
3.9198 0.3253 -0.1417 0.9844
8.0449 1.6592 -0.2960 0.9677
8.0640 2.0041 -0.2994 0.9673
8.0857 2.3583 -0.3035 0.9668
8.1023 2.7209 -0.3079 0.9664
8.1327 3.4806 -0.3187 0.9652
8.1475 4.2913 -0.3318 0.9638
8.1160 4.7008 -0.3379 0.9632
8.0413 5.5651 -0.3523 0.9616
7.7995 6.9236 -0.3758 0.9591
7.6873 7.3973 -0.3844 0.9582
7.6673 7.9959 -0.3991 0.9566
7.4187 8.3868 -0.4034 0.9562
6.9008 11.9628 -0.4976 0.9462
6.5803 15.4502 -0.6051 0.9350
6.2605 18.7510 -0.7123 0.9239
6.0492 20.8762 -0.7831 0.9167
5.7878 23.4638 -0.8707 0.9078
5.4568 26.6943 -0.9817 0.8967
2.2499 13.8146 -0.5043 0.9455
0.6312 15.4443 -0.5569 0.9400
0.0097 15.0305 -0.5416 0.9416
-31.1078 38.2543 -1.7765 0.8209
-31.1240 30.0277 -1.5582 0.8411
-35.4111 -32.6117 -2.2689 0.8247
-34.0981 -34.0347 -2.2706 0.8245
3.4418 -34.9932 -1.6572 0.8687
4.1506 -29.8331 -1.4196 0.8864
4.1308 -18.5914 -0.8976 0.9266
5.4123 -20.4412 -0.9966 0.9188
6.3399 -15.8993 -0.8067 0.9338
6.5607 -13.2477 -0.6968 0.9425
6.8067 -11.3494 -0.6237 0.9484
6.9080 -10.5340 -0.5937 0.9508
7.0592 -9.0803 -0.5421 0.9550
7.1817 -7.8461 -0.5013 0.9583
7.2541 -7.3120 -0.4854 0.9596
7.3264 -6.8140 -0.4716 0.9607
7.3930 -6.3414 -0.4591 0.9617
7.1312 -5.6356 -0.4284 0.9643
6.2823 -4.1917 -0.3559 0.9702
6.6292 -4.0479 -0.3661 0.9694
7.2436 -4.0326 -0.3907 0.9673
7.3154 -2.6471 -0.3667 0.9693
7.3321 -2.3244 -0.3625 0.9697
7.5890 -1.7497 -0.3671 0.9693
4.1915 -0.7905 -0.2010 0.9831
3.9253 -0.5780 -0.1870 0.9842
3.9167 -0.4167 -0.1856 0.9844
3.9082 -0.2575 -0.1846 0.9844
3.8788 0.0566 -0.1828 0.9846
3.9038 0.2141 -0.1843 0.9845
3.9143 0.3729 -0.1853 0.9844
7.8070 1.7097 -0.3767 0.9685
7.8359 2.3895 -0.3861 0.9677
7.8678 3.4813 -0.4055 0.9661
7.8349 4.6665 -0.4298 0.9641
7.7495 5.5041 -0.4480 0.9627
7.5121 6.8340 -0.4786 0.9601
7.2614 8.4136 -0.5238 0.9565
6.5332 8.9298 -0.5215 0.9567
6.5130 11.6154 -0.6276 0.9481
6.1233 14.8778 -0.7583 0.9376
5.9481 16.2825 -0.8170 0.9329
5.1837 22.1743 -1.0733 0.9128
4.8010 25.0382 -1.2016 0.9029
2.3207 21.1972 -1.0050 0.9182
0.4946 17.2570 -0.8137 0.9332
-0.1668 14.4470 -0.6809 0.9438
-30.9572 31.5875 -2.0845 0.8377
-30.9667 29.1552 -2.0046 0.8434
-30.9745 26.8982 -1.9335 0.8485
-30.8049 22.6819 -1.8030 0.8580
-30.9894 19.1829 -1.7177 0.8642
-31.1809 15.9916 -1.6516 0.8691
-42.6559 17.7082 -2.1768 0.8311
-45.5960 16.8141 -2.2904 0.8232
-34.5638 -33.6682 -2.2741 0.8243
4.5335 -27.0188 -1.2912 0.8961
4.9738 -23.7497 -1.1436 0.9074
5.6016 -18.9902 -0.9332 0.9238
6.4743 -13.4841 -0.7050 0.9419
6.6533 -12.5390 -0.6690 0.9447
6.7723 -11.6109 -0.6335 0.9476
6.9701 -10.0062 -0.5747 0.9523
7.0405 -9.2878 -0.5493 0.9544
7.0996 -8.6227 -0.5264 0.9563
7.2309 -7.4687 -0.4900 0.9592
7.3734 -6.4823 -0.4627 0.9614
6.2837 -4.3042 -0.3590 0.9700
6.4648 -4.0566 -0.3597 0.9699
7.2366 -4.1452 -0.3931 0.9672
7.2783 -3.4246 -0.3791 0.9683
7.2957 -3.0810 -0.3733 0.9688
7.3266 -2.4214 -0.3637 0.9696
7.5876 -2.1736 -0.3720 0.9689
7.6096 -1.8525 -0.3691 0.9691
7.6293 -1.5354 -0.3668 0.9693
3.9280 -0.6274 -0.1875 0.9842
3.9193 -0.4654 -0.1860 0.9843
3.9108 -0.3056 -0.1849 0.9844
3.8967 -0.1474 -0.1838 0.9845
3.8713 0.0093 -0.1825 0.9846
3.9205 0.4847 -0.1862 0.9843
3.9296 0.6470 -0.1877 0.9842
7.8022 1.6092 -0.3755 0.9686
7.8445 2.6343 -0.3900 0.9674
7.8555 2.9945 -0.3962 0.9669
7.8734 3.7509 -0.4110 0.9657
7.8467 4.5448 -0.4274 0.9643
7.7634 5.3728 -0.4450 0.9629
7.7162 5.8123 -0.4553 0.9621
7.6526 6.2619 -0.4660 0.9612
7.5457 6.6983 -0.4755 0.9604
7.4325 7.1521 -0.4861 0.9595
7.2991 8.2516 -0.5192 0.9568
6.9342 8.5047 -0.5172 0.9570
6.6993 8.9263 -0.5260 0.9563
6.6379 10.5073 -0.5858 0.9514
6.5440 11.3441 -0.6172 0.9489
6.4368 12.2729 -0.6532 0.9460
6.1711 14.4893 -0.7423 0.9389
5.5710 19.2260 -0.9434 0.9230
5.2835 21.4196 -1.0398 0.9154
2.4932 30.6962 -1.4515 0.8840
1.1274 27.5868 -1.3013 0.8953
-29.4600 36.2279 -2.2007 0.8295
-30.9640 29.8733 -2.0278 0.8417
-35.5587 -32.7477 -2.8155 0.8239
-33.9746 -33.9114 -2.7958 0.8250
-33.7343 -36.4933 -2.8945 0.8194
0.8066 -45.7096 -2.6627 0.8326
1.5135 -26.1362 -1.5248 0.9004
3.0218 -30.7228 -1.7980 0.8837
4.9948 -18.8644 -1.1366 0.9248
5.8214 -16.4972 -1.0189 0.9323
5.8861 -14.7611 -0.9256 0.9383
6.0432 -13.5458 -0.8639 0.9423
6.2083 -12.5361 -0.8148 0.9455
6.3510 -11.6246 -0.7715 0.9483
6.5905 -10.0499 -0.7000 0.9530
6.6791 -9.3433 -0.6689 0.9550
6.7556 -8.6898 -0.6411 0.9569
6.8369 -8.1002 -0.6174 0.9584
6.9131 -7.5526 -0.5963 0.9598
6.2990 -4.2028 -0.4410 0.9701
6.5516 -4.0005 -0.4471 0.9697
7.0610 -3.2178 -0.4519 0.9694
7.0805 -2.8889 -0.4454 0.9698
7.3963 -1.7053 -0.4421 0.9700
3.9169 -0.5768 -0.2306 0.9843
3.9083 -0.4158 -0.2289 0.9844
3.8999 -0.2570 -0.2276 0.9845
3.8853 -0.0995 -0.2264 0.9845
3.8972 0.2138 -0.2273 0.9845
7.5922 1.9855 -0.4571 0.9690
7.6097 2.6592 -0.4695 0.9682
7.6227 3.7461 -0.4947 0.9665
7.5828 4.5163 -0.5140 0.9653
7.5385 4.9108 -0.5240 0.9646
7.4903 5.3200 -0.5351 0.9639
7.4378 5.7460 -0.5474 0.9630
7.1592 7.0592 -0.5856 0.9605
7.0397 7.5230 -0.6001 0.9596
6.2965 10.2414 -0.7002 0.9530
6.1873 11.0345 -0.7368 0.9506
6.0631 11.9113 -0.7785 0.9479
5.9210 12.8886 -0.8261 0.9448
5.7571 13.9882 -0.8810 0.9412
5.3428 16.6766 -1.0199 0.9322
2.3494 15.6243 -0.9202 0.9387
2.2875 20.8940 -1.2242 0.9192
1.5991 23.1886 -1.3538 0.9111
1.2386 43.2170 -2.5181 0.8409
-28.8828 37.6232 -2.7626 0.8269
-30.7558 36.8931 -2.7975 0.8249
-30.4646 31.0849 -2.5350 0.8400
-29.8789 28.1311 -2.3902 0.8484
-29.2029 21.5023 -2.1122 0.8648
-29.1625 19.7158 -2.0503 0.8684
-30.8561 19.1004 -2.1136 0.8647
-42.4534 17.6241 -2.6772 0.8318
-34.4866 -33.5929 -2.8040 0.8246
4.0905 -24.3786 -1.4397 0.9057
4.5385 -21.6710 -1.2896 0.9151
4.8990 -19.4586 -1.1687 0.9227
5.1950 -17.6118 -1.0695 0.9291
6.4426 -11.0455 -0.7448 0.9501
6.6546 -9.5532 -0.6781 0.9544
6.8131 -8.2747 -0.6243 0.9580
7.0954 -6.2379 -0.5503 0.9629
6.8766 -5.5720 -0.5155 0.9652
6.9113 -5.1541 -0.5021 0.9660
7.0063 -4.0132 -0.4703 0.9682
7.0318 -3.6607 -0.4617 0.9687
7.0927 -2.6648 -0.4413 0.9701
7.3648 -2.1097 -0.4462 0.9698
7.4106 -1.4914 -0.4403 0.9702
3.9195 -0.6261 -0.2312 0.9842
3.9109 -0.4644 -0.2294 0.9843
3.9212 0.6457 -0.2315 0.9842
7.5767 1.5627 -0.4506 0.9695
7.6191 3.2608 -0.4827 0.9673
7.6232 4.0152 -0.5018 0.9661
7.5955 4.3993 -0.5112 0.9654
7.5524 4.7896 -0.5209 0.9648
7.5054 5.1942 -0.5316 0.9641
7.4016 6.0564 -0.5570 0.9624
7.3101 6.4891 -0.5693 0.9616
7.0734 7.3765 -0.5952 0.9599
6.9615 7.8700 -0.6120 0.9588
6.9256 8.4941 -0.6383 0.9570
6.5031 8.6650 -0.6310 0.9575
6.4201 9.3116 -0.6588 0.9557
6.1025 11.6355 -0.7652 0.9487
5.9662 12.5803 -0.8109 0.9457
5.4147 16.2177 -0.9958 0.9338
5.1625 17.8163 -1.0804 0.9284
4.0297 24.7434 -1.4601 0.9044
2.6664 32.8282 -1.9183 0.8764
1.6760 41.0090 -2.3905 0.8484
-30.5804 37.6058 -2.8231 0.8235
-30.7712 34.8777 -2.7090 0.8300
-28.9505 27.9307 -2.3430 0.8511
-33.9112 -33.8482 -3.3237 0.8252
-1.0576 -46.8819 -3.2530 0.8286
2.6928 -27.3775 -1.9083 0.8956
4.6669 -17.6259 -1.2648 0.9295
5.3397 -15.1321 -1.1132 0.9377
5.5187 -13.8400 -1.0336 0.9420
5.7173 -12.8153 -0.9735 0.9453
6.1827 -10.3090 -0.8339 0.9529
6.2967 -9.6018 -0.7965 0.9550
6.3943 -8.9449 -0.7627 0.9569
6.5789 -7.7946 -0.7076 0.9599
6.8000 -6.3245 -0.6442 0.9634
6.8354 -5.8631 -0.6247 0.9645
6.6961 -4.8677 -0.5743 0.9674
6.7989 -3.7851 -0.5398 0.9693
6.8265 -3.4487 -0.5306 0.9698
6.8512 -3.1221 -0.5223 0.9703
6.8731 -2.8043 -0.5149 0.9707
4.0588 -0.7654 -0.2865 0.9836
3.8916 -0.2564 -0.2705 0.9845
3.8817 -0.0994 -0.2694 0.9846
3.9461 0.6993 -0.2780 0.9841
7.3670 1.6133 -0.5232 0.9702
7.3874 2.5815 -0.5429 0.9691
7.3899 2.9207 -0.5512 0.9686
7.3903 3.2700 -0.5606 0.9681
7.3884 3.6310 -0.5711 0.9675
7.3466 4.3757 -0.5932 0.9663
7.2478 5.1478 -0.6167 0.9650
7.1916 5.5558 -0.6304 0.9642
7.0540 6.4173 -0.6615 0.9625
6.9361 6.8392 -0.6757 0.9617
6.0105 9.7762 -0.7961 0.9550
5.8922 10.5083 -0.8357 0.9528
5.4319 13.1980 -0.9901 0.9444
5.2307 14.3189 -1.0575 0.9407
4.9965 15.5956 -1.1360 0.9364
4.7208 17.0678 -1.2284 0.9315
4.3924 18.7893 -1.3386 0.9255
3.9952 20.8358 -1.4717 0.9185
2.3456 15.5996 -1.0943 0.9387
2.1096 19.2689 -1.3447 0.9252
1.0714 37.3845 -2.5944 0.8607
-0.5142 44.5328 -3.0895 0.8365
-29.6238 38.5884 -3.3747 0.8228
-30.6107 33.8544 -3.1661 0.8328
-30.6539 22.5707 -2.6407 0.8584
-30.3853 20.5425 -2.5443 0.8632
-30.1322 18.6523 -2.4583 0.8675
-28.8843 16.3119 -2.3011 0.8755
-34.7425 17.8182 -2.7086 0.8551
-42.3318 17.5736 -3.1796 0.8321
-32.8558 -34.6848 -3.3142 0.8257
-18.6796 -27.4491 -2.3032 0.8754
0.2233 -40.9853 -2.8432 0.8485
1.5150 -33.1666 -2.3032 0.8754
2.4565 -28.5456 -1.9875 0.8915
3.1690 -25.0083 -1.7487 0.9039
4.1728 -19.9248 -1.4122 0.9216
5.2877 -15.5879 -1.1419 0.9361
5.6597 -13.1137 -0.9908 0.9443
6.0006 -11.3090 -0.8881 0.9500
6.4629 -8.5259 -0.7422 0.9580
6.6409 -7.4353 -0.6916 0.9608
6.7310 -6.9524 -0.6713 0.9619
6.8252 -6.0004 -0.6304 0.9642
6.8667 -2.8999 -0.5171 0.9706
7.1549 -2.0496 -0.5163 0.9706
7.1807 -1.7481 -0.5127 0.9708
4.1994 -0.8451 -0.2972 0.9830
3.8857 -0.1469 -0.2697 0.9845
3.8863 0.1656 -0.2698 0.9845
3.8951 0.3232 -0.2711 0.9845
3.9129 0.6443 -0.2751 0.9842
7.3862 2.4805 -0.5405 0.9692
7.3892 3.5202 -0.5678 0.9677
7.3834 3.8889 -0.5789 0.9671
7.3141 4.6386 -0.6008 0.9659
7.2639 5.0271 -0.6128 0.9652
7.1528 5.8528 -0.6411 0.9636
7.0884 6.2924 -0.6575 0.9627
6.9726 6.7096 -0.6713 0.9619
6.8495 7.1430 -0.6865 0.9611
6.1452 8.9129 -0.7510 0.9575
5.6545 11.9232 -0.9154 0.9485
5.4874 12.8841 -0.9715 0.9454
4.1241 20.1749 -1.4285 0.9208
3.6660 22.5098 -1.5821 0.9126
2.5034 20.5461 -1.4358 0.9204
1.4508 35.4979 -2.4645 0.8672
0.0273 42.1993 -2.9274 0.8443
-30.5717 37.5951 -3.3614 0.8234
-30.6512 29.5715 -2.9545 0.8430
-35.6338 -32.8168 -3.9003 0.8233
-33.7852 -33.7224 -3.8433 0.8257
-3.0925 -49.2150 -3.9703 0.8205
0.5979 -33.8837 -2.7285 0.8728
2.4280 -24.6854 -1.9971 0.9053
3.0571 -21.9733 -1.7862 0.9148
4.0295 -18.1353 -1.4958 0.9282
4.7761 -15.4929 -1.3053 0.9370
4.9599 -14.0557 -1.2001 0.9419
5.2219 -13.0956 -1.1351 0.9450
5.6066 -11.3211 -1.0172 0.9506
6.1440 -8.5948 -0.8506 0.9585
6.3419 -7.5138 -0.7917 0.9613
6.4979 -6.5498 -0.7428 0.9637
6.4383 -5.0880 -0.6607 0.9676
6.5409 -3.9940 -0.6171 0.9697
6.6262 -3.3475 -0.5977 0.9706
6.6532 -3.0319 -0.5887 0.9711
6.7147 -2.4297 -0.5749 0.9718
6.9911 -1.6118 -0.5776 0.9716
3.9960 -0.7536 -0.3274 0.9838
3.8916 -0.4141 -0.3151 0.9844
3.8833 -0.2559 -0.3133 0.9845
3.8896 0.3706 -0.3146 0.9844
3.9072 0.6924 -0.3195 0.9842
7.1757 2.1882 -0.6040 0.9703
7.1504 3.8783 -0.6549 0.9679
7.1244 4.2433 -0.6677 0.9673
7.0746 4.6086 -0.6798 0.9667
6.9609 5.3776 -0.7082 0.9653
6.7262 6.6323 -0.7605 0.9628
6.3521 7.9877 -0.8217 0.9599
5.9443 8.8505 -0.8584 0.9581
5.6236 10.0293 -0.9258 0.9549
5.3228 11.5866 -1.0266 0.9501
4.4111 15.9482 -1.3323 0.9358
3.6852 19.2194 -1.5756 0.9245
2.0315 13.5107 -1.1000 0.9466
-0.4437 38.4257 -3.0940 0.8571
-30.5492 24.4463 -3.1502 0.8547
-30.5795 20.6738 -2.9719 0.8623
-30.5924 18.9371 -2.8968 0.8656
-34.4028 -33.5113 -3.8668 0.8247
-18.6855 -27.4578 -2.6741 0.8752
-1.4567 -41.9022 -3.3757 0.8451
0.1932 -35.4627 -2.8553 0.8674
1.3994 -30.6357 -2.4692 0.8842
2.8810 -22.7362 -1.8452 0.9121
3.4206 -20.3862 -1.6643 0.9204
4.4579 -17.7066 -1.4701 0.9293
5.5541 -11.5676 -1.0331 0.9498
5.7209 -10.7818 -0.9827 0.9522
6.1107 -8.7724 -0.8608 0.9580
6.3121 -7.6663 -0.7995 0.9609
6.4121 -7.1791 -0.7750 0.9621
6.4248 -5.2059 -0.6658 0.9674
6.3668 -3.9951 -0.6052 0.9703
6.5862 -3.7726 -0.6111 0.9700
6.6174 -3.4450 -0.6007 0.9705
6.6933 -2.5147 -0.5757 0.9717
6.9569 -1.9929 -0.5827 0.9714
4.1403 -0.8332 -0.3400 0.9832
3.9026 -0.6234 -0.3182 0.9843
3.8942 -0.4624 -0.3157 0.9844
3.8858 -0.3037 -0.3138 0.9845
3.8616 0.0093 -0.3109 0.9846
3.8782 0.1653 -0.3125 0.9845
3.8870 0.3226 -0.3140 0.9845
3.8957 0.4816 -0.3160 0.9844
4.2032 0.8669 -0.3455 0.9829
7.1697 1.7819 -0.5948 0.9708
7.1747 2.0926 -0.6017 0.9705
7.1698 3.4156 -0.6394 0.9686
7.0902 4.4965 -0.6760 0.9669
6.6390 6.9235 -0.7723 0.9622
6.3234 8.4255 -0.8482 0.9586
6.0668 8.7991 -0.8605 0.9580
5.5272 10.5385 -0.9581 0.9534
5.1988 12.2064 -1.0682 0.9482
4.9990 13.1834 -1.1352 0.9450
4.1867 16.9729 -1.4075 0.9323
3.8129 18.6523 -1.5328 0.9264
2.1885 13.4382 -1.0962 0.9468
-1.7180 43.4183 -3.4985 0.8400
-30.3967 37.3799 -3.8791 0.8242
-28.6575 27.6480 -3.2061 0.8523
-35.8016 -32.9714 -4.4620 0.8224
-33.7413 -33.6785 -4.3705 0.8257
-2.5619 -40.7710 -3.7452 0.8487
0.5293 -29.9947 -2.7503 0.8865
1.4633 -25.2694 -2.3205 0.9033
2.2102 -22.4718 -2.0701 0.9133
4.9549 -12.4260 -1.2264 0.9477
5.5147 -10.0939 -1.0545 0.9548
5.7937 -8.8349 -0.9686 0.9584
5.9121 -8.2705 -0.9320 0.9600
6.1959 -6.7690 -0.8413 0.9638
6.2552 -6.3052 -0.8142 0.9650
6.3079 -5.8668 -0.7898 0.9660
6.3479 -5.4449 -0.7667 0.9670
6.2844 -4.5684 -0.7123 0.9693
6.3685 -3.8887 -0.6841 0.9705
6.4046 -3.5655 -0.6720 0.9710
6.4659 -2.9466 -0.6514 0.9719
6.7106 -2.4282 -0.6542 0.9717
6.7779 -1.8525 -0.6442 0.9722
6.8042 -1.5688 -0.6402 0.9723
3.8916 -0.5730 -0.3606 0.9843
3.8833 -0.4132 -0.3580 0.9844
3.8640 0.0564 -0.3543 0.9846
3.8902 0.5291 -0.3599 0.9844
6.9732 1.5271 -0.6544 0.9717
6.9776 1.8248 -0.6612 0.9714
6.9750 2.7567 -0.6876 0.9703
6.9687 3.0835 -0.6986 0.9699
6.8628 4.4706 -0.7509 0.9676
6.8060 4.8340 -0.7653 0.9670
6.7441 5.2101 -0.7813 0.9663
6.6827 5.6056 -0.7997 0.9656
6.2766 7.2725 -0.8807 0.9621
6.1476 7.7305 -0.9055 0.9611
6.0082 8.2122 -0.9329 0.9600
5.9315 8.8315 -0.9753 0.9582
5.5565 9.0377 -0.9726 0.9583
5.3780 9.5913 -1.0081 0.9568
5.2314 10.2775 -1.0573 0.9547
4.4218 13.8020 -1.3287 0.9434
4.1391 14.9648 -1.4235 0.9395
3.8091 16.2943 -1.5341 0.9350
3.4195 17.8334 -1.6647 0.9297
2.3871 21.8033 -2.0108 0.9157
1.6855 24.4412 -2.2460 0.9063
-28.3886 40.2289 -4.5139 0.8206
-31.4010 37.6671 -4.4958 0.8212
-32.0144 32.6662 -4.1932 0.8322
-30.3533 28.5777 -3.8220 0.8458
-30.4269 22.4035 -3.4640 0.8592
-30.4619 18.8564 -3.2844 0.8660
-40.6223 18.8119 -4.1041 0.8354
-34.3575 -33.4671 -4.3972 0.8248
-32.7077 -34.5284 -4.3602 0.8261
-18.6871 -27.4601 -3.0451 0.8751
-1.2562 -36.1358 -3.3148 0.8648
2.0015 -23.2577 -2.1401 0.9105
2.6407 -20.8395 -1.9258 0.9191
3.1915 -19.0206 -1.7681 0.9255
4.3761 -14.8356 -1.4180 0.9398
4.6383 -13.6734 -1.3237 0.9437
5.4666 -10.3025 -1.0692 0.9542
5.8775 -8.4376 -0.9427 0.9595
5.9878 -7.8991 -0.9087 0.9610
6.0931 -7.4003 -0.8788 0.9622
6.2380 -6.4431 -0.8222 0.9646
6.2926 -5.9973 -0.7969 0.9657
6.2701 -4.6760 -0.7171 0.9691
6.3568 -3.9888 -0.6880 0.9703
6.3940 -3.6625 -0.6755 0.9708
6.4275 -3.3461 -0.6643 0.9713
6.4575 -3.0384 -0.6543 0.9717
3.8858 -0.4614 -0.3587 0.9844
3.8692 -0.1463 -0.3550 0.9846
3.8788 0.3219 -0.3568 0.9845
3.8962 0.6415 -0.3620 0.9843
6.9793 2.0356 -0.6665 0.9712
6.9791 2.3438 -0.6749 0.9709
6.9764 2.6593 -0.6845 0.9705
6.9178 4.0068 -0.7329 0.9684
6.8791 4.3627 -0.7468 0.9678
6.5652 6.3175 -0.8353 0.9641
6.4407 6.7167 -0.8531 0.9633
6.1878 7.5892 -0.8977 0.9614
6.0517 8.0634 -0.9243 0.9603
5.9716 8.6611 -0.9645 0.9586
5.4193 9.3945 -0.9943 0.9574
5.2778 10.0630 -1.0417 0.9554
4.9386 11.5955 -1.1554 0.9506
4.7339 12.4843 -1.2241 0.9478
4.4996 13.4770 -1.3026 0.9445
3.9149 15.8710 -1.4986 0.9364
3.5449 17.3412 -1.6227 0.9314
1.6614 13.6360 -1.2594 0.9463
1.8180 22.3827 -2.0588 0.9137
1.1489 28.1104 -2.5792 0.8931
0.0208 32.0818 -2.9412 0.8791
-3.5719 44.6951 -4.1106 0.8352
-19.0954 36.5239 -3.7784 0.8474
-28.3728 37.9071 -4.3409 0.8268
-30.2233 37.1666 -4.3917 0.8250
-19.8240 -27.4457 -3.4826 0.8727
-4.3415 -42.0209 -4.3454 0.8438
-2.2179 -35.2966 -3.6379 0.8674
1.3815 -23.8565 -2.4581 0.9084
2.0540 -20.8837 -2.1585 0.9191
2.7344 -19.6542 -2.0412 0.9233
3.9038 -14.7437 -1.5689 0.9405
4.4755 -12.6830 -1.3835 0.9474
4.7141 -11.8222 -1.3092 0.9501
5.1148 -10.3280 -1.1855 0.9547
5.8932 -6.9822 -0.9398 0.9639
5.9653 -6.5171 -0.9088 0.9651
6.0296 -6.0778 -0.8807 0.9662
6.1321 -5.2598 -0.8310 0.9680
6.1431 -4.0988 -0.7597 0.9707
6.2235 -3.4648 -0.7327 0.9718
6.2579 -3.1614 -0.7212 0.9722
6.2898 -2.8663 -0.7110 0.9726
6.5388 -2.3661 -0.7153 0.9724
6.5703 -2.0829 -0.7090 0.9727
6.6000 -1.8039 -0.7038 0.9729
6.6268 -1.5278 -0.6995 0.9730
3.8642 -0.2546 -0.3983 0.9845
3.8731 0.3690 -0.4002 0.9845
3.8819 0.5280 -0.4030 0.9844
4.2220 0.9246 -0.4446 0.9828
6.7935 2.0716 -0.7306 0.9718
6.7840 2.6812 -0.7504 0.9711
6.7338 3.6523 -0.7880 0.9697
6.5401 5.0525 -0.8501 0.9673
6.4081 5.8297 -0.8911 0.9658
6.0856 7.0512 -0.9581 0.9632
5.6629 8.4316 -1.0448 0.9600
5.1812 9.2403 -1.0897 0.9583
5.0019 9.8265 -1.1342 0.9566
4.8329 10.5201 -1.1909 0.9545
4.4267 12.1178 -1.3271 0.9494
4.1807 13.0494 -1.4095 0.9464
3.8983 14.0940 -1.5042 0.9429
3.5713 15.2770 -1.6138 0.9389
2.0224 13.4496 -1.3990 0.9468
-0.3447 29.8482 -3.0705 0.8869
-3.7278 40.4306 -4.1765 0.8494
-28.4704 31.4874 -4.3666 0.8431
-32.0133 32.6651 -4.7047 0.8320
-34.5547 27.6516 -4.5524 0.8370
-30.2903 22.3030 -3.8693 0.8596
-33.5159 22.6590 -4.1615 0.8499
-30.3322 18.7761 -3.6695 0.8664
-34.6203 17.7555 -4.0022 0.8552
-45.5062 16.7809 -4.9891 0.8228
-32.6209 -37.3340 -5.0998 0.8193
-20.3592 -27.4746 -3.5175 0.8715
-2.7841 -37.0773 -3.8247 0.8611
0.1517 -27.8437 -2.8642 0.8941
1.1462 -25.0923 -2.5838 0.9039
1.8425 -21.4107 -2.2105 0.9172
2.5313 -19.9759 -2.0712 0.9222
3.1050 -18.5051 -1.9301 0.9273
3.4664 -16.5520 -1.7395 0.9343
4.1094 -13.9314 -1.4941 0.9433
4.3972 -12.9626 -1.4080 0.9464
4.6444 -12.0731 -1.3306 0.9493
5.2341 -9.8643 -1.1487 0.9561
5.7749 -7.6183 -0.9833 0.9623
5.8697 -7.1289 -0.9499 0.9635
6.0109 -6.2086 -0.8889 0.9658
6.0703 -5.7855 -0.8626 0.9668
6.1167 -5.3775 -0.8378 0.9678
6.0814 -4.5352 -0.7804 0.9700
6.2478 -3.2526 -0.7246 0.9721
6.3321 -2.6741 -0.7070 0.9727
6.5607 -2.1683 -0.7108 0.9726
6.5913 -1.8882 -0.7053 0.9728
6.6189 -1.6113 -0.7007 0.9730
4.0254 -0.8101 -0.4224 0.9836
3.8812 -0.6200 -0.4043 0.9843
3.8739 -0.4600 -0.4013 0.9844
3.8703 0.3212 -0.3995 0.9845
3.8793 0.4796 -0.4021 0.9844
6.7931 1.6883 -0.7200 0.9722
6.7938 1.9815 -0.7280 0.9719
6.7862 2.5868 -0.7471 0.9712
6.7421 3.5511 -0.7838 0.9698
6.7135 3.8884 -0.7980 0.9693
6.6226 4.5832 -0.8285 0.9681
6.4294 5.7074 -0.8843 0.9660
6.3568 6.1170 -0.9075 0.9651
6.1233 6.9223 -0.9507 0.9635
5.9960 7.3540 -0.9760 0.9626
5.2912 9.1724 -1.0892 0.9583
5.0494 9.6276 -1.1183 0.9572
4.7027 11.0417 -1.2345 0.9529
4.4951 11.8545 -1.3041 0.9503
3.6758 14.9017 -1.5788 0.9401
3.2014 15.6608 -1.6443 0.9377
2.1920 13.4592 -1.4027 0.9466
1.7505 21.5520 -2.2242 0.9167
1.0393 25.4306 -2.6181 0.9027
0.0185 28.6236 -2.9443 0.8913
-1.2994 32.8395 -3.3806 0.8762
-3.0661 38.3655 -3.9590 0.8566
-33.8453 32.6531 -4.8376 0.8277
-33.4360 -33.3738 -5.3891 0.8268
-19.8385 -27.4658 -3.8650 0.8725
-18.1787 -27.4262 -3.7535 0.8759
-3.7330 -36.1310 -4.1436 0.8640
-1.9484 -31.0076 -3.5442 0.8824
1.2864 -22.2150 -2.5384 0.9143
2.5078 -18.0252 -2.0761 0.9294
2.9584 -16.4030 -1.9014 0.9351
4.2559 -12.0606 -1.4590 0.9498
4.4960 -11.2752 -1.3847 0.9523
4.7091 -10.5554 -1.3185 0.9545
4.8992 -9.8927 -1.2593 0.9565
5.5978 -7.2004 -1.0404 0.9639
5.7564 -6.2889 -0.9726 0.9663
5.9867 -4.7311 -0.8705 0.9697
5.9195 -4.3032 -0.8348 0.9710
5.9684 -3.9823 -0.8185 0.9715
6.0523 -3.3694 -0.7902 0.9725
6.0881 -3.0756 -0.7781 0.9729
6.1957 -2.8234 -0.7767 0.9730
6.3329 -2.5839 -0.7802 0.9728
3.8649 -0.5691 -0.4456 0.9844
3.8568 -0.4104 -0.4424 0.9845
3.8494 -0.2537 -0.4401 0.9846
3.8400 0.0561 -0.4381 0.9847
3.8583 0.3676 -0.4421 0.9845
3.8673 0.5260 -0.4452 0.9844
4.1676 0.9127 -0.4867 0.9830
6.6166 2.0177 -0.7891 0.9725
6.6113 2.3103 -0.7989 0.9722
6.6028 2.6096 -0.8099 0.9718
6.5912 2.9165 -0.8222 0.9714
6.2816 5.2692 -0.9353 0.9675
6.2109 5.6503 -0.9578 0.9668
6.0371 6.4515 -1.0079 0.9651
5.7746 7.2614 -1.0584 0.9633
5.6333 7.6998 -1.0883 0.9623
5.4807 8.1602 -1.1214 0.9612
5.3700 8.7344 -1.1696 0.9596
5.1803 9.2387 -1.2083 0.9583
4.6196 10.0558 -1.2624 0.9564
4.2100 11.5248 -1.3997 0.9518
3.9640 12.3731 -1.4821 0.9490
3.6834 13.3173 -1.5762 0.9459
3.3610 14.3773 -1.6843 0.9423
2.9048 15.1491 -1.7596 0.9398
2.0320 18.5597 -2.1299 0.9276
-0.3101 26.8588 -3.0641 0.8975
-3.2246 34.9733 -4.0065 0.8681
-5.5072 41.4337 -4.7682 0.8451
-28.8877 37.6296 -5.4117 0.8261
-31.3991 37.6648 -5.5938 0.8208
-29.7908 32.9477 -5.0671 0.8362
-29.2172 27.5080 -4.5778 0.8508
-20.6270 16.5062 -3.0137 0.8991
-30.2034 18.6963 -4.0522 0.8667
-35.0876 19.8152 -4.5968 0.8502
-34.6186 17.7546 -4.4382 0.8550
-38.2870 17.7304 -4.8132 0.8438
-34.2943 -33.4056 -5.4614 0.8247
-32.4528 -37.1416 -5.6265 0.8199
-18.6789 -27.4481 -3.7874 0.8749
-4.3887 -37.9456 -4.3575 0.8575
-2.4341 -32.4167 -3.7084 0.8773
-0.9726 -27.9782 -3.1936 0.8934
0.1368 -25.1124 -2.8648 0.9038
1.0457 -22.8925 -2.6142 0.9119
1.7828 -20.7170 -2.3720 0.9197
2.3521 -18.5618 -2.1344 0.9274
2.8244 -16.8330 -1.9471 0.9336
3.5699 -14.1795 -1.6680 0.9428
3.8949 -13.2042 -1.5704 0.9461
4.1777 -12.3155 -1.4835 0.9490
4.4262 -11.5059 -1.4063 0.9516
4.6471 -10.7674 -1.3378 0.9539
5.3254 -8.3408 -1.1289 0.9609
5.4560 -7.8326 -1.0889 0.9623
5.8042 -5.9950 -0.9519 0.9670
5.8668 -5.5915 -0.9245 0.9679
5.9032 -4.4023 -0.8401 0.9708
5.9539 -4.0783 -0.8233 0.9714
6.0407 -3.4601 -0.7941 0.9724
6.0784 -3.1644 -0.7817 0.9728
6.1445 -2.8911 -0.7746 0.9730
6.3216 -2.6696 -0.7828 0.9728
3.9696 -0.7989 -0.4619 0.9838
3.8590 -0.4582 -0.4433 0.9845
3.8441 -0.1454 -0.4388 0.9846
3.8372 0.0092 -0.4377 0.9847
3.8465 0.1640 -0.4392 0.9846
3.8556 0.3200 -0.4413 0.9845
6.6188 1.6449 -0.7780 0.9729
6.6175 1.9301 -0.7864 0.9726
6.6132 2.2209 -0.7958 0.9723
6.6057 2.5180 -0.8064 0.9719
6.5516 3.4508 -0.8447 0.9706
6.5205 3.7766 -0.8596 0.9701
6.4325 4.4517 -0.8924 0.9690
6.2331 5.5331 -0.9508 0.9670
6.1578 5.9254 -0.9749 0.9662
6.0752 6.3355 -1.0013 0.9653
5.5283 8.0181 -1.1110 0.9615
4.6737 9.8550 -1.2442 0.9570
4.4879 10.5373 -1.3065 0.9549
4.0420 12.1065 -1.4560 0.9499
2.1988 18.0467 -2.0739 0.9294
1.6115 19.8408 -2.2708 0.9230
0.9487 23.2136 -2.6503 0.9107
-1.1604 29.3249 -3.3479 0.8886
-4.7346 39.2834 -4.5137 0.8527
-7.6122 47.1261 -5.4456 0.8252
-29.0303 32.9045 -5.0057 0.8381
-31.2453 32.6691 -5.1569 0.8336
-28.3061 27.3090 -4.4868 0.8536
-24.6306 -4.5199 -3.1382 0.9040
-36.0734 -33.2217 -6.1456 0.8206
-33.4350 -33.3728 -5.9200 0.8266
-32.3744 -35.0222 -5.9768 0.8251
-3.2714 -31.6637 -3.9891 0.8796
-1.7242 -27.4393 -3.4454 0.8951
-0.5512 -24.4320 -3.0625 0.9062
0.3908 -22.1489 -2.7761 0.9146
1.7945 -18.2449 -2.2974 0.9288
2.7640 -15.3253 -1.9515 0.9392
3.4830 -13.1547 -1.7053 0.9466
3.7892 -12.2916 -1.6119 0.9495
4.0576 -11.4987 -1.5281 0.9520
5.3035 -7.4191 -1.1429 0.9639
5.5735 -6.0891 -1.0345 0.9673
5.7099 -5.3105 -0.9772 0.9691
5.7706 -4.9498 -0.9527 0.9698
5.8657 -3.9137 -0.8837 0.9720
5.8869 -3.5946 -0.8644 0.9726
6.0503 -3.0565 -0.8495 0.9730
6.1696 -2.5173 -0.8350 0.9735
6.2393 -1.9779 -0.8202 0.9740
6.2698 -1.7136 -0.8145 0.9741
3.8603 -0.7280 -0.4923 0.9843
3.8514 -0.5671 -0.4879 0.9844
3.8425 -0.4088 -0.4842 0.9845
3.8256 0.0558 -0.4795 0.9847
3.8437 0.3662 -0.4839 0.9846
3.8636 0.6847 -0.4917 0.9843
6.4521 1.6873 -0.8357 0.9735
6.4483 1.9664 -0.8448 0.9732
6.4411 2.2508 -0.8550 0.9729
6.3615 3.4504 -0.9069 0.9712
6.3268 3.7682 -0.9228 0.9708
6.1656 4.7632 -0.9764 0.9691
6.0251 5.4813 -1.0207 0.9677
5.9454 5.8624 -1.0463 0.9669
5.8581 6.2602 -1.0744 0.9660
5.6039 7.0469 -1.1283 0.9644
5.4623 7.4660 -1.1593 0.9634
5.3082 7.9034 -1.1931 0.9623
5.1396 8.3597 -1.2298 0.9612
5.0205 8.9537 -1.2864 0.9595
4.4644 9.7181 -1.3402 0.9578
3.4906 12.6200 -1.6409 0.9486
3.1736 13.5758 -1.7471 0.9453
2.8091 14.6501 -1.8693 0.9416
1.8908 17.2704 -2.1772 0.9324
1.3034 18.9004 -2.3741 0.9265
-1.4269 27.5509 -3.4572 0.8947
-4.7454 35.7023 -4.5134 0.8649
-16.0710 46.4437 -6.1588 0.8203
-29.6598 38.6353 -6.1038 0.8217
-31.3981 37.6636 -6.1448 0.8206
-32.0112 32.6629 -5.7312 0.8316
-29.9060 28.1565 -5.1474 0.8474
-31.8601 27.6672 -5.2879 0.8436
-33.5131 22.6570 -5.0695 0.8495
-34.6168 17.7537 -4.8753 0.8548
-38.2848 17.7294 -5.2872 0.8436
-45.4226 16.7501 -6.0669 0.8227
-34.2660 -33.3780 -5.9946 0.8246
-32.5267 -34.3373 -5.9271 0.8264
-32.0204 -36.6467 -6.0985 0.8219
-18.6828 -27.4538 -4.1615 0.8747
-6.0897 -38.8851 -4.9323 0.8533
-3.8325 -33.1368 -4.1803 0.8742
-0.8764 -25.2092 -3.1610 0.9033
1.6156 -18.7742 -2.3614 0.9268
2.1649 -17.0848 -2.1581 0.9329
2.6408 -15.7385 -1.9999 0.9377
3.7012 -12.5475 -1.6394 0.9486
3.9794 -11.7311 -1.5524 0.9513
4.2271 -10.9883 -1.4754 0.9536
4.4474 -10.3049 -1.4065 0.9558
5.2648 -7.5581 -1.1543 0.9635
5.5505 -6.2145 -1.0442 0.9670
5.6235 -5.8084 -1.0131 0.9679
5.6902 -5.4231 -0.9851 0.9688
5.7528 -5.0576 -0.9599 0.9696
5.8115 -4.7089 -0.9373 0.9703
5.8663 -4.3749 -0.9171 0.9709
5.9244 -3.3935 -0.8556 0.9729
6.0161 -3.1319 -0.8500 0.9730
6.1581 -2.6006 -0.8377 0.9734
6.1949 -2.3275 -0.8293 0.9737
6.2891 -1.5310 -0.8111 0.9742
3.9152 -0.7879 -0.5005 0.9840
3.8541 -0.6156 -0.4891 0.9844
3.8452 -0.4566 -0.4853 0.9845
3.8369 -0.2999 -0.4823 0.9846
3.8502 0.4760 -0.4862 0.9845
3.9960 0.8242 -0.5113 0.9837
6.4527 1.6037 -0.8332 0.9736
6.4498 1.8812 -0.8419 0.9733
6.4342 2.4526 -0.8629 0.9726
6.3711 3.3557 -0.9024 0.9714
6.3378 3.6708 -0.9178 0.9709
6.3000 3.9954 -0.9349 0.9704
6.2525 4.3271 -0.9529 0.9698
6.1867 4.6601 -0.9706 0.9693
6.1187 5.0067 -0.9908 0.9686
6.0479 5.3687 -1.0134 0.9679
5.7761 6.5299 -1.0925 0.9655
5.5064 7.3369 -1.1496 0.9637
5.1921 8.2188 -1.2183 0.9616
5.0250 8.7109 -1.2602 0.9603
4.2913 10.0759 -1.3724 0.9568
4.0818 10.7645 -1.4427 0.9547
3.8458 11.5186 -1.5218 0.9522
3.5786 12.3502 -1.6113 0.9495
3.2744 13.2744 -1.7134 0.9464
2.9253 14.3102 -1.8304 0.9428
2.1880 13.4351 -1.7058 0.9466
2.0498 16.8237 -2.1239 0.9340
1.4927 18.3780 -2.3106 0.9284
0.8725 21.3479 -2.6775 0.9175
0.0153 23.5717 -2.9539 0.9094
-2.3857 29.8522 -3.7529 0.8863
-4.1052 34.0607 -4.2993 0.8708
-31.2443 32.6680 -5.6648 0.8334
-28.9447 27.9251 -5.0402 0.8503
-32.2330 -34.8692 -6.4859 0.8256
-10.3795 -45.6549 -6.3950 0.8278
-4.6490 -32.2540 -4.4510 0.8767
-2.8800 -27.8750 -3.8277 0.8930
-1.5448 -24.5853 -3.3647 0.9053
-0.4994 -22.1367 -3.0244 0.9145
0.3563 -20.1891 -2.7580 0.9217
1.0671 -18.4273 -2.5212 0.9282
2.1727 -15.6165 -2.1536 0.9383
3.6109 -11.7132 -1.6742 0.9517
3.8765 -10.9855 -1.5912 0.9541
4.3263 -9.6975 -1.4504 0.9580
4.8507 -8.0880 -1.2882 0.9626
4.9938 -7.6150 -1.2438 0.9639
5.2300 -6.7274 -1.1639 0.9662
5.3201 -6.3031 -1.1266 0.9672
5.4014 -5.9010 -1.0927 0.9682
5.5445 -5.1567 -1.0342 0.9699
5.6076 -4.8099 -1.0091 0.9706
5.7197 -4.1579 -0.9658 0.9719
5.7732 -3.8520 -0.9480 0.9724
5.8838 -3.2756 -0.9198 0.9732
5.9313 -2.9964 -0.9077 0.9735
6.0853 -1.9291 -0.8719 0.9746
6.1161 -1.6716 -0.8660 0.9747
3.8293 -0.4074 -0.5260 0.9846
3.8127 -0.0976 -0.5209 0.9847
3.8202 0.2095 -0.5226 0.9847
3.8299 0.3649 -0.5255 0.9846
3.8401 0.5223 -0.5293 0.9845
