ply
format ascii 1.0
element vertex 1380
property float32 x
property float32 y
property float32 z
property float32 CosAngle
property uint32 ObjIdx
property uint32 ObjTag
end_header
1.9482 -7.0122 -2.2670 0.3733 0 24
2.1669 -6.7369 -2.2044 0.3858 0 1
2.3645 -6.4495 -2.1398 0.3965 0 1
2.5482 -6.1711 -2.0797 0.4079 0 1
2.7193 -5.9010 -2.0239 0.4192 0 1
2.8785 -5.6387 -1.9720 0.4299 0 1
3.0269 -5.3833 -1.9238 0.4407 0 1
3.1571 -5.1216 -1.8741 0.4364 0 1
3.2750 -4.8637 -1.8265 0.4478 0 1
3.3839 -4.6137 -1.7823 0.4589 0 1
3.4867 -4.3737 -1.7423 0.4625 0 1
3.5819 -4.1401 -1.7053 0.4726 0 1
3.6698 -3.9122 -1.6709 0.4823 0 1
3.7586 -3.6972 -1.6423 0.5107 0 1
3.8419 -3.4866 -1.6161 0.5189 0 1
3.9193 -3.2794 -1.5918 0.5268 0 1
3.9911 -3.0755 -1.5695 0.5343 0 1
4.0577 -2.8745 -1.5490 0.5414 0 1
4.1195 -2.6763 -1.5302 0.5481 0 1
4.1773 -2.4810 -1.5134 0.5542 0 1
4.2305 -2.2877 -1.4981 0.5599 0 1
4.2792 -2.0964 -1.4843 0.5652 0 1
4.3238 -1.9067 -1.4720 0.5699 0 1
4.3642 -1.7185 -1.4610 0.5742 0 1
4.4006 -1.5316 -1.4514 0.5780 0 1
4.4332 -1.3457 -1.4431 0.5813 0 1
4.4623 -1.1609 -1.4363 0.5871 0 1
4.4882 -0.9769 -1.4308 0.5894 0 1
3.9204 -0.6896 -1.2399 0.7315 25 14
3.9098 -0.5267 -1.2289 0.7381 25 14
3.8977 -0.3663 -1.2195 0.7805 25 14
3.8864 -0.2081 -1.2123 0.7851 25 14
3.8761 -0.0515 -1.2075 0.7883 25 14
3.8779 0.1044 -1.2084 0.7877 25 14
3.8838 0.2610 -1.2125 0.7850 25 14
3.8893 0.4190 -1.2185 0.7443 25 14
3.8934 0.5785 -1.2261 0.7397 25 14
3.9015 0.7411 -1.2370 0.7246 25 14
4.2763 0.9919 -1.3674 0.3397 25 14
4.5467 1.2492 -1.4687 0.5650 0 1
4.5237 1.4407 -1.4789 0.5612 0 1
4.4967 1.6339 -1.4903 0.5569 0 1
4.4655 1.8290 -1.5031 0.5521 0 1
4.4300 2.0260 -1.5174 0.5469 0 1
4.3902 2.2253 -1.5332 0.5409 0 1
4.3459 2.4272 -1.5505 0.5349 0 1
4.2968 2.6317 -1.5695 0.5284 0 1
4.2427 2.8392 -1.5902 0.5216 0 1
4.1834 3.0499 -1.6126 0.5143 0 1
4.1191 3.2644 -1.6371 0.5066 0 1
4.0489 3.4827 -1.6636 0.4986 0 1
3.9727 3.7051 -1.6921 0.4902 0 1
3.8899 3.9319 -1.7229 0.4814 0 1
3.8003 4.1635 -1.7559 0.4724 0 1
3.7022 4.3988 -1.7909 0.4764 0 1
3.5922 4.6340 -1.8264 0.4672 0 1
3.4764 4.8776 -1.8657 0.4553 0 1
3.3521 5.1274 -1.9082 0.4452 0 1
3.2182 5.3833 -1.9537 0.4316 0 1
3.0733 5.6443 -2.0019 0.4212 0 1
2.9175 5.9123 -2.0537 0.4106 0 1
2.7500 6.1879 -2.1093 0.4001 0 1
2.5697 6.4712 -2.1689 0.3891 0 1
2.3729 6.7554 -2.2303 0.4007 0 1
2.1590 7.0395 -2.2936 0.3897 0 1
1.9300 7.3319 -2.3617 0.3785 0 1
1.6876 7.6480 -2.4396 0.3466 0 1
1.4307 7.9993 -2.5313 0.3341 0 1
1.1516 8.3669 -2.6308 0.3215 0 1
0.8473 8.7459 -2.7371 0.3084 0 1
0.5144 9.1158 -2.8440 0.3180 0 1
0.1534 9.4842 -2.9547 0.3061 0 1
-0.2372 9.8678 -3.0747 0.2942 0 1
-0.6622 10.2937 -3.2131 0.2678 0 1
-1.1247 10.7299 -3.3606 0.2595 0 24
-1.6347 11.2228 -3.5328 0.2401 0 1
-2.1930 11.7287 -3.7167 0.2262 0 1
-2.7962 12.2144 -3.9031 0.2167 0 24
-3.4884 12.8413 -4.1450 0.2025 0 1
-4.2433 13.4568 -4.3952 0.1910 0 1
-5.0848 14.1198 -4.6748 0.1759 0 1
-6.0180 14.8143 -4.9808 0.1720 0 1
-7.0431 15.5181 -5.3084 0.1638 0 1
-8.1880 16.2693 -5.6735 0.1447 0 1
-9.5283 17.1762 -6.1184 0.1327 0 1
-11.0944 18.2312 -6.6478 0.1112 0 1
-12.9798 19.5172 -7.3012 0.1040 0 1
-15.0453 20.7620 -7.9868 0.1175 0 1
-16.7762 21.2938 -8.4441 0.6580 0 2
-19.5168 22.8221 -9.3540 0.0847 0 2
-22.8780 24.6718 -10.4808 0.0756 0 25
-26.9826 26.8482 -11.8569 0.0669 0 25
-22.5381 20.6911 -9.5304 0.7376 0 5
-22.6271 19.1552 -9.2347 0.7938 0 5
-22.6844 17.6889 -8.9605 0.7548 0 5
-25.4104 18.2210 -9.7399 0.3853 0 21
-28.0535 18.4555 -10.4600 0.8472 0 3
-32.6484 19.6452 -11.8690 0.8668 0 3
-32.3841 17.7538 -11.5040 0.4649 0 3
-37.6113 18.6943 -13.0831 0.9023 0 3
-42.4170 18.9969 -14.4773 0.9180 0 3
-43.7625 17.5234 -14.6841 0.5027 0 3
-24.4837 -17.6352 -9.3990 0.3793 15 6
-33.2367 -28.2582 -13.5892 0.3633 0 9
-29.0191 -26.7547 -12.2949 0.8923 0 9
-25.2856 -25.2667 -11.1347 0.6266 0 9
-22.6838 -24.5667 -10.4157 0.0761 0 2
-19.3565 -22.7321 -9.3002 0.0852 0 2
-17.3782 -22.1544 -8.7708 0.8906 0 2
-14.3822 -19.9358 -7.6572 0.1012 0 1
-12.4019 -18.7343 -6.9985 0.1151 0 1
-10.6838 -17.6405 -6.4242 0.1233 0 1
-9.1905 -16.6505 -5.9242 0.1376 0 1
-7.8921 -15.7646 -5.4916 0.1485 0 1
-6.7485 -14.9532 -5.1102 0.1630 0 1
-5.7453 -14.2296 -4.7801 0.1788 0 1
-4.8572 -13.5781 -4.4920 0.1893 0 1
-4.0615 -12.9764 -4.2355 0.2032 0 1
-3.3445 -12.4156 -4.0053 0.2148 0 1
-2.6957 -11.8912 -3.7980 0.2255 0 1
-2.1057 -11.3955 -3.6097 0.2373 0 1
-1.5654 -10.9089 -3.4329 0.2438 0 1
-1.0727 -10.4476 -3.2715 0.2552 0 1
-0.6222 -10.0033 -3.1220 0.2684 0 1
-0.2094 -9.5558 -2.9773 0.2773 0 24
0.1680 -9.1829 -2.8609 0.2929 0 1
0.5154 -8.8012 -2.7462 0.3051 0 1
0.8353 -8.4362 -2.6407 0.3173 0 1
1.1305 -8.0865 -2.5434 0.3295 0 1
1.4031 -7.7499 -2.4533 0.3467 0 1
1.6558 -7.4287 -2.3708 0.3588 0 1
1.8845 -7.0982 -2.2877 0.3700 0 24
2.1077 -6.8204 -2.2237 0.3825 0 1
2.3096 -6.5307 -2.1578 0.3932 0 1
2.4971 -6.2497 -2.0964 0.4047 0 1
2.6716 -5.9773 -2.0394 0.4160 0 1
2.8342 -5.7129 -1.9865 0.4271 0 1
2.9856 -5.4556 -1.9372 0.4377 0 1
3.1217 -5.1968 -1.8884 0.4331 0 1
3.2423 -4.9365 -1.8397 0.4446 0 1
3.3537 -4.6843 -1.7946 0.4558 0 1
3.4580 -4.4415 -1.7534 0.4596 0 1
3.5554 -4.2062 -1.7156 0.4697 0 1
3.6454 -3.9768 -1.6805 0.4796 0 1
3.7337 -3.7580 -1.6501 0.5082 0 1
3.8187 -3.5464 -1.6233 0.5166 0 1
3.8977 -3.3383 -1.5986 0.5246 0 1
3.9711 -3.1335 -1.5757 0.5322 0 1
4.0392 -2.9316 -1.5546 0.5394 0 1
4.1021 -2.7325 -1.5353 0.5463 0 1
4.1613 -2.5366 -1.5181 0.5525 0 1
4.2157 -2.3427 -1.5023 0.5583 0 1
4.2657 -2.1509 -1.4881 0.5637 0 1
4.3115 -1.9607 -1.4754 0.5686 0 1
4.3531 -1.7721 -1.4640 0.5730 0 1
4.3906 -1.5849 -1.4540 0.5769 0 1
4.4243 -1.3987 -1.4454 0.5804 0 1
4.4542 -1.2136 -1.4381 0.5864 0 1
4.4812 -1.0294 -1.4322 0.5888 0 1
3.9253 -0.7370 -1.2441 0.7205 25 14
3.9127 -0.5729 -1.2318 0.7363 25 14
3.9011 -0.4119 -1.2219 0.7790 25 14
3.8895 -0.2531 -1.2141 0.7840 25 14
3.8789 -0.0962 -1.2086 0.7875 25 14
3.8764 0.0598 -1.2076 0.7882 25 14
3.8820 0.2161 -1.2111 0.7859 25 14
3.8884 0.3738 -1.2168 0.7454 25 14
3.8921 0.5327 -1.2237 0.7412 25 14
3.8980 0.6942 -1.2333 0.7268 25 14
4.2719 0.9393 -1.3625 0.3410 25 14
4.5525 1.1947 -1.4661 0.5661 0 1
4.5307 1.3858 -1.4758 0.5623 0 1
4.5048 1.5786 -1.4869 0.5582 0 1
4.4748 1.7730 -1.4993 0.5535 0 1
4.4406 1.9695 -1.5132 0.5485 0 1
4.4020 2.1681 -1.5285 0.5426 0 1
4.3590 2.3692 -1.5454 0.5367 0 1
4.3113 2.5730 -1.5639 0.5303 0 1
4.2586 2.7796 -1.5841 0.5236 0 1
4.2008 2.9893 -1.6060 0.5164 0 1
4.1380 3.2027 -1.6299 0.5089 0 1
4.0696 3.4199 -1.6558 0.5009 0 1
3.9951 3.6411 -1.6838 0.4926 0 1
3.9142 3.8666 -1.7139 0.4840 0 1
3.8266 4.0968 -1.7462 0.4750 0 1
3.7318 4.3320 -1.7810 0.4657 0 1
3.6244 4.5663 -1.8160 0.4698 0 1
3.5102 4.8073 -1.8542 0.4581 0 1
3.3885 5.0554 -1.8958 0.4481 0 1
3.2576 5.3098 -1.9404 0.4378 0 1
3.1158 5.5690 -1.9878 0.4242 0 1
2.9632 5.8350 -2.0385 0.4137 0 1
2.7991 6.1084 -2.0930 0.4029 0 1
2.6225 6.3894 -2.1514 0.3923 0 1
2.4314 6.6756 -2.2131 0.4039 0 1
2.2216 6.9575 -2.2751 0.3929 0 1
1.9970 7.2475 -2.3417 0.3817 0 1
1.7573 7.5504 -2.4148 0.3502 0 1
1.5063 7.8973 -2.5043 0.3377 0 1
1.2337 8.2601 -2.6015 0.3251 0 1
0.9373 8.6399 -2.7071 0.3118 0 1
0.6125 9.0131 -2.8140 0.3214 0 1
0.2594 9.3774 -2.9221 0.3095 0 1
-0.1224 9.7566 -3.0394 0.2976 0 1
-27.8784 19.5098 -11.0144 0.7174 0 3
-27.9525 17.9325 -10.7500 0.8537 0 3
-27.8631 16.3328 -10.4544 0.4551 0 3
-33.2721 17.7466 -12.2062 0.4538 0 3
-36.7082 17.7226 -13.1946 0.4198 0 3
-31.6038 13.7205 -11.1524 0.3875 0 5
-40.2143 13.7376 -13.7558 0.9392 0 5
-23.0729 -4.5203 -7.6106 0.9164 16 6
-25.4001 -17.2096 -9.9313 0.4028 0 20
-33.8169 -24.9527 -13.6037 0.8275 0 20
-33.3182 -26.7179 -13.8243 0.7365 0 9
-28.3496 -24.6697 -12.1646 0.7868 0 9
-25.6081 -24.1598 -11.3960 0.0720 0 2
-22.0128 -22.5075 -10.1907 0.0805 0 2
-19.0002 -21.0576 -9.1808 0.0894 0 2
-17.1258 -20.5869 -8.6682 0.0670 0 1
-14.3541 -18.7385 -7.6407 0.1093 0 1
-12.4942 -17.7449 -7.0249 0.1187 0 1
-10.8549 -16.8139 -6.4782 0.1288 0 1
-9.4236 -15.9710 -6.0026 0.1396 0 1
-8.1614 -15.1961 -5.5834 0.1512 0 1
-7.0406 -14.4768 -5.2109 0.1643 0 1
-6.0485 -13.8234 -4.8842 0.1812 0 1
-5.1668 -13.2326 -4.5983 0.1915 0 1
-4.3723 -12.6800 -4.3416 0.2052 0 1
-3.6533 -12.1604 -4.1101 0.2160 0 1
-2.9998 -11.6680 -3.8997 0.2274 0 1
-2.4051 -11.2048 -3.7095 0.2391 0 1
-1.8589 -10.7490 -3.5310 0.2455 0 1
-1.3592 -10.3136 -3.3673 0.2574 0 1
-0.9014 -9.8965 -3.2167 0.2698 0 1
-0.4812 -9.4956 -3.0776 0.2820 0 1
-0.0947 -9.0810 -2.9396 0.2898 0 24
0.2605 -8.7463 -2.8324 0.3063 0 1
0.5884 -8.3950 -2.7241 0.3185 0 1
0.8914 -8.0576 -2.6241 0.3307 0 1
1.1721 -7.7348 -2.5323 0.3478 0 1
1.4322 -7.4232 -2.4472 0.3599 0 1
1.6736 -7.1223 -2.3683 0.3719 0 1
1.8923 -6.8110 -2.2882 0.3827 0 24
2.1067 -6.5496 -2.2270 0.3945 0 1
2.3006 -6.2751 -2.1634 0.4061 0 1
2.4812 -6.0088 -2.1043 0.4175 0 1
2.6496 -5.7498 -2.0493 0.4287 0 1
2.8066 -5.4977 -1.9981 0.4394 0 1
2.9531 -5.2520 -1.9504 0.4501 0 1
3.0799 -4.9963 -1.8999 0.4458 0 1
3.1969 -4.7477 -1.8527 0.4572 0 1
3.3051 -4.5062 -1.8089 0.4682 0 1
3.4056 -4.2720 -1.7684 0.4719 0 1
3.5003 -4.0459 -1.7317 0.4819 0 1
3.5904 -3.8275 -1.6987 0.5112 0 1
3.6793 -3.6191 -1.6706 0.5198 0 1
3.7620 -3.4141 -1.6445 0.5281 0 1
3.8390 -3.2123 -1.6203 0.5360 0 1
3.9105 -3.0134 -1.5980 0.5434 0 1
3.9768 -2.8172 -1.5775 0.5505 0 1
4.0383 -2.6236 -1.5588 0.5572 0 1
4.0959 -2.4326 -1.5420 0.5632 0 1
4.1488 -2.2436 -1.5267 0.5689 0 1
4.1974 -2.0563 -1.5130 0.5741 0 1
4.2418 -1.8706 -1.5006 0.5789 0 1
4.2820 -1.6862 -1.4897 0.5831 0 1
4.3183 -1.5029 -1.4801 0.5869 0 1
4.3508 -1.3207 -1.4718 0.5933 0 1
4.3802 -1.1396 -1.4650 0.5961 0 1
4.4059 -0.9590 -1.4596 0.5983 0 1
4.4281 -0.7789 -1.4553 0.6000 0 1
4.4466 -0.5990 -1.4523 0.6013 0 1
3.9181 -0.3682 -1.2739 0.7737 25 14
3.9067 -0.2092 -1.2664 0.7783 25 14
3.8962 -0.0518 -1.2613 0.7814 25 14
3.8982 0.1049 -1.2623 0.7808 25 14
3.9042 0.2624 -1.2666 0.7782 25 14
3.9110 0.4213 -1.2733 0.7741 25 14
3.9186 0.5823 -1.2824 0.7324 25 14
3.9276 0.7461 -1.2941 0.7173 25 14
4.4785 1.0388 -1.4881 0.5775 0 1
4.4593 1.2251 -1.4969 0.5741 0 1
4.4362 1.4129 -1.5070 0.5702 0 1
4.4090 1.6021 -1.5185 0.5660 0 1
4.3777 1.7930 -1.5313 0.5612 0 1
4.3421 1.9858 -1.5455 0.5560 0 1
4.3021 2.1807 -1.5613 0.5501 0 1
4.2578 2.3779 -1.5786 0.5440 0 1
4.2086 2.5777 -1.5975 0.5376 0 1
4.1545 2.7801 -1.6181 0.5308 0 1
4.0953 2.9856 -1.6405 0.5235 0 1
4.0310 3.1946 -1.6649 0.5159 0 1
3.9610 3.4071 -1.6912 0.5078 0 1
3.8849 3.6233 -1.7196 0.4995 0 1
3.8025 3.8436 -1.7501 0.4908 0 1
3.7133 4.0682 -1.7829 0.4817 0 1
3.6169 4.2974 -1.8182 0.4724 0 1
3.5091 4.5268 -1.8540 0.4765 0 1
3.3940 4.7620 -1.8929 0.4647 0 1
3.2709 5.0033 -1.9349 0.4546 0 1
3.1377 5.2487 -1.9794 0.4411 0 1
2.9946 5.4997 -2.0270 0.4308 0 1
2.8409 5.7571 -2.0781 0.4202 0 1
2.6759 6.0212 -2.1328 0.4094 0 1
2.4986 6.2921 -2.1914 0.3988 0 1
2.3080 6.5707 -2.2543 0.3877 0 1
2.0994 6.8451 -2.3176 0.3993 0 1
1.8751 7.1236 -2.3844 0.3882 0 1
1.6358 7.4131 -2.4573 0.3564 0 1
1.3852 7.7447 -2.5467 0.3439 0 1
1.1136 8.0904 -2.6435 0.3313 0 1
0.8179 8.4430 -2.7458 0.3183 0 1
0.4964 8.7970 -2.8521 0.3089 0 1
0.1480 9.1533 -2.9633 0.3161 0 1
-0.2286 9.5100 -3.0792 0.3042 0 1
-0.6360 9.8869 -3.2070 0.2779 0 1
-1.0809 10.3118 -3.3562 0.2655 0 1
-1.5640 10.7374 -3.5123 0.2572 0 1
-2.0847 11.1492 -3.6715 0.2424 0 24
-2.6606 11.6219 -3.8593 0.2278 0 24
-3.3079 12.1768 -4.0844 0.2131 0 1
-3.9970 12.6759 -4.3023 0.2008 0 24
-4.7887 13.2976 -4.5750 0.1900 0 1
-5.6517 13.9127 -4.8609 0.1788 0 1
-6.5926 14.5254 -5.1634 0.1718 0 1
-7.5974 15.0957 -5.4703 0.1619 0 24
-8.7958 15.8558 -5.8693 0.1456 0 1
-10.1384 16.6602 -6.3129 0.1331 0 1
-11.7315 17.6402 -6.8575 0.1166 0 1
-13.5832 18.7443 -7.4931 0.1056 0 1
-15.5762 19.7707 -8.1472 0.1115 0 1
-17.2666 20.1908 -8.5996 0.0954 0 2
-19.9630 21.5283 -9.5036 0.0864 0 2
-23.1573 23.0419 -10.5744 0.0776 0 25
-22.4391 20.6002 -9.8601 0.7390 0 5
-22.4932 19.0419 -9.5396 0.7869 0 5
-22.5733 17.6023 -9.2658 0.8322 0 5
-25.2127 18.0792 -10.0426 0.3391 0 21
-27.9314 18.3752 -10.8223 0.8480 0 3
-27.1160 16.3162 -10.2438 0.9476 0 3
-29.8189 16.3475 -11.0076 0.3768 0 3
-37.4576 18.6179 -13.5400 0.9028 0 3
-30.6220 13.7144 -10.8609 0.3756 0 5
-44.2417 13.7080 -14.9925 0.3120 0 5
-32.7038 -25.6137 -13.4464 0.5666 0 9
-29.5039 -25.0846 -12.5355 0.5471 0 9
-26.7642 -24.6758 -11.7836 0.0697 0 2
-22.9742 -22.9570 -10.5131 0.0781 0 2
-19.8093 -21.4536 -9.4520 0.0868 0 2
-17.9354 -21.0631 -8.9549 0.9637 0 2
-15.0339 -19.1659 -7.8848 0.0885 0 1
-12.9987 -18.0182 -7.1917 0.1160 0 1
-11.3006 -17.0706 -6.6267 0.1237 0 1
-9.8133 -16.2032 -6.1318 0.1366 0 1
-8.5075 -15.4132 -5.6987 0.1470 0 1
-7.3465 -14.6748 -5.3122 0.1612 0 1
-6.3181 -13.9994 -4.9716 0.1722 0 1
-5.4099 -13.3990 -4.6774 0.1883 0 1
-4.5909 -12.8337 -4.4120 0.2020 0 1
-3.8369 -12.2586 -4.1579 0.2116 0 24
-3.1799 -11.8047 -3.9573 0.2241 0 1
-2.5695 -11.3348 -3.7621 0.2357 0 1
-2.0100 -10.8775 -3.5806 0.2421 0 1
-1.4975 -10.4358 -3.4126 0.2540 0 1
-1.0283 -10.0146 -3.2587 0.2663 0 1
-0.5956 -9.5764 -3.1058 0.2761 0 24
-0.2021 -9.2204 -2.9853 0.2907 0 1
0.1619 -8.8494 -2.8650 0.3029 0 1
0.4974 -8.4939 -2.7542 0.3151 0 1
0.8073 -8.1526 -2.6519 0.3272 0 1
1.0940 -7.8253 -2.5577 0.3442 0 1
1.3553 -7.4861 -2.4626 0.3562 0 24
1.6064 -7.2072 -2.3902 0.3685 0 1
1.8300 -6.8927 -2.3084 0.3798 0 24
2.0486 -6.6294 -2.2460 0.3921 0 1
2.2466 -6.3527 -2.1811 0.4028 0 1
2.4309 -6.0841 -2.1208 0.4142 0 1
2.6027 -5.8231 -2.0646 0.4255 0 1
2.7629 -5.5691 -2.0123 0.4363 0 1
2.9122 -5.3216 -1.9636 0.4471 0 1
3.0448 -5.0687 -1.9140 0.4425 0 1
3.1644 -4.8179 -1.8658 0.4539 0 1
3.2750 -4.5745 -1.8211 0.4651 0 1
3.3773 -4.3378 -1.7795 0.4760 0 1
3.4740 -4.1099 -1.7420 0.4791 0 1
3.5638 -3.8878 -1.7072 0.5087 0 1
3.6545 -3.6783 -1.6784 0.5174 0 1
3.7390 -3.4724 -1.6517 0.5258 0 1
3.8176 -3.2697 -1.6270 0.5337 0 1
3.8906 -3.0700 -1.6042 0.5413 0 1
3.9584 -2.8730 -1.5832 0.5485 0 1
4.0211 -2.6785 -1.5639 0.5553 0 1
4.0799 -2.4870 -1.5467 0.5616 0 1
4.1341 -2.2974 -1.5310 0.5673 0 1
4.1840 -2.1096 -1.5168 0.5727 0 1
4.2295 -1.9235 -1.5040 0.5776 0 1
4.2710 -1.7387 -1.4927 0.5820 0 1
4.3084 -1.5552 -1.4827 0.5859 0 1
4.3418 -1.3727 -1.4740 0.5893 0 1
4.3722 -1.1912 -1.4668 0.5953 0 1
4.3990 -1.0105 -1.4610 0.5977 0 1
4.4221 -0.8303 -1.4564 0.5996 0 1
4.4417 -0.6504 -1.4531 0.6010 0 1
3.9216 -0.4140 -1.2764 0.7722 25 14
3.9098 -0.2544 -1.2683 0.7771 25 14
3.8991 -0.0967 -1.2625 0.7807 25 14
3.8967 0.0601 -1.2615 0.7813 25 14
3.9024 0.2173 -1.2651 0.7791 25 14
3.9090 0.3757 -1.2711 0.7754 25 14
3.9166 0.5361 -1.2796 0.7703 25 14
3.9240 0.6988 -1.2902 0.7194 25 14
4.4817 0.9854 -1.4854 0.5873 0 1
4.4652 1.1718 -1.4943 0.5751 0 1
4.4432 1.3591 -1.5040 0.5714 0 1
4.4172 1.5479 -1.5151 0.5672 0 1
4.3871 1.7383 -1.5275 0.5626 0 1
4.3527 1.9305 -1.5413 0.5576 0 1
4.3140 2.1248 -1.5566 0.5521 0 1
4.2709 2.3213 -1.5735 0.5458 0 1
4.2231 2.5204 -1.5919 0.5395 0 1
4.1705 2.7220 -1.6121 0.5327 0 1
4.1126 2.9265 -1.6339 0.5256 0 1
4.0499 3.1346 -1.6577 0.5181 0 1
3.9816 3.3460 -1.6835 0.5102 0 1
3.9073 3.5611 -1.7113 0.5019 0 1
3.8267 3.7802 -1.7412 0.4933 0 1
3.7395 4.0035 -1.7733 0.4843 0 1
3.6452 4.2314 -1.8078 0.4751 0 1
3.5410 4.4613 -1.8437 0.4792 0 1
3.4276 4.6941 -1.8814 0.4675 0 1
3.3070 4.9338 -1.9226 0.4575 0 1
3.1768 5.1781 -1.9664 0.4441 0 1
3.0365 5.4274 -2.0131 0.4338 0 1
2.8859 5.6829 -2.0631 0.4232 0 1
2.7243 5.9450 -2.1168 0.4125 0 1
2.5505 6.2139 -2.1743 0.4019 0 1
2.3639 6.4903 -2.2359 0.3909 0 1
2.1607 6.7669 -2.2994 0.4025 0 1
1.9408 7.0433 -2.3648 0.3914 0 1
1.7054 7.3272 -2.4352 0.3801 0 1
1.4588 7.6486 -2.5204 0.3474 0 1
1.1934 7.9901 -2.6151 0.3349 0 1
0.9052 8.3439 -2.7167 0.3217 0 1
0.5910 8.6954 -2.8211 0.3123 0 1
0.2504 9.0537 -2.9318 0.3195 0 1
-0.1180 9.4067 -3.0452 0.3076 0 1
-27.7517 19.4211 -11.3805 0.8339 0 3
-27.8314 17.8547 -11.1097 0.8542 0 3
-30.6151 17.9460 -11.9231 0.0420 0 3
-30.2093 16.1130 -11.5033 0.3842 0 3
-36.7060 17.7215 -13.6947 0.4183 0 3
-31.5836 13.7117 -11.5684 0.4042 0 5
-40.1556 13.7175 -14.2571 0.3884 0 5
-23.0017 -4.5063 -7.8751 0.6930 16 6
-25.4237 -17.2256 -10.3179 0.5260 0 20
-33.6657 -24.8411 -14.0570 0.8282 0 20
-29.4595 -23.6236 -12.6872 0.0669 0 2
-25.5235 -22.2105 -11.3677 0.0747 0 2
-22.1929 -20.9378 -10.2511 0.0828 0 2
-19.3500 -19.7849 -9.2981 0.0913 0 2
-17.5124 -19.4086 -8.7831 0.0689 0 1
-14.9312 -17.9488 -7.8443 0.0920 0 1
-13.0313 -17.0116 -7.1998 0.1200 0 1
-11.4223 -16.2225 -6.6660 0.1294 0 1
-9.9939 -15.4802 -6.1908 0.1399 0 1
-8.7294 -14.7945 -5.7715 0.1501 0 1
-7.6077 -14.1651 -5.4022 0.1639 0 1
-6.5966 -13.5637 -5.0675 0.1806 0 1
-5.6827 -12.9873 -4.7629 0.1889 0 24
-4.8857 -12.5128 -4.5132 0.2042 0 1
-4.1475 -12.0281 -4.2747 0.2147 0 1
-3.4610 -11.5203 -4.0415 0.2261 0 24
-2.8601 -11.1246 -3.8592 0.2377 0 1
-2.2965 -10.6990 -3.6765 0.2438 0 1
-1.7785 -10.2842 -3.5066 0.2556 0 1
-1.3035 -9.8907 -3.3518 0.2680 0 1
-0.8658 -9.5061 -3.2071 0.2798 0 1
-0.4630 -9.1366 -3.0737 0.2920 0 1
-0.0912 -8.7469 -2.9390 0.3000 0 24
0.2514 -8.4411 -2.8373 0.3163 0 1
0.5687 -8.1128 -2.7325 0.3284 0 1
0.8627 -7.7979 -2.6359 0.3455 0 1
1.1319 -7.4700 -2.5385 0.3575 0 24
1.3895 -7.2018 -2.4643 0.3696 0 1
1.6253 -6.9166 -2.3871 0.3816 0 1
1.8391 -6.6196 -2.3083 0.3929 0 24
2.0492 -6.3709 -2.2485 0.4040 0 1
2.2396 -6.1088 -2.1860 0.4156 0 1
2.4172 -5.8537 -2.1278 0.4270 0 1
2.5829 -5.6052 -2.0736 0.4379 0 1
2.7377 -5.3628 -2.0230 0.4488 0 1
2.8805 -5.1230 -1.9747 0.4436 0 1
3.0058 -4.8761 -1.9246 0.4551 0 1
3.1219 -4.6363 -1.8779 0.4664 0 1
3.2293 -4.4029 -1.8345 0.4775 0 1
3.3288 -4.1756 -1.7942 0.4882 0 1
3.4219 -3.9552 -1.7572 0.4911 0 1
3.5144 -3.7466 -1.7259 0.5204 0 1
3.6027 -3.5438 -1.6979 0.5289 0 1
3.6849 -3.3442 -1.6719 0.5372 0 1
3.7615 -3.1474 -1.6479 0.5450 0 1
3.8326 -2.9534 -1.6256 0.5525 0 1
3.8985 -2.7617 -1.6052 0.5595 0 1
3.9597 -2.5725 -1.5865 0.5662 0 1
4.0170 -2.3858 -1.5697 0.5722 0 1
4.0697 -2.2008 -1.5545 0.5779 0 1
4.1181 -2.0174 -1.5407 0.5831 0 1
4.1623 -1.8355 -1.5284 0.5878 0 1
4.2023 -1.6548 -1.5174 0.5920 0 1
4.2385 -1.4751 -1.5078 0.5958 0 1
4.2713 -1.2966 -1.4997 0.6022 0 1
4.3005 -1.1188 -1.4930 0.6049 0 1
4.3261 -0.9416 -1.4875 0.6071 0 1
4.3480 -0.7648 -1.4833 0.6088 0 1
4.3664 -0.5882 -1.4803 0.6101 0 1
4.3812 -0.4117 -1.4785 0.6108 0 1
4.3926 -0.2352 -1.4779 0.6110 0 1
4.4015 -0.0585 -1.4790 0.6100 0 1
4.4094 0.1187 -1.4820 0.6087 0 1
4.4138 0.2966 -1.4863 0.6070 0 1
4.4147 0.4756 -1.4918 0.6047 0 1
4.4120 0.6556 -1.4986 0.6020 0 1
4.4057 0.8369 -1.5067 0.5987 0 1
4.3939 1.0192 -1.5155 0.5864 0 1
4.3746 1.2019 -1.5243 0.5831 0 1
4.3514 1.3858 -1.5343 0.5792 0 1
4.3241 1.5712 -1.5458 0.5750 0 1
4.2927 1.7582 -1.5586 0.5702 0 1
4.2570 1.9469 -1.5728 0.5651 0 1
4.2170 2.1375 -1.5884 0.5591 0 1
4.1725 2.3303 -1.6057 0.5531 0 1
4.1234 2.5255 -1.6246 0.5467 0 1
4.0693 2.7231 -1.6451 0.5399 0 1
4.0102 2.9236 -1.6674 0.5327 0 1
3.9460 3.1273 -1.6917 0.5251 0 1
3.8762 3.3342 -1.7178 0.5171 0 1
3.8004 3.5445 -1.7460 0.5087 0 1
3.7183 3.7585 -1.7763 0.5000 0 1
3.6296 3.9765 -1.8089 0.4910 0 1
3.5338 4.1987 -1.8438 0.4817 0 1
3.4292 4.4237 -1.8806 0.4859 0 1
3.3149 4.6511 -1.9190 0.4740 0 1
3.1925 4.8833 -1.9602 0.4607 0 1
3.0606 5.1197 -2.0041 0.4506 0 1
2.9193 5.3614 -2.0510 0.4403 0 1
2.7677 5.6087 -2.1014 0.4297 0 1
2.6052 5.8620 -2.1553 0.4190 0 1
2.4308 6.1215 -2.2129 0.4084 0 1
2.2437 6.3876 -2.2746 0.3973 0 1
2.0426 6.6599 -2.3405 0.4090 0 1
1.8229 6.9254 -2.4061 0.3978 0 1
1.5883 7.1976 -2.4764 0.3865 0 1
1.3421 7.5041 -2.5613 0.3536 0 1
1.0777 7.8299 -2.6555 0.3410 0 1
0.7904 8.1585 -2.7539 0.3282 0 1
0.4792 8.4913 -2.8575 0.3163 0 1
0.1428 8.8313 -2.9675 0.3070 0 1
-0.2206 9.1749 -3.0835 0.3141 0 1
-0.6123 9.5186 -3.2047 0.3022 0 1
-1.0377 9.8994 -3.3443 0.2756 0 1
-1.4992 10.2921 -3.4945 0.2673 0 1
-1.9934 10.6611 -3.6440 0.2536 0 24
-2.5456 11.1197 -3.8327 0.2370 0 1
-3.1441 11.5738 -4.0295 0.2234 0 1
-3.7879 12.0126 -4.2319 0.2111 0 24
-4.5240 12.5627 -4.4862 0.1994 0 1
-5.3198 13.0956 -4.7491 0.1884 0 1
-6.1903 13.6391 -5.0324 0.1811 0 1
-7.1425 14.1918 -5.3380 0.1718 0 1
-8.1892 14.7623 -5.6719 0.1626 0 1
-9.3636 15.3869 -6.0517 0.1461 0 1
-10.7093 16.1031 -6.4976 0.1264 0 1
-12.2849 16.9528 -7.0341 0.1167 0 1
-14.1145 17.9153 -7.6629 0.1052 0 1
-16.0628 18.7831 -8.3037 0.1116 0 1
-17.6925 19.0797 -8.7424 0.0971 0 2
-20.2638 20.1628 -9.6044 0.0884 0 2
-23.2604 21.3542 -10.6090 0.0800 0 25
-22.3968 18.9603 -9.8593 0.7701 0 5
-22.5043 17.5485 -9.5881 0.8256 0 5
-25.1133 18.0079 -10.3827 0.8683 0 21
-27.8096 18.2950 -11.1841 0.8486 0 3
-28.0443 16.8748 -10.9966 0.7549 0 3
-30.4825 16.7113 -11.6797 0.3673 0 3
-37.3041 18.5416 -13.9963 0.9032 0 3
-30.5504 13.6823 -11.2468 0.3489 0 5
-44.2271 13.7035 -15.5564 0.3484 0 5
-38.9160 -25.7200 -15.6727 0.3614 0 9
-35.0546 -25.2493 -14.5149 0.7642 0 9
-30.7156 -24.0565 -13.1083 0.0648 0 2
-26.5803 -22.5988 -11.7220 0.0724 0 2
-23.0901 -21.2883 -10.5519 0.0804 0 2
-20.1182 -20.1031 -9.5556 0.0888 0 2
-18.5255 -20.0632 -9.1750 0.1143 0 2
-15.6131 -18.3359 -8.0913 0.0892 0 1
-13.5284 -17.2466 -7.3645 0.1173 0 1
-11.8642 -16.4455 -6.8132 0.1268 0 1
-10.3845 -15.6869 -6.3207 0.1365 0 1
-9.0760 -14.9858 -5.8864 0.1472 0 1
-7.9166 -14.3426 -5.5042 0.1625 0 1
-6.8737 -13.7303 -5.1589 0.1716 0 1
-5.9467 -13.1764 -4.8570 0.1885 0 1
-5.1097 -12.6553 -4.5855 0.2010 0 1
-4.3514 -12.1642 -4.3406 0.2115 0 1
-3.6601 -11.6939 -4.1169 0.2215 0 1
-3.0297 -11.2472 -3.9136 0.2344 0 1
-2.4531 -10.8210 -3.7279 0.2405 0 1
-1.9149 -10.3630 -3.5407 0.2536 0 24
-1.4351 -10.0012 -3.3946 0.2683 0 1
-0.9834 -9.5780 -3.2350 0.2751 0 24
-0.5747 -9.2406 -3.1107 0.2885 0 1
-0.1947 -8.8819 -2.9849 0.3007 0 1
0.1562 -8.5372 -2.8688 0.3128 0 1
0.4805 -8.2054 -2.7616 0.3249 0 1
0.7808 -7.8859 -2.6625 0.3421 0 1
1.0562 -7.5552 -2.5631 0.3541 0 24
1.3189 -7.2850 -2.4874 0.3662 0 1
1.5596 -6.9972 -2.4086 0.3782 0 1
1.7782 -6.6975 -2.3282 0.3896 0 24
1.9860 -6.4266 -2.2600 0.3990 0 24
2.1866 -6.1829 -2.2034 0.4123 0 1
2.3677 -5.9259 -2.1440 0.4237 0 1
2.5368 -5.6756 -2.0887 0.4347 0 1
2.6946 -5.4314 -2.0371 0.4457 0 1
2.8419 -5.1931 -1.9890 0.4565 0 1
2.9710 -4.9459 -1.9385 0.4519 0 1
3.0896 -4.7041 -1.8909 0.4632 0 1
3.1995 -4.4689 -1.8466 0.4743 0 1
3.3011 -4.2400 -1.8054 0.4852 0 1
3.3957 -4.0173 -1.7673 0.4883 0 1
3.4880 -3.8051 -1.7343 0.5178 0 1
3.5781 -3.6014 -1.7057 0.5265 0 1
3.6620 -3.4009 -1.6791 0.5349 0 1
3.7402 -3.2034 -1.6545 0.5428 0 1
3.8128 -3.0085 -1.6318 0.5504 0 1
3.8802 -2.8162 -1.6109 0.5575 0 1
3.9426 -2.6263 -1.5916 0.5643 0 1
4.0011 -2.4389 -1.5744 0.5705 0 1
4.0551 -2.2535 -1.5587 0.5763 0 1
4.1047 -2.0697 -1.5445 0.5816 0 1
4.1501 -1.8873 -1.5318 0.5865 0 1
4.1913 -1.7063 -1.5204 0.5909 0 1
4.2285 -1.5264 -1.5104 0.5948 0 1
4.2622 -1.3475 -1.5019 0.6013 0 1
4.2925 -1.1695 -1.4948 0.6042 0 1
4.3191 -0.9922 -1.4889 0.6065 0 1
4.3421 -0.8153 -1.4844 0.6084 0 1
4.3615 -0.6386 -1.4810 0.6098 0 1
4.3773 -0.4622 -1.4789 0.6107 0 1
4.3897 -0.2857 -1.4780 0.6110 0 1
4.3986 -0.1090 -1.4783 0.6102 0 1
4.4075 0.0680 -1.4810 0.6091 0 1
4.4129 0.2457 -1.4850 0.6075 0 1
4.4148 0.4244 -1.4901 0.6054 0 1
4.4131 0.6040 -1.4966 0.6028 0 1
4.4079 0.7850 -1.5043 0.5997 0 1
4.3987 0.9672 -1.5132 0.5873 0 1
4.3805 1.1496 -1.5216 0.5841 0 1
4.3584 1.3332 -1.5313 0.5804 0 1
4.3323 1.5181 -1.5424 0.5762 0 1
4.3021 1.7046 -1.5548 0.5716 0 1
4.2677 1.8928 -1.5686 0.5666 0 1
4.2289 2.0828 -1.5838 0.5611 0 1
4.1857 2.2750 -1.6006 0.5549 0 1
4.1379 2.4695 -1.6190 0.5486 0 1
4.0852 2.6664 -1.6391 0.5419 0 1
4.0275 2.8660 -1.6608 0.5348 0 1
3.9649 3.0688 -1.6845 0.5273 0 1
3.8968 3.2747 -1.7102 0.5194 0 1
3.8227 3.4840 -1.7378 0.5111 0 1
3.7425 3.6969 -1.7675 0.5025 0 1
3.6557 3.9138 -1.7994 0.4936 0 1
3.5619 4.1347 -1.8336 0.4844 0 1
3.4608 4.3602 -1.8703 0.4749 0 1
3.3482 4.5854 -1.9076 0.4769 0 1
3.2285 4.8166 -1.9482 0.4635 0 1
3.0992 5.0516 -1.9912 0.4535 0 1
2.9606 5.2918 -2.0373 0.4433 0 1
2.8121 5.5374 -2.0866 0.4328 0 1
2.6528 5.7890 -2.1395 0.4221 0 1
2.4819 6.0467 -2.1961 0.4116 0 1
2.2985 6.3108 -2.2566 0.4005 0 1
2.1017 6.5821 -2.3215 0.3893 0 1
1.8872 6.8489 -2.3869 0.4010 0 1
1.6569 7.1191 -2.4558 0.3898 0 1
1.4140 7.4134 -2.5357 0.3572 0 1
1.1554 7.7355 -2.6278 0.3446 0 1
0.8750 8.0655 -2.7258 0.3316 0 1
0.5705 8.3950 -2.8271 0.3197 0 1
0.2416 8.7330 -2.9352 0.3104 0 1
-0.1139 9.0789 -3.0506 0.3175 0 1
-27.6281 19.3346 -11.7473 0.8345 0 3
-26.9870 17.3130 -11.1695 0.9142 0 21
-30.3071 17.7655 -12.2380 0.4834 0 3
-31.0543 16.5637 -12.2607 0.3614 0 3
-36.7038 17.7205 -14.1984 0.4167 0 3
-31.5222 13.6851 -11.9713 0.4138 0 5
-40.1025 13.6994 -14.7628 0.3245 0 5
-22.9358 -4.4934 -8.1418 0.3636 16 6
-37.6248 -23.3427 -15.4246 0.0568 0 2
-32.8603 -22.2642 -13.8273 0.0634 0 2
-23.9436 -17.6674 -10.3659 0.8309 15 6
-25.2591 -20.2553 -11.2791 0.0777 0 2
-22.2138 -19.3303 -10.2581 0.0855 0 2
-19.8563 -18.7333 -9.5097 0.9814 0 2
-17.7073 -18.1052 -8.8222 0.0685 0 1
-15.2954 -16.9516 -7.9538 0.1121 0 1
-13.5040 -16.2331 -7.3559 0.1230 0 1
-11.9336 -15.5786 -6.8362 0.1305 0 1
-10.5183 -14.9386 -6.3646 0.1402 0 1
-9.2644 -14.3501 -5.9503 0.1553 0 1
-8.1426 -13.8000 -5.5819 0.1655 0 1
-7.1240 -13.2644 -5.2451 0.1744 0 1
-6.2133 -12.7756 -4.9489 0.1910 0 1
-5.3862 -12.3098 -4.6808 0.2026 0 1
-4.6321 -11.8633 -4.4366 0.2137 0 1
-3.9423 -11.4330 -4.2130 0.2236 0 1
-3.3099 -11.0173 -4.0075 0.2364 0 1
-2.7313 -10.6235 -3.8212 0.2423 0 1
-2.1962 -10.2316 -3.6455 0.2540 0 1
-1.7050 -9.8593 -3.4856 0.2699 0 1
-1.2516 -9.4965 -3.3368 0.2781 0 1
-0.8327 -9.1427 -3.1982 0.2898 0 1
-0.4460 -8.8014 -3.0700 0.3019 0 1
-0.0880 -8.4383 -2.9397 0.3178 0 24
0.2429 -8.1544 -2.8419 0.3261 0 1
0.5501 -7.8481 -2.7407 0.3433 0 1
0.8330 -7.5296 -2.6390 0.3554 0 24
1.1016 -7.2700 -2.5615 0.3672 0 1
1.3489 -6.9917 -2.4806 0.3793 0 1
1.5793 -6.7210 -2.4051 0.3912 0 1
1.7885 -6.4372 -2.3274 0.4020 0 24
1.9876 -6.1792 -2.2612 0.4109 0 24
2.1813 -5.9498 -2.2076 0.4251 0 1
2.3559 -5.7054 -2.1503 0.4364 0 1
2.5191 -5.4666 -2.0968 0.4473 0 1
2.6716 -5.2333 -2.0469 0.4582 0 1
2.8107 -4.9988 -1.9978 0.4529 0 1
2.9347 -4.7608 -1.9483 0.4644 0 1
3.0498 -4.5292 -1.9022 0.4757 0 1
3.1564 -4.3035 -1.8592 0.4866 0 1
3.2553 -4.0834 -1.8192 0.4973 0 1
3.3476 -3.8694 -1.7824 0.5285 0 1
3.4411 -3.6684 -1.7521 0.5294 0 1
3.5287 -3.4710 -1.7243 0.5380 0 1
3.6104 -3.2765 -1.6984 0.5462 0 1
3.6865 -3.0846 -1.6745 0.5540 0 1
3.7572 -2.8952 -1.6524 0.5614 0 1
3.8227 -2.7081 -1.6320 0.5684 0 1
3.8836 -2.5231 -1.6133 0.5751 0 1
3.9405 -2.3404 -1.5966 0.5811 0 1
3.9930 -2.1593 -1.5814 0.5868 0 1
4.0412 -1.9798 -1.5676 0.5919 0 1
4.0851 -1.8015 -1.5553 0.5966 0 1
4.1250 -1.6243 -1.5444 0.6008 0 1
4.1612 -1.4482 -1.5349 0.6077 0 1
4.1940 -1.2731 -1.5269 0.6109 0 1
4.2231 -1.0987 -1.5201 0.6136 0 1
4.2485 -0.9247 -1.5147 0.6159 0 1
4.2702 -0.7511 -1.5104 0.6176 0 1
4.2884 -0.5777 -1.5074 0.6188 0 1
4.3031 -0.4044 -1.5056 0.6195 0 1
4.3143 -0.2310 -1.5051 0.6198 0 1
4.3229 -0.0575 -1.5061 0.6187 0 1
4.3305 0.1165 -1.5091 0.6175 0 1
4.3346 0.2913 -1.5134 0.6157 0 1
4.3352 0.4670 -1.5189 0.6135 0 1
4.3322 0.6437 -1.5257 0.6107 0 1
4.3256 0.8217 -1.5338 0.6075 0 1
4.3119 1.0002 -1.5420 0.5953 0 1
4.2925 1.1793 -1.5507 0.5920 0 1
4.2692 1.3597 -1.5608 0.5882 0 1
4.2418 1.5413 -1.5722 0.5839 0 1
4.2103 1.7245 -1.5850 0.5792 0 1
4.1746 1.9092 -1.5991 0.5741 0 1
4.1345 2.0957 -1.6148 0.5685 0 1
4.0901 2.2843 -1.6320 0.5621 0 1
4.0409 2.4750 -1.6508 0.5557 0 1
3.9869 2.6680 -1.6712 0.5490 0 1
3.9280 2.8637 -1.6934 0.5418 0 1
3.8640 3.0622 -1.7175 0.5342 0 1
3.7944 3.2638 -1.7435 0.5262 0 1
3.7189 3.4685 -1.7715 0.5179 0 1
3.6372 3.6765 -1.8016 0.5092 0 1
3.5490 3.8882 -1.8339 0.5003 0 1
3.4539 4.1037 -1.8685 0.4910 0 1
3.3514 4.3234 -1.9056 0.4815 0 1
3.2387 4.5440 -1.9439 0.4799 0 1
3.1170 4.7678 -1.9844 0.4701 0 1
2.9867 4.9960 -2.0277 0.4600 0 1
2.8471 5.2289 -2.0741 0.4497 0 1
2.6977 5.4668 -2.1237 0.4392 0 1
2.5376 5.7100 -2.1767 0.4285 0 1
2.3661 5.9587 -2.2334 0.4180 0 1
2.1824 6.2131 -2.2940 0.4069 0 1
1.9855 6.4738 -2.3589 0.3958 0 1
1.7732 6.7366 -2.4267 0.4074 0 1
1.5437 6.9958 -2.4957 0.3962 0 1
1.3014 7.2764 -2.5751 0.3633 0 1
1.0438 7.5839 -2.6668 0.3508 0 1
0.7644 7.8905 -2.7616 0.3381 0 1
0.4629 8.2023 -2.8619 0.3262 0 1
0.1378 8.5217 -2.9690 0.3170 0 1
-0.2127 8.8492 -3.0836 0.3052 0 1
-0.5905 9.1800 -3.2046 0.3122 0 1
-0.9975 9.5160 -3.3332 0.2856 0 1
-1.4390 9.8794 -3.4779 0.2774 0 1
-1.9146 10.2395 -3.6289 0.2659 0 1
-2.4313 10.6202 -3.7954 0.2472 0 1
-2.9850 10.9883 -3.9666 0.2364 0 24
-3.5984 11.4116 -4.1683 0.2223 0 24
-4.2844 11.8974 -4.4051 0.2098 0 1
-5.0044 12.3192 -4.6321 0.1988 0 24
-5.8132 12.8082 -4.8999 0.1871 0 24
-6.7042 13.3211 -5.1951 0.1812 0 1
-7.6368 13.7666 -5.4842 0.1736 0 24
-8.7159 14.3226 -5.8407 0.1631 0 1
-9.8862 14.8655 -6.2192 0.1468 0 1
-11.2194 15.4823 -6.6607 0.1287 0 1
-12.7658 16.2034 -7.1860 0.1162 0 1
-14.5601 17.0260 -7.8042 0.1152 0 1
-16.6999 18.0093 -8.5559 0.7185 0 2
-17.9981 17.9084 -8.8448 0.0991 0 2
-20.4209 18.7474 -9.6571 0.0908 0 2
-23.1967 19.6375 -10.5877 0.0828 0 25
-22.4118 17.4763 -9.9005 0.8025 0 5
-25.0510 17.9633 -10.7385 0.7414 0 21
-27.6879 18.2149 -11.5454 0.8491 0 3
-29.5335 17.7709 -12.0073 0.4927 0 3
-32.3789 17.7509 -12.8634 0.4599 0 3
-35.6667 17.7278 -13.8750 0.4264 0 3
-30.5829 13.6969 -11.6736 0.3729 0 5
-41.9063 16.7802 -15.7254 0.5775 0 3
-44.1737 13.6869 -16.1101 0.2853 0 5
-45.2022 8.2185 -16.0048 0.5013 0 6
-32.9566 -4.7039 -11.5972 0.9918 0 20
-39.1299 -23.6585 -15.9292 0.0550 0 2
-34.1464 -22.5677 -14.2585 0.0615 0 2
-29.8810 -21.5229 -12.8285 0.0683 0 2
-26.2121 -20.5294 -11.5986 0.0756 0 2
-23.0404 -19.5892 -10.5352 0.0832 0 2
-20.2847 -18.7018 -9.6114 0.0912 0 2
-18.5846 -18.5707 -9.1524 0.0659 0 1
-15.8934 -17.2127 -8.1615 0.0907 0 1
-13.9871 -16.4263 -7.5157 0.1205 0 1
-12.3671 -15.7661 -6.9804 0.1296 0 1
-10.9064 -15.1179 -6.4939 0.1374 0 1
-9.6069 -14.5122 -6.0628 0.1524 0 1
-8.4514 -13.9545 -5.6833 0.1626 0 1
-7.4053 -13.4163 -5.3384 0.1713 0 1
-6.4642 -12.9124 -5.0304 0.1880 0 1
-5.6147 -12.4408 -4.7548 0.1988 0 1
-4.8406 -11.9890 -4.5041 0.2105 0 1
-4.1175 -11.5103 -4.2586 0.2213 0 24
-3.4849 -11.1340 -4.0642 0.2317 0 1
-2.8921 -10.7363 -3.8734 0.2446 0 1
-2.3445 -10.3420 -3.6942 0.2507 0 1
-1.8412 -9.9639 -3.5298 0.2665 0 1
-1.3719 -9.5604 -3.3646 0.2742 0 24
-0.9490 -9.2426 -3.2367 0.2864 0 1
-0.5534 -8.8976 -3.1056 0.2985 0 1
-0.1877 -8.5651 -2.9844 0.3106 0 1
0.1508 -8.2441 -2.8724 0.3227 0 1
0.4646 -7.9339 -2.7686 0.3348 0 1
0.7563 -7.6376 -2.6737 0.3519 0 1
1.0276 -7.3505 -2.5855 0.3638 0 1
1.2801 -7.0705 -2.5031 0.3759 0 1
1.5151 -6.7975 -2.4261 0.3878 0 1
1.7343 -6.5322 -2.3544 0.3996 0 1
1.9322 -6.2526 -2.2798 0.4082 0 24
2.1292 -6.0208 -2.2247 0.4218 0 1
2.3073 -5.7746 -2.1663 0.4332 0 1
2.4736 -5.5342 -2.1117 0.4441 0 1
2.6291 -5.2994 -2.0608 0.4551 0 1
2.7735 -5.0680 -2.0126 0.4496 0 1
2.9002 -4.8281 -1.9620 0.4611 0 1
3.0178 -4.5947 -1.9150 0.4725 0 1
3.1268 -4.3674 -1.8712 0.4835 0 1
3.2278 -4.1457 -1.8303 0.4943 0 1
3.3213 -3.9293 -1.7923 0.5048 0 1
3.4149 -3.7253 -1.7605 0.5269 0 1
3.5043 -3.5271 -1.7320 0.5356 0 1
3.5876 -3.3318 -1.7056 0.5439 0 1
3.6653 -3.1392 -1.6811 0.5518 0 1
3.7375 -2.9491 -1.6585 0.5593 0 1
3.8045 -2.7613 -1.6376 0.5665 0 1
3.8666 -2.5756 -1.6184 0.5732 0 1
3.9247 -2.3924 -1.6012 0.5794 0 1
3.9785 -2.2109 -1.5856 0.5852 0 1
4.0278 -2.0309 -1.5714 0.5905 0 1
4.0730 -1.8523 -1.5587 0.5953 0 1
4.1140 -1.6748 -1.5474 0.5997 0 1
4.1511 -1.4984 -1.5374 0.6067 0 1
4.1850 -1.3231 -1.5290 0.6101 0 1
4.2152 -1.1485 -1.5219 0.6129 0 1
4.2416 -0.9744 -1.5161 0.6153 0 1
4.2644 -0.8007 -1.5115 0.6171 0 1
4.2836 -0.6272 -1.5082 0.6185 0 1
4.2993 -0.4539 -1.5060 0.6194 0 1
4.3114 -0.2806 -1.5051 0.6198 0 1
4.3201 -0.1071 -1.5054 0.6190 0 1
4.3287 0.0667 -1.5081 0.6179 0 1
4.3338 0.2413 -1.5121 0.6163 0 1
4.3354 0.4167 -1.5172 0.6142 0 1
4.3334 0.5931 -1.5237 0.6116 0 1
4.3278 0.7707 -1.5314 0.6085 0 1
4.3167 0.9492 -1.5397 0.5962 0 1
4.2984 1.1280 -1.5481 0.5930 0 1
4.2762 1.3080 -1.5578 0.5893 0 1
4.2500 1.4893 -1.5688 0.5852 0 1
4.2198 1.6720 -1.5812 0.5806 0 1
4.1853 1.8562 -1.5950 0.5756 0 1
4.1464 2.0422 -1.6102 0.5701 0 1
4.1032 2.2302 -1.6269 0.5639 0 1
4.0555 2.4203 -1.6452 0.5576 0 1
4.0028 2.6126 -1.6652 0.5509 0 1
3.9453 2.8074 -1.6868 0.5439 0 1
3.8828 3.0052 -1.7104 0.5364 0 1
3.8149 3.2059 -1.7359 0.5285 0 1
3.7411 3.4096 -1.7633 0.5203 0 1
3.6612 3.6167 -1.7928 0.5118 0 1
3.5749 3.8273 -1.8244 0.5029 0 1
3.4818 4.0417 -1.8584 0.4937 0 1
3.3814 4.2602 -1.8947 0.4842 0 1
3.2719 4.4808 -1.9328 0.4861 0 1
3.1526 4.7034 -1.9725 0.4729 0 1
3.0248 4.9303 -2.0150 0.4629 0 1
2.8880 5.1619 -2.0605 0.4527 0 1
2.7414 5.3983 -2.1091 0.4423 0 1
2.5845 5.6399 -2.1612 0.4316 0 1
2.4164 5.8871 -2.2169 0.4211 0 1
2.2362 6.1398 -2.2763 0.4101 0 1
2.0432 6.3987 -2.3399 0.3990 0 1
1.8361 6.6636 -2.4078 0.4106 0 1
1.6108 6.9211 -2.4755 0.3994 0 1
1.3715 7.1906 -2.5501 0.3668 0 1
1.1194 7.4949 -2.6399 0.3544 0 1
0.8465 7.8032 -2.7343 0.3415 0 1
0.5513 8.1122 -2.8325 0.3296 0 1
0.2332 8.4300 -2.9378 0.3204 0 1
-0.1099 8.7546 -3.0500 0.3086 0 1
-26.7279 18.7046 -11.7715 0.0768 0 25
-26.8925 17.2524 -11.5290 0.5104 0 21
-30.3056 17.7645 -12.6756 0.4816 0 3
-27.4915 14.6634 -11.2428 0.4347 0 21
-36.7016 17.7194 -14.7059 0.4151 0 3
-31.4878 13.6701 -12.3865 0.3332 0 5
-40.0795 13.6915 -15.2827 0.3404 0 5
-39.8808 -20.5037 -16.1809 0.0559 0 2
-35.4084 -20.0432 -14.6816 0.0616 0 2
-31.4458 -19.5092 -13.3531 0.0677 0 2
-27.9389 -18.9298 -12.1774 0.0743 0 2
-23.7574 -17.5300 -10.6536 0.8293 15 6
-22.0857 -17.7106 -10.2152 0.0886 0 2
-20.7050 -18.0174 -9.9038 0.9503 0 2
-17.7899 -16.7838 -8.8252 0.0886 0 1
-15.6557 -16.0076 -8.0794 0.1139 0 1
-13.9184 -15.4254 -7.4969 0.1247 0 1
-12.3779 -14.8795 -6.9839 0.1336 0 1
-10.9924 -14.3500 -6.5226 0.1413 0 1
-9.7494 -13.8466 -6.1106 0.1550 0 1
-8.6420 -13.3861 -5.7493 0.1658 0 1
-7.6028 -12.8850 -5.3984 0.1781 0 24
-6.7064 -12.4870 -5.1145 0.1907 0 1
-5.8703 -12.0704 -4.8432 0.2021 0 1
-5.0855 -11.6224 -4.5777 0.2129 0 24
-4.4016 -11.2728 -4.3667 0.2225 0 1
-3.7545 -10.8884 -4.1560 0.2338 0 1
-3.1602 -10.5191 -3.9633 0.2466 0 1
-2.6109 -10.1552 -3.7835 0.2565 0 1
-2.1048 -9.8057 -3.6188 0.2682 0 1
-1.6369 -9.4654 -3.4662 0.2762 0 1
-1.2032 -9.1298 -3.3228 0.2881 0 1
-0.8019 -8.8036 -3.1898 0.2998 0 1
-0.4301 -8.4876 -3.0665 0.3119 0 1
-0.0850 -8.1529 -2.9420 0.3302 0 24
0.2349 -7.8851 -2.8465 0.3410 0 1
0.5311 -7.5769 -2.7407 0.3533 0 24
0.8103 -7.3245 -2.6591 0.3649 0 1
1.0691 -7.0555 -2.5750 0.3768 0 1
1.3104 -6.7921 -2.4960 0.3889 0 1
1.5355 -6.5347 -2.4222 0.4008 0 1
1.7458 -6.2838 -2.3533 0.4114 0 1
1.9351 -6.0163 -2.2804 0.4205 0 24
2.1256 -5.7978 -2.2282 0.4345 0 1
2.2972 -5.5632 -2.1718 0.4455 0 1
2.4578 -5.3337 -2.1191 0.4566 0 1
2.6082 -5.1091 -2.0699 0.4675 0 1
2.7436 -4.8795 -2.0199 0.4621 0 1
2.8664 -4.6499 -1.9710 0.4736 0 1
2.9804 -4.4262 -1.9255 0.4848 0 1
3.0862 -4.2078 -1.8829 0.4958 0 1
3.1844 -3.9945 -1.8433 0.5064 0 1
3.2789 -3.7900 -1.8083 0.5375 0 1
3.3703 -3.5929 -1.7776 0.5468 0 1
3.4571 -3.4006 -1.7498 0.5470 0 1
3.5382 -3.2110 -1.7241 0.5551 0 1
3.6138 -3.0239 -1.7003 0.5629 0 1
3.6841 -2.8389 -1.6783 0.5703 0 1
3.7493 -2.6560 -1.6579 0.5773 0 1
3.8098 -2.4751 -1.6393 0.5839 0 1
3.8664 -2.2963 -1.6226 0.5899 0 1
3.9186 -2.1191 -1.6075 0.5956 0 1
3.9665 -1.9432 -1.5938 0.6007 0 1
4.0102 -1.7684 -1.5815 0.6054 0 1
4.0499 -1.5947 -1.5706 0.6128 0 1
4.0864 -1.4222 -1.5613 0.6165 0 1
4.1190 -1.2504 -1.5532 0.6196 0 1
4.1478 -1.0791 -1.5465 0.6223 0 1
4.1730 -0.9083 -1.5410 0.6245 0 1
4.1946 -0.7378 -1.5368 0.6263 0 1
4.2127 -0.5675 -1.5338 0.6275 0 1
4.2272 -0.3973 -1.5320 0.6282 0 1
4.2381 -0.2270 -1.5315 0.6284 0 1
4.2465 -0.0565 -1.5324 0.6274 0 1
4.2538 0.1145 -1.5355 0.6261 0 1
4.2576 0.2862 -1.5398 0.6244 0 1
4.2579 0.4587 -1.5453 0.6222 0 1
4.2546 0.6322 -1.5521 0.6194 0 1
4.2477 0.8069 -1.5601 0.6162 0 1
4.2323 0.9817 -1.5677 0.6042 0 1
4.2128 1.1574 -1.5765 0.6008 0 1
4.1894 1.3343 -1.5865 0.5970 0 1
4.1620 1.5123 -1.5979 0.5928 0 1
4.1305 1.6917 -1.6106 0.5881 0 1
4.0947 1.8727 -1.6247 0.5830 0 1
4.0547 2.0552 -1.6403 0.5774 0 1
4.0102 2.2397 -1.6574 0.5711 0 1
3.9611 2.4261 -1.6761 0.5647 0 1
3.9072 2.6147 -1.6964 0.5580 0 1
3.8485 2.8057 -1.7185 0.5508 0 1
3.7847 2.9994 -1.7425 0.5432 0 1
3.7154 3.1958 -1.7684 0.5353 0 1
3.6402 3.3951 -1.7961 0.5270 0 1
3.5590 3.5974 -1.8260 0.5184 0 1
3.4713 3.8031 -1.8580 0.5095 0 1
3.3769 4.0122 -1.8923 0.5002 0 1
3.2752 4.2251 -1.9290 0.4907 0 1
3.1648 4.4404 -1.9676 0.4891 0 1
3.0445 4.6568 -2.0076 0.4794 0 1
2.9157 4.8772 -2.0504 0.4694 0 1
2.7779 5.1018 -2.0961 0.4591 0 1
2.6306 5.3308 -2.1450 0.4487 0 1
2.4730 5.5645 -2.1972 0.4380 0 1
2.3044 5.8031 -2.2530 0.4275 0 1
2.1239 6.0466 -2.3125 0.4165 0 1
1.9309 6.2956 -2.3761 0.4054 0 1
1.7243 6.5505 -2.4442 0.3941 0 1
1.5013 6.8035 -2.5140 0.4057 0 1
1.2628 7.0605 -2.5881 0.3729 0 1
1.0118 7.3511 -2.6775 0.3605 0 1
0.7399 7.6377 -2.7689 0.3479 0 1
0.4475 7.9303 -2.8661 0.3361 0 1
0.1331 8.2309 -2.9704 0.3269 0 1
-0.2052 8.5360 -3.0810 0.3152 0 1
-0.5693 8.8501 -3.2000 0.3034 0 1
-0.9610 9.1676 -3.3261 0.3103 0 1
-1.3831 9.4957 -3.4625 0.2875 0 1
-1.8371 9.8252 -3.6067 0.2760 0 1
-2.3268 10.1638 -3.7624 0.2646 0 1
-2.8600 10.5281 -3.9366 0.2459 0 1
-3.4396 10.9082 -4.1271 0.2346 0 1
-4.0677 11.2956 -4.3321 0.2211 0 1
-4.7382 11.6639 -4.5428 0.2099 0 24
-5.5047 12.1285 -4.8061 0.1984 0 1
-6.3133 12.5444 -5.0674 0.1918 0 1
-7.1910 12.9630 -5.3490 0.1816 0 1
-8.1523 13.3965 -5.6586 0.1684 0 1
-9.2033 13.8387 -5.9969 0.1647 0 1
-10.3601 14.2965 -6.3708 0.1468 0 1
-11.6665 14.8081 -6.8024 0.1300 0 1
-13.1845 15.4173 -7.3199 0.1171 0 1
-14.9303 16.1010 -7.9233 0.1037 0 1
-16.7191 16.6358 -8.5105 0.7452 0 2
-18.1838 16.6937 -8.9071 0.1016 0 2
-20.4399 17.3036 -9.6634 0.0936 0 2
-22.9795 17.9191 -10.5148 0.0860 0 25
-24.9825 17.9141 -11.0926 0.5638 0 21
-27.5663 18.1350 -11.9064 0.8495 0 3
-29.5320 17.7700 -12.4366 0.4908 0 3
-32.3771 17.7499 -13.3233 0.4582 0 3
-35.6646 17.7267 -14.3711 0.4248 0 3
-30.5236 13.6703 -12.0682 0.4165 0 5
-35.9242 14.3848 -13.9633 0.1979 0 21
-44.1170 13.6694 -16.6656 0.1633 0 5
-45.0167 8.1848 -16.5099 0.9361 0 6
-32.8326 -4.6862 -11.9673 0.9917 0 20
-41.2596 -20.6169 -16.6431 0.0544 0 2
-36.6317 -20.1837 -15.0917 0.0599 0 2
-32.5290 -19.6675 -13.7163 0.0660 0 2
-28.8974 -19.0986 -12.4988 0.0724 0 2
-24.2317 -17.4537 -10.7757 0.5475 15 6
-22.8377 -17.8866 -10.4673 0.0864 0 2
-20.9967 -17.8517 -9.9446 0.9271 0 2
-18.5620 -17.1135 -9.1101 0.0683 0 1
-16.1942 -16.1820 -8.2608 0.1113 0 1
-14.3902 -15.5847 -7.6542 0.1221 0 1
-12.8007 -15.0330 -7.1246 0.1312 0 1
-11.3740 -14.5000 -6.6497 0.1386 0 1
-10.0864 -13.9812 -6.2207 0.1481 0 1
-8.9488 -13.5180 -5.8497 0.1620 0 1
-7.8793 -13.0100 -5.4883 0.1750 0 24
-6.9596 -12.6088 -5.1968 0.1877 0 1
-6.1016 -12.1881 -4.9182 0.1992 0 1
-5.3165 -11.7800 -4.6635 0.2098 0 1
-4.5964 -11.3841 -4.4300 0.2208 0 1
-3.9339 -10.9970 -4.2143 0.2306 0 1
-3.3245 -10.6218 -4.0161 0.2434 0 1
-2.7634 -10.2585 -3.8336 0.2492 0 1
-2.2453 -9.9044 -3.6645 0.2649 0 1
-1.7596 -9.5222 -3.4941 0.2728 0 24
-1.3237 -9.2245 -3.3626 0.2847 0 1
-0.9134 -8.8959 -3.2268 0.2964 0 1
-0.5334 -8.5768 -3.1008 0.3084 0 1
-0.1812 -8.2679 -2.9841 0.3205 0 1
0.1458 -7.9684 -2.8758 0.3325 0 1
0.4498 -7.6813 -2.7764 0.3496 0 1
0.7330 -7.4027 -2.6842 0.3615 0 1
0.9970 -7.1317 -2.5984 0.3734 0 1
1.2432 -6.8669 -2.5181 0.3855 0 1
1.4728 -6.6076 -2.4428 0.3974 0 1
1.6872 -6.3549 -2.3725 0.4091 0 1
1.8809 -6.0866 -2.2987 0.4174 0 24
2.0744 -5.8658 -2.2451 0.4313 0 1
2.2494 -5.6297 -2.1875 0.4423 0 1
2.4130 -5.3988 -2.1338 0.4535 0 1
2.5662 -5.1728 -2.0836 0.4644 0 1
2.7068 -4.9462 -2.0345 0.4588 0 1
2.8322 -4.7149 -1.9847 0.4704 0 1
2.9487 -4.4895 -1.9382 0.4816 0 1
3.0568 -4.2697 -1.8948 0.4927 0 1
3.1571 -4.0549 -1.8544 0.5034 0 1
3.2517 -3.8469 -1.8176 0.5348 0 1
3.3448 -3.6489 -1.7861 0.5442 0 1
3.4329 -3.4553 -1.7575 0.5446 0 1
3.5156 -3.2649 -1.7312 0.5528 0 1
3.5928 -3.0771 -1.7069 0.5607 0 1
3.6645 -2.8915 -1.6844 0.5682 0 1
3.7312 -2.7081 -1.6636 0.5753 0 1
3.7929 -2.5265 -1.6445 0.5820 0 1
3.8507 -2.3473 -1.6273 0.5882 0 1
3.9041 -2.1696 -1.6117 0.5940 0 1
3.9532 -1.9933 -1.5975 0.5993 0 1
3.9981 -1.8182 -1.5849 0.6041 0 1
4.0390 -1.6443 -1.5735 0.6084 0 1
4.0763 -1.4714 -1.5638 0.6155 0 1
4.1100 -1.2994 -1.5554 0.6188 0 1
4.1400 -1.1280 -1.5483 0.6216 0 1
4.1662 -0.9571 -1.5425 0.6240 0 1
4.1888 -0.7865 -1.5379 0.6258 0 1
4.2079 -0.6161 -1.5345 0.6272 0 1
4.2234 -0.4459 -1.5324 0.6281 0 1
4.2354 -0.2756 -1.5315 0.6284 0 1
4.2438 -0.1052 -1.5318 0.6283 0 1
4.2521 0.0656 -1.5345 0.6265 0 1
4.2569 0.2370 -1.5384 0.6249 0 1
4.2582 0.4093 -1.5436 0.6228 0 1
4.2559 0.5825 -1.5500 0.6203 0 1
4.2501 0.7569 -1.5577 0.6172 0 1
4.2372 0.9317 -1.5654 0.6050 0 1
4.2188 1.1071 -1.5738 0.6018 0 1
4.1965 1.2836 -1.5835 0.5981 0 1
4.1702 1.4613 -1.5945 0.5940 0 1
4.1399 1.6403 -1.6068 0.5895 0 1
4.1054 1.8208 -1.6205 0.5845 0 1
4.0666 2.0029 -1.6357 0.5791 0 1
4.0233 2.1868 -1.6523 0.5728 0 1
3.9756 2.3726 -1.6706 0.5666 0 1
3.9231 2.5606 -1.6904 0.5599 0 1
3.8657 2.7508 -1.7120 0.5529 0 1
3.8035 2.9438 -1.7355 0.5454 0 1
3.7358 3.1394 -1.7608 0.5376 0 1
3.6623 3.3378 -1.7880 0.5294 0 1
3.5829 3.5393 -1.8173 0.5209 0 1
3.4971 3.7440 -1.8486 0.5121 0 1
3.4046 3.9521 -1.8823 0.5029 0 1
3.3050 4.1639 -1.9183 0.4935 0 1
3.1977 4.3792 -1.9566 0.4919 0 1
3.0797 4.5946 -1.9959 0.4822 0 1
2.9534 4.8139 -2.0379 0.4723 0 1
2.8182 5.0372 -2.0827 0.4621 0 1
2.6737 5.2649 -2.1307 0.4517 0 1
2.5191 5.4973 -2.1820 0.4411 0 1
2.3537 5.7345 -2.2367 0.4303 0 1
2.1767 5.9765 -2.2951 0.4197 0 1
1.9874 6.2239 -2.3575 0.4086 0 1
1.7847 6.4770 -2.4243 0.3973 0 1
1.5669 6.7324 -2.4942 0.4090 0 1
1.3319 6.9831 -2.5652 0.3977 0 1
1.0854 7.2671 -2.6513 0.3640 0 1
0.8197 7.5556 -2.7423 0.3513 0 1
0.5332 7.8458 -2.8376 0.3395 0 1
0.2253 8.1445 -2.9399 0.3277 0 1
-0.1060 8.4480 -3.0486 0.3185 0 1
-23.3241 16.3226 -10.6303 0.0877 0 25
-25.9319 16.6361 -11.5046 0.0810 0 25
-26.0324 15.2597 -11.2678 0.8194 0 21
-27.5978 14.7201 -11.6796 0.4313 0 21
-35.4003 17.0911 -14.6788 0.0635 0 25
-31.5655 13.7038 -12.8498 0.3882 0 5
-36.4106 14.0965 -14.5795 0.6875 0 21
-40.0802 13.6918 -15.8156 0.3250 0 5
-40.6044 -16.9035 -16.4235 0.0568 0 2
-36.7691 -17.0718 -15.1377 0.0616 0 2
-33.2173 -17.0779 -13.9470 0.0668 0 2
-29.9560 -16.9568 -12.8537 0.0725 0 2
-26.9795 -16.7383 -11.8558 0.0786 0 2
-24.4965 -16.5974 -11.0491 0.6359 0 2
-22.9325 -16.9214 -10.6421 0.7765 0 2
-20.2691 -16.2538 -9.7017 0.0726 0 1
-17.9186 -15.5927 -8.8697 0.0940 0 1
-15.9273 -15.0265 -8.1765 0.1159 0 1
-14.2554 -14.5757 -7.6131 0.1256 0 1
-12.7660 -14.1483 -7.1159 0.1344 0 1
-11.4101 -13.7161 -6.6622 0.1427 0 1
-10.1834 -13.2939 -6.2532 0.1519 0 1
-9.0900 -12.9101 -5.8959 0.1656 0 1
-8.0910 -12.5327 -5.5704 0.1753 0 1
-7.1759 -12.1616 -5.2729 0.1915 0 1
-6.3349 -11.7952 -4.9995 0.2020 0 1
-5.5612 -11.4348 -4.7481 0.2123 0 1
-4.8486 -11.0810 -4.5166 0.2232 0 1
-4.1902 -10.7314 -4.3019 0.2328 0 1
-3.5825 -10.3896 -4.1037 0.2441 0 1
-3.0210 -10.0555 -3.9206 0.2552 0 1
-2.5014 -9.7295 -3.7512 0.2667 0 1
-2.0202 -9.4118 -3.5945 0.2783 0 1
-1.5730 -9.0961 -3.4470 0.2863 0 1
-1.1581 -8.7877 -3.3098 0.2981 0 1
-0.7730 -8.4864 -3.1820 0.3098 0 1
-0.4152 -8.1930 -3.0633 0.3218 0 1
-0.0822 -7.8853 -2.9446 0.3400 0 24
0.2274 -7.6342 -2.8519 0.3508 0 1
0.5164 -7.3670 -2.7577 0.3628 0 1
0.7862 -7.1063 -2.6698 0.3746 0 1
1.0382 -6.8517 -2.5877 0.3865 0 1
1.2737 -6.6020 -2.5107 0.3985 0 1
1.4938 -6.3572 -2.4385 0.4103 0 1
1.6996 -6.1174 -2.3708 0.4209 0 1
1.8850 -5.8605 -2.2988 0.4293 0 24
2.0722 -5.6522 -2.2480 0.4436 0 1
2.2409 -5.4269 -2.1924 0.4549 0 1
2.3990 -5.2061 -2.1405 0.4659 0 1
2.5472 -4.9896 -2.0919 0.4767 0 1
2.6792 -4.7649 -2.0412 0.4713 0 1
2.8007 -4.5433 -1.9930 0.4828 0 1
2.9136 -4.3270 -1.9479 0.4939 0 1
3.0185 -4.1155 -1.9058 0.5048 0 1
3.1160 -3.9087 -1.8666 0.5154 0 1
3.2125 -3.7132 -1.8334 0.5464 0 1
3.3031 -3.5213 -1.8029 0.5557 0 1
3.3879 -3.3325 -1.7745 0.5559 0 1
3.4684 -3.1476 -1.7490 0.5640 0 1
3.5434 -2.9650 -1.7253 0.5718 0 1
3.6132 -2.7843 -1.7033 0.5791 0 1
3.6781 -2.6056 -1.6831 0.5861 0 1
3.7381 -2.4286 -1.6646 0.5927 0 1
3.7944 -2.2536 -1.6479 0.5987 0 1
3.8463 -2.0800 -1.6328 0.6043 0 1
3.8940 -1.9076 -1.6192 0.6094 0 1
3.9374 -1.7363 -1.6069 0.6141 0 1
3.9774 -1.5662 -1.5962 0.6214 0 1
4.0136 -1.3969 -1.5869 0.6251 0 1
4.0460 -1.2282 -1.5789 0.6282 0 1
4.0747 -1.0601 -1.5722 0.6309 0 1
4.0997 -0.8923 -1.5667 0.6331 0 1
4.1211 -0.7249 -1.5625 0.6348 0 1
4.1389 -0.5576 -1.5595 0.6361 0 1
4.1533 -0.3903 -1.5577 0.6368 0 1
4.1641 -0.2230 -1.5571 0.6370 0 1
4.1722 -0.0555 -1.5581 0.6360 0 1
4.1792 0.1125 -1.5611 0.6347 0 1
4.1827 0.2811 -1.5654 0.6330 0 1
4.1828 0.4506 -1.5709 0.6308 0 1
4.1792 0.6210 -1.5777 0.6281 0 1
4.1707 0.7922 -1.5852 0.6158 0 1
4.1550 0.9638 -1.5927 0.6129 0 1
4.1354 1.1362 -1.6014 0.6096 0 1
4.1120 1.3096 -1.6114 0.6058 0 1
4.0845 1.4842 -1.6228 0.6015 0 1
4.0530 1.6600 -1.6355 0.5969 0 1
4.0173 1.8372 -1.6495 0.5918 0 1
3.9772 2.0160 -1.6650 0.5863 0 1
3.9327 2.1964 -1.6820 0.5800 0 1
3.8838 2.3787 -1.7006 0.5736 0 1
3.8300 2.5630 -1.7209 0.5669 0 1
3.7715 2.7496 -1.7429 0.5598 0 1
3.7080 2.9386 -1.7667 0.5522 0 1
3.6390 3.1301 -1.7924 0.5443 0 1
3.5642 3.3242 -1.8199 0.5361 0 1
3.4835 3.5211 -1.8495 0.5275 0 1
3.3964 3.7210 -1.8812 0.5186 0 1
3.3027 3.9241 -1.9152 0.5094 0 1
3.2026 4.1315 -1.9520 0.5036 0 1
3.0936 4.3405 -1.9903 0.4978 0 1
2.9747 4.5501 -2.0299 0.4886 0 1
2.8475 4.7631 -2.0722 0.4787 0 1
2.7115 4.9798 -2.1173 0.4685 0 1
2.5662 5.2005 -2.1655 0.4580 0 1
2.4111 5.4252 -2.2169 0.4474 0 1
2.2453 5.6544 -2.2718 0.4370 0 1
2.0681 5.8876 -2.3302 0.4260 0 1
1.8787 6.1256 -2.3925 0.4149 0 1
1.6764 6.3687 -2.4591 0.4037 0 1
1.4601 6.6170 -2.5303 0.3923 0 1
1.2270 6.8602 -2.6023 0.4040 0 1
0.9814 7.1304 -2.6877 0.3701 0 1
0.7168 7.3988 -2.7757 0.3577 0 1
0.4330 7.6738 -2.8700 0.3459 0 1
0.1286 7.9558 -2.9712 0.3342 0 1
-0.1981 8.2420 -3.0785 0.3251 0 1
-0.5490 8.5339 -3.1932 0.3134 0 1
-0.9259 8.8331 -3.3165 0.3018 0 1
-1.3310 9.1379 -3.4482 0.2975 0 1
-1.7651 9.4402 -3.5862 0.2861 0 1
-2.2318 9.7491 -3.7346 0.2747 0 1
-2.7350 10.0681 -3.8958 0.2561 0 1
-3.2824 10.4096 -4.0757 0.2448 0 1
-3.8585 10.7145 -4.2524 0.2321 0 24
-4.5129 11.1094 -4.4776 0.2205 0 1
-5.2096 11.4783 -4.7069 0.2097 0 1
-5.9468 11.8160 -4.9395 0.1976 0 24
-6.7706 12.2050 -5.2118 0.1863 0 24
-7.6202 12.5220 -5.4736 0.1781 0 24
-8.5762 12.8957 -5.7831 0.1727 0 24
-9.6487 13.3148 -6.1401 0.1658 0 1
-10.7890 13.6943 -6.5100 0.1536 0 1
-12.0517 14.0927 -6.9242 0.1392 0 1
-13.5187 14.5786 -7.4241 0.1189 0 1
-15.6483 15.5704 -8.2431 0.1027 0 1
-16.7766 15.4017 -8.5042 0.8212 0 2
-18.2531 15.4524 -8.9303 0.1044 0 2
-20.3294 15.8526 -9.6264 0.0969 0 2
-22.6250 16.2237 -10.3960 0.0897 0 25
-25.1606 16.5523 -11.2460 0.0829 0 25
-24.8901 14.9768 -10.8471 0.7227 0 21
-31.0275 17.0100 -13.2129 0.0706 0 25
-32.1871 15.9983 -13.4218 0.5164 0 3
-30.6018 13.7054 -12.5207 0.4070 0 5
-36.7338 14.7090 -14.7756 0.8094 0 21
-44.8481 8.1542 -17.0214 0.9021 0 6
-32.7086 -4.6685 -12.3375 0.9914 0 20
-41.7492 -16.8201 -16.8073 0.0555 0 2
-37.8366 -17.0420 -15.4956 0.0602 0 2
-34.2025 -17.0905 -14.2773 0.0653 0 2
-30.8582 -17.0025 -13.1561 0.0709 0 2
-27.8014 -16.8091 -12.1314 0.0769 0 2
-25.0442 -16.5520 -11.2097 0.4610 0 2
-23.3380 -16.8100 -10.7400 0.7338 0 2
-21.0256 -16.4673 -9.9726 0.0716 0 1
-18.5052 -15.7333 -9.0700 0.0919 0 1
-16.4386 -15.1559 -8.3491 0.1135 0 1
-14.7132 -14.7022 -7.7669 0.1220 0 1
-13.1768 -14.2706 -7.2530 0.1319 0 1
-11.7849 -13.8401 -6.7878 0.1401 0 1
-10.5218 -13.4136 -6.3659 0.1492 0 1
-9.3918 -13.0184 -5.9942 0.1629 0 1
-8.3677 -12.6402 -5.6605 0.1725 0 1
-7.4296 -12.2674 -5.3554 0.1886 0 1
-6.5680 -11.8992 -5.0752 0.1990 0 1
-5.7552 -11.4960 -4.8006 0.2093 0 24
-5.0463 -11.1813 -4.5808 0.2201 0 1
-4.3729 -10.8306 -4.3615 0.2296 0 1
-3.7512 -10.4864 -4.1587 0.2408 0 1
-3.1770 -10.1503 -3.9715 0.2519 0 1
-2.6458 -9.8218 -3.7983 0.2634 0 1
-2.1540 -9.5017 -3.6381 0.2750 0 1
-1.6974 -9.1858 -3.4881 0.2829 0 1
-1.2735 -8.8749 -3.3479 0.2947 0 1
-0.8801 -8.5717 -3.2176 0.3063 0 1
-0.5147 -8.2760 -3.0963 0.3183 0 1
-0.1751 -7.9884 -2.9837 0.3303 0 1
0.1411 -7.7118 -2.8801 0.3473 0 1
0.4358 -7.4427 -2.7839 0.3593 0 1
0.7110 -7.1801 -2.6943 0.3712 0 1
0.9680 -6.9238 -2.6106 0.3831 0 1
1.2081 -6.6731 -2.5323 0.3951 0 1
1.4324 -6.4265 -2.4586 0.4069 0 1
1.6422 -6.1855 -2.3898 0.4176 0 1
