ply
format ascii 1.0
element vertex 1393
property float32 x
property float32 y
property float32 z
property float32 CosAngle
property uint32 ObjIdx
property uint32 ObjTag
end_header
-1.1016 6.3935 -3.3716 0.3890 0 1
-1.3971 6.5260 -3.4683 0.3793 0 1
-1.7064 6.6507 -3.5682 0.3710 0 1
-2.0306 6.7694 -3.6728 0.3605 0 1
-2.3700 6.8814 -3.7824 0.3497 0 1
-2.7253 6.9860 -3.8970 0.3394 0 1
-3.0967 7.0819 -4.0168 0.3293 0 1
-3.4845 7.1679 -4.1419 0.3196 0 1
-3.8887 7.2426 -4.2721 0.3099 0 1
-4.3097 7.3050 -4.4077 0.3003 0 1
-4.7474 7.3535 -4.5487 0.2910 0 1
-5.2019 7.3870 -4.6953 0.2790 0 1
-5.6745 7.4059 -4.8486 0.2702 0 1
-6.1592 7.4012 -5.0039 0.2641 0 1
-6.6582 7.3755 -5.1638 0.2559 0 1
-7.1704 7.3271 -5.3278 0.2481 0 1
-7.6930 7.2526 -5.4945 0.2435 0 1
-8.2347 7.1596 -5.6708 0.2272 0 1
-8.7953 7.0459 -5.8566 0.2199 0 1
-9.3637 6.9013 -6.0451 0.2130 0 1
-9.9375 6.7242 -6.2356 0.2091 0 1
-10.5178 6.5156 -6.4298 0.1993 0 1
-11.0990 6.2719 -6.6252 0.1934 0 1
-11.6176 5.9613 -6.7859 0.1848 0 24
-12.2314 5.6663 -7.0055 0.1834 0 1
-12.7778 5.3057 -7.1902 0.1758 0 1
-13.3000 4.9047 -7.3668 0.1720 0 1
-13.7892 4.4632 -7.5321 0.1682 0 1
-14.2412 3.9839 -7.6851 0.1662 0 1
-14.6417 3.4670 -7.8195 0.1607 0 1
-14.9955 2.9188 -7.9392 0.1583 0 1
-15.2302 2.3326 -8.0073 0.1575 0 24
-15.5125 1.7402 -8.1122 0.1562 0 1
-15.6720 1.1217 -8.1654 0.1552 0 1
-15.7593 0.4916 -8.1939 0.1550 0 1
-15.7755 -0.1432 -8.1986 0.1550 0 1
-15.7229 -0.7764 -8.1810 0.1553 0 1
-15.5987 -1.4015 -8.1391 0.1565 0 1
-15.4056 -2.0121 -8.0741 0.1577 0 1
-15.1524 -2.6031 -7.9899 0.1593 0 1
-14.8390 -3.1690 -7.8855 0.1614 0 1
-14.4166 -3.6914 -7.7338 0.1626 0 24
-14.0429 -4.2048 -7.6180 0.1654 0 1
-13.5685 -4.6656 -7.4566 0.1690 0 1
-13.0562 -5.0859 -7.2818 0.1721 0 1
-12.5125 -5.4639 -7.0955 0.1766 0 1
-11.9570 -5.8052 -6.9075 0.1863 0 1
-11.3873 -6.1068 -6.7151 0.1920 0 1
-10.8080 -6.3691 -6.5195 0.1977 0 1
-10.2246 -6.5938 -6.3227 0.2038 0 1
-9.6548 -6.7917 -6.1346 0.2178 0 1
-9.0928 -6.9599 -5.9508 0.2245 0 1
-8.5346 -7.0952 -5.7679 0.2296 0 1
-7.9847 -7.2010 -5.5878 0.2370 0 1
-7.4421 -7.2758 -5.4088 0.2421 0 1
-6.9113 -7.3237 -5.2332 0.2502 0 1
-6.3955 -7.3485 -5.0627 0.2586 0 1
-5.8972 -7.3539 -4.8988 0.2692 0 1
-5.4146 -7.3389 -4.7396 0.2763 0 1
-4.9477 -7.3043 -4.5848 0.2856 0 1
-4.4989 -7.2543 -4.4361 0.2952 0 1
-4.0686 -7.1916 -4.2941 0.3075 0 1
-3.6569 -7.1180 -4.1588 0.3176 0 1
-3.2622 -7.0326 -4.0288 0.3254 0 1
-2.8832 -6.9341 -3.9026 0.3360 0 1
-2.5216 -6.8274 -3.7824 0.3467 0 1
-2.1773 -6.7153 -3.6687 0.3604 0 1
-1.8492 -6.5977 -3.5609 0.3713 0 1
-1.5365 -6.4745 -3.4582 0.3824 0 1
-1.2386 -6.3466 -3.3605 0.3935 0 1
-0.9548 -6.2135 -3.2670 0.4036 0 1
-0.6846 -6.0758 -3.1775 0.4149 0 1
-0.4278 -5.9354 -3.0925 0.4263 0 1
-0.1836 -5.7924 -3.0117 0.4362 0 1
0.0485 -5.6473 -2.9349 0.4476 0 1
0.2683 -5.4881 -2.8555 0.4609 0 24
0.4783 -5.3529 -2.7929 0.4703 0 1
0.6771 -5.2043 -2.7274 0.4818 0 1
0.8659 -5.0551 -2.6653 0.4930 0 1
1.0450 -4.9053 -2.6064 0.5042 0 1
1.2149 -4.7547 -2.5504 0.5155 0 1
1.3758 -4.6032 -2.4968 0.5265 0 1
1.5283 -4.4518 -2.4461 0.5374 0 1
1.6728 -4.3006 -2.3981 0.5482 0 1
1.7986 -4.1245 -2.3384 0.5579 0 24
1.9257 -3.9715 -2.2938 0.5698 0 24
2.0489 -3.8251 -2.2551 0.5856 0 1
2.1627 -3.6741 -2.2156 0.5960 0 1
2.2701 -3.5239 -2.1784 0.6062 0 1
2.3714 -3.3746 -2.1434 0.6161 0 1
2.4668 -3.2261 -2.1105 0.6257 0 1
2.5568 -3.0785 -2.0797 0.6350 0 1
2.6413 -2.9317 -2.0507 0.6439 0 1
2.7208 -2.7858 -2.0237 0.6525 0 1
2.7953 -2.6405 -1.9984 0.6608 0 1
2.8648 -2.4957 -1.9745 0.6649 0 1
2.9296 -2.3517 -1.9523 0.6725 0 1
2.9900 -2.2083 -1.9317 0.6797 0 1
3.0469 -2.0661 -1.9131 0.6909 0 1
3.1005 -1.9249 -1.8965 0.6970 0 1
3.1500 -1.7842 -1.8814 0.7026 0 1
3.1957 -1.6438 -1.8676 0.7078 0 1
3.2376 -1.5037 -1.8552 0.7125 0 1
3.2758 -1.3640 -1.8441 0.7168 0 1
3.3103 -1.2245 -1.8343 0.7207 0 1
3.3413 -1.0852 -1.8257 0.7240 0 1
3.3688 -0.9460 -1.8185 0.7269 0 1
3.3931 -0.8070 -1.8125 0.7214 0 1
3.4141 -0.6680 -1.8079 0.7233 0 1
3.4317 -0.5291 -1.8045 0.7246 0 1
3.4459 -0.3900 -1.8022 0.7255 0 1
3.4567 -0.2508 -1.8011 0.7260 0 1
3.4641 -0.1115 -1.8012 0.7260 0 1
3.4692 0.0281 -1.8030 0.7245 0 1
3.4700 0.1679 -1.8054 0.7127 0 1
3.4664 0.3080 -1.8085 0.7115 0 1
3.4592 0.4483 -1.8127 0.7099 0 1
3.4486 0.5889 -1.8181 0.7078 0 1
3.4344 0.7299 -1.8247 0.7052 0 1
3.4166 0.8712 -1.8324 0.7023 0 1
3.3952 1.0129 -1.8413 0.6989 0 1
3.3701 1.1551 -1.8514 0.6950 0 1
3.3413 1.2977 -1.8628 0.6908 0 1
3.3091 1.4411 -1.8757 0.6977 0 1
3.2733 1.5852 -1.8901 0.6925 0 1
3.2335 1.7299 -1.9058 0.6867 0 1
3.1896 1.8754 -1.9229 0.6806 0 1
3.1414 2.0214 -1.9413 0.6740 0 1
3.0870 2.1670 -1.9601 0.6676 0 1
3.0300 2.3145 -1.9815 0.6539 0 1
2.9685 2.4629 -2.0045 0.6464 0 1
2.9022 2.6122 -2.0292 0.6386 0 1
2.8310 2.7623 -2.0555 0.6304 0 1
2.7547 2.9133 -2.0836 0.6219 0 1
2.6730 3.0651 -2.1135 0.6131 0 1
2.5857 3.2179 -2.1453 0.6040 0 1
2.4927 3.3716 -2.1790 0.5947 0 1
2.3936 3.5261 -2.2148 0.5897 0 1
2.2860 3.6780 -2.2505 0.5804 0 1
2.1720 3.8304 -2.2884 0.5708 0 1
2.0513 3.9832 -2.3284 0.5610 0 1
1.9122 4.1117 -2.3566 0.5525 0 24
1.7787 4.2658 -2.4019 0.5421 0 24
1.6375 4.4203 -2.4497 0.5315 0 24
1.4955 4.5969 -2.5122 0.5205 0 1
1.3365 4.7504 -2.5645 0.5103 0 1
1.1688 4.9034 -2.6196 0.4995 0 1
0.9920 5.0563 -2.6778 0.4889 0 1
0.8059 5.2099 -2.7397 0.4778 0 1
0.6097 5.3628 -2.8049 0.4667 0 1
0.4030 5.5149 -2.8737 0.4556 0 1
0.1852 5.6658 -2.9460 0.4444 0 1
-0.0441 5.8150 -3.0221 0.4340 0 1
-0.2852 5.9559 -3.0988 0.4220 0 24
-0.5395 6.1065 -3.1858 0.4117 0 1
-0.8066 6.2483 -3.2741 0.4006 0 1
-1.0874 6.3868 -3.3669 0.3896 0 1
-1.3822 6.5196 -3.4635 0.3799 0 1
-1.6908 6.6447 -3.5632 0.3716 0 1
-2.0142 6.7637 -3.6675 0.3610 0 1
-2.3530 6.8761 -3.7768 0.3502 0 1
-2.7074 6.9810 -3.8912 0.3399 0 1
-3.0780 7.0774 -4.0108 0.3298 0 1
-3.4650 7.1640 -4.1356 0.3201 0 1
-3.8684 7.2392 -4.2656 0.3104 0 1
-4.2886 7.3022 -4.4009 0.3008 0 1
-4.7254 7.3514 -4.5416 0.2915 0 1
-5.1790 7.3856 -4.6878 0.2795 0 1
-5.6509 7.4054 -4.8410 0.2706 0 1
-6.1350 7.4019 -4.9962 0.2645 0 1
-6.6333 7.3773 -5.1558 0.2563 0 1
-7.1449 7.3300 -5.3196 0.2484 0 1
-7.6671 7.2569 -5.4863 0.2439 0 1
-8.2074 7.1645 -5.6618 0.2275 0 1
-8.7675 7.0522 -5.8474 0.2202 0 1
-9.3356 6.9092 -6.0358 0.2134 0 1
-9.9090 6.7336 -6.2261 0.2094 0 1
-10.4891 6.5266 -6.4201 0.1996 0 1
-11.0705 6.2848 -6.6156 0.1937 0 1
-11.6453 6.0047 -6.8091 0.1882 0 1
-12.2043 5.6832 -6.9964 0.1836 0 1
-12.7513 5.3243 -7.1812 0.1760 0 1
-13.2751 4.9254 -7.3584 0.1722 0 1
-13.7660 4.4859 -7.5242 0.1684 0 1
-14.2203 4.0084 -7.6781 0.1664 0 1
-14.6229 3.4932 -7.8132 0.1608 0 1
-14.9794 2.9465 -7.9338 0.1584 0 1
-15.2174 2.3616 -8.0030 0.1576 0 24
-15.5029 1.7702 -8.1090 0.1562 0 1
-15.6658 1.1524 -8.1633 0.1552 0 1
-15.7566 0.5228 -8.1930 0.1551 0 1
-15.7762 -0.1120 -8.1989 0.1550 0 1
-15.7272 -0.7454 -8.1824 0.1553 0 1
-15.6065 -1.3710 -8.1417 0.1564 0 1
-15.4167 -1.9824 -8.0778 0.1577 0 1
-15.1663 -2.5746 -7.9945 0.1592 0 1
-14.8557 -3.1418 -7.8911 0.1613 0 1
-14.4361 -3.6659 -7.7403 0.1625 0 24
-14.0652 -4.1811 -7.6256 0.1652 0 1
-13.5927 -4.6438 -7.4648 0.1688 0 1
-13.0824 -5.0663 -7.2907 0.1719 0 1
-12.5398 -5.4463 -7.1049 0.1764 0 1
-11.9847 -5.7893 -6.9169 0.1860 0 1
-11.4156 -6.0928 -6.7247 0.1917 0 1
-10.8366 -6.3571 -6.5292 0.1974 0 1
-10.2534 -6.5836 -6.3324 0.2035 0 1
-9.6826 -6.7826 -6.1436 0.2175 0 1
-9.1203 -6.9524 -5.9598 0.2242 0 1
-8.5619 -7.0893 -5.7768 0.2292 0 1
-8.0116 -7.1964 -5.5966 0.2366 0 1
-7.4686 -7.2728 -5.4176 0.2417 0 1
-6.9371 -7.3219 -5.2417 0.2498 0 1
-6.4206 -7.3478 -5.0710 0.2582 0 1
-5.9214 -7.3541 -4.9067 0.2688 0 1
-5.4381 -7.3402 -4.7474 0.2759 0 1
-4.9703 -7.3064 -4.5923 0.2852 0 1
-4.5205 -7.2571 -4.4433 0.2947 0 1
-4.0893 -7.1949 -4.3009 0.3071 0 1
-3.6767 -7.1219 -4.1653 0.3171 0 1
-3.2813 -7.0372 -4.0352 0.3249 0 1
-2.9015 -6.9391 -3.9087 0.3354 0 1
-2.5390 -6.8328 -3.7881 0.3461 0 1
-2.1938 -6.7210 -3.6742 0.3599 0 1
-1.8650 -6.6036 -3.5660 0.3708 0 1
-1.5515 -6.4807 -3.4631 0.3818 0 1
-1.2529 -6.3530 -3.3652 0.3929 0 1
-0.9685 -6.2202 -3.2715 0.4031 0 1
-0.6976 -6.0827 -3.1818 0.4143 0 1
-0.4401 -5.9424 -3.0966 0.4257 0 1
-0.1953 -5.7995 -3.0156 0.4356 0 1
0.0373 -5.6545 -2.9386 0.4470 0 1
0.2577 -5.4954 -2.8590 0.4604 0 24
0.4682 -5.3602 -2.7963 0.4698 0 1
0.6675 -5.2117 -2.7306 0.4813 0 1
0.8568 -5.0624 -2.6683 0.4925 0 1
1.0364 -4.9127 -2.6093 0.5036 0 1
1.2068 -4.7622 -2.5531 0.5149 0 1
1.3681 -4.6106 -2.4994 0.5260 0 1
1.5210 -4.4592 -2.4485 0.5369 0 1
1.6659 -4.3081 -2.4004 0.5477 0 1
1.7922 -4.1321 -2.3407 0.5573 0 24
1.9196 -3.9790 -2.2959 0.5692 0 24
2.0431 -3.8326 -2.2571 0.5851 0 1
2.1572 -3.6815 -2.2175 0.5955 0 1
2.2649 -3.5313 -2.1802 0.6057 0 1
2.3665 -3.3819 -2.1451 0.6156 0 1
2.4623 -3.2334 -2.1121 0.6252 0 1
2.5525 -3.0858 -2.0812 0.6345 0 1
2.6373 -2.9389 -2.0521 0.6435 0 1
2.7170 -2.7929 -2.0250 0.6521 0 1
2.7918 -2.6477 -1.9996 0.6604 0 1
2.8615 -2.5029 -1.9756 0.6646 0 1
2.9265 -2.3587 -1.9534 0.6721 0 1
3.3764 0.7246 -1.8435 0.7129 0 1
3.3585 0.8635 -1.8513 0.7099 0 1
3.3372 1.0028 -1.8602 0.7185 0 1
3.3125 1.1427 -1.8706 0.7145 0 1
3.2842 1.2831 -1.8823 0.7101 0 1
3.2521 1.4240 -1.8953 0.7052 0 1
3.2163 1.5655 -1.9096 0.7000 0 1
3.1765 1.7075 -1.9252 0.6943 0 1
3.1327 1.8503 -1.9423 0.6882 0 1
3.0843 1.9934 -1.9605 0.6816 0 1
3.0302 2.1361 -1.9792 0.6752 0 1
2.9730 2.2803 -2.0002 0.6616 0 1
2.9117 2.4256 -2.0231 0.6541 0 1
2.8458 2.5716 -2.0476 0.6463 0 1
2.7750 2.7183 -2.0737 0.6381 0 1
2.6991 2.8658 -2.1016 0.6297 0 1
2.6179 3.0141 -2.1313 0.6209 0 1
2.5314 3.1631 -2.1627 0.6119 0 1
2.4391 3.3128 -2.1962 0.6026 0 1
2.3409 3.4633 -2.2316 0.5930 0 1
2.2345 3.6111 -2.2670 0.5884 0 1
2.1218 3.7592 -2.3044 0.5788 0 1
1.9902 3.8834 -2.3295 0.5708 0 24
1.8765 4.0558 -2.3857 0.5591 0 1
1.7338 4.1814 -2.4165 0.5503 0 24
1.6027 4.3528 -2.4762 0.5387 0 1
1.4477 4.4801 -2.5134 0.5291 0 24
1.2980 4.6489 -2.5767 0.5182 0 1
1.1331 4.7961 -2.6309 0.5080 0 1
0.9596 4.9431 -2.6881 0.4974 0 1
0.7770 5.0902 -2.7488 0.4864 0 1
0.5848 5.2363 -2.8128 0.4753 0 1
0.3825 5.3813 -2.8800 0.4642 0 1
0.1696 5.5247 -2.9507 0.4531 0 1
-0.0543 5.6663 -3.0251 0.4428 0 1
-0.2896 5.8051 -3.1029 0.4317 0 1
-0.5360 5.9324 -3.1798 0.4215 0 24
-0.7964 6.0740 -3.2703 0.4096 0 1
-1.0689 6.2032 -3.3604 0.3986 0 1
-1.3544 6.3267 -3.4540 0.3890 0 1
-1.6532 6.4431 -3.5510 0.3808 0 1
-1.9654 6.5521 -3.6517 0.3703 0 1
-2.2917 6.6541 -3.7570 0.3599 0 1
-2.6326 6.7483 -3.8670 0.3497 0 1
-2.9882 6.8338 -3.9817 0.3393 0 1
-3.3588 6.9094 -4.1013 0.3294 0 1
-3.7442 6.9736 -4.2255 0.3200 0 1
-4.1447 7.0253 -4.3544 0.3105 0 1
-4.5600 7.0633 -4.4882 0.3012 0 1
-4.9900 7.0861 -4.6267 0.2922 0 1
-5.4343 7.0923 -4.7698 0.2805 0 1
-5.8923 7.0805 -4.9175 0.2745 0 1
-6.3609 7.0462 -5.0676 0.2663 0 1
-6.8405 6.9900 -5.2211 0.2585 0 1
-7.3297 6.9101 -5.3776 0.2510 0 1
-7.8265 6.8047 -5.5365 0.2438 0 1
-8.3446 6.6849 -5.7079 0.2333 0 1
-8.8714 6.5384 -5.8832 0.2263 0 1
-9.4014 6.3614 -6.0599 0.2197 0 1
-9.9286 6.1506 -6.2349 0.2142 0 1
-10.4064 5.8805 -6.3810 0.2080 0 24
-10.9776 5.6329 -6.5868 0.1987 0 1
-11.4851 5.3206 -6.7572 0.1942 0 1
-11.9732 4.9716 -6.9209 0.1896 0 1
-12.4387 4.5870 -7.0775 0.1824 0 1
-12.8787 4.1685 -7.2264 0.1793 0 1
-13.2838 3.7160 -7.3637 0.1760 0 1
-13.6457 3.2311 -7.4861 0.1742 0 1
-13.9560 2.7165 -7.5901 0.1719 0 1
-14.2147 2.1771 -7.6769 0.1697 0 1
-14.4146 1.6170 -7.7434 0.1683 0 1
-14.5550 1.0417 -7.7900 0.1673 0 1
-14.6341 0.4565 -7.8161 0.1655 0 1
-14.6498 -0.1330 -7.8210 0.1659 0 1
-14.6033 -0.7212 -7.8054 0.1663 0 1
-14.4939 -1.3022 -7.7686 0.1672 0 1
-14.3235 -1.8707 -7.7114 0.1684 0 1
-14.0922 -2.4210 -7.6332 0.1677 0 1
-13.8096 -2.9492 -7.5384 0.1698 0 1
-13.4766 -3.4507 -7.4265 0.1724 0 1
-13.0987 -3.9221 -7.2994 0.1754 0 1
-12.6756 -4.3586 -7.1557 0.1789 0 1
-12.2146 -4.7581 -6.9979 0.1884 0 1
-11.7380 -5.1257 -6.8377 0.1929 0 1
-11.2383 -5.4562 -6.6692 0.1970 0 1
-10.7210 -5.7494 -6.4944 0.2023 0 1
-10.1937 -6.0071 -6.3165 0.2080 0 1
-9.6718 -6.2372 -6.1438 0.2201 0 1
-9.1505 -6.4369 -5.9725 0.2264 0 1
-8.6297 -6.6055 -5.8016 0.2331 0 1
-8.1126 -6.7444 -5.6320 0.2401 0 1
-7.5995 -6.8536 -5.4631 0.2448 0 1
-7.0926 -6.9341 -5.2952 0.2525 0 1
-6.5974 -6.9911 -5.1316 0.2625 0 1
-6.1154 -7.0267 -4.9728 0.2709 0 1
-5.6470 -7.0419 -4.8187 0.2795 0 1
-5.1907 -7.0354 -4.6674 0.2866 0 1
-4.7495 -7.0117 -4.5210 0.2958 0 1
-4.3248 -6.9736 -4.3806 0.3079 0 1
-3.9051 -6.9026 -4.2337 0.3170 0 24
-3.5245 -6.8603 -4.1174 0.3276 0 1
-3.1470 -6.7843 -3.9924 0.3354 0 1
-2.7845 -6.6967 -3.8717 0.3459 0 1
-2.4382 -6.6016 -3.7569 0.3594 0 1
-2.1076 -6.5004 -3.6480 0.3702 0 1
-1.7917 -6.3925 -3.5441 0.3810 0 1
-1.4900 -6.2788 -3.4450 0.3920 0 1
-1.2022 -6.1601 -3.3506 0.4030 0 1
-0.9275 -6.0355 -3.2598 0.4130 0 1
-0.6655 -5.9064 -3.1730 0.4243 0 1
-0.4161 -5.7738 -3.0903 0.4341 0 1
-0.1787 -5.6385 -3.0116 0.4455 0 1
0.0471 -5.4899 -2.9309 0.4589 0 24
0.2621 -5.3617 -2.8657 0.4681 0 1
0.4665 -5.2208 -2.7982 0.4796 0 1
0.6608 -5.0789 -2.7342 0.4908 0 1
0.8455 -4.9359 -2.6734 0.5020 0 1
1.0209 -4.7922 -2.6157 0.5131 0 1
1.1876 -4.6476 -2.5608 0.5243 0 1
1.3455 -4.5016 -2.5082 0.5353 0 1
1.4952 -4.3555 -2.4583 0.5461 0 1
1.6365 -4.2072 -2.4099 0.5375 0 1
1.7669 -4.0516 -2.3596 0.5489 0 1
1.8897 -3.8971 -2.3121 0.5602 0 1
2.0049 -3.7430 -2.2668 0.5896 0 24
2.1207 -3.6027 -2.2317 0.6043 0 1
2.2267 -3.4566 -2.1950 0.6144 0 1
2.3268 -3.3111 -2.1604 0.6242 0 1
2.4212 -3.1664 -2.1279 0.6338 0 1
2.5101 -3.0223 -2.0973 0.6430 0 1
2.5938 -2.8790 -2.0687 0.6519 0 1
2.6725 -2.7363 -2.0418 0.6605 0 1
2.7459 -2.5939 -2.0165 0.6649 0 1
2.8147 -2.4522 -1.9929 0.6728 0 1
2.8790 -2.3110 -1.9709 0.6803 0 1
2.9389 -2.1705 -1.9504 0.6875 0 1
2.9956 -2.0313 -1.9322 0.6987 0 1
3.0487 -1.8928 -1.9157 0.7047 0 1
3.0979 -1.7546 -1.9006 0.7103 0 1
3.1432 -1.6168 -1.8870 0.7154 0 1
3.1848 -1.4792 -1.8746 0.7201 0 1
3.2226 -1.3419 -1.8636 0.7244 0 1
3.2569 -1.2047 -1.8538 0.7282 0 1
3.2877 -1.0677 -1.8453 0.7316 0 1
3.3149 -0.9309 -1.8381 0.7344 0 1
3.3388 -0.7941 -1.8321 0.7368 0 1
3.3592 -0.6573 -1.8273 0.7388 0 1
3.3764 -0.5205 -1.8237 0.7322 0 1
3.3904 -0.3837 -1.8215 0.7331 0 1
3.4011 -0.2468 -1.8204 0.7336 0 1
3.4084 -0.1097 -1.8205 0.7335 0 1
3.4131 0.0276 -1.8221 0.7212 0 1
3.4128 0.1651 -1.8240 0.7205 0 1
3.4091 0.3029 -1.8271 0.7193 0 1
3.4020 0.4409 -1.8313 0.7176 0 1
3.3914 0.5792 -1.8367 0.7155 0 1
3.3772 0.7177 -1.8432 0.7130 0 1
3.3595 0.8567 -1.8508 0.7100 0 1
3.3383 0.9960 -1.8597 0.7187 0 1
3.3138 1.1358 -1.8701 0.7147 0 1
3.2857 1.2761 -1.8817 0.7103 0 1
3.2538 1.4170 -1.8946 0.7055 0 1
3.2181 1.5585 -1.9088 0.7002 0 1
3.1785 1.7005 -1.9244 0.6946 0 1
3.1350 1.8432 -1.9414 0.6885 0 1
3.0869 1.9864 -1.9596 0.6819 0 1
3.0329 2.1291 -1.9782 0.6755 0 1
2.9758 2.2731 -1.9991 0.6620 0 1
2.9148 2.4184 -2.0219 0.6545 0 1
2.8491 2.5644 -2.0463 0.6467 0 1
2.7786 2.7111 -2.0724 0.6386 0 1
2.7029 2.8585 -2.1002 0.6301 0 1
2.6221 3.0068 -2.1297 0.6214 0 1
2.5358 3.1557 -2.1612 0.6123 0 1
2.4438 3.3054 -2.1945 0.6030 0 1
2.3459 3.4559 -2.2298 0.5935 0 1
2.2399 3.6039 -2.2652 0.5889 0 1
2.1275 3.7519 -2.3025 0.5793 0 1
1.9962 3.8760 -2.3275 0.5713 0 24
1.8828 4.0485 -2.3836 0.5596 0 1
1.7405 4.1741 -2.4143 0.5508 0 24
1.6098 4.3455 -2.4739 0.5392 0 1
1.4551 4.4728 -2.5109 0.5296 0 24
1.3059 4.6416 -2.5741 0.5187 0 1
1.1415 4.7889 -2.6281 0.5085 0 1
0.9684 4.9358 -2.6852 0.4979 0 1
0.7862 5.0830 -2.7458 0.4869 0 1
0.5945 5.2292 -2.8095 0.4759 0 1
0.3927 5.3742 -2.8766 0.4648 0 1
0.1803 5.5177 -2.9472 0.4536 0 1
-0.0430 5.6594 -3.0213 0.4425 0 1
-0.2777 5.7983 -3.0989 0.4322 0 1
-0.5236 5.9259 -3.1758 0.4220 0 24
-0.7833 6.0676 -3.2660 0.4101 0 1
-1.0551 6.1970 -3.3558 0.3992 0 1
-1.3400 6.3208 -3.4493 0.3895 0 1
-1.6381 6.4376 -3.5462 0.3813 0 1
-1.9497 6.5468 -3.6467 0.3708 0 1
-2.2753 6.6492 -3.7517 0.3604 0 1
-2.6155 6.7439 -3.8615 0.3502 0 1
-2.9703 6.8298 -3.9759 0.3398 0 1
-3.3402 6.9059 -4.0953 0.3299 0 1
-3.7249 6.9707 -4.2192 0.3204 0 1
-4.1246 7.0230 -4.3480 0.3109 0 1
-4.5392 7.0618 -4.4815 0.3017 0 1
-4.9685 7.0853 -4.6198 0.2927 0 1
-5.4120 7.0923 -4.7626 0.2810 0 1
-5.8696 7.0816 -4.9102 0.2749 0 1
-6.3376 7.0484 -5.0601 0.2667 0 1
-6.8167 6.9933 -5.2135 0.2589 0 1
-7.3054 6.9146 -5.3698 0.2513 0 1
-7.8019 6.8105 -5.5286 0.2441 0 1
-8.3188 6.6913 -5.6993 0.2336 0 1
-8.8453 6.5464 -5.8746 0.2267 0 1
-9.3752 6.3709 -6.0511 0.2201 0 1
-9.9028 6.1618 -6.2264 0.2145 0 1
-10.3808 5.8933 -6.3725 0.2083 0 24
-10.9522 5.6473 -6.5782 0.1989 0 1
-11.4606 5.3369 -6.7490 0.1944 0 1
-11.9496 4.9896 -6.9130 0.1898 0 1
-12.4161 4.6067 -7.0698 0.1826 0 1
-12.8578 4.1899 -7.2193 0.1795 0 1
-13.2647 3.7391 -7.3572 0.1761 0 1
-13.6291 3.2558 -7.4805 0.1744 0 1
-13.9418 2.7424 -7.5854 0.1720 0 1
-14.2032 2.2042 -7.6731 0.1700 0 1
-14.4061 1.6450 -7.7406 0.1684 0 1
-14.5495 1.0703 -7.7882 0.1674 0 1
-14.6317 0.4855 -7.8153 0.1655 0 1
-14.6505 -0.1040 -7.8213 0.1659 0 1
-14.6071 -0.6923 -7.8067 0.1662 0 1
-14.5007 -1.2739 -7.7709 0.1671 0 1
-14.3332 -1.8431 -7.7147 0.1683 0 1
-14.1048 -2.3944 -7.6375 0.1702 0 1
-13.8247 -2.9238 -7.5435 0.1697 0 1
-13.4941 -3.4267 -7.4324 0.1723 0 1
-13.1183 -3.8996 -7.3060 0.1752 0 1
-12.6974 -4.3380 -7.1631 0.1796 0 1
-12.2374 -4.7390 -7.0056 0.1882 0 1
-11.7620 -5.1085 -6.8457 0.1926 0 1
-11.2634 -5.4409 -6.6777 0.1968 0 1
-10.7467 -5.7358 -6.5031 0.2021 0 1
-10.2198 -5.9953 -6.3253 0.2078 0 1
-9.6974 -6.2266 -6.1522 0.2198 0 1
-9.1761 -6.4278 -5.9809 0.2261 0 1
-8.6553 -6.5979 -5.8100 0.2327 0 1
-8.1379 -6.7382 -5.6403 0.2397 0 1
-7.6004 -6.8271 -5.4540 0.2477 0 24
-7.1173 -6.9307 -5.3034 0.2521 0 1
-6.6215 -6.9888 -5.1395 0.2621 0 1
-6.1388 -7.0254 -4.9806 0.2705 0 1
-5.6697 -7.0416 -4.8262 0.2791 0 1
-5.2128 -7.0362 -4.6747 0.2861 0 1
-4.7709 -7.0132 -4.5281 0.2954 0 1
-4.3453 -6.9758 -4.3874 0.3074 0 1
-3.9364 -6.9259 -4.2528 0.3171 0 1
-3.5434 -6.8637 -4.1236 0.3271 0 1
-3.1653 -6.7884 -3.9985 0.3349 0 1
-2.8020 -6.7012 -3.8775 0.3453 0 1
-2.4549 -6.6064 -3.7624 0.3589 0 1
-2.1235 -6.5055 -3.6533 0.3696 0 1
-1.8069 -6.3980 -3.5491 0.3805 0 1
-1.5046 -6.2845 -3.4498 0.3914 0 1
-1.2161 -6.1660 -3.3551 0.4025 0 1
-0.9407 -6.0418 -3.2642 0.4125 0 1
-0.6781 -5.9128 -3.1772 0.4238 0 1
-0.4281 -5.7804 -3.0943 0.4336 0 1
-0.1901 -5.6452 -3.0154 0.4449 0 1
0.0363 -5.4968 -2.9345 0.4584 0 24
0.2518 -5.3686 -2.8691 0.4676 0 1
0.4566 -5.2278 -2.8014 0.4789 0 1
0.6514 -5.0859 -2.7372 0.4903 0 1
0.8366 -4.9430 -2.6763 0.5015 0 1
1.0125 -4.7993 -2.6185 0.5125 0 1
1.1796 -4.6548 -2.5635 0.5237 0 1
1.3379 -4.5088 -2.5107 0.5347 0 1
1.4881 -4.3627 -2.4607 0.5456 0 1
1.6299 -4.2149 -2.4125 0.5369 0 1
1.7606 -4.0592 -2.3621 0.5483 0 1
1.8806 -3.8980 -2.3104 0.5777 0 24
1.9992 -3.7502 -2.2688 0.5882 0 24
2.1153 -3.6099 -2.2336 0.6038 0 1
2.2216 -3.4638 -2.1968 0.6139 0 1
2.3220 -3.3183 -2.1621 0.6238 0 1
2.4166 -3.1735 -2.1294 0.6333 0 1
2.5058 -3.0294 -2.0988 0.6426 0 1
2.5898 -2.8860 -2.0700 0.6515 0 1
2.6687 -2.7433 -2.0431 0.6601 0 1
2.7424 -2.6009 -2.0177 0.6645 0 1
2.8115 -2.4591 -1.9940 0.6724 0 1
2.8759 -2.3180 -1.9719 0.6800 0 1
3.3211 0.7127 -1.8620 0.7327 0 1
3.3036 0.8494 -1.8698 0.7296 0 1
3.2826 0.9864 -1.8789 0.7261 0 1
3.2581 1.1239 -1.8893 0.7221 0 1
3.2299 1.2619 -1.9008 0.7177 0 1
3.1980 1.4003 -1.9137 0.7129 0 1
3.1623 1.5392 -1.9279 0.7076 0 1
3.1228 1.6787 -1.9435 0.7020 0 1
3.0793 1.8187 -1.9604 0.6959 0 1
3.0311 1.9590 -1.9783 0.6895 0 1
2.9774 2.0989 -1.9969 0.6831 0 1
2.9201 2.2397 -2.0173 0.6696 0 1
2.8594 2.3819 -2.0400 0.6621 0 1
2.7940 2.5248 -2.0643 0.6543 0 1
2.7238 2.6682 -2.0902 0.6462 0 1
2.6487 2.8123 -2.1177 0.6378 0 1
2.5684 2.9570 -2.1470 0.6291 0 1
2.4828 3.1024 -2.1782 0.6201 0 1
2.3916 3.2483 -2.2112 0.6109 0 1
2.2946 3.3947 -2.2461 0.6014 0 1
2.1898 3.5389 -2.2813 0.5968 0 1
2.0787 3.6827 -2.3181 0.5873 0 1
1.9493 3.8035 -2.3428 0.5793 0 24
1.8265 3.9479 -2.3845 0.5692 0 24
1.7060 4.1143 -2.4415 0.5576 0 1
1.5678 4.2578 -2.4872 0.5474 0 1
1.4221 4.4010 -2.5353 0.5370 0 1
1.2634 4.5248 -2.5752 0.5271 0 24
1.1070 4.6853 -2.6390 0.5169 0 1
0.9370 4.8267 -2.6952 0.5063 0 1
0.7583 4.9676 -2.7546 0.4954 0 1
0.5704 5.1074 -2.8171 0.4844 0 1
0.3728 5.2457 -2.8828 0.4734 0 1
0.1652 5.3822 -2.9517 0.4623 0 1
-0.0528 5.5166 -3.0241 0.4512 0 1
-0.2817 5.6480 -3.0999 0.4410 0 1
-0.5219 5.7763 -3.1793 0.4300 0 1
-0.7737 5.9011 -3.2625 0.4191 0 1
-1.0346 6.0045 -3.3400 0.4107 0 24
-1.3138 6.1371 -3.4404 0.3986 0 1
-1.6024 6.2452 -3.5343 0.3880 0 1
-1.9035 6.3459 -3.6318 0.3800 0 1
-2.2176 6.4389 -3.7331 0.3697 0 1
-2.5450 6.5239 -3.8387 0.3595 0 1
-2.8860 6.6000 -3.9487 0.3495 0 1
-3.2405 6.6661 -4.0630 0.3397 0 1
-3.6088 6.7213 -4.1819 0.3313 0 1
-3.9902 6.7635 -4.3046 0.3219 0 1
-4.3850 6.7922 -4.4317 0.3127 0 1
-4.7927 6.8060 -4.5630 0.3037 0 1
-5.2130 6.8035 -4.6984 0.2949 0 1
-5.6450 6.7833 -4.8375 0.2864 0 1
-6.0871 6.7429 -4.9796 0.2818 0 1
-6.5386 6.6814 -5.1245 0.2738 0 1
-6.9983 6.5977 -5.2723 0.2662 0 1
-7.4647 6.4902 -5.4223 0.2588 0 1
-7.9365 6.3579 -5.5744 0.2438 0 1
-8.4249 6.2094 -5.7371 0.2369 0 1
-8.9147 6.0322 -5.9004 0.2303 0 1
-9.4017 5.8242 -6.0625 0.2248 0 1
-9.8802 5.5832 -6.2209 0.2191 0 1
-10.3532 5.3125 -6.3788 0.2094 0 1
-10.8173 5.0112 -6.5351 0.2049 0 1
-11.2611 4.6759 -6.6840 0.2003 0 1
-11.6835 4.3085 -6.8261 0.1969 0 1
-12.0780 3.9094 -6.9590 0.1944 0 1
-12.4371 3.4792 -7.0794 0.1868 0 1
-12.7644 3.0225 -7.1905 0.1839 0 1
-13.0462 2.5394 -7.2857 0.1827 0 1
-13.2773 2.0335 -7.3631 0.1806 0 1
-13.4076 1.5041 -7.3957 0.1792 0 24
-13.5822 0.9721 -7.4644 0.1782 0 1
-13.6031 0.4244 -7.4604 0.1777 0 24
-13.6661 -0.1241 -7.4916 0.1776 0 1
-13.6227 -0.6727 -7.4766 0.1779 0 1
-13.5244 -1.2151 -7.4435 0.1781 0 1
-13.3230 -1.7401 -7.3653 0.1795 0 24
-13.1656 -2.2618 -7.3227 0.1811 0 1
-12.9089 -2.7568 -7.2358 0.1833 0 1
-12.6076 -3.2282 -7.1340 0.1859 0 1
-12.2206 -3.6591 -6.9928 0.1873 0 24
-11.8919 -4.0891 -6.8934 0.1953 0 1
-11.4289 -4.4520 -6.7235 0.1935 0 24
-11.0510 -4.8257 -6.6102 0.2036 0 1
-10.5940 -5.1434 -6.4555 0.2078 0 1
-10.1215 -5.4280 -6.2958 0.2130 0 1
-9.6170 -5.6673 -6.1190 0.2250 0 24
-9.1714 -5.9146 -5.9822 0.2310 0 1
-8.6894 -6.1126 -5.8238 0.2370 0 1
-8.2067 -6.2817 -5.6653 0.2436 0 1
-7.6992 -6.4008 -5.4885 0.2511 0 24
-7.2444 -6.5334 -5.3476 0.2571 0 1
-6.7722 -6.6209 -5.1917 0.2648 0 1
-6.3089 -6.6853 -5.0389 0.2729 0 1
-5.8559 -6.7285 -4.8896 0.2812 0 1
-5.4135 -6.7507 -4.7434 0.2878 0 1
-4.9822 -6.7528 -4.6001 0.2968 0 1
-4.5651 -6.7394 -4.4621 0.3085 0 1
-4.1626 -6.7120 -4.3294 0.3180 0 1
-3.7741 -6.6711 -4.2015 0.3276 0 1
-3.3999 -6.6179 -4.0785 0.3375 0 1
-3.0385 -6.5503 -3.9582 0.3453 0 1
-2.6915 -6.4729 -3.8428 0.3587 0 1
-2.3595 -6.3885 -3.7332 0.3692 0 1
-2.0415 -6.2965 -3.6284 0.3799 0 1
-1.7370 -6.1975 -3.5282 0.3907 0 1
-1.4458 -6.0925 -3.4325 0.4015 0 1
-1.1675 -5.9821 -3.3411 0.4125 0 1
-0.9013 -5.8653 -3.2529 0.4209 0 1
-0.6472 -5.7438 -3.1685 0.4322 0 1
-0.4049 -5.6188 -3.0880 0.4434 0 1
-0.1737 -5.4805 -3.0058 0.4576 0 24
0.0460 -5.3605 -2.9386 0.4660 0 1
0.2556 -5.2279 -2.8692 0.4772 0 1
0.4551 -5.0936 -2.8033 0.4887 0 1
0.6450 -4.9579 -2.7407 0.4998 0 1
0.8258 -4.8209 -2.6812 0.5109 0 1
0.9977 -4.6829 -2.6246 0.5219 0 1
1.1611 -4.5440 -2.5709 0.5330 0 1
1.3161 -4.4032 -2.5192 0.5440 0 1
1.4632 -4.2622 -2.4702 0.5547 0 1
1.6011 -4.1163 -2.4211 0.5460 0 1
1.7294 -3.9658 -2.3717 0.5574 0 1
1.8485 -3.8123 -2.3225 0.5863 0 24
1.9653 -3.6690 -2.2816 0.5979 0 24
2.0798 -3.5333 -2.2475 0.6125 0 1
2.1845 -3.3910 -2.2112 0.6225 0 1
2.2833 -3.2493 -2.1770 0.6323 0 1
2.3766 -3.1081 -2.1448 0.6418 0 1
2.4646 -2.9675 -2.1146 0.6510 0 1
2.5474 -2.8275 -2.0862 0.6560 0 1
2.6249 -2.6876 -2.0594 0.6646 0 1
2.6977 -2.5483 -2.0343 0.6728 0 1
2.7659 -2.4096 -2.0108 0.6806 0 1
2.8295 -2.2714 -1.9890 0.6881 0 1
2.8889 -2.1336 -1.9687 0.6952 0 1
2.9455 -1.9973 -1.9508 0.7063 0 1
2.9982 -1.8614 -1.9345 0.7123 0 1
3.0469 -1.7258 -1.9195 0.7178 0 1
3.0918 -1.5904 -1.9059 0.7230 0 1
3.1330 -1.4552 -1.8936 0.7277 0 1
3.1706 -1.3202 -1.8827 0.7319 0 1
3.2046 -1.1854 -1.8730 0.7357 0 1
3.2351 -1.0507 -1.8645 0.7390 0 1
3.2621 -0.9160 -1.8573 0.7419 0 1
3.2857 -0.7815 -1.8514 0.7443 0 1
3.3060 -0.6469 -1.8466 0.7462 0 1
3.3229 -0.5123 -1.8431 0.7476 0 1
3.3366 -0.3776 -1.8407 0.7486 0 1
3.3469 -0.2429 -1.8395 0.7491 0 1
3.3539 -0.1080 -1.8395 0.7491 0 1
3.3573 0.0272 -1.8404 0.7413 0 1
3.3569 0.1624 -1.8423 0.7405 0 1
3.3532 0.2979 -1.8454 0.7393 0 1
3.3462 0.4337 -1.8496 0.7376 0 1
3.3357 0.5697 -1.8550 0.7354 0 1
3.3219 0.7060 -1.8616 0.7328 0 1
3.3046 0.8426 -1.8694 0.7298 0 1
3.2837 0.9797 -1.8784 0.7263 0 1
3.2594 1.1171 -1.8887 0.7223 0 1
3.2314 1.2551 -1.9002 0.7179 0 1
3.1997 1.3934 -1.9131 0.7131 0 1
3.1642 1.5323 -1.9272 0.7079 0 1
3.1248 1.6718 -1.9427 0.7023 0 1
3.0815 1.8118 -1.9595 0.6962 0 1
3.0336 1.9521 -1.9775 0.6898 0 1
2.9801 2.0920 -1.9959 0.6834 0 1
2.9230 2.2327 -2.0163 0.6699 0 1
2.8625 2.3749 -2.0389 0.6625 0 1
2.7973 2.5177 -2.0630 0.6547 0 1
2.7274 2.6612 -2.0888 0.6466 0 1
2.6525 2.8052 -2.1163 0.6382 0 1
2.5725 2.9499 -2.1455 0.6295 0 1
2.4871 3.0952 -2.1766 0.6206 0 1
2.3962 3.2411 -2.2095 0.6113 0 1
2.2995 3.3875 -2.2443 0.6018 0 1
2.1951 3.5318 -2.2795 0.5973 0 1
2.0843 3.6756 -2.3163 0.5878 0 1
1.9552 3.7964 -2.3408 0.5798 0 24
1.8327 3.9408 -2.3824 0.5697 0 24
1.7126 4.1072 -2.4393 0.5581 0 1
1.5747 4.2508 -2.4849 0.5479 0 1
1.4294 4.3940 -2.5329 0.5375 0 1
1.2710 4.5177 -2.5726 0.5276 0 24
1.1151 4.6783 -2.6363 0.5174 0 1
0.9456 4.8197 -2.6924 0.5068 0 1
0.7673 4.9607 -2.7516 0.4959 0 1
0.5799 5.1006 -2.8140 0.4849 0 1
0.3828 5.2389 -2.8795 0.4739 0 1
0.1757 5.3755 -2.9483 0.4629 0 1
-0.0418 5.5100 -3.0205 0.4518 0 1
-0.2702 5.6416 -3.0961 0.4416 0 1
-0.5098 5.7701 -3.1753 0.4306 0 1
-0.7610 5.8951 -3.2583 0.4196 0 1
-1.0214 5.9989 -3.3357 0.4112 0 24
-1.2999 6.1316 -3.4359 0.3992 0 1
-1.5879 6.2400 -3.5296 0.3886 0 1
-1.8884 6.3412 -3.6269 0.3805 0 1
-2.2019 6.4345 -3.7280 0.3702 0 1
-2.5286 6.5199 -3.8334 0.3600 0 1
-2.8689 6.5965 -3.9432 0.3500 0 1
-3.2227 6.6631 -4.0573 0.3401 0 1
-3.5903 6.7189 -4.1759 0.3318 0 1
-3.9711 6.7617 -4.2985 0.3224 0 1
-4.3652 6.7911 -4.4254 0.3131 0 1
-4.7724 6.8057 -4.5565 0.3041 0 1
-5.1920 6.8040 -4.6916 0.2953 0 1
-5.6235 6.7847 -4.8306 0.2868 0 1
-6.0651 6.7454 -4.9725 0.2822 0 1
-6.5161 6.6849 -5.1173 0.2742 0 1
-6.9755 6.6023 -5.2649 0.2665 0 1
-7.4416 6.4960 -5.4148 0.2591 0 1
-7.9126 6.3645 -5.5664 0.2442 0 1
-8.4008 6.2173 -5.7290 0.2372 0 1
-8.8906 6.0416 -5.8923 0.2307 0 1
-9.3780 5.8352 -6.0546 0.2251 0 1
-9.8568 5.5958 -6.2132 0.2194 0 1
-10.3300 5.3264 -6.3710 0.2097 0 1
-10.7949 5.0269 -6.5276 0.2051 0 1
-11.2397 4.6932 -6.6768 0.2006 0 1
-11.6632 4.3273 -6.8193 0.1971 0 1
-12.0596 3.9298 -6.9528 0.1946 0 1
-12.4200 3.5010 -7.0736 0.1870 0 1
-12.7493 3.0456 -7.1854 0.1840 0 1
-13.0336 2.5638 -7.2815 0.1828 0 1
-13.2672 2.0589 -7.3597 0.1807 0 1
-13.4000 1.5301 -7.3932 0.1793 0 24
-13.5773 0.9988 -7.4628 0.1783 0 1
-13.6503 0.4529 -7.4868 0.1777 0 1
-13.6668 -0.0970 -7.4919 0.1776 0 1
-13.6261 -0.6458 -7.4778 0.1779 0 1
-13.5306 -1.1887 -7.4456 0.1780 0 1
-13.3317 -1.7143 -7.3682 0.1796 0 24
-13.1770 -2.2369 -7.3266 0.1811 0 1
-12.9226 -2.7330 -7.2405 0.1832 0 1
-12.6234 -3.2056 -7.1394 0.1858 0 1
-12.2383 -3.6380 -6.9988 0.1871 0 24
-11.9113 -4.0694 -6.8999 0.1951 0 1
-11.4499 -4.4341 -6.7307 0.1933 0 24
-11.0728 -4.8092 -6.6175 0.2034 0 1
-10.6169 -5.1286 -6.4633 0.2075 0 1
-10.1451 -5.4147 -6.3037 0.2128 0 1
-9.6403 -5.6553 -6.1267 0.2250 0 24
-9.1951 -5.9041 -5.9900 0.2307 0 1
-8.7132 -6.1035 -5.8316 0.2367 0 1
-8.2305 -6.2740 -5.6731 0.2433 0 1
-7.7488 -6.4161 -5.5148 0.2475 0 1
-7.2679 -6.5284 -5.3553 0.2567 0 1
-6.7953 -6.6171 -5.1993 0.2644 0 1
-6.3315 -6.6827 -5.0463 0.2725 0 1
-5.8780 -6.7268 -4.8969 0.2808 0 1
-5.4350 -6.7501 -4.7506 0.2874 0 1
-5.0031 -6.7531 -4.6071 0.2963 0 1
-4.5853 -6.7404 -4.4688 0.3081 0 1
-4.1821 -6.7137 -4.3359 0.3175 0 1
-3.7929 -6.6734 -4.2077 0.3272 0 1
-3.4180 -6.6208 -4.0844 0.3370 0 1
-3.0559 -6.5539 -3.9640 0.3448 0 1
-2.7082 -6.4769 -3.8483 0.3582 0 1
-2.3755 -6.3929 -3.7385 0.3687 0 1
-2.0568 -6.3012 -3.6334 0.3793 0 1
-1.7517 -6.2025 -3.5330 0.3901 0 1
-1.4598 -6.0978 -3.4371 0.4010 0 1
-1.1809 -5.9877 -3.3455 0.4120 0 1
-0.9141 -5.8712 -3.2572 0.4204 0 1
-0.6594 -5.7498 -3.1725 0.4316 0 1
-0.4166 -5.6250 -3.0919 0.4429 0 1
-0.1848 -5.4868 -3.0094 0.4571 0 24
0.0354 -5.3669 -2.9421 0.4654 0 1
0.2455 -5.2345 -2.8725 0.4767 0 1
0.4455 -5.1003 -2.8065 0.4881 0 1
0.6359 -4.9646 -2.7437 0.4993 0 1
0.8171 -4.8277 -2.6840 0.5104 0 1
0.9894 -4.6897 -2.6273 0.5214 0 1
1.1532 -4.5509 -2.5735 0.5325 0 1
1.3086 -4.4102 -2.5217 0.5434 0 1
1.4562 -4.2691 -2.4726 0.5542 0 1
1.5946 -4.1237 -2.4236 0.5455 0 1
1.7233 -3.9732 -2.3740 0.5569 0 1
1.8426 -3.8193 -2.3246 0.5857 0 24
1.9597 -3.6760 -2.2835 0.5974 0 24
2.0745 -3.5403 -2.2493 0.6120 0 1
2.1795 -3.3980 -2.2129 0.6220 0 1
2.2786 -3.2563 -2.1786 0.6318 0 1
2.3722 -3.1151 -2.1463 0.6413 0 1
2.4604 -2.9744 -2.1160 0.6505 0 1
2.5434 -2.8343 -2.0875 0.6594 0 1
2.6212 -2.6945 -2.0606 0.6642 0 1
2.6942 -2.5552 -2.0355 0.6724 0 1
2.7626 -2.4164 -2.0119 0.6802 0 1
2.8265 -2.2782 -1.9900 0.6877 0 1
3.2675 0.7012 -1.8804 0.7401 0 1
3.2501 0.8356 -1.8882 0.7371 0 1
3.2292 0.9704 -1.8972 0.7336 0 1
3.2048 1.1055 -1.9075 0.7296 0 1
3.1767 1.2411 -1.9190 0.7253 0 1
3.1450 1.3771 -1.9318 0.7205 0 1
3.1095 1.5135 -1.9459 0.7152 0 1
3.0702 1.6504 -1.9613 0.7096 0 1
3.0270 1.7879 -1.9781 0.7036 0 1
2.9790 1.9253 -1.9958 0.6972 0 1
2.9258 2.0625 -2.0142 0.6908 0 1
2.8685 2.2001 -2.0341 0.6774 0 1
2.8083 2.3394 -2.0566 0.6700 0 1
2.7435 2.4791 -2.0806 0.6623 0 1
2.6740 2.6194 -2.1062 0.6542 0 1
2.5996 2.7602 -2.1334 0.6459 0 1
2.5201 2.9015 -2.1624 0.6372 0 1
2.4355 3.0432 -2.1932 0.6283 0 1
2.3453 3.1854 -2.2257 0.6191 0 1
2.2495 3.3281 -2.2602 0.6096 0 1
2.1464 3.4686 -2.2951 0.6052 0 1
2.0367 3.6085 -2.3315 0.5957 0 1
1.9095 3.7259 -2.3558 0.5878 0 24
1.7886 3.8660 -2.3968 0.5777 0 24
1.6698 4.0270 -2.4529 0.5662 0 1
1.5339 4.1658 -2.4978 0.5561 0 1
1.3908 4.3041 -2.5451 0.5457 0 1
1.2351 4.4236 -2.5842 0.5358 0 24
1.0817 4.5782 -2.6469 0.5257 0 1
0.9152 4.7142 -2.7021 0.5152 0 1
0.7403 4.8494 -2.7602 0.5044 0 1
0.5565 4.9832 -2.8213 0.4934 0 1
0.3636 5.1152 -2.8854 0.4825 0 1
0.1610 5.2452 -2.9527 0.4715 0 1
-0.0514 5.3728 -3.0232 0.4605 0 1
-0.2742 5.4975 -3.0971 0.4503 0 1
-0.5076 5.6185 -3.1742 0.4394 0 1
-0.7520 5.7358 -3.2550 0.4285 0 1
-1.0078 5.8488 -3.3395 0.4177 0 1
-1.2708 5.9361 -3.4157 0.4092 0 24
-1.5540 6.0565 -3.5182 0.3977 0 1
-1.8448 6.1501 -3.6128 0.3897 0 1
-2.1473 6.2348 -3.7104 0.3794 0 1
-2.4622 6.3115 -3.8119 0.3693 0 1
-2.7894 6.3791 -3.9175 0.3594 0 1
-3.1290 6.4368 -4.0270 0.3496 0 1
-3.4811 6.4835 -4.1406 0.3395 0 1
-3.8456 6.5184 -4.2584 0.3319 0 1
-4.2216 6.5390 -4.3794 0.3228 0 1
-4.6090 6.5451 -4.5042 0.3138 0 1
-5.0075 6.5353 -4.6325 0.3051 0 1
-5.4161 6.5083 -4.7642 0.2967 0 1
-5.8349 6.4635 -4.8995 0.2870 0 1
-6.2617 6.3985 -5.0373 0.2842 0 1
-6.6938 6.3106 -5.1762 0.2766 0 1
-7.1311 6.2001 -5.3169 0.2692 0 1
-7.5716 6.0656 -5.4588 0.2622 0 1
-7.9773 5.8795 -5.5759 0.2481 0 24
-8.4709 5.7318 -5.7549 0.2409 0 1
-8.9225 5.5273 -5.9056 0.2355 0 1
-9.3640 5.2915 -6.0519 0.2298 0 1
-9.7957 5.0264 -6.1950 0.2245 0 1
-10.2154 4.7324 -6.3347 0.2151 0 1
-10.5768 4.3917 -6.4439 0.2159 0 24
-11.0091 4.0598 -6.6022 0.2077 0 1
-11.3703 3.6803 -6.7245 0.2039 0 1
-11.6967 3.2721 -6.8340 0.2019 0 1
-11.9870 2.8384 -6.9312 0.1991 0 1
-12.1948 2.3737 -6.9904 0.1936 0 24
-12.4466 1.9063 -7.0850 0.1915 0 1
-12.6081 1.4144 -7.1387 0.1901 0 1
-12.7215 0.9105 -7.1763 0.1891 0 1
-12.7386 0.3974 -7.1711 0.1886 0 24
-12.7971 -0.1162 -7.2008 0.1885 0 1
-12.7581 -0.6300 -7.1873 0.1888 0 1
-12.6686 -1.1382 -7.1569 0.1896 0 1
-12.4855 -1.6307 -7.0849 0.1907 0 24
-12.3441 -2.1207 -7.0474 0.1920 0 1
-12.1144 -2.5872 -6.9701 0.1963 0 1
-11.8445 -3.0328 -6.8795 0.1989 0 1
-11.4825 -3.4381 -6.7443 0.1984 0 24
-11.1985 -3.8507 -6.6632 0.2053 0 1
-10.8283 -4.2180 -6.5387 0.2100 0 1
-10.4315 -4.5552 -6.4047 0.2136 0 1
-10.0144 -4.8620 -6.2638 0.2250 0 1
-9.5608 -5.1273 -6.1043 0.2300 0 24
-9.1577 -5.3966 -5.9809 0.2357 0 1
-8.6852 -5.6010 -5.8150 0.2415 0 24
-8.2681 -5.8162 -5.6879 0.2478 0 1
-7.8189 -5.9848 -5.5403 0.2531 0 1
-7.3674 -6.1249 -5.3909 0.2602 0 1
-6.9194 -6.2402 -5.2427 0.2675 0 1
-6.4768 -6.3321 -5.0966 0.2752 0 1
-6.0415 -6.4020 -4.9529 0.2832 0 1
-5.6147 -6.4514 -4.8122 0.2915 0 1
-5.1956 -6.4790 -4.6729 0.2980 0 1
-4.7883 -6.4901 -4.5381 0.3095 0 1
-4.3932 -6.4856 -4.4077 0.3186 0 1
-4.0103 -6.4665 -4.2814 0.3280 0 1
-3.6400 -6.4340 -4.1594 0.3376 0 1
-3.2822 -6.3887 -4.0414 0.3450 0 1
-2.9360 -6.3294 -3.9258 0.3582 0 1
-2.6039 -6.2623 -3.8161 0.3685 0 1
-2.2848 -6.1864 -3.7107 0.3789 0 1
-1.9718 -6.0815 -3.5972 0.3887 0 24
-1.6850 -6.0119 -3.5130 0.4002 0 1
-1.4036 -5.9147 -3.4205 0.4089 0 1
-1.1342 -5.8117 -3.3318 0.4206 0 1
-0.8762 -5.7021 -3.2461 0.4303 0 1
-0.6281 -5.5737 -3.1560 0.4449 0 24
-0.3942 -5.4702 -3.0859 0.4527 0 1
-0.1695 -5.3491 -3.0113 0.4639 0 1
0.0448 -5.2254 -2.9403 0.4751 0 1
0.2493 -5.0992 -2.8726 0.4863 0 1
0.4442 -4.9711 -2.8082 0.4976 0 1
0.6298 -4.8412 -2.7469 0.5087 0 1
0.8067 -4.7098 -2.6887 0.5198 0 1
0.9751 -4.5772 -2.6333 0.5307 0 1
1.1354 -4.4436 -2.5806 0.5415 0 1
1.2876 -4.3080 -2.5299 0.5526 0 1
1.4322 -4.1717 -2.4818 0.5633 0 1
1.5668 -4.0281 -2.4319 0.5546 0 1
1.6934 -3.8831 -2.3836 0.5891 0 1
1.8116 -3.7360 -2.3362 0.5954 0 24
1.9267 -3.5970 -2.2960 0.6062 0 24
2.0400 -3.4657 -2.2628 0.6206 0 1
2.1433 -3.3272 -2.2269 0.6306 0 1
2.2410 -3.1891 -2.1931 0.6403 0 1
2.3332 -3.0513 -2.1613 0.6497 0 1
2.4201 -2.9140 -2.1313 0.6551 0 1
2.5018 -2.7768 -2.1030 0.6639 0 1
2.5785 -2.6401 -2.0765 0.6724 0 1
2.6506 -2.5038 -2.0516 0.6805 0 1
2.7181 -2.3680 -2.0284 0.6883 0 1
2.7812 -2.2325 -2.0067 0.6958 0 1
2.8403 -2.0977 -1.9868 0.7075 0 1
2.8965 -1.9641 -1.9691 0.7139 0 1
2.9486 -1.8307 -1.9528 0.7198 0 1
2.9969 -1.6975 -1.9380 0.7253 0 1
3.0415 -1.5645 -1.9245 0.7304 0 1
3.0823 -1.4316 -1.9123 0.7351 0 1
3.1196 -1.2990 -1.9014 0.7393 0 1
3.1533 -1.1664 -1.8918 0.7431 0 1
3.1835 -1.0339 -1.8834 0.7464 0 1
3.2103 -0.9015 -1.8762 0.7492 0 1
3.2338 -0.7691 -1.8703 0.7516 0 1
3.2538 -0.6367 -1.8655 0.7535 0 1
3.2706 -0.5042 -1.8620 0.7549 0 1
3.2841 -0.3717 -1.8596 0.7559 0 1
3.2943 -0.2391 -1.8585 0.7564 0 1
3.3012 -0.1063 -1.8585 0.7564 0 1
3.3037 0.0267 -1.8590 0.7487 0 1
3.3033 0.1598 -1.8609 0.7479 0 1
3.2996 0.2932 -1.8639 0.7467 0 1
3.2926 0.4267 -1.8681 0.7450 0 1
3.2821 0.5605 -1.8735 0.7429 0 1
3.2683 0.6946 -1.8800 0.7403 0 1
3.2511 0.8290 -1.8878 0.7372 0 1
3.2303 0.9637 -1.8968 0.7338 0 1
3.2060 1.0989 -1.9070 0.7298 0 1
3.1782 1.2344 -1.9184 0.7255 0 1
3.1466 1.3704 -1.9311 0.7207 0 1
3.1114 1.5068 -1.9452 0.7155 0 1
3.0723 1.6437 -1.9605 0.7099 0 1
3.0293 1.7811 -1.9773 0.7039 0 1
2.9815 1.9186 -1.9949 0.6975 0 1
2.9285 2.0557 -2.0132 0.6912 0 1
2.8713 2.1933 -2.0330 0.6778 0 1
2.8113 2.3325 -2.0554 0.6704 0 1
2.7468 2.4722 -2.0793 0.6627 0 1
2.6775 2.6125 -2.1049 0.6546 0 1
2.6034 2.7532 -2.1321 0.6463 0 1
2.5242 2.8945 -2.1609 0.6377 0 1
2.4398 3.0362 -2.1916 0.6287 0 1
2.3499 3.1784 -2.2241 0.6196 0 1
2.2544 3.3210 -2.2585 0.6101 0 1
2.1516 3.4617 -2.2934 0.6056 0 1
2.0423 3.6016 -2.3296 0.5962 0 1
1.9153 3.7190 -2.3538 0.5882 0 24
1.7947 3.8591 -2.3947 0.5782 0 24
1.6763 4.0201 -2.4508 0.5667 0 1
1.5407 4.1590 -2.4956 0.5566 0 1
1.3980 4.2973 -2.5427 0.5462 0 1
1.2426 4.4167 -2.5816 0.5363 0 24
1.0897 4.5715 -2.6443 0.5263 0 1
0.9236 4.7075 -2.6993 0.5157 0 1
0.7491 4.8428 -2.7573 0.5049 0 1
0.5658 4.9766 -2.8182 0.4940 0 1
0.3733 5.1088 -2.8822 0.4830 0 1
0.1712 5.2389 -2.9493 0.4720 0 1
-0.0407 5.3666 -3.0197 0.4610 0 1
-0.2630 5.4915 -3.0934 0.4509 0 1
-0.4959 5.6126 -3.1704 0.4399 0 1
-0.7397 5.7301 -3.2509 0.4290 0 1
-0.9949 5.8434 -3.3352 0.4182 0 1
-1.2574 5.9311 -3.4114 0.4097 0 24
-1.5399 6.0517 -3.5136 0.3982 0 1
-1.8302 6.1457 -3.6081 0.3878 0 1
-2.1322 6.2308 -3.7055 0.3799 0 1
-2.4464 6.3079 -3.8068 0.3698 0 1
-2.7730 6.3760 -3.9122 0.3599 0 1
-3.1120 6.4342 -4.0215 0.3501 0 1
-3.4635 6.4815 -4.1349 0.3400 0 1
-3.8274 6.5170 -4.2525 0.3324 0 1
-4.2028 6.5383 -4.3734 0.3232 0 1
-4.5897 6.5452 -4.4980 0.3143 0 1
-4.9876 6.5362 -4.6261 0.3056 0 1
-5.3958 6.5100 -4.7576 0.2971 0 1
-5.8140 6.4661 -4.8927 0.2874 0 1
-6.2406 6.4022 -5.0306 0.2846 0 1
-6.6724 6.3154 -5.1694 0.2769 0 1
-7.1094 6.2061 -5.3100 0.2696 0 1
-7.5499 6.0728 -5.4518 0.2626 0 1
-7.9549 5.8873 -5.5684 0.2483 0 24
-8.4485 5.7412 -5.7475 0.2412 0 1
-8.9005 5.5381 -5.8983 0.2351 0 1
-9.3425 5.3038 -6.0448 0.2300 0 1
-9.7747 5.0402 -6.1880 0.2247 0 1
-10.1948 4.7474 -6.3277 0.2154 0 1
-10.5576 4.4083 -6.4375 0.2159 0 24
-10.9906 4.0778 -6.5960 0.2079 0 1
-11.3532 3.6997 -6.7187 0.2041 0 1
-11.6815 3.2928 -6.8289 0.2021 0 1
-11.9736 2.8603 -6.9267 0.1992 0 1
-12.1834 2.3965 -6.9865 0.1937 0 24
-12.4374 1.9301 -7.0819 0.1916 0 1
-12.6013 1.4389 -7.1364 0.1901 0 1
-12.7170 0.9355 -7.1748 0.1891 0 1
-12.7366 0.4226 -7.1704 0.1886 0 24
-12.7977 -0.0908 -7.2011 0.1885 0 1
-12.7612 -0.6048 -7.1884 0.1888 0 1
-12.6742 -1.1134 -7.1588 0.1896 0 1
-12.4935 -1.6065 -7.0876 0.1906 0 24
-12.3544 -2.0972 -7.0509 0.1919 0 1
-12.1267 -2.5647 -6.9742 0.1962 0 1
-11.8587 -3.0114 -6.8843 0.1987 0 1
-11.4987 -3.4182 -6.7498 0.1983 0 24
-11.2159 -3.8318 -6.6690 0.2052 0 1
-10.8472 -4.2007 -6.5450 0.2098 0 1
-10.4517 -4.5394 -6.4115 0.2134 0 1
-10.0348 -4.8474 -6.2705 0.2248 0 1
-9.5819 -5.1141 -6.1113 0.2298 0 24
-9.1793 -5.3848 -5.9880 0.2354 0 1
-8.7071 -5.5907 -5.8222 0.2411 0 24
-8.2902 -5.8072 -5.6952 0.2475 0 1
-7.8411 -5.9772 -5.5476 0.2550 0 1
-7.3896 -6.1186 -5.3982 0.2598 0 1
-6.9413 -6.2351 -5.2500 0.2672 0 1
-6.4985 -6.3281 -5.1037 0.2748 0 1
-6.0627 -6.3990 -4.9599 0.2828 0 1
-5.6355 -6.4494 -4.8191 0.2911 0 1
-5.2160 -6.4781 -4.6797 0.2976 0 1
-4.8081 -6.4899 -4.5446 0.3090 0 1
-4.4124 -6.4862 -4.4140 0.3182 0 1
-4.0289 -6.4678 -4.2875 0.3275 0 1
-3.6579 -6.4359 -4.1653 0.3372 0 1
-3.2996 -6.3914 -4.0472 0.3445 0 1
-2.9527 -6.3325 -3.9314 0.3547 0 1
-2.6199 -6.2658 -3.8214 0.3680 0 1
-2.3003 -6.1903 -3.7158 0.3784 0 1
-1.9865 -6.0858 -3.6021 0.3881 0 24
-1.6991 -6.0165 -3.5177 0.3997 0 1
-1.4172 -5.9197 -3.4249 0.4084 0 1
-1.1472 -5.8169 -3.3360 0.4201 0 1
-0.8887 -5.7076 -3.2502 0.4298 0 1
-0.6399 -5.5792 -3.1598 0.4439 0 24
-0.4056 -5.4760 -3.0896 0.4521 0 1
-0.1803 -5.3552 -3.0149 0.4633 0 1
0.0345 -5.2315 -2.9437 0.4745 0 1
0.2394 -5.1055 -2.8758 0.4857 0 1
0.4348 -4.9774 -2.8113 0.4971 0 1
0.6209 -4.8476 -2.7499 0.5082 0 1
0.7982 -4.7163 -2.6915 0.5192 0 1
0.9670 -4.5838 -2.6359 0.5302 0 1
1.1277 -4.4502 -2.5831 0.5410 0 1
1.2803 -4.3147 -2.5324 0.5520 0 1
1.4252 -4.1784 -2.4841 0.5628 0 1
1.5604 -4.0353 -2.4344 0.5540 0 1
1.6872 -3.8900 -2.3858 0.5886 0 1
1.8057 -3.7429 -2.3383 0.5948 0 24
1.9212 -3.6039 -2.2979 0.6056 0 24
2.0348 -3.4725 -2.2646 0.6201 0 1
2.1384 -3.3340 -2.2286 0.6301 0 1
2.2363 -3.1958 -2.1947 0.6398 0 1
2.3288 -3.0581 -2.1628 0.6493 0 1
2.4160 -2.9208 -2.1328 0.6546 0 1
2.4979 -2.7836 -2.1044 0.6635 0 1
2.5749 -2.6468 -2.0777 0.6720 0 1
2.6471 -2.5105 -2.0528 0.6801 0 1
2.7149 -2.3746 -2.0295 0.6880 0 1
2.7782 -2.2392 -2.0077 0.6954 0 1
3.2150 0.6899 -1.8985 0.7475 0 1
3.1977 0.8221 -1.9062 0.7445 0 1
3.1769 0.9547 -1.9152 0.7410 0 1
3.1525 1.0875 -1.9254 0.7370 0 1
3.1246 1.2207 -1.9368 0.7327 0 1
3.0931 1.3543 -1.9495 0.7279 0 1
3.0579 1.4884 -1.9635 0.7227 0 1
3.0188 1.6228 -1.9788 0.7172 0 1
2.9759 1.7577 -1.9954 0.7112 0 1
2.9281 1.8924 -2.0129 0.7049 0 1
2.8753 2.0269 -2.0311 0.6985 0 1
2.8183 2.1617 -2.0507 0.6919 0 1
2.7584 2.2978 -2.0727 0.6779 0 1
2.6942 2.4346 -2.0965 0.6702 0 1
2.6253 2.5717 -2.1218 0.6622 0 1
2.5517 2.7093 -2.1488 0.6539 0 1
2.4731 2.8473 -2.1774 0.6453 0 1
2.3893 2.9856 -2.2078 0.6364 0 1
2.3003 3.1242 -2.2400 0.6272 0 1
2.2057 3.2632 -2.2740 0.6179 0 1
2.1041 3.4003 -2.3086 0.6134 0 1
1.9837 3.5145 -2.3300 0.6059 0 24
1.8819 3.6720 -2.3822 0.5945 0 1
1.7518 3.7864 -2.4087 0.5861 0 24
1.6346 3.9423 -2.4640 0.5748 0 1
1.5010 4.0766 -2.5081 0.5646 0 1
1.3605 4.2102 -2.5545 0.5544 0 1
1.2126 4.3430 -2.6033 0.5440 0 1
1.0534 4.4586 -2.6450 0.5338 0 24
0.8941 4.6056 -2.7087 0.5240 0 1
0.7229 4.7354 -2.7656 0.5132 0 1
0.5431 4.8634 -2.8254 0.5024 0 1
0.3546 4.9896 -2.8880 0.4915 0 1
0.1570 5.1134 -2.9536 0.4806 0 1
-0.0501 5.2347 -3.0224 0.4696 0 1
-0.2670 5.3529 -3.0943 0.4587 0 1
-0.4940 5.4673 -3.1694 0.4487 0 1
-0.7313 5.5776 -3.2478 0.4379 0 1
-0.9793 5.6835 -3.3297 0.4271 0 1
-1.2382 5.7840 -3.4150 0.4177 0 1
-1.5078 5.8766 -3.5028 0.4073 0 1
-1.7816 5.9392 -3.5800 0.3989 0 24
-2.0719 6.0157 -3.6734 0.3889 0 24
-2.3836 6.1100 -3.7865 0.3791 0 1
-2.6980 6.1701 -3.8880 0.3692 0 1
-3.0237 6.2201 -3.9930 0.3595 0 1
-3.3607 6.2592 -4.1017 0.3500 0 1
-3.7091 6.2869 -4.2144 0.3401 0 1
-4.0681 6.3013 -4.3303 0.3328 0 1
-4.4368 6.3006 -4.4491 0.3240 0 1
-4.8153 6.2845 -4.5710 0.3153 0 1
-5.2026 6.2516 -4.6957 0.3069 0 1
-5.5978 6.2009 -4.8231 0.2988 0 1
-6.0015 6.1326 -4.9540 0.2894 0 1
-6.4112 6.0441 -5.0871 0.2818 0 1
-6.7772 5.8924 -5.1849 0.2811 0 24
-7.2354 5.7963 -5.3525 0.2727 0 1
-7.6487 5.6373 -5.4858 0.2661 0 1
-8.0643 5.4567 -5.6217 0.2515 0 1
-8.4837 5.2555 -5.7618 0.2454 0 1
-8.8936 5.0257 -5.8978 0.2404 0 1
-9.2926 4.7682 -6.0301 0.2351 0 1
-9.6442 4.4678 -6.1366 0.2310 0 24
-10.0487 4.1725 -6.2819 0.2288 0 1
-10.4012 3.8356 -6.4004 0.2184 0 1
-10.7315 3.4735 -6.5123 0.2147 0 1
-11.0331 3.0864 -6.6145 0.2127 0 1
-11.2978 2.6752 -6.7032 0.2099 0 1
-11.4746 2.2335 -6.7492 0.2039 0 24
-11.7154 1.7943 -6.8428 0.2053 0 1
-11.8601 1.3305 -6.8904 0.2048 0 1
-11.9611 0.8561 -6.9234 0.2038 0 1
-11.9684 0.3734 -6.9133 0.1994 0 24
-12.0283 -0.1092 -6.9448 0.2032 0 1
-11.9934 -0.5923 -6.9329 0.2034 0 1
-11.9136 -1.0704 -6.9060 0.2042 0 1
-11.7900 -1.5398 -6.8648 0.2054 0 1
-11.6236 -1.9969 -6.8092 0.2075 0 1
-11.4124 -2.4372 -6.7375 0.2097 0 1
-11.1645 -2.8587 -6.6538 0.2123 0 1
-10.8835 -3.2588 -6.5592 0.2127 0 1
-10.5256 -3.6193 -6.4262 0.2246 0 24
-10.2365 -3.9875 -6.3426 0.2207 0 1
-9.8762 -4.3127 -6.2220 0.2310 0 1
-9.5008 -4.6127 -6.0976 0.2357 0 1
-9.1104 -4.8857 -5.9685 0.2408 0 1
-8.7085 -5.1319 -5.8359 0.2472 0 1
-8.2981 -5.3514 -5.7007 0.2531 0 1
-7.8822 -5.5447 -5.5639 0.2593 0 1
-7.4606 -5.7106 -5.4244 0.2636 0 1
-7.0385 -5.8515 -5.2846 0.2705 0 1
-6.6187 -5.9690 -5.1457 0.2778 0 1
-6.2029 -6.0642 -5.0083 0.2856 0 1
-5.7729 -6.1173 -4.8562 0.2929 0 24
-5.3888 -6.1918 -4.7391 0.2996 0 1
-4.9933 -6.2268 -4.6082 0.3107 0 1
-4.6074 -6.2449 -4.4806 0.3196 0 1
-4.2318 -6.2474 -4.3565 0.3287 0 1
-3.8552 -6.2164 -4.2232 0.3377 0 24
-3.5136 -6.2105 -4.1197 0.3476 0 1
-3.1707 -6.1717 -4.0060 0.3549 0 1
-2.8397 -6.1219 -3.8962 0.3680 0 1
-2.5208 -6.0626 -3.7907 0.3782 0 1
-2.2139 -5.9944 -3.6894 0.3886 0 1
-1.9121 -5.8973 -3.5793 0.3984 0 24
-1.6352 -5.8344 -3.4983 0.4076 0 1
-1.3632 -5.7442 -3.4085 0.4184 0 1
-1.1024 -5.6486 -3.3228 0.4301 0 1
-0.8498 -5.5299 -3.2302 0.4428 0 24
-0.6128 -5.4386 -3.1598 0.4508 0 1
-0.3839 -5.3275 -3.0838 0.4619 0 1
-0.1652 -5.2129 -3.0112 0.4730 0 1
0.0437 -5.0953 -2.9419 0.4841 0 1
0.2432 -4.9752 -2.8758 0.4955 0 1
0.4336 -4.8528 -2.8129 0.5065 0 1
0.6152 -4.7285 -2.7530 0.5176 0 1
0.7883 -4.6025 -2.6959 0.5285 0 1
0.9534 -4.4750 -2.6416 0.5394 0 1
1.1106 -4.3463 -2.5899 0.5502 0 1
1.2600 -4.2156 -2.5403 0.5611 0 1
1.4020 -4.0838 -2.4929 0.5516 0 1
1.5336 -3.9427 -2.4424 0.5630 0 1
1.6595 -3.8054 -2.3969 0.5974 0 1
1.7756 -3.6619 -2.3496 0.6036 0 24
1.8892 -3.5270 -2.3100 0.6143 0 24
1.9967 -3.3921 -2.2725 0.6250 0 24
2.1032 -3.2649 -2.2423 0.6386 0 1
2.1997 -3.1303 -2.2089 0.6482 0 1
2.2907 -2.9958 -2.1773 0.6538 0 1
2.3764 -2.8614 -2.1475 0.6629 0 1
2.4572 -2.7274 -2.1195 0.6717 0 1
2.5332 -2.5937 -2.0932 0.6801 0 1
2.6045 -2.4603 -2.0685 0.6882 0 1
2.6714 -2.3273 -2.0455 0.6960 0 1
2.7339 -2.1946 -2.0241 0.7033 0 1
2.7928 -2.0626 -2.0045 0.7150 0 1
2.8484 -1.9315 -1.9870 0.7213 0 1
2.9001 -1.8005 -1.9708 0.7272 0 1
2.9480 -1.6697 -1.9561 0.7327 0 1
2.9922 -1.5391 -1.9427 0.7378 0 1
3.0327 -1.4086 -1.9306 0.7424 0 1
3.0696 -1.2781 -1.9197 0.7466 0 1
3.1030 -1.1478 -1.9102 0.7503 0 1
3.1330 -1.0175 -1.9018 0.7536 0 1
3.1596 -0.8872 -1.8947 0.7565 0 1
3.1828 -0.7570 -1.8888 0.7588 0 1
3.2027 -0.6267 -1.8841 0.7607 0 1
3.2193 -0.4963 -1.8806 0.7621 0 1
3.2326 -0.3659 -1.8782 0.7631 0 1
3.2427 -0.2353 -1.8771 0.7636 0 1
3.2491 -0.1046 -1.8768 0.7564 0 1
3.2512 0.0263 -1.8772 0.7560 0 1
3.2508 0.1573 -1.8790 0.7552 0 1
3.2470 0.2885 -1.8821 0.7540 0 1
3.2400 0.4199 -1.8862 0.7523 0 1
3.2296 0.5515 -1.8916 0.7502 0 1
3.2158 0.6834 -1.8981 0.7476 0 1
3.1986 0.8156 -1.9058 0.7446 0 1
3.1780 0.9481 -1.9147 0.7412 0 1
3.1538 1.0810 -1.9248 0.7373 0 1
3.1261 1.2142 -1.9362 0.7329 0 1
3.0947 1.3478 -1.9488 0.7282 0 1
3.0597 1.4817 -1.9628 0.7230 0 1
3.0208 1.6162 -1.9780 0.7174 0 1
2.9781 1.7510 -1.9946 0.7115 0 1
2.9306 1.8858 -2.0120 0.7052 0 1
2.8780 2.0203 -2.0301 0.6989 0 1
2.8212 2.1550 -2.0497 0.6922 0 1
2.7614 2.2911 -2.0716 0.6782 0 1
2.6974 2.4278 -2.0953 0.6706 0 1
2.6288 2.5650 -2.1205 0.6626 0 1
2.5554 2.7025 -2.1474 0.6543 0 1
2.4771 2.8405 -2.1760 0.6457 0 1
2.3936 2.9788 -2.2062 0.6368 0 1
2.3048 3.1174 -2.2383 0.6277 0 1
2.2105 3.2563 -2.2723 0.6183 0 1
2.1092 3.3936 -2.3069 0.6139 0 1
1.9891 3.5078 -2.3282 0.6064 0 24
1.8876 3.6653 -2.3803 0.5950 0 1
1.7578 3.7797 -2.4067 0.5866 0 24
1.6410 3.9357 -2.4619 0.5753 0 1
1.5078 4.0700 -2.5059 0.5651 0 1
1.3675 4.2037 -2.5522 0.5549 0 1
1.2200 4.3365 -2.6009 0.5445 0 1
1.0612 4.4521 -2.6424 0.5343 0 24
0.9023 4.5992 -2.7060 0.5246 0 1
0.7315 4.7290 -2.7628 0.5138 0 1
0.5522 4.8572 -2.8224 0.5029 0 1
0.3641 4.9834 -2.8848 0.4920 0 1
0.1669 5.1074 -2.9503 0.4811 0 1
-0.0397 5.2288 -3.0189 0.4702 0 1
-0.2561 5.3472 -3.0907 0.4593 0 1
-0.4825 5.4618 -3.1656 0.4492 0 1
-0.7194 5.5723 -3.2439 0.4384 0 1
-0.9668 5.6784 -3.3256 0.4276 0 1
-1.2252 5.7792 -3.4108 0.4182 0 1
-1.4943 5.8722 -3.4984 0.4078 0 1
-1.7675 5.9353 -3.5755 0.3990 0 24
-2.0573 6.0122 -3.6687 0.3894 0 24
-2.3684 6.1068 -3.7817 0.3796 0 1
-2.6822 6.1673 -3.8829 0.3697 0 1
-3.0074 6.2179 -3.9878 0.3600 0 1
-3.3439 6.2576 -4.0963 0.3504 0 1
-3.6916 6.2858 -4.2087 0.3406 0 1
-4.0502 6.3009 -4.3246 0.3333 0 1
-4.4185 6.3010 -4.4432 0.3244 0 1
-4.7964 6.2856 -4.5649 0.3157 0 1
-5.1833 6.2537 -4.6895 0.3073 0 1
-5.5782 6.2038 -4.8168 0.2992 0 1
-5.9814 6.1364 -4.9475 0.2898 0 1
-6.3909 6.0490 -5.0805 0.2822 0 1
-6.7570 5.8984 -5.1784 0.2815 0 24
-7.2151 5.8035 -5.3460 0.2730 0 1
-7.6283 5.6457 -5.4792 0.2664 0 1
-8.0436 5.4660 -5.6147 0.2518 0 1
-8.4632 5.2660 -5.7549 0.2457 0 1
-8.8737 5.0377 -5.8912 0.2407 0 1
-9.2732 4.7815 -6.0237 0.2354 0 1
-9.6256 4.4824 -6.1303 0.2312 0 24
-10.0311 4.1885 -6.2761 0.2290 0 1
-10.3843 3.8528 -6.3947 0.2186 0 1
-10.7159 3.4920 -6.5070 0.2148 0 1
-11.0192 3.1061 -6.6099 0.2129 0 1
-11.2856 2.6959 -6.6991 0.2101 0 1
-11.4643 2.2551 -6.7457 0.2040 0 24
-11.7071 1.8168 -6.8400 0.2054 0 1
-11.8540 1.3536 -6.8884 0.2049 0 1
-11.9572 0.8796 -6.9221 0.2039 0 1
-11.9667 0.3970 -6.9128 0.1994 0 24
-12.0288 -0.0854 -6.9450 0.2032 0 1
-11.9962 -0.5686 -6.9338 0.2033 0 1
-11.9186 -1.0470 -6.9077 0.2041 0 1
-11.7971 -1.5170 -6.8671 0.2053 0 1
-11.6330 -1.9748 -6.8124 0.2074 0 1
-11.4236 -2.4160 -6.7413 0.2095 0 1
-11.1775 -2.8384 -6.6582 0.2122 0 1
-10.8980 -3.2396 -6.5641 0.2125 0 1
-10.5410 -3.6013 -6.4312 0.2244 0 24
-10.2537 -3.9708 -6.3484 0.2198 0 1
-9.8942 -4.2972 -6.2279 0.2308 0 1
-9.5197 -4.5986 -6.1039 0.2355 0 1
-9.1299 -4.8729 -5.9750 0.2406 0 1
-8.7285 -5.1204 -5.8425 0.2469 0 1
-8.3184 -5.3412 -5.7074 0.2528 0 1
-7.9027 -5.5358 -5.5707 0.2590 0 1
-7.4814 -5.7030 -5.4312 0.2632 0 1
-7.0593 -5.8451 -5.2915 0.2702 0 1
-6.6393 -5.9638 -5.1525 0.2775 0 1
-6.2232 -6.0601 -5.0151 0.2852 0 1
-5.7928 -6.1142 -4.8628 0.2925 0 24
-5.4086 -6.1897 -4.7457 0.2992 0 1
-5.0126 -6.2254 -4.6145 0.3103 0 1
-4.6262 -6.2444 -4.4868 0.3191 0 1
-4.2501 -6.2476 -4.3626 0.3282 0 1
-3.8729 -6.2173 -4.2290 0.3372 0 24
-3.5307 -6.2120 -4.1253 0.3471 0 1
-3.1874 -6.1740 -4.0115 0.3544 0 1
-2.8557 -6.1246 -3.9015 0.3675 0 1
-2.5363 -6.0657 -3.7958 0.3777 0 1
-2.2288 -5.9979 -3.6942 0.3881 0 1
-1.9263 -5.9013 -3.5840 0.3979 0 24
-1.6489 -5.8387 -3.5028 0.4071 0 1
-1.3763 -5.7488 -3.4128 0.4178 0 1
-1.1150 -5.6535 -3.3269 0.4295 0 1
-0.8618 -5.5349 -3.2341 0.4422 0 24
-0.6244 -5.4440 -3.1637 0.4502 0 1
-0.3950 -5.3330 -3.0874 0.4613 0 1
