ply
format ascii 1.0
element vertex 1370
property float32 x
property float32 y
property float32 z
property float32 CosAngle
property uint32 ObjIdx
property uint32 ObjTag
end_header
2.5119 -9.7298 -2.0604 0.2748 0 1
2.7774 -9.2124 -1.9729 0.2883 0 1
3.0195 -8.7303 -1.8941 0.3003 0 1
3.2401 -8.2764 -1.8224 0.3121 0 1
3.4422 -7.8486 -1.7572 0.3209 0 1
3.6296 -7.4474 -1.6987 0.3343 0 1
3.8021 -7.0660 -1.6452 0.3452 0 1
3.9610 -6.7015 -1.5961 0.3558 0 1
4.1074 -6.3522 -1.5510 0.3662 0 1
4.2327 -6.0028 -1.5060 0.3672 0 1
4.3424 -5.6611 -1.4629 0.3781 0 1
4.4442 -5.3357 -1.4238 0.3921 0 1
4.5381 -5.0237 -1.3881 0.4022 0 1
4.6241 -4.7230 -1.3553 0.4119 0 1
4.7009 -4.4306 -1.3245 0.4109 0 1
4.7694 -4.1464 -1.2958 0.4200 0 1
4.8326 -3.8719 -1.2697 0.4461 0 1
4.9022 -3.6142 -1.2488 0.4536 0 1
4.9667 -3.3625 -1.2298 0.4606 0 1
5.0272 -3.1166 -1.2128 0.4671 0 1
5.0829 -2.8752 -1.1974 0.4731 0 1
5.1339 -2.6378 -1.1835 0.4787 0 1
5.1806 -2.4040 -1.1710 0.4837 0 1
5.2232 -2.1733 -1.1600 0.4884 0 1
5.2618 -1.9453 -1.1502 0.4926 0 1
5.2965 -1.7198 -1.1418 0.4962 0 1
5.3096 2.0156 -1.2302 0.4802 0 1
5.2798 2.2508 -1.2433 0.4749 0 1
5.2458 2.4898 -1.2578 0.4694 0 1
5.2073 2.7329 -1.2739 0.4635 0 1
5.1641 2.9807 -1.2916 0.4571 0 1
5.1158 3.2334 -1.3110 0.4503 0 1
5.0624 3.4918 -1.3321 0.4432 0 1
5.0033 3.7562 -1.3552 0.4356 0 1
4.9391 4.0281 -1.3806 0.4277 0 1
4.8683 4.3072 -1.4080 0.4314 0 1
4.7826 4.5866 -1.4354 0.4231 0 1
4.6897 4.8739 -1.4651 0.4146 0 1
4.5890 5.1696 -1.4974 0.4056 0 1
4.4800 5.4746 -1.5323 0.3964 0 1
4.3654 5.7947 -1.5715 0.3848 0 1
4.2413 6.1273 -1.6142 0.3746 0 1
4.1064 6.4733 -1.6605 0.3641 0 1
3.9423 6.8040 -1.7034 0.3926 0 1
3.7642 7.1435 -1.7491 0.3726 0 1
3.5835 7.5179 -1.8040 0.3612 0 1
3.3876 7.9100 -1.8639 0.3496 0 1
3.1749 8.3218 -1.9294 0.3378 0 1
2.9416 8.7503 -1.9997 0.3010 0 1
2.6910 9.2148 -2.0794 0.3123 0 1
2.4152 9.7024 -2.1658 0.2998 0 1
2.1125 10.2217 -2.2609 0.2872 0 1
1.7805 10.7842 -2.3676 0.2722 0 1
1.4142 11.3966 -2.4876 0.2506 0 1
1.0023 12.0054 -2.6096 0.2415 0 24
0.5527 12.8087 -2.7771 0.2236 0 1
0.0403 13.6081 -2.9477 0.2107 0 1
-0.5401 14.5084 -3.1449 0.1906 0 1
-1.2098 15.6048 -3.3904 0.1684 0 1
-1.9805 16.7712 -3.6581 0.1594 0 1
-2.8716 18.0567 -3.9605 0.1493 0 1
-3.9064 19.4833 -4.3043 0.1410 0 1
-5.1178 21.0914 -4.7013 0.1309 0 1
-6.5527 22.9418 -5.1682 0.1207 0 1
-8.2649 25.0760 -5.7192 0.1081 0 1
-10.4166 27.7963 -6.4300 0.0905 0 1
-13.2131 31.3641 -7.3722 0.0823 0 1
-16.7794 35.7452 -8.5535 0.4624 0 2
-15.6559 30.1419 -7.3573 0.5030 0 15
-15.8474 27.7283 -6.9181 0.5547 0 15
-16.3257 26.0755 -6.6640 0.8980 0 15
-28.2633 37.9826 -10.2554 0.6152 0 3
-26.7669 33.1078 -9.2222 0.5391 0 3
-28.5217 32.5156 -9.3690 0.6734 0 3
-31.0561 32.6604 -9.7625 0.7130 0 3
-28.7231 27.8744 -8.6700 0.7277 0 3
-18.4311 16.5021 -5.3588 0.9825 0 6
-28.8814 23.8403 -8.1122 0.7777 0 3
-28.9451 21.9997 -7.8754 0.8010 0 3
-29.0038 20.2598 -7.6636 0.8232 0 3
-29.0557 18.6060 -7.4737 0.8441 0 3
-27.9875 16.3758 -7.0240 0.4527 0 3
-33.3484 17.7547 -8.1837 0.4652 0 3
-36.7945 17.7313 -8.8474 0.4303 0 3
-43.8036 18.9810 -10.3410 0.9149 0 3
-27.3987 9.3407 -6.2704 0.8750 0 22
-27.4408 8.1407 -6.2001 0.9644 0 22
-25.6558 -9.4900 -5.9254 0.9425 15 6
-31.0959 -15.9835 -7.5735 0.8802 0 22
-31.0296 -17.5592 -7.7230 0.8963 0 22
-32.5115 -33.2170 -10.0681 0.9937 0 20
-30.9227 -34.2425 -9.9942 0.9699 0 20
-22.6202 -42.0542 -10.3437 0.4270 0 9
-17.6404 -36.2104 -8.7249 0.0647 0 2
-14.1867 -32.3609 -7.6538 0.0636 0 24
-11.1293 -28.4414 -6.6157 0.0858 0 1
-8.7372 -25.2753 -5.7929 0.0893 0 1
-6.8194 -22.6326 -5.1202 0.1057 0 1
-5.2783 -20.4593 -4.5769 0.1212 0 24
-4.0665 -18.8639 -4.1800 0.1395 0 1
-3.0472 -17.5253 -3.8532 0.1587 0 1
-2.1703 -16.3477 -3.5722 0.1691 0 1
-1.4096 -15.3088 -3.3301 0.1822 0 1
-0.7432 -14.3766 -3.1183 0.1998 0 1
-0.1555 -13.5473 -2.9347 0.2123 0 1
0.3669 -12.7878 -2.7712 0.2240 0 1
0.8333 -12.0831 -2.6236 0.2265 0 1
1.2485 -11.4065 -2.4856 0.2384 0 1
1.6194 -10.7744 -2.3601 0.2511 0 1
1.9486 -10.1673 -2.2425 0.2642 0 24
2.2564 -9.6577 -2.1483 0.2778 0 1
2.5307 -9.1549 -2.0575 0.2901 0 1
2.7812 -8.6865 -1.9757 0.3034 0 1
3.0098 -8.2447 -1.9012 0.3153 0 1
3.2189 -7.8266 -1.8331 0.3270 0 1
3.4116 -7.4316 -1.7713 0.3379 0 1
3.5906 -7.0593 -1.7156 0.3489 0 1
3.7556 -6.7031 -1.6644 0.3597 0 1
3.9078 -6.3615 -1.6172 0.3701 0 1
4.0451 -6.0280 -1.5725 0.3707 0 1
4.1608 -5.6923 -1.5273 0.3817 0 1
4.2681 -5.3722 -1.4862 0.3959 0 1
4.3672 -5.0652 -1.4487 0.4061 0 1
4.4582 -4.7693 -1.4142 0.4160 0 1
4.5385 -4.4801 -1.3814 0.4153 0 1
4.6116 -4.2003 -1.3512 0.4246 0 1
4.6782 -3.9291 -1.3234 0.4335 0 1
4.7495 -3.6742 -1.3007 0.4590 0 1
4.8170 -3.4262 -1.2804 0.4662 0 1
4.8800 -3.1839 -1.2622 0.4730 0 1
4.9386 -2.9464 -1.2457 0.4793 0 1
4.9925 -2.7129 -1.2308 0.4851 0 1
5.0418 -2.4828 -1.2174 0.4905 0 1
5.0868 -2.2559 -1.2054 0.4954 0 1
5.1278 -2.0318 -1.1948 0.4998 0 1
5.1649 -1.8101 -1.1855 0.5037 0 1
5.1981 -1.5904 -1.1775 0.5071 0 1
5.2276 -1.3725 -1.1707 0.5101 0 1
3.8749 -0.8526 -0.8594 0.6396 25 14
3.8315 -0.6830 -0.8430 0.9685 25 14
3.8299 -0.5251 -0.8374 0.9751 25 14
3.8268 -0.3688 -0.8328 0.9887 25 14
3.8214 -0.2139 -0.8291 0.9932 25 14
3.8159 -0.0601 -0.8267 0.9960 25 14
3.8176 0.0933 -0.8272 0.9954 25 14
3.8231 0.2473 -0.8299 0.9922 25 14
3.8267 0.4024 -0.8335 0.9796 25 14
3.8276 0.5586 -0.8379 0.9745 25 14
3.8285 0.7168 -0.8437 0.9678 25 14
3.9160 0.8974 -0.8702 0.6317 25 14
5.3510 1.4546 -1.2012 0.4992 0 1
5.3391 1.6844 -1.2127 0.4945 0 1
5.3211 1.9168 -1.2251 0.4822 0 1
5.2929 2.1506 -1.2375 0.4771 0 1
5.2608 2.3879 -1.2515 0.4718 0 1
5.2242 2.6292 -1.2669 0.4660 0 1
5.1830 2.8749 -1.2839 0.4599 0 1
5.1369 3.1255 -1.3025 0.4533 0 1
5.0857 3.3814 -1.3229 0.4463 0 1
5.0291 3.6432 -1.3452 0.4389 0 1
4.9671 3.9118 -1.3695 0.4311 0 1
4.8993 4.1879 -1.3961 0.4229 0 1
4.8198 4.4671 -1.4235 0.4267 0 1
4.7300 4.7510 -1.4522 0.4182 0 1
4.6327 5.0430 -1.4834 0.4095 0 1
4.5273 5.3440 -1.5171 0.4003 0 1
4.4150 5.6573 -1.5545 0.3890 0 1
4.2952 5.9846 -1.5957 0.3789 0 1
4.1650 6.3247 -1.6404 0.3686 0 1
4.0144 6.6641 -1.6852 0.3969 0 1
3.8409 6.9972 -1.7290 0.3868 0 1
3.6620 7.3570 -1.7801 0.3661 0 1
3.4727 7.7414 -1.8379 0.3546 0 1
3.2673 8.1445 -1.9009 0.3428 0 1
3.0433 8.5665 -1.9692 0.3231 0 1
2.8008 9.0166 -2.0452 0.3175 0 1
2.5353 9.4919 -2.1281 0.3052 0 1
2.2444 9.9972 -2.2194 0.2926 0 1
1.9253 10.5401 -2.3209 0.2777 0 1
1.5739 11.1278 -2.4344 0.2648 0 1
1.1795 11.7155 -2.5506 0.2497 0 24
0.7525 12.4913 -2.7107 0.2291 0 1
0.2653 13.2596 -2.8728 0.2162 0 1
-0.2845 14.1085 -3.0567 0.1961 0 1
-0.9133 15.1202 -3.2812 0.1740 0 1
-1.6404 16.2672 -3.5416 0.1646 0 1
-2.4773 17.4946 -3.8274 0.1545 0 1
-3.4489 18.8638 -4.1539 0.1448 0 1
-4.5806 20.3880 -4.5264 0.1319 0 1
-5.9167 22.1373 -4.9636 0.1240 0 1
-7.4947 24.1141 -5.4699 0.1140 0 1
-9.4405 26.5607 -6.1060 0.1026 0 1
-11.9563 29.7901 -6.9533 0.0825 0 1
-15.1181 33.6871 -7.9982 0.0771 0 1
-15.5956 31.3195 -7.5788 0.3799 0 15
-15.7612 28.7021 -7.0930 0.5345 0 15
-15.9781 26.5145 -6.7056 0.5760 0 15
-17.1784 26.0768 -6.7641 0.7615 0 15
-29.4059 37.6673 -10.3512 0.7747 0 3
-28.4722 33.5974 -9.5395 0.6614 0 3
-30.0192 32.6674 -9.6102 0.7243 0 3
-27.7933 27.9075 -8.5316 0.8237 0 3
-28.7824 26.6678 -8.4994 0.9690 0 3
-19.3366 16.5236 -5.5095 0.6325 0 22
-28.7645 22.6462 -7.9301 0.9467 0 3
-28.9797 20.9869 -7.7506 0.8139 0 3
-29.0344 19.2980 -7.5517 0.8354 0 3
-29.2370 17.7826 -7.4126 0.5136 0 3
-32.0366 17.7636 -7.9350 0.4798 0 3
-33.1548 16.6795 -8.0394 0.4631 0 3
-39.0463 17.7160 -9.2878 0.4099 0 3
-43.5469 17.6854 -10.1811 0.3740 0 3
-27.4175 9.8719 -6.3123 0.9480 0 22
-27.4628 7.4609 -6.1644 0.9613 0 22
-31.0076 -18.5061 -7.8220 0.8788 0 22
-25.3914 -16.5721 -6.5679 0.8424 15 6
-33.1397 -32.7240 -10.0885 0.9917 0 20
-31.6688 -33.8892 -10.0472 0.9967 0 20
-30.8828 -35.8301 -10.2464 0.2201 0 20
-19.6988 -38.7444 -9.4150 0.0599 0 2
-15.9454 -34.7496 -8.2819 0.0676 0 1
-12.3145 -29.9553 -7.0156 0.0774 0 1
-9.7098 -26.6112 -6.1361 0.0889 0 1
-7.5331 -23.5414 -5.3541 0.0940 0 24
-5.9027 -21.3671 -4.8018 0.1157 0 1
-4.5615 -19.5375 -4.3459 0.1289 0 1
-3.4582 -18.0599 -3.9831 0.1520 0 1
-2.5266 -16.8282 -3.6861 0.1639 0 1
-1.7197 -15.7347 -3.4287 0.1770 0 1
-1.0155 -14.7602 -3.2048 0.1891 0 1
-0.3963 -13.8897 -3.0099 0.2070 0 1
0.1525 -13.1023 -2.8383 0.2187 0 1
0.6419 -12.3791 -2.6851 0.2312 0 1
1.0782 -11.6892 -2.5428 0.2329 0 1
1.4669 -11.0364 -2.4117 0.2458 0 1
1.8111 -10.4066 -2.2881 0.2586 0 24
2.1318 -9.8813 -2.1897 0.2726 0 1
2.4175 -9.3643 -2.0949 0.2849 0 1
2.6777 -8.8818 -2.0095 0.2983 0 1
2.9153 -8.4291 -1.9320 0.3103 0 1
3.1324 -8.0013 -1.8613 0.3221 0 1
3.3318 -7.5968 -1.7969 0.3361 0 1
3.5164 -7.2152 -1.7387 0.3443 0 1
3.6872 -6.8524 -1.6856 0.3551 0 1
3.8447 -6.5048 -1.6367 0.3657 0 1
3.9901 -6.1709 -1.5918 0.3761 0 1
4.1130 -5.8330 -1.5460 0.3770 0 1
4.2234 -5.5060 -1.5031 0.3914 0 1
4.3262 -5.1941 -1.4643 0.4018 0 1
4.4206 -4.8936 -1.4285 0.4119 0 1
4.5054 -4.6017 -1.3950 0.4112 0 1
4.5814 -4.3179 -1.3637 0.4207 0 1
4.6507 -4.0432 -1.3349 0.4298 0 1
4.7193 -3.7810 -1.3099 0.4558 0 1
4.7890 -3.5308 -1.2888 0.4632 0 1
4.8537 -3.2860 -1.2697 0.4703 0 1
4.9143 -3.0467 -1.2525 0.4767 0 1
4.9702 -2.8115 -1.2369 0.4827 0 1
5.0214 -2.5800 -1.2229 0.4882 0 1
5.0682 -2.3518 -1.2103 0.4933 0 1
5.1109 -2.1266 -1.1991 0.4980 0 1
5.1496 -1.9039 -1.1893 0.5021 0 1
5.1844 -1.6834 -1.1807 0.5057 0 1
5.1927 1.9712 -1.2677 0.4898 0 1
5.1623 2.2007 -1.2809 0.4845 0 1
5.1278 2.4338 -1.2955 0.4790 0 1
5.0887 2.6707 -1.3117 0.4731 0 1
5.0448 2.9118 -1.3295 0.4668 0 1
4.9960 3.1577 -1.3490 0.4600 0 1
4.9419 3.4087 -1.3702 0.4529 0 1
4.8822 3.6653 -1.3934 0.4454 0 1
4.8174 3.9289 -1.4189 0.4374 0 1
4.7463 4.1993 -1.4465 0.4290 0 1
4.6636 4.4725 -1.4748 0.4329 0 1
4.5706 4.7501 -1.5046 0.4243 0 1
4.4700 5.0355 -1.5368 0.4154 0 1
4.3612 5.3294 -1.5718 0.4062 0 1
4.2464 5.6368 -1.6108 0.3946 0 1
4.1227 5.9559 -1.6533 0.3844 0 1
3.9884 6.2872 -1.6994 0.3740 0 1
3.8371 6.6226 -1.7470 0.4024 0 1
3.6606 6.9467 -1.7922 0.3922 0 1
3.4804 7.3016 -1.8462 0.3710 0 1
3.2870 7.6750 -1.9057 0.3594 0 1
3.0766 8.0642 -1.9700 0.3395 0 1
2.8437 8.4592 -2.0369 0.3283 0 1
2.6018 8.9094 -2.1184 0.3222 0 1
2.3319 9.3679 -2.2034 0.3098 0 1
2.0366 9.8543 -2.2967 0.2972 0 1
1.7132 10.3765 -2.4004 0.2822 0 1
1.3575 10.9395 -2.5160 0.2693 0 1
0.9605 11.5043 -2.6349 0.2580 0 24
0.5274 12.2224 -2.7923 0.2338 0 1
0.0381 12.8848 -2.9409 0.2240 0 24
-0.5116 13.7443 -3.1392 0.2080 0 1
-1.1376 14.6724 -3.3589 0.1786 0 1
-1.8550 15.7087 -3.6103 0.1696 0 1
-2.6781 16.8400 -3.8919 0.1575 0 1
-3.6281 18.0949 -4.2122 0.1490 0 1
-4.7210 19.4563 -4.5696 0.1373 0 1
-6.0079 21.0344 -4.9929 0.1296 0 1
-7.5132 22.7953 -5.4782 0.1197 0 1
-9.3585 24.9728 -6.0870 0.1035 0 1
-11.6590 27.6752 -6.8543 0.0894 0 1
-14.5487 30.9931 -7.8146 0.0876 0 1
-15.5832 30.0020 -7.7164 0.4843 0 15
-15.7471 27.5528 -7.2434 0.5245 0 15
-16.3081 26.0474 -7.0143 0.8656 0 15
-28.0983 37.7609 -10.7430 0.6173 0 3
-30.4466 37.6592 -11.0532 0.7625 0 3
-26.7388 30.4831 -9.2549 0.5578 0 3
-31.0550 32.6593 -10.2863 0.7113 0 3
-28.4455 27.6050 -9.0471 0.5284 0 3
-30.8981 27.6644 -9.4660 0.6554 0 3
-28.7479 23.7300 -8.5082 0.7794 0 3
-28.8152 21.9009 -8.2609 0.8027 0 3
-28.8770 20.1713 -8.0398 0.8247 0 3
-28.9318 18.5267 -7.8414 0.8456 0 3
-30.3772 17.7740 -8.0330 0.4982 0 3
-31.2570 16.6413 -8.0823 0.0648 0 3
-33.6410 16.2116 -8.5234 0.4591 0 3
-38.7055 16.7719 -9.6280 0.5650 0 3
-27.3071 9.3095 -6.5849 0.9550 0 22
-27.3387 8.1104 -6.5087 0.9656 0 22
-30.9843 -15.9262 -7.9515 0.8178 0 22
-30.8970 -17.4842 -8.1029 0.9426 0 22
-32.5508 -33.2571 -10.6215 0.9593 0 20
-30.8697 -34.1838 -10.5128 0.9706 0 20
-23.0333 -38.9838 -10.3348 0.7024 0 9
-19.1776 -35.6539 -9.2403 0.0642 0 2
-15.7742 -32.3798 -8.2208 0.0675 0 1
-12.3585 -28.1906 -7.0254 0.0812 0 1
-9.8338 -25.1307 -6.1594 0.0897 0 24
-7.8240 -22.6334 -5.4659 0.1041 0 1
-6.1985 -20.5722 -4.9040 0.1195 0 1
-4.8760 -18.8998 -4.4550 0.1376 0 1
-3.7829 -17.5484 -4.0973 0.1553 0 1
-2.8504 -16.3938 -3.7979 0.1672 0 1
-2.0404 -15.3697 -3.5388 0.1802 0 1
-1.3309 -14.4540 -3.3130 0.1939 0 1
-0.7052 -13.6409 -3.1176 0.2100 0 1
-0.1480 -12.8918 -2.9427 0.2218 0 1
0.3500 -12.1983 -2.7853 0.2243 0 1
0.7931 -11.5005 -2.6312 0.2351 0 24
1.1947 -10.9147 -2.5061 0.2486 0 1
1.5531 -10.3332 -2.3850 0.2634 0 1
1.8723 -9.7691 -2.2703 0.2740 0 24
2.1723 -9.2978 -2.1793 0.2878 0 1
2.4405 -8.8289 -2.0907 0.3014 0 1
2.6859 -8.3890 -2.0105 0.3134 0 1
2.9105 -7.9726 -1.9372 0.3252 0 1
3.1171 -7.5790 -1.8704 0.3402 0 1
3.3072 -7.2043 -1.8093 0.3508 0 1
3.4829 -6.8476 -1.7535 0.3588 0 1
3.6462 -6.5080 -1.7027 0.3695 0 1
3.7972 -6.1814 -1.6558 0.3800 0 1
3.9314 -5.8586 -1.6104 0.3805 0 1
4.0474 -5.5372 -1.5655 0.3950 0 1
4.1556 -5.2305 -1.5248 0.4056 0 1
4.2549 -4.9350 -1.4872 0.4158 0 1
4.3433 -4.6464 -1.4517 0.4154 0 1
4.4240 -4.3671 -1.4189 0.4250 0 1
4.4978 -4.0967 -1.3886 0.4342 0 1
4.5678 -3.8364 -1.3615 0.4609 0 1
4.6409 -3.5901 -1.3392 0.4686 0 1
4.7085 -3.3490 -1.3188 0.4758 0 1
4.7716 -3.1132 -1.3004 0.4826 0 1
4.8303 -2.8818 -1.2838 0.4888 0 1
4.8842 -2.6540 -1.2687 0.4946 0 1
4.9336 -2.4296 -1.2552 0.5000 0 1
4.9788 -2.2080 -1.2431 0.5049 0 1
5.0198 -1.9890 -1.2324 0.5093 0 1
5.0569 -1.7722 -1.2230 0.5132 0 1
5.0902 -1.5574 -1.2150 0.5166 0 1
5.1197 -1.3441 -1.2081 0.5195 0 1
3.8722 -0.8520 -0.9049 0.6385 25 14
3.8295 -0.6827 -0.8878 0.9666 25 14
3.8258 -0.5245 -0.8814 0.9819 25 14
3.8206 -0.3682 -0.8761 0.9879 25 14
3.8152 -0.2135 -0.8722 0.9923 25 14
3.8097 -0.0600 -0.8697 0.9952 25 14
3.8116 0.0931 -0.8702 0.9945 25 14
3.8170 0.2469 -0.8730 0.9913 25 14
3.8224 0.4019 -0.8772 0.9866 25 14
3.8256 0.5584 -0.8824 0.9726 25 14
3.8265 0.7165 -0.8885 0.9659 25 14
3.9154 0.8972 -0.9168 0.6302 25 14
5.2383 1.4240 -1.2390 0.5087 0 1
5.2256 1.6486 -1.2507 0.5040 0 1
5.2044 1.8748 -1.2626 0.4918 0 1
5.1757 2.1029 -1.2751 0.4867 0 1
5.1430 2.3345 -1.2891 0.4814 0 1
5.1058 2.5697 -1.3046 0.4756 0 1
5.0640 2.8090 -1.3217 0.4695 0 1
5.0173 3.0528 -1.3405 0.4629 0 1
4.9655 3.3015 -1.3610 0.4560 0 1
4.9082 3.5557 -1.3833 0.4486 0 1
4.8457 3.8162 -1.4078 0.4408 0 1
4.7773 4.0836 -1.4345 0.4326 0 1
4.7009 4.3569 -1.4629 0.4364 0 1
4.6110 4.6314 -1.4917 0.4280 0 1
4.5137 4.9134 -1.5228 0.4192 0 1
4.4084 5.2036 -1.5566 0.4101 0 1
4.2960 5.5047 -1.5937 0.3988 0 1
4.1764 5.8191 -1.6348 0.3888 0 1
4.0467 6.1450 -1.6794 0.3785 0 1
3.9059 6.4838 -1.7277 0.3679 0 1
3.7370 6.8079 -1.7726 0.3966 0 1
3.5579 7.1480 -1.8224 0.3759 0 1
3.3709 7.5145 -1.8798 0.3644 0 1
3.1684 7.8979 -1.9423 0.3527 0 1
2.9448 8.2894 -2.0078 0.3331 0 1
2.7066 8.7135 -2.0825 0.3038 0 1
2.4494 9.1701 -2.1664 0.3151 0 1
2.1652 9.6443 -2.2560 0.3026 0 1
1.8539 10.1492 -2.3548 0.2877 0 1
1.5128 10.6957 -2.4655 0.2748 0 1
1.1316 11.2400 -2.5784 0.2650 0 24
0.7189 11.9326 -2.7285 0.2393 0 1
0.2515 12.5721 -2.8701 0.2315 0 24
-0.2702 13.3975 -3.0585 0.2134 0 1
-0.8606 14.2472 -3.2577 0.1934 0 1
-1.5390 15.2617 -3.5011 0.1725 0 1
-2.3142 16.3433 -3.7675 0.1627 0 1
-3.2075 17.5432 -4.0705 0.1527 0 1
-4.2365 18.8564 -4.4111 0.1446 0 1
-5.4380 20.3464 -4.8069 0.1306 0 1
-6.8426 22.0159 -5.2621 0.1230 0 1
-8.5212 23.9744 -5.8074 0.1084 0 1
-10.6107 26.4373 -6.5020 0.0980 0 1
-13.2552 29.5359 -7.3891 0.0862 0 1
-15.4852 31.0978 -7.9292 0.7235 0 15
-15.6668 28.5302 -7.4290 0.5262 0 15
-15.8691 26.3336 -7.0175 0.5190 0 15
-17.1663 26.0584 -7.1222 0.7630 0 15
-29.4049 37.6661 -10.9066 0.7728 0 3
-28.3175 33.4149 -9.9971 0.6633 0 3
-23.1642 25.2076 -7.8138 0.7024 0 5
-28.5404 28.6577 -9.2314 0.7183 0 3
-28.7793 26.6649 -8.9548 0.6676 0 3
-32.3626 27.6546 -9.7161 0.6385 0 3
-28.7866 22.6636 -8.3623 0.7929 0 3
-28.8517 20.8941 -8.1307 0.8155 0 3
-28.9094 19.2149 -7.9229 0.8369 0 3
-29.2356 17.7818 -7.8102 0.5124 0 3
-31.6206 17.5330 -8.2524 0.4787 0 3
-35.2642 17.7407 -9.0100 0.4442 0 3
-38.6755 17.5477 -9.6935 0.8455 0 3
-43.5441 17.6842 -10.7270 0.3731 0 3
-27.3063 9.8318 -6.6242 0.9292 0 22
-27.3486 7.4299 -6.4684 0.9629 0 22
-30.8694 -18.4236 -8.2052 0.8502 0 22
-33.2781 -32.8606 -10.6745 0.9545 0 20
-31.5765 -33.7904 -10.5558 0.9667 0 20
-30.7337 -35.6572 -10.7444 0.3863 0 20
-28.6032 -39.1445 -11.0655 0.6217 0 20
-25.4669 -41.4720 -11.1079 0.5470 0 9
-21.3206 -38.0681 -9.9587 0.0596 0 2
-16.6965 -32.8392 -8.4085 0.0705 0 2
-13.6604 -29.7699 -7.4760 0.0757 0 1
-10.8629 -26.4244 -6.5209 0.0918 0 1
-8.6309 -23.6543 -5.7471 0.0990 0 1
-6.8450 -21.3908 -5.1262 0.1139 0 1
-5.4041 -19.5621 -4.6322 0.1280 0 1
-4.2225 -18.0855 -4.2389 0.1501 0 1
-3.2296 -16.8657 -3.9194 0.1620 0 1
-2.3706 -15.7893 -3.6442 0.1743 0 1
-1.6209 -14.8307 -3.4052 0.1873 0 1
-0.9618 -13.9790 -3.1982 0.2047 0 1
-0.3767 -13.2024 -3.0146 0.2172 0 1
0.1454 -12.4873 -2.8503 0.2290 0 1
0.6124 -11.8096 -2.6991 0.2314 0 1
1.0305 -11.1724 -2.5609 0.2431 0 1
1.4055 -10.5741 -2.4347 0.2559 0 1
1.7440 -10.0211 -2.3216 0.2706 0 1
2.0508 -9.5063 -2.2197 0.2826 0 1
2.3296 -9.0237 -2.1271 0.2949 0 1
2.5845 -8.5726 -2.0436 0.3083 0 1
2.8176 -8.1466 -1.9675 0.3202 0 1
3.0312 -7.7428 -1.8978 0.3353 0 1
3.2285 -7.3613 -1.8346 0.3460 0 1
3.4096 -6.9961 -1.7764 0.3573 0 1
3.5785 -6.6504 -1.7237 0.3650 0 1
3.7346 -6.3184 -1.6752 0.3756 0 1
3.8789 -5.9988 -1.6305 0.3859 0 1
3.9993 -5.6718 -1.5840 0.3868 0 1
4.1108 -5.3592 -1.5416 0.4012 0 1
4.2138 -5.0591 -1.5028 0.4115 0 1
4.3068 -4.7677 -1.4664 0.4112 0 1
4.3907 -4.4845 -1.4325 0.4209 0 1
4.4673 -4.2104 -1.4011 0.4304 0 1
4.5373 -3.9446 -1.3722 0.4394 0 1
4.6106 -3.6940 -1.3484 0.4653 0 1
4.6805 -3.4507 -1.3272 0.4728 0 1
4.7452 -3.2126 -1.3079 0.4798 0 1
4.8059 -2.9795 -1.2906 0.4863 0 1
4.8619 -2.7502 -1.2749 0.4922 0 1
4.9132 -2.5244 -1.2608 0.4978 0 1
4.9601 -2.3017 -1.2481 0.5028 0 1
5.0029 -2.0816 -1.2368 0.5075 0 1
5.0417 -1.8640 -1.2269 0.5116 0 1
5.0765 -1.6483 -1.2182 0.5152 0 1
5.0804 1.9286 -1.3038 0.4994 0 1
5.0494 2.1526 -1.3170 0.4940 0 1
5.0144 2.3800 -1.3317 0.4886 0 1
4.9748 2.6109 -1.3480 0.4827 0 1
4.9304 2.8458 -1.3659 0.4764 0 1
4.8810 3.0850 -1.3854 0.4696 0 1
4.8264 3.3290 -1.4068 0.4625 0 1
4.7663 3.5783 -1.4300 0.4550 0 1
4.7011 3.8339 -1.4555 0.4471 0 1
4.6295 4.0959 -1.4831 0.4387 0 1
4.5498 4.3634 -1.5125 0.4425 0 1
4.4569 4.6319 -1.5423 0.4340 0 1
4.3565 4.9076 -1.5745 0.4251 0 1
4.2479 5.1911 -1.6094 0.4159 0 1
4.1332 5.4865 -1.6481 0.4043 0 1
4.0100 5.7930 -1.6904 0.3942 0 1
3.8763 6.1106 -1.7362 0.3838 0 1
3.7315 6.4402 -1.7859 0.3731 0 1
3.5626 6.7608 -1.8336 0.4020 0 1
3.3825 7.0963 -1.8862 0.3808 0 1
3.1917 7.4525 -1.9452 0.3692 0 1
2.9815 7.8149 -2.0069 0.3494 0 1
2.7529 8.1891 -2.0729 0.3383 0 1
2.5128 8.6045 -2.1507 0.3085 0 1
2.2538 9.0541 -2.2387 0.3197 0 1
1.9656 9.5108 -2.3302 0.3071 0 1
1.6505 9.9966 -2.4310 0.2922 0 1
1.3055 10.5204 -2.5435 0.2793 0 1
0.9224 11.0483 -2.6601 0.2708 0 24
0.5041 11.6811 -2.8053 0.2386 0 1
0.0364 12.3005 -2.9513 0.2377 0 24
-0.4864 13.0674 -3.1375 0.2133 0 1
-1.0743 13.8571 -3.3347 0.2053 0 1
-1.7429 14.7590 -3.5658 0.1776 0 1
-2.5061 15.7584 -3.8285 0.1677 0 1
-3.3804 16.8599 -4.1258 0.1580 0 1
-4.3802 18.0520 -4.4569 0.1487 0 1
-5.5356 19.3808 -4.8360 0.1361 0 1
-6.8799 20.8738 -5.2733 0.1279 0 1
-8.4733 22.6106 -5.7934 0.1111 0 1
-10.4396 24.7805 -6.4517 0.1008 0 1
-12.8614 27.3986 -7.2621 0.0927 0 1
-15.7692 30.3601 -8.2084 0.0830 0 1
-15.6756 27.4276 -7.5797 0.6222 0 15
-16.3024 26.0383 -7.3709 0.8411 0 15
-23.4982 34.3801 -9.9915 0.7836 0 21
-27.9344 37.5406 -11.2273 0.6193 0 3
-26.3909 32.6427 -10.0715 0.7846 0 3
-22.9237 26.1338 -8.3408 0.6787 0 5
-23.0403 24.2306 -8.0224 0.5945 0 5
-23.1343 22.4507 -7.7347 0.6572 0 5
-30.8970 27.6634 -9.9504 0.6537 0 3
-28.6149 23.6202 -8.9025 0.7810 0 3
-28.6857 21.8026 -8.6450 0.8042 0 3
-32.4320 22.6545 -9.4919 0.5624 0 3
-28.8084 18.4477 -8.2078 0.8470 0 3
-30.3757 17.7731 -8.4440 0.4969 0 3
-33.3449 17.7529 -9.0637 0.4629 0 3
-34.1219 16.4434 -9.0880 0.9018 0 3
-36.9760 16.0224 -9.6688 0.2701 0 3
-43.4349 16.7833 -11.1724 0.5766 0 3
-27.2361 9.2853 -6.9041 0.9826 0 22
-27.2368 8.0802 -6.8165 0.9667 0 22
-23.6865 -4.6443 -5.7914 0.7144 16 6
-30.8591 -15.8618 -8.3249 0.8190 0 22
-30.7913 -17.4244 -8.4887 0.8981 0 22
-32.4882 -33.1931 -11.1440 0.9600 0 20
-30.6672 -33.9596 -10.9786 0.9130 0 20
-31.0410 -37.2801 -11.6394 0.3763 0 20
-28.5442 -37.2254 -11.2551 0.6409 0 20
-23.0172 -35.6093 -10.1733 0.6270 0 9
-20.6056 -34.8748 -9.7190 0.0640 0 2
-16.5743 -30.8139 -8.3949 0.5193 0 2
-13.5950 -27.9065 -7.4479 0.0804 0 1
-10.9369 -24.9479 -6.5357 0.0958 0 24
-8.8254 -22.5537 -5.8109 0.1019 0 1
-7.1003 -20.5400 -5.2144 0.1174 0 1
-5.6889 -18.8807 -4.7312 0.1363 0 1
-4.5251 -17.5396 -4.3461 0.1535 0 1
-3.5356 -16.4012 -4.0256 0.1655 0 1
-2.6773 -15.3980 -3.7499 0.1776 0 1
-1.9250 -14.5002 -3.5096 0.1919 0 1
-1.2619 -13.7049 -3.3022 0.2089 0 1
-0.6695 -12.9500 -3.1113 0.2196 0 24
-0.1411 -12.2931 -2.9497 0.2320 0 1
0.3339 -11.6377 -2.7934 0.2345 0 1
0.7605 -11.0282 -2.6523 0.2461 0 1
1.1450 -10.4613 -2.5250 0.2587 0 1
1.4921 -9.9268 -2.4085 0.2731 0 1
1.8013 -9.3988 -2.2961 0.2838 0 24
2.0939 -8.9622 -2.2082 0.2979 0 1
2.3562 -8.5239 -2.1218 0.3113 0 1
2.5966 -8.1099 -2.0431 0.3233 0 1
2.8173 -7.7173 -1.9711 0.3385 0 1
3.0212 -7.3459 -1.9058 0.3492 0 1
3.2086 -6.9895 -1.8453 0.3607 0 1
3.3814 -6.6481 -1.7896 0.3719 0 1
3.5426 -6.3229 -1.7390 0.3794 0 1
3.6921 -6.0103 -1.6924 0.3898 0 1
3.8234 -5.6977 -1.6463 0.3902 0 1
3.9402 -5.3905 -1.6020 0.4047 0 1
4.0483 -5.0955 -1.5615 0.4153 0 1
4.1450 -4.8074 -1.5230 0.4151 0 1
4.2335 -4.5289 -1.4875 0.4250 0 1
4.3147 -4.2592 -1.4547 0.4346 0 1
4.3889 -3.9975 -1.4244 0.4439 0 1
4.4634 -3.7488 -1.3985 0.4704 0 1
4.5366 -3.5094 -1.3762 0.4781 0 1
4.6042 -3.2749 -1.3556 0.4853 0 1
4.6673 -3.0451 -1.3371 0.4921 0 1
4.7260 -2.8196 -1.3204 0.4983 0 1
4.7800 -2.5974 -1.3053 0.5041 0 1
4.8295 -2.3783 -1.2916 0.5094 0 1
4.8747 -2.1618 -1.2795 0.5144 0 1
4.9158 -1.9478 -1.2687 0.5187 0 1
4.9529 -1.7358 -1.2592 0.5226 0 1
4.9861 -1.5256 -1.2511 0.5260 0 1
5.0156 -1.3168 -1.2442 0.5289 0 1
3.8745 -0.8525 -0.9519 0.6003 25 14
3.8245 -0.6818 -0.9321 0.9735 25 14
3.8195 -0.5236 -0.9250 0.9810 25 14
3.8144 -0.3676 -0.9194 0.9869 25 14
3.8091 -0.2132 -0.9153 0.9913 25 14
3.8036 -0.0599 -0.9127 0.9942 25 14
3.8055 0.0930 -0.9133 0.9935 25 14
3.8110 0.2465 -0.9163 0.9903 25 14
3.8162 0.4013 -0.9207 0.9856 25 14
3.8214 0.5577 -0.9266 0.9793 25 14
3.8245 0.7161 -0.9336 0.9639 25 14
3.9195 0.8982 -0.9648 0.5923 25 14
5.1297 1.3945 -1.2754 0.5182 0 1
5.1163 1.6141 -1.2872 0.5134 0 1
5.0923 1.8344 -1.2987 0.5013 0 1
5.0631 2.0572 -1.3112 0.4965 0 1
5.0298 2.2831 -1.3253 0.4909 0 1
4.9921 2.5124 -1.3409 0.4852 0 1
4.9498 2.7456 -1.3581 0.4791 0 1
4.9026 2.9830 -1.3769 0.4725 0 1
4.8503 3.2249 -1.3975 0.4656 0 1
4.7925 3.4719 -1.4199 0.4582 0 1
4.7295 3.7247 -1.4444 0.4505 0 1
4.6607 3.9839 -1.4711 0.4423 0 1
4.5853 4.2498 -1.5000 0.4338 0 1
4.4972 4.5172 -1.5294 0.4377 0 1
4.4001 4.7897 -1.5605 0.4289 0 1
4.2950 5.0698 -1.5942 0.4199 0 1
4.1826 5.3595 -1.6312 0.4085 0 1
4.0635 5.6617 -1.6721 0.3985 0 1
3.9344 5.9744 -1.7164 0.3883 0 1
3.7944 6.2988 -1.7643 0.3777 0 1
3.6380 6.6276 -1.8140 0.4063 0 1
3.4591 6.9495 -1.8626 0.3856 0 1
3.2745 7.2995 -1.9195 0.3741 0 1
3.0733 7.6608 -1.9805 0.3540 0 1
2.8521 8.0284 -2.0442 0.3430 0 1
2.6142 8.4159 -2.1144 0.3138 0 1
2.3687 8.8680 -2.2023 0.3250 0 1
2.0910 9.3138 -2.2903 0.3125 0 1
1.7876 9.7860 -2.3868 0.2999 0 1
1.4560 10.2939 -2.4944 0.2848 0 1
1.0881 10.8074 -2.6061 0.2805 0 24
0.6877 11.4148 -2.7438 0.2440 0 1
0.2405 12.0189 -2.8843 0.2442 0 24
-0.2572 12.7533 -3.0605 0.2187 0 1
-0.8163 13.5131 -3.2481 0.2061 0 1
-1.4483 14.3624 -3.4635 0.1828 0 1
-2.1700 15.3247 -3.7136 0.1729 0 1
-2.9949 16.3809 -3.9955 0.1608 0 1
-3.9395 17.5344 -4.3119 0.1526 0 1
-5.0223 18.7907 -4.6667 0.1433 0 1
-6.2856 20.2239 -5.0813 0.1313 0 1
-7.7543 21.8165 -5.5553 0.1214 0 1
-9.5559 23.8092 -6.1555 0.1075 0 1
-11.7758 26.2396 -6.9007 0.0966 0 1
-14.4515 29.0219 -7.7788 0.0935 0 24
-15.6172 28.4399 -7.7848 0.5055 0 15
-15.7890 26.2008 -7.3396 0.6397 0 15
-17.1676 26.0604 -7.4875 0.7327 0 15
-26.9993 37.6056 -11.1074 0.8971 0 3
-29.4040 37.6649 -11.4648 0.7708 0 3
-28.1637 33.2334 -10.4519 0.6652 0 3
-22.9886 25.0165 -8.1517 0.7202 0 5
-23.0809 23.1757 -7.8478 0.7034 0 5
-23.1520 21.4510 -7.5727 0.6913 0 5
-26.8583 22.9510 -8.4765 0.6317 0 3
-28.6557 22.5605 -8.7505 0.7945 0 3
-28.5859 20.7017 -8.4683 0.5983 0 3
-28.7848 19.1321 -8.2928 0.8384 0 3
-29.0041 17.6410 -8.1451 0.7423 0 3
-32.0333 17.7618 -8.7883 0.4775 0 3
-35.2623 17.7397 -9.4709 0.4430 0 3
-38.5092 17.4723 -10.1461 0.3057 0 3
-43.5412 17.6831 -11.2756 0.3721 0 3
-27.2064 9.7958 -6.9379 0.9284 0 22
-27.2411 7.4006 -6.7729 0.9905 0 22
-30.7302 -18.3405 -8.5865 0.8076 0 22
-33.2117 -32.7951 -11.1988 0.9539 0 20
-31.4717 -33.6782 -11.0595 0.9044 0 20
-30.4654 -35.3458 -11.1960 0.3912 0 20
-23.9636 -30.1724 -9.2448 0.7461 0 20
-28.0566 -38.3963 -11.4099 0.6228 0 20
-26.9256 -40.1384 -11.5966 0.5693 0 9
-22.4477 -36.5553 -10.2925 0.7154 0 9
-18.0465 -32.2221 -8.8611 0.0702 0 2
-15.0239 -29.5495 -7.9536 0.0684 0 1
-11.9742 -26.0953 -6.8888 0.0895 0 1
-9.6807 -23.5486 -6.1089 0.0970 0 1
-7.7866 -21.3402 -5.4504 0.1126 0 1
-6.2546 -19.5459 -4.9240 0.1248 0 1
-4.9943 -18.0785 -4.5001 0.1428 0 1
-3.9387 -16.8701 -4.1565 0.1571 0 1
-3.0275 -15.8106 -3.8624 0.1724 0 1
-2.2326 -14.8697 -3.6077 0.1853 0 1
-1.5331 -14.0276 -3.3857 0.2038 0 1
-0.9136 -13.2784 -3.1935 0.2150 0 1
-0.3588 -12.5755 -3.0185 0.2267 0 1
0.1386 -11.9096 -2.8577 0.2292 0 1
0.5850 -11.2814 -2.7104 0.2408 0 1
0.9867 -10.6971 -2.5775 0.2532 0 1
1.3488 -10.1477 -2.4562 0.2682 0 1
1.6771 -9.6366 -2.3469 0.2803 0 1
1.9692 -9.1279 -2.2405 0.2909 0 24
2.2477 -8.7064 -2.1574 0.3062 0 1
2.4971 -8.2829 -2.0757 0.3183 0 1
2.7258 -7.8812 -2.0008 0.3302 0 1
2.9368 -7.5015 -1.9329 0.3452 0 1
3.1309 -7.1388 -1.8703 0.3558 0 1
3.3098 -6.7912 -1.8126 0.3672 0 1
3.4756 -6.4591 -1.7599 0.3749 0 1
3.6301 -6.1416 -1.7117 0.3854 0 1
3.7713 -5.8325 -1.6665 0.3855 0 1
3.8916 -5.5190 -1.6203 0.4002 0 1
4.0035 -5.2194 -1.5783 0.4108 0 1
4.1050 -4.9285 -1.5390 0.4108 0 1
4.1969 -4.6460 -1.5022 0.4209 0 1
4.2811 -4.3726 -1.4683 0.4306 0 1
4.3582 -4.1076 -1.4369 0.4400 0 1
4.4306 -3.8519 -1.4086 0.4671 0 1
4.5063 -3.6104 -1.3854 0.4749 0 1
4.5762 -3.3739 -1.3641 0.4823 0 1
4.6409 -3.1420 -1.3447 0.4893 0 1
4.7017 -2.9149 -1.3273 0.4957 0 1
4.7577 -2.6913 -1.3115 0.5017 0 1
4.8091 -2.4709 -1.2972 0.5072 0 1
4.8560 -2.2534 -1.2844 0.5124 0 1
4.8989 -2.0383 -1.2731 0.5169 0 1
4.9376 -1.8255 -1.2631 0.5210 0 1
4.9725 -1.6146 -1.2544 0.5246 0 1
4.9722 1.8875 -1.3386 0.5088 0 1
4.9408 2.1063 -1.3518 0.5035 0 1
4.9053 2.3282 -1.3666 0.4981 0 1
4.8653 2.5534 -1.3829 0.4922 0 1
4.8205 2.7823 -1.4008 0.4859 0 1
4.7707 3.0153 -1.4204 0.4792 0 1
4.7157 3.2527 -1.4418 0.4721 0 1
4.6553 3.4950 -1.4651 0.4646 0 1
4.5896 3.7430 -1.4906 0.4567 0 1
4.5177 3.9970 -1.5182 0.4484 0 1
4.4392 4.2573 -1.5480 0.4397 0 1
4.3482 4.5189 -1.5783 0.4436 0 1
4.2480 4.7854 -1.6105 0.4348 0 1
4.1399 5.0590 -1.6453 0.4256 0 1
4.0254 5.3433 -1.6837 0.4140 0 1
3.9027 5.6381 -1.7258 0.4039 0 1
3.7699 5.9428 -1.7713 0.3936 0 1
3.6262 6.2585 -1.8205 0.3829 0 1
3.4692 6.5837 -1.8730 0.4117 0 1
3.2895 6.9012 -1.9242 0.3905 0 1
3.0997 7.2378 -1.9816 0.3702 0 1
2.8916 7.5794 -2.0417 0.3593 0 1
2.6673 7.9344 -2.1068 0.3482 0 1
2.4280 8.3141 -2.1799 0.3184 0 1
2.1780 8.7497 -2.2693 0.3058 0 1
1.8990 9.1887 -2.3615 0.3170 0 1
1.5921 9.6426 -2.4597 0.3044 0 1
1.2571 10.1303 -2.5692 0.2892 0 1
0.8891 10.6497 -2.6897 0.2760 0 1
0.4823 11.1764 -2.8155 0.2509 0 1
0.0348 11.7680 -2.9618 0.2479 0 24
-0.4630 12.4371 -3.1324 0.2235 0 1
-1.0143 13.0827 -3.3026 0.2151 0 24
-1.6432 13.9153 -3.5266 0.1994 0 1
-2.3537 14.8000 -3.7717 0.1756 0 1
-3.1619 15.7697 -4.0480 0.1659 0 1
-4.0808 16.8180 -4.3556 0.1581 0 1
-5.1290 17.9575 -4.7003 0.1475 0 1
-6.3366 19.2255 -5.0948 0.1370 0 1
-7.6933 20.5294 -5.5178 0.1191 0 24
-9.4359 22.3982 -6.1171 0.1101 0 1
-11.5094 24.5185 -6.8170 0.0998 0 1
-14.0077 26.9687 -7.6486 0.0934 0 1
-15.6501 27.3831 -7.9381 0.8976 0 15
-16.3104 26.0510 -7.7357 0.8349 0 15
-23.4052 34.2440 -10.4394 0.9955 0 21
-25.7514 34.6069 -10.8568 0.9256 0 21
-27.9288 34.5449 -11.1804 0.6506 0 3
-22.8032 25.9964 -8.7033 0.6804 0 5
-22.9120 24.0956 -8.3684 0.7636 0 5
-23.0015 22.3219 -8.0670 0.7253 0 5
-27.6056 24.7165 -9.3258 0.7582 0 3
-28.4824 23.5109 -9.2953 0.7825 0 3
-28.5567 21.7045 -9.0276 0.8056 0 3
-32.4306 22.6535 -9.9564 0.5609 0 3
-28.6854 18.3689 -8.5730 0.8484 0 3
-27.8478 16.2940 -8.1204 0.6554 0 3
-33.3431 17.7519 -9.5072 0.4617 0 3
-36.7882 17.7283 -10.2780 0.4271 0 3
-38.6712 16.7570 -10.6074 0.7941 0 3
-27.1318 9.2497 -7.2145 0.9304 0 22
-27.1325 8.0492 -7.1230 0.9613 0 22
-23.5869 -4.6248 -6.0495 0.7824 16 6
-30.7042 -15.7822 -8.6888 0.9554 0 22
-32.5385 -33.2445 -11.7079 0.8937 0 20
-30.6307 -33.9192 -11.5026 0.9116 0 20
-28.5708 -34.3134 -11.2379 0.6724 0 20
-28.0117 -36.5310 -11.5861 0.6416 0 20
-25.9134 -36.7627 -11.3202 0.8828 0 9
-17.6596 -27.3207 -8.1876 0.9955 0 6
-17.6216 -29.8245 -8.7186 0.0746 0 2
-14.8228 -27.5578 -7.8755 0.0728 0 1
-11.9840 -24.5997 -6.8869 0.0936 0 1
-9.8059 -22.3680 -6.1469 0.1008 0 1
-7.9959 -20.4338 -5.5226 0.1163 0 1
-6.5037 -18.8142 -5.0102 0.1284 0 1
-5.2696 -17.4891 -4.5972 0.1463 0 1
-4.2238 -16.3717 -4.2554 0.1605 0 1
-3.3181 -15.3925 -3.9630 0.1758 0 1
-2.5239 -14.5156 -3.7081 0.1900 0 1
-1.8224 -13.7277 -3.4853 0.2071 0 1
-1.1962 -12.9918 -3.2836 0.2163 0 24
-0.6392 -12.3643 -3.1160 0.2297 0 1
-0.1346 -11.7217 -2.9503 0.2322 0 1
0.3192 -11.1226 -2.8005 0.2438 0 1
0.7285 -10.5633 -2.6649 0.2562 0 1
1.0990 -10.0409 -2.5422 0.2686 0 1
1.4300 -9.5142 -2.4215 0.2812 0 24
1.7412 -9.0854 -2.3283 0.2955 0 1
2.0138 -8.6192 -2.2277 0.3068 0 24
2.2771 -8.2377 -2.1510 0.3213 0 1
2.5125 -7.8474 -2.0738 0.3332 0 1
2.7300 -7.4784 -2.0037 0.3484 0 1
2.9305 -7.1254 -1.9391 0.3591 0 1
3.1152 -6.7861 -1.8793 0.3705 0 1
3.2859 -6.4603 -1.8242 0.3817 0 1
3.4441 -6.1472 -1.7734 0.3891 0 1
3.5922 -5.8477 -1.7273 0.3996 0 1
3.7209 -5.5449 -1.6807 0.4036 0 1
3.8379 -5.2505 -1.6369 0.4041 0 1
3.9432 -4.9632 -1.5954 0.4146 0 1
4.0399 -4.6855 -1.5571 0.4248 0 1
4.1286 -4.4167 -1.5216 0.4346 0 1
4.2101 -4.1559 -1.4889 0.4442 0 1
4.2847 -3.9025 -1.4586 0.4534 0 1
4.3632 -3.6646 -1.4341 0.4799 0 1
4.4364 -3.4319 -1.4117 0.4876 0 1
4.5040 -3.2036 -1.3911 0.4948 0 1
4.5670 -2.9797 -1.3724 0.5015 0 1
4.6257 -2.7597 -1.3557 0.5078 0 1
4.6797 -2.5429 -1.3405 0.5135 0 1
4.7292 -2.3289 -1.3267 0.5188 0 1
4.7744 -2.1173 -1.3145 0.5237 0 1
4.8155 -1.9080 -1.3036 0.5281 0 1
4.8525 -1.7006 -1.2941 0.5320 0 1
4.8857 -1.4948 -1.2859 0.5354 0 1
4.9151 -1.2904 -1.2790 0.5383 0 1
3.8775 -0.8532 -0.9992 0.6706 25 14
3.8306 -0.6829 -0.9793 0.8960 25 14
3.8214 -0.5239 -0.9708 0.9039 25 14
3.8125 -0.3674 -0.9640 0.9102 25 14
3.8040 -0.2129 -0.9589 0.9151 25 14
3.7974 -0.0598 -0.9559 0.9931 25 14
3.7994 0.0928 -0.9565 0.9924 25 14
3.8048 0.2461 -0.9596 0.9892 25 14
3.8101 0.4006 -0.9642 0.9845 25 14
3.8153 0.5568 -0.9704 0.9042 25 14
3.8221 0.7156 -0.9787 0.8966 25 14
3.9245 0.8993 -1.0133 0.5899 25 14
5.0250 1.3660 -1.3106 0.5275 0 1
5.0098 1.5805 -1.3221 0.5151 0 1
4.9843 1.7955 -1.3334 0.5108 0 1
4.9547 2.0131 -1.3460 0.5060 0 1
4.9209 2.2337 -1.3601 0.5004 0 1
4.8828 2.4574 -1.3758 0.4947 0 1
4.8401 2.6847 -1.3930 0.4886 0 1
4.7924 2.9159 -1.4119 0.4821 0 1
4.7397 3.1514 -1.4325 0.4751 0 1
4.6815 3.3915 -1.4550 0.4678 0 1
4.6182 3.6371 -1.4795 0.4601 0 1
4.5490 3.8885 -1.5062 0.4519 0 1
4.4734 4.1460 -1.5351 0.4434 0 1
4.3884 4.4078 -1.5654 0.4473 0 1
4.2914 4.6715 -1.5965 0.4386 0 1
4.1868 4.9420 -1.6302 0.4295 0 1
4.0746 5.2210 -1.6668 0.4182 0 1
3.9559 5.5118 -1.7075 0.4083 0 1
3.8275 5.8122 -1.7515 0.3980 0 1
3.6886 6.1231 -1.7991 0.3875 0 1
3.5381 6.4456 -1.8506 0.3767 0 1
3.3652 6.7608 -1.9007 0.3953 0 1
3.1829 7.0954 -1.9572 0.3839 0 1
2.9818 7.4328 -2.0156 0.3639 0 1
2.7646 7.7820 -2.0785 0.3529 0 1
2.5302 8.1454 -2.1467 0.3417 0 1
2.2869 8.5618 -2.2304 0.3112 0 1
2.0214 9.0037 -2.3225 0.3224 0 1
1.7256 9.4469 -2.4170 0.3098 0 1
1.4030 9.9193 -2.5214 0.2947 0 1
1.0497 10.4259 -2.6373 0.2818 0 1
0.6592 10.9421 -2.7589 0.2690 0 1
0.2303 11.5128 -2.8982 0.2560 0 24
-0.2451 12.1525 -3.0592 0.2289 0 1
-0.7723 12.7855 -3.2238 0.2214 0 24
-1.3698 13.5837 -3.4361 0.2047 0 1
-2.0407 14.4114 -3.6633 0.1808 0 1
-2.8058 15.3463 -3.9264 0.1710 0 1
-3.6777 16.3693 -4.2226 0.1630 0 1
-4.6666 17.4601 -4.5487 0.1525 0 1
-5.8041 18.6746 -4.9219 0.1399 0 1
-7.1152 20.0184 -5.3471 0.1306 0 1
-8.6696 21.6009 -5.8581 0.1150 0 1
-10.5750 23.5638 -6.5005 0.1047 0 1
-12.8943 25.8946 -7.2805 0.0981 0 1
-15.6019 28.4122 -8.1581 0.0922 0 1
-15.7350 26.1111 -7.6728 0.8518 0 15
-17.1811 26.0808 -7.8604 0.7270 0 15
-26.0993 36.3521 -11.2631 0.6069 0 3
-27.8645 35.6929 -11.3966 0.6382 0 3
-27.8796 32.8981 -10.8532 0.5999 0 3
-22.8613 24.8780 -8.5036 0.6426 0 5
-22.9793 23.0737 -8.1959 0.6950 0 5
-29.8634 27.6694 -10.2464 0.6641 0 3
-27.7432 23.7072 -9.1846 0.9084 0 3
-28.5253 22.4578 -9.1373 0.7960 0 3
-31.2918 22.6613 -9.7239 0.5743 0 3
-28.5545 18.9790 -8.6293 0.9944 0 3
-29.2328 17.7801 -8.6114 0.5097 0 3
-32.0317 17.7609 -9.2182 0.4762 0 3
-35.2603 17.7388 -9.9342 0.4419 0 3
-38.6627 17.5419 -10.6855 0.5769 0 3
-43.5323 17.6794 -11.8254 0.3711 0 3
-27.1266 9.7671 -7.2564 0.9536 0 22
-27.0774 8.5376 -7.1457 0.8823 0 6
-27.1354 7.3719 -7.0771 0.9916 0 22
-46.6238 8.7220 -11.9380 0.9491 0 22
-46.6259 6.7975 -11.8590 0.9855 0 22
-30.7003 -16.6886 -8.7946 0.9039 0 22
-30.6041 -18.2653 -8.9701 0.8658 0 22
-24.9422 -17.7469 -7.7044 0.7060 15 6
-33.3744 -32.9557 -11.8048 0.8864 0 20
-31.4308 -33.6344 -11.5861 0.9051 0 20
-29.1926 -33.8692 -11.2537 0.0205 0 20
-28.0908 -35.3690 -11.3678 0.6540 0 20
-26.4204 -36.1572 -11.2707 0.4786 0 9
-22.7495 -33.9129 -10.2779 0.9609 0 9
-19.2909 -31.4146 -9.2783 0.0701 0 2
-16.4848 -29.4337 -8.4907 0.0898 0 2
-13.0864 -25.7387 -7.2672 0.0856 0 1
-10.6790 -23.2727 -6.4446 0.0994 0 1
-8.7166 -21.2034 -5.7699 0.1113 0 1
-7.1040 -19.4694 -5.2161 0.1233 0 1
-5.7677 -18.0244 -4.7631 0.1416 0 1
-4.6500 -16.8322 -4.3951 0.1554 0 1
-3.6873 -15.7933 -4.0818 0.1707 0 1
-2.8485 -14.8758 -3.8120 0.1835 0 1
-2.1098 -14.0517 -3.5762 0.1971 0 1
-1.4556 -13.3180 -3.3719 0.2141 0 1
-0.8698 -12.6415 -3.1892 0.2252 0 1
-0.3421 -11.9894 -3.0187 0.2270 0 1
0.1324 -11.3721 -2.8624 0.2394 0 1
0.5598 -10.7959 -2.7208 0.2509 0 1
0.9462 -10.2583 -2.5928 0.2633 0 1
1.2965 -9.7541 -2.4765 0.2778 0 1
1.6148 -9.2787 -2.3704 0.2903 0 1
1.8985 -8.8002 -2.2658 0.3005 0 24
2.1710 -8.4094 -2.1859 0.3162 0 1
2.4151 -8.0107 -2.1058 0.3282 0 1
2.6398 -7.6327 -2.0327 0.3434 0 1
2.8476 -7.2737 -1.9660 0.3551 0 1
3.0386 -6.9283 -1.9041 0.3657 0 1
3.2151 -6.5970 -1.8470 0.3769 0 1
3.3783 -6.2784 -1.7944 0.3880 0 1
3.5307 -5.9735 -1.7464 0.3952 0 1
3.6688 -5.6739 -1.7006 0.3952 0 1
3.7895 -5.3743 -1.6551 0.4098 0 1
3.8996 -5.0839 -1.6126 0.4101 0 1
3.9998 -4.8022 -1.5730 0.4205 0 1
4.0919 -4.5297 -1.5363 0.4305 0 1
4.1764 -4.2656 -1.5025 0.4402 0 1
4.2538 -4.0092 -1.4712 0.4496 0 1
4.3305 -3.7648 -1.4442 0.4766 0 1
4.4060 -3.5301 -1.4209 0.4844 0 1
4.4759 -3.3000 -1.3996 0.4918 0 1
4.5406 -3.0741 -1.3801 0.4988 0 1
4.6014 -2.8527 -1.3626 0.5052 0 1
4.6573 -2.6345 -1.3467 0.5111 0 1
4.7087 -2.4194 -1.3324 0.5166 0 1
4.7557 -2.2068 -1.3195 0.5217 0 1
4.7985 -1.9966 -1.3081 0.5263 0 1
4.8373 -1.7884 -1.2980 0.5304 0 1
4.8721 -1.5820 -1.2892 0.5340 0 1
4.8680 1.8480 -1.3720 0.5182 0 1
4.8362 2.0617 -1.3853 0.5133 0 1
4.8003 2.2784 -1.4001 0.5075 0 1
4.7599 2.4981 -1.4165 0.5016 0 1
4.7148 2.7213 -1.4344 0.4954 0 1
4.6647 2.9483 -1.4541 0.4887 0 1
4.6093 3.1793 -1.4755 0.4816 0 1
4.5487 3.4149 -1.4988 0.4741 0 1
4.4827 3.6559 -1.5242 0.4662 0 1
4.4106 3.9022 -1.5518 0.4579 0 1
4.3319 4.1545 -1.5816 0.4493 0 1
4.2440 4.4107 -1.6129 0.4532 0 1
4.1442 4.6685 -1.6449 0.4444 0 1
4.0366 4.9329 -1.6795 0.4352 0 1
3.9224 5.2066 -1.7177 0.4237 0 1
3.8004 5.4904 -1.7595 0.4136 0 1
3.6686 5.7831 -1.8046 0.4033 0 1
3.5261 6.0858 -1.8533 0.3927 0 1
3.3720 6.3992 -1.9060 0.3818 0 1
3.2011 6.7156 -1.9603 0.4001 0 1
3.0111 7.0309 -2.0154 0.3800 0 1
2.8065 7.3564 -2.0747 0.3691 0 1
2.5864 7.6938 -2.1388 0.3580 0 1
2.3492 8.0442 -2.2082 0.3468 0 1
2.1037 8.4511 -2.2948 0.3157 0 1
1.8361 8.8842 -2.3905 0.3031 0 1
1.5375 9.3124 -2.4870 0.3143 0 1
1.2119 9.7661 -2.5931 0.2992 0 1
0.8554 10.2455 -2.7091 0.2860 0 1
0.4627 10.7218 -2.8278 0.2740 0 1
0.0333 11.2654 -2.9685 0.2484 0 1
-0.4416 11.8617 -3.1277 0.2337 0 1
-0.9658 12.4575 -3.2924 0.2270 0 24
-1.5584 13.1965 -3.5015 0.2097 0 1
-2.2170 13.9409 -3.7196 0.1974 0 1
-2.9675 14.8003 -3.9775 0.1763 0 1
-3.8178 15.7340 -4.2662 0.1651 0 1
-4.7757 16.7204 -4.5820 0.1569 0 1
-5.8696 17.8085 -4.9409 0.1489 0 1
-7.1151 18.9865 -5.3427 0.1349 0 1
-8.5890 20.3877 -5.8294 0.1166 0 1
-10.3749 22.1016 -6.4335 0.1078 0 1
-12.5358 24.1349 -7.1662 0.1023 0 1
-15.0288 26.2959 -7.9808 0.1013 0 1
-17.1593 27.4069 -8.5204 0.6831 0 15
-21.3403 31.2229 -9.9653 0.0681 0 2
-26.4824 35.5893 -11.6892 0.0581 0 25
-27.7733 34.3526 -11.6402 0.6523 0 3
-22.6833 25.8597 -9.0640 0.6820 0 5
-22.7981 23.9758 -8.7178 0.7328 0 5
-22.8644 22.1888 -8.3954 0.7501 0 5
-22.9759 20.5714 -8.1262 0.7892 0 5
-26.8147 22.1343 -9.1619 0.2014 0 3
-28.3068 21.5146 -9.3687 0.7095 0 3
-32.4292 22.6525 -10.4234 0.5593 0 3
-28.5628 18.2904 -8.9372 0.8496 0 3
-28.7911 16.8460 -8.7897 0.9971 0 3
-33.3414 17.7510 -9.9530 0.4604 0 3
-36.7861 17.7273 -10.7600 0.4259 0 3
-40.8458 17.6993 -11.7299 0.3907 0 3
-43.3507 16.7507 -12.2460 0.9736 0 3
-27.0146 9.2098 -7.5206 0.9333 0 22
-27.0161 8.0147 -7.4254 0.9620 0 22
-23.3334 -4.5751 -6.2654 0.5018 16 6
-30.6087 -15.7331 -9.0685 0.9044 0 22
-32.5976 -33.3049 -12.2799 0.8007 0 20
-28.5933 -31.6630 -11.2417 0.7018 0 20
-28.0439 -33.6806 -11.5485 0.6723 0 20
-25.4602 -33.2034 -11.0252 0.9063 0 9
-22.8873 -32.4696 -10.4676 0.9635 0 9
-17.6352 -27.2829 -8.5601 0.8116 0 6
-16.2451 -27.4948 -8.4150 0.0946 0 2
-13.0064 -24.1808 -7.2349 0.0900 0 1
-10.7318 -22.0292 -6.4569 0.1035 0 1
-8.8723 -20.2385 -5.8228 0.1136 0 1
-7.3144 -18.6923 -5.2891 0.1270 0 1
-6.0135 -17.3960 -4.8500 0.1452 0 1
-4.9120 -16.3024 -4.4864 0.1589 0 1
-3.9596 -15.3476 -4.1765 0.1742 0 1
-3.1253 -14.4978 -3.9079 0.1883 0 1
-2.3873 -13.7299 -3.6721 0.2003 0 1
-1.7269 -13.0083 -3.4578 0.2133 0 24
-1.1428 -12.4114 -3.2842 0.2294 0 1
-0.6092 -11.7847 -3.1094 0.2300 0 1
-0.1286 -11.1979 -2.9508 0.2424 0 1
0.3055 -10.6483 -2.8070 0.2539 0 1
0.6988 -10.1337 -2.6766 0.2663 0 1
1.0566 -9.6533 -2.5588 0.2806 0 1
1.3823 -9.1967 -2.4505 0.2931 0 1
1.6796 -8.7639 -2.3513 0.3055 0 1
1.9455 -8.3269 -2.2532 0.3219 0 24
2.2028 -7.9687 -2.1785 0.3312 0 1
2.4339 -7.6020 -2.1033 0.3465 0 1
2.6476 -7.2526 -2.0344 0.3582 0 1
2.8446 -6.9165 -1.9706 0.3688 0 1
3.0266 -6.5932 -1.9116 0.3802 0 1
3.1952 -6.2819 -1.8571 0.3914 0 1
3.3513 -5.9816 -1.8067 0.4023 0 1
3.4970 -5.6927 -1.7605 0.4093 0 1
3.6235 -5.3997 -1.7135 0.4030 0 1
3.7377 -5.1134 -1.6690 0.4137 0 1
3.8428 -4.8368 -1.6278 0.4242 0 1
3.9394 -4.5690 -1.5896 0.4343 0 1
4.0282 -4.3093 -1.5544 0.4442 0 1
4.1098 -4.0570 -1.5217 0.4537 0 1
4.1881 -3.8146 -1.4927 0.4814 0 1
4.2669 -3.5837 -1.4683 0.4894 0 1
4.3400 -3.3573 -1.4458 0.4970 0 1
4.4075 -3.1349 -1.4252 0.5042 0 1
4.4704 -2.9166 -1.4065 0.5109 0 1
4.5290 -2.7020 -1.3896 0.5171 0 1
4.5829 -2.4903 -1.3744 0.5229 0 1
4.6324 -2.2812 -1.3606 0.5282 0 1
4.6776 -2.0744 -1.3483 0.5331 0 1
4.7186 -1.8696 -1.3374 0.5374 0 1
4.7556 -1.6666 -1.3278 0.5413 0 1
4.7888 -1.4652 -1.3196 0.5447 0 1
4.8181 -1.2650 -1.3126 0.5476 0 1
3.8989 -0.8579 -1.0519 0.6650 25 14
3.8382 -0.6842 -1.0273 0.8917 25 14
3.8289 -0.5249 -1.0183 0.8995 25 14
3.8199 -0.3681 -1.0112 0.9059 25 14
3.8128 -0.2134 -1.0062 0.8587 25 14
3.8073 -0.0599 -1.0034 0.8611 25 14
3.8068 0.0930 -1.0034 0.8611 25 14
3.8102 0.2465 -1.0061 0.9105 25 14
3.8164 0.4013 -1.0112 0.9059 25 14
3.8229 0.5579 -1.0180 0.8999 25 14
3.8297 0.7171 -1.0267 0.8923 25 14
4.0457 0.9271 -1.0937 0.0577 25 14
4.9239 1.3385 -1.3445 0.5368 0 1
4.9060 1.5478 -1.3555 0.5245 0 1
4.8802 1.7580 -1.3668 0.5202 0 1
4.8503 1.9707 -1.3795 0.5154 0 1
4.8161 2.1861 -1.3937 0.5099 0 1
4.7776 2.4045 -1.4094 0.5042 0 1
4.7345 2.6262 -1.4266 0.4981 0 1
4.6866 2.8515 -1.4455 0.4916 0 1
4.6335 3.0807 -1.4662 0.4847 0 1
4.5750 3.3143 -1.4886 0.4773 0 1
4.5114 3.5530 -1.5132 0.4696 0 1
4.4420 3.7970 -1.5398 0.4615 0 1
4.3662 4.0467 -1.5686 0.4530 0 1
4.2835 4.3025 -1.5998 0.4442 0 1
4.1875 4.5584 -1.6310 0.4482 0 1
4.0833 4.8199 -1.6645 0.4392 0 1
3.9714 5.0888 -1.7009 0.4279 0 1
3.8533 5.3689 -1.7414 0.4179 0 1
3.7258 5.6577 -1.7850 0.4077 0 1
3.5879 5.9561 -1.8322 0.3972 0 1
3.4389 6.2648 -1.8831 0.3865 0 1
3.2771 6.5838 -1.9379 0.4154 0 1
3.0935 6.8961 -1.9916 0.3845 0 1
2.8952 7.2169 -2.0490 0.3737 0 1
2.6818 7.5491 -2.1110 0.3628 0 1
2.4520 7.8938 -2.1781 0.3516 0 1
2.2101 8.2744 -2.2568 0.3211 0 1
1.9526 8.6974 -2.3488 0.3085 0 1
1.6675 9.1287 -2.4452 0.3197 0 1
1.3534 9.5691 -2.5466 0.3046 0 1
1.0110 10.0415 -2.6593 0.2917 0 1
0.6336 10.5165 -2.7761 0.2791 0 1
0.2206 11.0266 -2.9061 0.2537 0 1
-0.2340 11.6028 -3.0580 0.2391 0 1
-0.7365 12.1930 -3.2187 0.2343 0 24
-1.3007 12.8992 -3.4162 0.2149 0 1
-1.9282 13.6172 -3.6239 0.2026 0 1
-2.6376 14.4265 -3.8644 0.1789 0 1
-3.4440 15.3291 -4.1399 0.1694 0 1
-4.3536 16.2891 -4.4429 0.1618 0 1
-5.3872 17.3332 -4.7828 0.1514 0 1
-6.5636 18.4667 -5.1642 0.1396 0 1
-7.8833 19.6418 -5.5769 0.1228 0 24
-9.5771 21.3402 -6.1634 0.1143 0 1
-11.5730 23.2411 -6.8413 0.1038 0 1
-13.9417 25.3888 -7.6323 0.0972 0 1
-16.7466 27.7898 -8.5494 0.5569 0 2
-19.5567 29.6871 -9.3674 0.0725 0 2
-24.1163 33.5901 -10.8960 0.0623 0 25
-27.4797 35.2000 -11.7669 0.3120 0 3
-27.8586 32.8734 -11.3543 0.6688 0 3
-22.7206 24.7249 -8.8481 0.7531 0 5
-22.8497 22.9436 -8.5324 0.6964 0 5
-22.9480 21.2620 -8.2433 0.7590 0 5
-23.0320 19.6814 -7.9829 0.8163 0 5
-28.3954 22.3555 -9.5228 0.7973 0 3
-31.2905 22.6603 -10.1801 0.5727 0 3
-33.1302 22.0203 -10.4822 0.8409 0 3
-26.8896 16.3549 -8.2931 0.0557 0 3
-28.8316 15.9865 -8.6868 0.6373 0 3
-33.4068 16.8063 -9.8539 0.6071 0 3
-39.0370 17.7118 -11.2955 0.4057 0 3
-43.5295 17.6783 -12.3798 0.3701 0 3
-27.0269 9.7312 -7.5692 0.9503 0 22
-26.9793 8.5067 -7.4541 0.9984 0 6
-27.0580 7.3509 -7.3882 0.9912 0 22
-46.4280 8.6854 -12.4460 0.9935 0 22
-46.4547 6.7725 -12.3702 0.9863 0 22
-30.5635 -16.6142 -9.1665 0.8587 0 22
-24.8457 -17.6782 -8.0349 1.0000 15 6
-33.3239 -32.9059 -12.3404 0.8852 0 20
-23.9617 -25.6416 -9.2475 0.4149 0 20
-28.1160 -32.6201 -11.3476 0.6839 0 20
-26.1905 -32.9764 -11.0964 0.9805 0 9
-22.5744 -30.8938 -10.0822 0.9802 0 9
-20.4068 -30.4206 -9.6524 0.0704 0 2
-16.7026 -27.1996 -8.4105 0.0807 0 2
-14.0707 -25.1233 -7.5875 0.0728 0 24
-11.6283 -22.8710 -6.7607 0.0988 0 1
-9.5823 -20.8826 -6.0542 0.1084 0 24
-7.9415 -19.3179 -5.5036 0.1202 0 1
-6.5347 -17.9092 -5.0234 0.1402 0 1
-5.3588 -16.7465 -4.6331 0.1539 0 1
-4.3468 -15.7348 -4.3014 0.1691 0 1
-3.4665 -14.8476 -4.0176 0.1811 0 1
-2.6899 -14.0475 -3.7688 0.1952 0 1
-2.0005 -13.3240 -3.5502 0.2123 0 1
-1.3851 -12.6734 -3.3593 0.2243 0 1
-0.8289 -12.0471 -3.1819 0.2248 0 1
-0.3265 -11.4418 -3.0161 0.2372 0 1
0.1266 -10.8771 -2.8663 0.2487 0 1
0.5366 -10.3480 -2.7304 0.2610 0 1
0.9088 -9.8534 -2.6074 0.2754 0 1
1.2478 -9.3878 -2.4954 0.2878 0 1
1.5567 -8.9446 -2.3923 0.3003 0 1
1.8325 -8.4942 -2.2897 0.3130 0 24
2.0990 -8.1305 -2.2126 0.3261 0 1
2.3379 -7.7549 -2.1343 0.3414 0 1
2.5590 -7.3990 -2.0630 0.3532 0 1
2.7630 -7.0577 -1.9971 0.3639 0 1
2.9511 -6.7288 -1.9361 0.3754 0 1
3.1252 -6.4126 -1.8797 0.3867 0 1
3.2865 -6.1078 -1.8276 0.3977 0 1
3.4362 -5.8136 -1.7794 0.4049 0 1
3.5715 -5.5235 -1.7332 0.4086 0 1
3.6904 -5.2337 -1.6874 0.4092 0 1
3.7992 -4.9531 -1.6449 0.4198 0 1
3.8994 -4.6816 -1.6055 0.4301 0 1
3.9915 -4.4186 -1.5690 0.4401 0 1
4.0761 -4.1632 -1.5352 0.4497 0 1
4.1537 -3.9149 -1.5040 0.4591 0 1
4.2342 -3.6811 -1.4784 0.4860 0 1
4.3097 -3.4529 -1.4551 0.4938 0 1
4.3795 -3.2288 -1.4337 0.5012 0 1
4.4440 -3.0087 -1.4141 0.5082 0 1
4.5047 -2.7927 -1.3966 0.5145 0 1
4.5606 -2.5798 -1.3807 0.5205 0 1
4.6119 -2.3696 -1.3663 0.5260 0 1
4.6589 -2.1619 -1.3534 0.5311 0 1
4.7017 -1.9563 -1.3419 0.5356 0 1
4.7404 -1.7526 -1.3317 0.5397 0 1
4.7752 -1.5505 -1.3229 0.5433 0 1
4.7675 1.8098 -1.4043 0.5276 0 1
4.7354 2.0188 -1.4176 0.5226 0 1
4.6992 2.2304 -1.4324 0.5169 0 1
4.6585 2.4449 -1.4488 0.5110 0 1
4.6130 2.6626 -1.4668 0.5048 0 1
4.5627 2.8838 -1.4864 0.4981 0 1
4.5071 3.1088 -1.5078 0.4911 0 1
4.4463 3.3380 -1.5311 0.4836 0 1
4.3801 3.5722 -1.5565 0.4757 0 1
4.3079 3.8113 -1.5840 0.4675 0 1
4.2292 4.0559 -1.6137 0.4589 0 1
4.1436 4.3063 -1.6457 0.4499 0 1
4.0449 4.5566 -1.6779 0.4540 0 1
3.9378 4.8121 -1.7123 0.4448 0 1
3.8240 5.0760 -1.7502 0.4333 0 1
3.7029 5.3494 -1.7916 0.4233 0 1
3.5721 5.6309 -1.8364 0.4130 0 1
3.4309 5.9214 -1.8846 0.4024 0 1
3.2784 6.2216 -1.9367 0.3916 0 1
3.1129 6.5307 -1.9923 0.3782 0 1
2.9270 6.8344 -2.0475 0.3897 0 1
2.7259 7.1449 -2.1060 0.3789 0 1
2.5098 7.4660 -2.1691 0.3679 0 1
2.2774 7.7986 -2.2373 0.3566 0 1
2.0339 8.1706 -2.3187 0.3256 0 1
1.7727 8.5775 -2.4120 0.3130 0 1
1.4863 9.0022 -2.5126 0.3241 0 1
1.1696 9.4253 -2.6155 0.3090 0 1
0.8239 9.8687 -2.7272 0.2961 0 1
0.4450 10.3109 -2.8421 0.2841 0 1
0.0319 10.7929 -2.9722 0.2585 0 1
-0.4220 11.3351 -3.1237 0.2460 0 1
-0.9216 11.8866 -3.2832 0.2374 0 24
-1.4814 12.5448 -3.4787 0.2199 0 1
-2.1011 13.2118 -3.6841 0.2077 0 1
-2.7939 13.9347 -3.9138 0.1955 0 1
-3.5811 14.7584 -4.1822 0.1755 0 1
-4.4655 15.6342 -4.4776 0.1685 0 1
-5.4622 16.5726 -4.8054 0.1570 0 1
-6.5857 17.5736 -5.1682 0.1483 0 1
-7.8292 18.5844 -5.5535 0.1295 0 24
-9.4292 20.0871 -6.1109 0.1159 0 1
-11.2897 21.7358 -6.7450 0.1072 0 1
-13.4840 23.5929 -7.4834 0.1018 0 1
-15.9093 25.4103 -8.2560 0.1017 0 1
-18.3982 26.9184 -8.9790 0.0788 0 2
-22.2996 29.9681 -10.2869 0.0688 0 2
-27.3519 33.8313 -11.9807 0.0591 0 25
-22.5647 25.7244 -9.4233 0.6866 0 5
-22.6550 23.8253 -9.0539 0.7060 0 5
-22.7759 22.1030 -8.7401 0.7373 0 5
-22.8953 20.4992 -8.4630 0.7170 0 5
-22.9548 18.9481 -8.1969 0.7969 0 5
-23.0382 17.5102 -7.9689 0.7332 0 5
-32.4277 22.6515 -10.8931 0.5577 0 3
-28.4405 18.2121 -9.3003 0.8507 0 3
-33.0864 19.3592 -10.5566 0.8701 0 3
-33.3396 17.7500 -10.4014 0.4591 0 3
-37.1180 17.8872 -11.3468 0.9050 0 3
-40.8432 17.6982 -12.2582 0.3895 0 3
-26.9062 9.1728 -7.8284 0.9411 0 22
-26.9305 7.9893 -7.7358 0.9532 0 22
-46.2765 7.8432 -12.9256 0.9905 0 22
-23.4004 -4.5882 -6.5668 0.9445 16 6
-34.0223 -32.0761 -12.8767 0.0255 0 20
-30.3824 -31.0417 -11.9616 0.6842 0 20
-28.0692 -31.0826 -11.5334 0.7015 0 20
-25.1485 -30.2033 -10.8234 0.9919 0 9
-23.0921 -30.1151 -10.4508 0.6435 0 9
-19.6935 -27.9387 -9.4132 0.0752 0 2
-16.6052 -25.6894 -8.4237 0.6229 0 2
-13.9534 -23.6160 -7.5539 0.0811 0 1
-11.6074 -21.5798 -6.7479 0.1042 0 1
-9.7122 -19.9362 -6.1070 0.1129 0 1
-8.1068 -18.4922 -5.5604 0.1276 0 1
-6.7480 -17.2447 -5.0996 0.1439 0 1
-5.5950 -16.1854 -4.7160 0.1577 0 1
-4.5985 -15.2619 -4.3896 0.1727 0 1
-3.7263 -14.4436 -4.1078 0.1848 0 1
-2.9541 -13.7037 -3.8605 0.1986 0 1
-2.2598 -12.9971 -3.6329 0.2107 0 24
-1.6486 -12.4180 -3.4497 0.2276 0 1
-1.0888 -11.8253 -3.2703 0.2279 0 1
-0.5817 -11.2518 -3.1027 0.2402 0 1
-0.1230 -10.7151 -2.9510 0.2517 0 1
0.2930 -10.2102 -2.8129 0.2640 0 1
0.6715 -9.7377 -2.6880 0.2783 0 1
1.0171 -9.2925 -2.5743 0.2906 0 1
1.3329 -8.8677 -2.4695 0.3031 0 1
1.6219 -8.4627 -2.3729 0.3154 0 1
1.8819 -8.0547 -2.2779 0.3321 0 24
2.1330 -7.7163 -2.2046 0.3444 0 1
2.3598 -7.3706 -2.1313 0.3563 0 1
2.5696 -7.0389 -2.0635 0.3680 0 1
2.7632 -6.7185 -2.0005 0.3786 0 1
2.9425 -6.4099 -1.9423 0.3899 0 1
3.1088 -6.1121 -1.8884 0.4011 0 1
3.2631 -5.8242 -1.8385 0.4120 0 1
3.4054 -5.5437 -1.7917 0.4076 0 1
3.5283 -5.2579 -1.7438 0.4126 0 1
3.6420 -4.9826 -1.6996 0.4233 0 1
3.7468 -4.7160 -1.6587 0.4337 0 1
3.8433 -4.4575 -1.6208 0.4439 0 1
3.9321 -4.2064 -1.5857 0.4537 0 1
4.0137 -3.9621 -1.5532 0.4632 0 1
4.0957 -3.7304 -1.5256 0.4907 0 1
4.1743 -3.5059 -1.5012 0.4987 0 1
4.2471 -3.2855 -1.4787 0.5063 0 1
4.3145 -3.0688 -1.4581 0.5135 0 1
4.3772 -2.8559 -1.4393 0.5202 0 1
4.4357 -2.6464 -1.4224 0.5264 0 1
4.4896 -2.4396 -1.4071 0.5321 0 1
4.5389 -2.2352 -1.3933 0.5375 0 1
4.5841 -2.0329 -1.3810 0.5423 0 1
4.6250 -1.8326 -1.3700 0.5466 0 1
4.6620 -1.6338 -1.3604 0.5505 0 1
