ply
format ascii 1.0
element vertex 1393
property float32 x
property float32 y
property float32 z
property float32 CosAngle
property uint32 ObjIdx
property uint32 ObjTag
end_header
2.7522 3.5711 -2.0948 0.5652 0 1
2.6520 3.7426 -2.1312 0.5556 0 1
2.5428 3.9123 -2.1679 0.5505 0 1
2.4263 4.0828 -2.2067 0.5408 0 1
2.3025 4.2547 -2.2477 0.5310 0 1
2.1712 4.4279 -2.2913 0.5214 0 1
2.0318 4.6022 -2.3374 0.5111 0 1
1.8840 4.7778 -2.3862 0.5007 0 1
1.7274 4.9547 -2.4379 0.4901 0 1
1.5614 5.1326 -2.4926 0.4797 0 1
1.3855 5.3114 -2.5504 0.4688 0 1
1.1993 5.4914 -2.6115 0.4579 0 1
1.0022 5.6723 -2.6763 0.4470 0 1
0.7938 5.8559 -2.7457 0.4357 0 1
0.5719 6.0279 -2.8133 0.4231 0 24
0.3393 6.2254 -2.8967 0.4137 0 1
0.0917 6.4103 -2.9787 0.4024 0 1
-0.1705 6.5955 -3.0654 0.3910 0 1
-9.9953 8.4362 -6.2542 0.1926 0 1
-10.7292 8.3419 -6.4986 0.1841 0 1
-11.4825 8.2100 -6.7496 0.1773 0 1
-12.2560 8.0398 -7.0088 0.1703 0 1
-13.0402 7.8243 -7.2717 0.1643 0 1
-13.8368 7.5642 -7.5404 0.1575 0 1
-14.6392 7.2555 -7.8125 0.1492 0 1
-15.4428 6.8962 -8.0870 0.1448 0 1
-16.2244 6.4774 -8.3534 0.1397 0 1
-16.9698 5.9972 -8.6062 0.1349 0 1
-17.6751 5.4590 -8.8456 0.1313 0 1
-18.3172 4.8613 -9.0619 0.1292 0 1
-16.1440 3.5977 -7.9089 0.9579 26 14
-16.1568 2.9254 -7.8513 0.9648 26 14
-16.3951 2.2933 -7.9159 0.9883 26 14
-20.0767 1.9907 -9.6471 0.1221 0 1
-20.2793 1.1915 -9.7136 0.1215 0 1
-20.3714 0.3777 -9.7426 0.1218 0 1
-20.3533 -0.4398 -9.7346 0.1219 0 1
-20.2320 -1.2509 -9.6927 0.1225 0 1
-19.9983 -2.0448 -9.6124 0.1246 0 1
-19.6663 -2.8124 -9.4994 0.1261 0 1
-19.2538 -3.5471 -9.3615 0.1296 0 1
-18.7611 -4.2413 -9.1973 0.1305 0 1
-18.1900 -4.8872 -9.0063 0.1333 0 1
-17.5541 -5.4806 -8.7934 0.1363 0 1
-16.8657 -6.0186 -8.5627 0.1397 0 1
-16.1293 -6.4968 -8.3146 0.1429 0 1
-15.2963 -6.8871 -8.0213 0.1474 0 24
-14.5568 -7.2703 -7.7804 0.1512 0 1
-13.7449 -7.5687 -7.5029 0.1562 0 1
-12.9299 -7.8121 -7.2235 0.1623 0 1
-12.1289 -8.0097 -6.9501 0.1734 0 1
-11.3567 -8.1727 -6.6904 0.1814 0 1
-10.6009 -8.2943 -6.4362 0.1885 0 1
-9.8715 -8.3837 -6.1928 0.2035 0 1
-9.1807 -8.4542 -5.9677 0.2112 0 1
-8.5116 -8.4941 -5.7499 0.2192 0 1
-7.8654 -8.5061 -5.5397 0.2275 0 1
-7.2366 -8.4853 -5.3325 0.2327 0 1
-6.6332 -8.4419 -5.1337 0.2417 0 1
-6.0564 -8.3794 -4.9438 0.2510 0 1
-5.5058 -8.3000 -4.7626 0.2599 0 1
-4.9797 -8.2037 -4.5889 0.2688 0 1
-4.4791 -8.0946 -4.4236 0.2788 0 1
-4.0032 -7.9740 -4.2664 0.2872 0 1
-3.5513 -7.8441 -4.1173 0.3001 0 1
-3.1225 -7.7062 -3.9759 0.3085 0 1
-2.7059 -7.5335 -3.8276 0.3202 0 24
-2.3292 -7.4066 -3.7126 0.3304 0 1
-1.9578 -7.2273 -3.5804 0.3430 0 24
-1.6187 -7.0919 -3.4783 0.3556 0 1
-1.2917 -6.9312 -3.3714 0.3669 0 1
-0.9820 -6.7671 -3.2697 0.3773 0 1
-0.6886 -6.5994 -3.1727 0.3888 0 1
-0.4109 -6.4305 -3.0811 0.4003 0 1
-0.1482 -6.2608 -2.9945 0.4118 0 1
0.1004 -6.0906 -2.9127 0.4234 0 1
0.3356 -5.9202 -2.8354 0.4350 0 1
0.5581 -5.7496 -2.7622 0.4449 0 1
0.7664 -5.5628 -2.6850 0.4581 0 24
0.9678 -5.4089 -2.6274 0.4679 0 1
1.1563 -5.2395 -2.5656 0.4793 0 1
1.3341 -5.0692 -2.5064 0.4907 0 1
1.5022 -4.8998 -2.4506 0.5018 0 1
1.6611 -4.7315 -2.3978 0.5129 0 1
1.8015 -4.5397 -2.3354 0.5209 0 24
1.9407 -4.3701 -2.2864 0.5329 0 24
2.0799 -4.2184 -2.2489 0.5276 0 1
2.2005 -4.0451 -2.2019 0.5388 0 1
2.3141 -3.8748 -2.1581 0.5724 0 1
2.4242 -3.7122 -2.1200 0.5827 0 1
2.5279 -3.5511 -2.0843 0.5927 0 1
2.6255 -3.3914 -2.0508 0.6024 0 1
2.7173 -3.2330 -2.0194 0.6117 0 1
2.8035 -3.0759 -1.9900 0.6208 0 1
2.8843 -2.9200 -1.9626 0.6295 0 1
2.9600 -2.7654 -1.9369 0.6378 0 1
3.0308 -2.6118 -1.9131 0.6457 0 1
3.0969 -2.4592 -1.8909 0.6533 0 1
3.1582 -2.3075 -1.8703 0.6567 0 1
3.2149 -2.1565 -1.8511 0.6680 0 1
3.2692 -2.0074 -1.8344 0.6741 0 1
3.3193 -1.8590 -1.8192 0.6798 0 1
3.3655 -1.7112 -1.8053 0.6850 0 1
3.4080 -1.5640 -1.7930 0.6822 0 1
3.4472 -1.4174 -1.7822 0.6863 0 1
3.4827 -1.2711 -1.7728 0.6900 0 1
3.5145 -1.1251 -1.7645 0.6932 0 1
3.5427 -0.9792 -1.7575 0.6960 0 1
3.5674 -0.8335 -1.7518 0.6983 0 1
3.5886 -0.6879 -1.7472 0.7001 0 1
3.6064 -0.5422 -1.7438 0.7015 0 1
3.6207 -0.3966 -1.7416 0.7023 0 1
3.6316 -0.2508 -1.7406 0.7027 0 1
3.6391 -0.1048 -1.7408 0.7027 0 1
3.6448 0.0414 -1.7429 0.7011 0 1
3.6479 0.1880 -1.7466 0.6996 0 1
3.6454 0.3350 -1.7504 0.6877 0 1
3.6381 0.4822 -1.7548 0.6860 0 1
3.6272 0.6298 -1.7604 0.6838 0 1
3.6128 0.7779 -1.7671 0.6812 0 1
3.5947 0.9264 -1.7750 0.6782 0 1
3.5729 1.0754 -1.7842 0.6747 0 1
3.5474 1.2250 -1.7945 0.6708 0 1
3.5180 1.3753 -1.8062 0.6665 0 1
3.4847 1.5262 -1.8191 0.6618 0 1
3.4474 1.6778 -1.8333 0.6566 0 1
3.4060 1.8303 -1.8489 0.6511 0 1
3.3604 1.9836 -1.8659 0.6452 0 1
3.3106 2.1378 -1.8844 0.6497 0 1
3.2570 2.2935 -1.9048 0.6364 0 1
3.1989 2.4504 -1.9268 0.6291 0 1
3.1360 2.6084 -1.9504 0.6215 0 1
3.0681 2.7677 -1.9758 0.6135 0 1
2.9951 2.9282 -2.0029 0.6052 0 1
2.9167 3.0901 -2.0318 0.5966 0 1
2.8327 3.2533 -2.0627 0.5877 0 1
2.7429 3.4180 -2.0955 0.5785 0 1
2.6469 3.5841 -2.1305 0.5690 0 1
2.5437 3.7505 -2.1669 0.5639 0 1
2.4320 3.9155 -2.2040 0.5544 0 1
2.3135 4.0815 -2.2434 0.5446 0 1
2.1878 4.2487 -2.2851 0.5347 0 1
2.0545 4.4169 -2.3293 0.5246 0 1
1.9019 4.5590 -2.3620 0.5157 0 24
1.7539 4.7301 -2.4122 0.5049 0 24
1.6051 4.9268 -2.4777 0.4937 0 1
1.4374 5.0983 -2.5328 0.4833 0 1
1.2599 5.2704 -2.5911 0.4724 0 1
1.0723 5.4431 -2.6527 0.4615 0 1
0.8741 5.6175 -2.7184 0.4505 0 1
0.6645 5.7929 -2.7882 0.4392 0 1
0.4421 5.9572 -2.8564 0.4266 0 24
0.2085 6.1441 -2.9396 0.4174 0 1
-0.0393 6.3190 -3.0216 0.4061 0 1
-0.3013 6.4934 -3.1082 0.3948 0 1
-0.5782 6.6668 -3.1998 0.3835 0 1
-0.8709 6.8392 -3.2967 0.3714 0 1
-1.1800 7.0086 -3.3985 0.3632 0 1
-1.5056 7.1710 -3.5037 0.3532 0 1
-1.8488 7.3295 -3.6145 0.3424 0 1
-2.2107 7.4837 -3.7313 0.3316 0 1
-2.5921 7.6326 -3.8544 0.3211 0 1
-2.9937 7.7754 -3.9840 0.3107 0 1
-3.4164 7.9108 -4.1204 0.3004 0 1
-3.8608 8.0373 -4.2636 0.2905 0 1
-4.3278 8.1538 -4.4140 0.2806 0 1
-4.8200 8.2622 -4.5738 0.2680 0 1
-5.3366 8.3580 -4.7417 0.2585 0 1
-5.8764 8.4366 -4.9163 0.2515 0 1
-6.4370 8.4931 -5.0957 0.2456 0 1
-7.0184 8.5265 -5.2806 0.2370 0 1
-7.6226 8.5376 -5.4728 0.2287 0 1
-8.2602 8.5360 -5.6798 0.2122 0 1
-8.9332 8.5190 -5.9025 0.2042 0 1
-9.6300 8.4722 -6.1331 0.1964 0 1
-10.3512 8.3943 -6.3725 0.1878 0 1
-11.0955 8.2824 -6.6206 0.1808 0 1
-11.8588 8.1320 -6.8756 0.1736 0 1
-12.6385 7.9403 -7.1370 0.1674 0 1
-13.4268 7.7019 -7.4015 0.1605 0 1
-14.2291 7.4196 -7.6733 0.1548 0 1
-15.0357 7.0879 -7.9484 0.1473 0 1
-15.8281 6.6988 -8.2184 0.1424 0 1
-16.5947 6.2504 -8.4792 0.1385 0 1
-17.2660 5.7232 -8.6977 0.1329 0 24
-17.9984 5.1741 -8.9548 0.1307 0 1
-16.1470 3.9477 -7.9483 0.9377 26 14
-16.1391 3.2655 -7.8736 0.9622 26 14
-16.1658 2.6004 -7.8293 0.9675 26 14
-19.2895 2.3131 -9.2897 0.4506 26 14
-20.1884 1.6023 -9.6838 0.1219 0 1
-20.3387 0.7947 -9.7327 0.1219 0 1
-20.3757 -0.0222 -9.7430 0.1218 0 1
-20.3076 -0.8378 -9.7187 0.1221 0 1
-20.1306 -1.6419 -9.6577 0.1240 0 1
-19.8473 -2.4239 -9.5608 0.1253 0 1
-19.4737 -3.1761 -9.4347 0.1286 0 1
-19.0229 -3.8921 -9.2846 0.1307 0 1
-18.4904 -4.5634 -9.1068 0.1318 0 1
-17.8868 -5.1843 -8.9049 0.1346 0 1
-17.1665 -5.7317 -8.6539 0.1371 0 24
-16.5106 -6.2599 -8.4432 0.1407 0 1
-15.7575 -6.7094 -8.1893 0.1451 0 1
-14.9693 -7.0965 -7.9214 0.1485 0 1
-14.1605 -7.4232 -7.6451 0.1538 0 1
-13.2952 -7.6650 -7.3382 0.1591 0 24
-12.5346 -7.9132 -7.0881 0.1654 0 1
-11.7496 -8.0949 -6.8226 0.1767 0 1
-10.9847 -8.2370 -6.5652 0.1848 0 1
-10.2387 -8.3401 -6.3145 0.1921 0 1
-9.5015 -8.3959 -6.0629 0.2054 0 24
-8.8507 -8.4773 -5.8602 0.2150 0 1
-8.1928 -8.5034 -5.6462 0.2232 0 1
-7.5550 -8.4992 -5.4376 0.2286 0 1
-6.9382 -8.4666 -5.2342 0.2370 0 1
-6.3479 -8.4135 -5.0397 0.2462 0 1
-5.7660 -8.3167 -4.8390 0.2526 0 24
-5.2454 -8.2547 -4.6766 0.2637 0 1
-4.7318 -8.1518 -4.5070 0.2737 0 1
-4.2434 -8.0370 -4.3458 0.2819 0 1
-3.7792 -7.9115 -4.1925 0.2922 0 1
-3.3394 -7.7790 -4.0479 0.3030 0 1
-2.9105 -7.6088 -3.8954 0.3142 0 24
-2.5238 -7.4851 -3.7771 0.3247 0 1
-2.1481 -7.3304 -3.6526 0.3358 0 1
-1.7927 -7.1729 -3.5353 0.3499 0 1
-1.4566 -7.0137 -3.4253 0.3611 0 1
-1.1382 -6.8517 -3.3212 0.3724 0 1
-0.8365 -6.6853 -3.2216 0.3829 0 1
-0.5509 -6.5170 -3.1273 0.3945 0 1
-0.2807 -6.3476 -3.0382 0.4059 0 1
-0.0249 -6.1627 -2.9468 0.4180 0 24
0.2170 -6.0073 -2.8744 0.4291 0 1
0.4459 -5.8369 -2.7991 0.4390 0 1
0.6625 -5.6661 -2.7278 0.4505 0 1
0.8649 -5.4795 -2.6525 0.4637 0 24
1.0613 -5.3260 -2.5968 0.4734 0 1
1.2445 -5.1561 -2.5363 0.4849 0 1
1.4175 -4.9862 -2.4787 0.4961 0 1
1.5811 -4.8174 -2.4244 0.5073 0 1
1.7356 -4.6496 -2.3731 0.5182 0 1
1.8707 -4.4566 -2.3111 0.5271 0 24
2.0058 -4.2876 -2.2634 0.5381 0 24
2.1398 -4.1334 -2.2256 0.5331 0 1
2.2567 -3.9611 -2.1799 0.5443 0 1
2.3688 -3.7951 -2.1392 0.5775 0 1
2.4757 -3.6332 -2.1023 0.5876 0 1
2.5764 -3.4728 -2.0677 0.5975 0 1
2.6711 -3.3137 -2.0352 0.6070 0 1
2.7601 -3.1560 -2.0048 0.6162 0 1
2.8436 -2.9995 -1.9764 0.6251 0 1
2.9219 -2.8443 -1.9498 0.6336 0 1
2.9952 -2.6901 -1.9251 0.6417 0 1
3.0637 -2.5371 -1.9021 0.6495 0 1
3.1276 -2.3850 -1.8807 0.6531 0 1
3.1865 -2.2335 -1.8607 0.6601 0 1
3.2420 -2.0835 -1.8427 0.6711 0 1
3.2942 -1.9348 -1.8268 0.6769 0 1
3.3424 -1.7867 -1.8122 0.6824 0 1
3.3866 -1.6391 -1.7991 0.6873 0 1
3.4277 -1.4923 -1.7876 0.6843 0 1
3.4650 -1.3459 -1.7774 0.6882 0 1
3.4987 -1.1997 -1.7686 0.6916 0 1
3.5288 -1.0537 -1.7610 0.6946 0 1
3.5553 -0.9080 -1.7546 0.6972 0 1
3.5782 -0.7623 -1.7494 0.6992 0 1
3.5977 -0.6166 -1.7454 0.7008 0 1
3.6138 -0.4710 -1.7426 0.7019 0 1
3.6265 -0.3253 -1.7410 0.7026 0 1
3.6357 -0.1794 -1.7406 0.7028 0 1
3.6419 -0.0334 -1.7415 0.7016 0 1
3.6468 0.1130 -1.7446 0.7004 0 1
3.6478 0.2599 -1.7487 0.6884 0 1
3.6423 0.4069 -1.7524 0.6869 0 1
3.6332 0.5544 -1.7574 0.6850 0 1
3.6206 0.7022 -1.7635 0.6826 0 1
3.6044 0.8504 -1.7708 0.6798 0 1
3.5845 0.9992 -1.7793 0.6765 0 1
3.5609 1.1485 -1.7891 0.6729 0 1
3.5335 1.2984 -1.8001 0.6687 0 1
3.5022 1.4490 -1.8123 0.6642 0 1
3.4670 1.6003 -1.8259 0.6593 0 1
3.4277 1.7523 -1.8408 0.6540 0 1
3.3843 1.9051 -1.8570 0.6482 0 1
3.3365 2.0588 -1.8747 0.6421 0 1
3.2849 2.2138 -1.8941 0.6400 0 1
3.2291 2.3701 -1.9153 0.6329 0 1
3.1687 2.5275 -1.9381 0.6254 0 1
3.1034 2.6862 -1.9626 0.6176 0 1
3.0331 2.8460 -1.9888 0.6095 0 1
2.9575 3.0072 -2.0168 0.6010 0 1
2.8764 3.1697 -2.0467 0.5923 0 1
2.7895 3.3337 -2.0785 0.5832 0 1
2.6967 3.4990 -2.1124 0.5739 0 1
2.5976 3.6658 -2.1483 0.5642 0 1
2.4899 3.8310 -2.1848 0.5593 0 1
2.3750 3.9966 -2.2230 0.5496 0 1
2.2530 4.1631 -2.2635 0.5398 0 1
2.1236 4.3308 -2.3064 0.5298 0 1
1.9743 4.4720 -2.3375 0.5211 0 24
1.8306 4.6425 -2.3862 0.5104 0 24
1.6872 4.8393 -2.4506 0.4991 0 1
1.5243 5.0106 -2.5043 0.4888 0 1
1.3518 5.1823 -2.5609 0.4780 0 1
1.1695 5.3548 -2.6208 0.4671 0 1
0.9767 5.5281 -2.6843 0.4562 0 1
0.7731 5.7032 -2.7520 0.4450 0 1
0.5577 5.8788 -2.8237 0.4337 0 1
0.3299 6.0546 -2.8994 0.4232 0 1
0.0891 6.2297 -2.9791 0.4119 0 1
-0.1656 6.4044 -3.0634 0.4005 0 1
-9.4220 7.9523 -6.0642 0.2032 0 1
-10.0879 7.8433 -6.2850 0.1961 0 1
-10.7708 7.7011 -6.5125 0.1880 0 1
-11.4676 7.5226 -6.7457 0.1811 0 1
-12.1724 7.3036 -6.9821 0.1749 0 1
-12.8800 7.0411 -7.2199 0.1683 0 1
-13.5920 6.7365 -7.4613 0.1629 0 1
-14.2908 6.3818 -7.6980 0.1571 0 1
-14.9233 5.9579 -7.9034 0.1504 0 24
-15.6267 5.5225 -8.1519 0.1464 0 1
-16.2351 5.0142 -8.3575 0.1437 0 1
-16.7940 4.4570 -8.5462 0.1390 0 1
-17.2266 3.8390 -8.6808 0.1378 0 24
-17.7205 3.2085 -8.8576 0.1353 0 1
-16.3551 2.2877 -8.1227 0.7457 26 14
-18.3250 1.8170 -9.0574 0.1337 0 1
-18.5006 1.0870 -9.1153 0.1333 0 1
-18.5822 0.3446 -9.1413 0.1329 0 1
-18.5718 -0.4013 -9.1368 0.1330 0 1
-18.4694 -1.1419 -9.1016 0.1342 0 1
-18.2751 -1.8686 -9.0356 0.1352 0 1
-17.9965 -2.5736 -8.9417 0.1366 0 1
-17.6408 -3.2499 -8.8227 0.1390 0 1
-17.1546 -3.8781 -8.6505 0.1407 0 24
-16.7194 -4.4921 -8.5151 0.1440 0 1
-16.1640 -5.0466 -8.3288 0.1470 0 1
-15.5567 -5.5515 -8.1242 0.1499 0 1
-14.9082 -6.0049 -7.9052 0.1540 0 1
-14.2221 -6.4034 -7.6716 0.1568 0 1
-13.5111 -6.7481 -7.4283 0.1619 0 1
-12.7880 -7.0418 -7.1804 0.1670 0 1
-12.0668 -7.2906 -6.9343 0.1779 0 1
-11.3618 -7.5031 -6.6969 0.1842 0 1
-10.6061 -7.6325 -6.4270 0.1991 0 24
-9.9809 -7.8093 -6.2332 0.2052 0 1
-9.3310 -7.9246 -6.0213 0.2124 0 1
-8.6960 -8.0078 -5.8144 0.2199 0 1
-8.0782 -8.0616 -5.6133 0.2278 0 1
-7.4746 -8.0835 -5.4151 0.2314 0 1
-6.8890 -8.0778 -5.2218 0.2400 0 1
-6.3258 -8.0506 -5.0359 0.2488 0 1
-5.7657 -7.9772 -4.8412 0.2581 0 24
-5.2670 -7.9399 -4.6864 0.2675 0 1
-4.7708 -7.8595 -4.5222 0.2772 0 1
-4.2974 -7.7661 -4.3656 0.2871 0 1
-3.8350 -7.6389 -4.2041 0.2988 0 24
-3.4061 -7.5235 -4.0620 0.3081 0 24
-3.0084 -7.4244 -3.9401 0.3185 0 1
-2.6191 -7.2918 -3.8108 0.3293 0 1
-2.2495 -7.1531 -3.6882 0.3403 0 1
-1.8992 -7.0110 -3.5727 0.3542 0 1
-1.5670 -6.8657 -3.4638 0.3654 0 1
-1.2518 -6.7168 -3.3606 0.3766 0 1
-0.9524 -6.5635 -3.2621 0.3869 0 1
-0.6684 -6.4066 -3.1682 0.3984 0 1
-0.3992 -6.2479 -3.0793 0.4098 0 1
-0.1441 -6.0878 -2.9952 0.4213 0 1
0.0977 -5.9268 -2.9155 0.4328 0 1
0.3268 -5.7648 -2.8400 0.4427 0 1
0.5423 -5.5872 -2.7610 0.4560 0 24
0.7494 -5.4395 -2.7007 0.4657 0 1
0.9442 -5.2770 -2.6367 0.4770 0 1
1.1287 -5.1146 -2.5762 0.4882 0 1
1.3031 -4.9513 -2.5182 0.4996 0 1
1.4681 -4.7883 -2.4634 0.5108 0 1
1.6241 -4.6261 -2.4115 0.5218 0 1
1.7718 -4.4647 -2.3626 0.5326 0 1
1.9084 -4.2974 -2.3127 0.5249 0 1
2.0351 -4.1276 -2.2635 0.5363 0 1
2.1541 -3.9598 -2.2172 0.5475 0 1
2.2681 -3.7978 -2.1757 0.5809 0 1
2.3769 -3.6397 -2.1381 0.5911 0 1
2.4794 -3.4829 -2.1028 0.6011 0 1
2.5759 -3.3273 -2.0696 0.6107 0 1
2.6667 -3.1728 -2.0385 0.6200 0 1
2.7520 -3.0194 -2.0094 0.6290 0 1
2.8321 -2.8672 -1.9822 0.6376 0 1
2.9071 -2.7159 -1.9568 0.6459 0 1
2.9773 -2.5657 -1.9331 0.6538 0 1
3.0427 -2.4162 -1.9110 0.6576 0 1
3.1033 -2.2673 -1.8904 0.6647 0 1
3.1600 -2.1196 -1.8715 0.6760 0 1
3.2138 -1.9734 -1.8549 0.6821 0 1
3.2635 -1.8278 -1.8398 0.6877 0 1
3.3093 -1.6827 -1.8260 0.6928 0 1
3.3513 -1.5380 -1.8137 0.6976 0 1
3.3896 -1.3937 -1.8026 0.7019 0 1
3.4248 -1.2500 -1.7932 0.6979 0 1
3.4563 -1.1065 -1.7850 0.7011 0 1
3.4843 -0.9631 -1.7780 0.7039 0 1
3.5088 -0.8198 -1.7723 0.7061 0 1
3.5298 -0.6766 -1.7678 0.7080 0 1
3.5474 -0.5334 -1.7644 0.7093 0 1
3.5615 -0.3901 -1.7622 0.7102 0 1
3.5723 -0.2467 -1.7612 0.7106 0 1
3.5797 -0.1031 -1.7614 0.7105 0 1
3.5851 0.0407 -1.7635 0.7089 0 1
3.5880 0.1849 -1.7671 0.6970 0 1
3.5842 0.3294 -1.7703 0.6957 0 1
3.5769 0.4741 -1.7747 0.6940 0 1
3.5660 0.6192 -1.7802 0.6918 0 1
3.5516 0.7647 -1.7869 0.6892 0 1
3.5336 0.9106 -1.7948 0.6862 0 1
3.5118 1.0570 -1.8039 0.6828 0 1
3.4864 1.2040 -1.8142 0.6789 0 1
3.4571 1.3515 -1.8257 0.6746 0 1
3.4240 1.4996 -1.8385 0.6699 0 1
3.3869 1.6484 -1.8527 0.6648 0 1
3.3457 1.7979 -1.8681 0.6593 0 1
3.3009 1.9484 -1.8853 0.6644 0 1
3.2522 2.1001 -1.9041 0.6579 0 1
3.1982 2.2521 -1.9239 0.6446 0 1
3.1405 2.4056 -1.9457 0.6374 0 1
3.0780 2.5602 -1.9692 0.6298 0 1
3.0107 2.7159 -1.9943 0.6219 0 1
2.9383 2.8727 -2.0212 0.6136 0 1
2.8606 3.0307 -2.0498 0.6050 0 1
2.7774 3.1898 -2.0803 0.5962 0 1
2.6885 3.3502 -2.1128 0.5870 0 1
2.5935 3.5119 -2.1473 0.5776 0 1
2.4918 3.6740 -2.1835 0.5725 0 1
2.3816 3.8343 -2.2201 0.5631 0 1
2.2647 3.9954 -2.2589 0.5534 0 1
2.1408 4.1574 -2.3000 0.5435 0 1
1.9971 4.2935 -2.3290 0.5351 0 24
1.8597 4.4577 -2.3757 0.5245 0 24
1.7234 4.6477 -2.4381 0.5133 0 1
1.5678 4.8123 -2.4894 0.5027 0 1
1.4033 4.9773 -2.5436 0.4924 0 1
1.2294 5.1425 -2.6007 0.4816 0 1
1.0457 5.3080 -2.6609 0.4707 0 1
0.8519 5.4750 -2.7253 0.4598 0 1
0.6473 5.6423 -2.7934 0.4485 0 1
0.4311 5.8095 -2.8653 0.4373 0 1
0.2025 5.9672 -2.9367 0.4247 0 24
-0.0382 6.1416 -3.0208 0.4156 0 1
-0.2926 6.3060 -3.1050 0.4043 0 1
-0.5610 6.4690 -3.1937 0.3931 0 1
-0.8442 6.6300 -3.2873 0.3819 0 1
-1.1430 6.7888 -3.3861 0.3699 0 1
-1.4571 6.9401 -3.4879 0.3630 0 1
-1.7875 7.0863 -3.5946 0.3522 0 1
-2.1351 7.2275 -3.7068 0.3416 0 1
-2.5005 7.3631 -3.8247 0.3310 0 1
-2.8846 7.4919 -3.9486 0.3207 0 1
-3.2878 7.6130 -4.0787 0.3105 0 1
-3.7107 7.7247 -4.2150 0.3006 0 1
-4.1538 7.8259 -4.3578 0.2908 0 1
-4.6176 7.9152 -4.5072 0.2811 0 1
-5.1046 7.9947 -4.6654 0.2688 0 1
-5.6134 8.0590 -4.8306 0.2596 0 1
-6.1400 8.1013 -4.9998 0.2530 0 1
-6.6864 8.1232 -5.1749 0.2475 0 1
-7.2495 8.1198 -5.3539 0.2392 0 1
-7.8310 8.0924 -5.5388 0.2312 0 1
-8.4481 8.0565 -5.7418 0.2148 0 1
-9.0877 7.9951 -5.9534 0.2070 0 1
-9.7457 7.9033 -6.1716 0.1997 0 1
-10.4201 7.7783 -6.3956 0.1914 0 1
-11.1095 7.6182 -6.6256 0.1843 0 1
-11.8118 7.4209 -6.8611 0.1780 0 1
-12.5177 7.1804 -7.0979 0.1722 0 1
-13.2290 6.8982 -7.3382 0.1656 0 1
-13.9359 6.5694 -7.5779 0.1596 0 1
-14.6242 6.1893 -7.8106 0.1528 0 1
-15.2957 5.7611 -8.0392 0.1485 0 1
-15.9302 5.2804 -8.2546 0.1455 0 1
-16.5151 4.7477 -8.4520 0.1421 0 1
-16.5747 4.0523 -8.3924 0.2202 26 14
-17.5105 3.5429 -8.7872 0.1364 0 1
-17.9003 2.8794 -8.9175 0.1356 0 1
-18.2019 2.1827 -9.0168 0.1341 0 1
-18.4230 1.4622 -9.0899 0.1332 0 1
-18.5522 0.7249 -9.1320 0.1330 0 1
-18.5879 -0.0203 -9.1426 0.1329 0 1
-18.5338 -0.7647 -9.1237 0.1339 0 1
-18.3856 -1.4995 -9.0731 0.1346 0 1
-18.1482 -2.2164 -8.9926 0.1358 0 1
-17.8316 -2.9082 -8.8864 0.1374 0 1
-17.3814 -3.5563 -8.7262 0.1394 0 24
-16.9813 -4.1909 -8.6029 0.1427 0 1
-16.4543 -4.7691 -8.4262 0.1453 0 1
-15.8745 -5.3003 -8.2317 0.1479 0 1
-15.2436 -5.7795 -8.0185 0.1518 0 1
-14.5794 -6.2078 -7.7939 0.1544 0 1
-13.8761 -6.5782 -7.5531 0.1592 0 1
-13.1595 -6.8985 -7.3080 0.1641 0 1
-12.4322 -7.1675 -7.0583 0.1699 0 1
-11.7215 -7.3999 -6.8180 0.1809 0 1
-11.0193 -7.5917 -6.5816 0.1874 0 1
-10.3269 -7.7438 -6.3488 0.1942 0 1
-9.6614 -7.8698 -6.1290 0.2086 0 1
-9.0184 -7.9691 -5.9194 0.2160 0 1
-8.3916 -8.0376 -5.7153 0.2238 0 1
-7.7823 -8.0772 -5.5168 0.2272 0 1
-7.1855 -8.0835 -5.3197 0.2356 0 1
-6.6108 -8.0670 -5.1299 0.2443 0 1
-6.0586 -8.0302 -4.9477 0.2533 0 1
-5.5294 -7.9754 -4.7733 0.2626 0 1
-5.0215 -7.9023 -4.6051 0.2722 0 1
-4.5365 -7.8153 -4.4447 0.2820 0 1
-4.0740 -7.7162 -4.2918 0.2921 0 1
-3.6227 -7.5839 -4.1339 0.3030 0 24
-3.2152 -7.4896 -4.0089 0.3130 0 1
-2.8155 -7.3604 -3.8761 0.3238 0 1
-2.4360 -7.2247 -3.7500 0.3346 0 1
-2.0758 -7.0836 -3.6306 0.3486 0 1
-1.7346 -6.9405 -3.5187 0.3597 0 1
-1.4108 -6.7933 -3.4126 0.3708 0 1
-1.1035 -6.6428 -3.3121 0.3821 0 1
-0.8117 -6.4870 -3.2155 0.3925 0 1
-0.5350 -6.3292 -3.1241 0.4039 0 1
-0.2728 -6.1698 -3.0376 0.4154 0 1
-0.0242 -5.9951 -2.9487 0.4275 0 24
0.2112 -5.8478 -2.8781 0.4368 0 1
0.4344 -5.6853 -2.8045 0.4483 0 1
0.6440 -5.5076 -2.7274 0.4615 0 24
0.8460 -5.3600 -2.6690 0.4713 0 1
1.0357 -5.1975 -2.6067 0.4825 0 1
1.2152 -5.0348 -2.5475 0.4939 0 1
1.3849 -4.8715 -2.4910 0.5051 0 1
1.5455 -4.7089 -2.4377 0.5162 0 1
1.6974 -4.5471 -2.3872 0.5271 0 1
1.8302 -4.3603 -2.3259 0.5357 0 24
1.9634 -4.1970 -2.2790 0.5479 0 24
2.0942 -4.0453 -2.2405 0.5418 0 1
2.2100 -3.8791 -2.1959 0.5756 0 1
2.3221 -3.7204 -2.1571 0.5859 0 1
2.4278 -3.5629 -2.1206 0.5960 0 1
2.5273 -3.4066 -2.0863 0.6058 0 1
2.6210 -3.2516 -2.0542 0.6153 0 1
2.7091 -3.0977 -2.0241 0.6244 0 1
2.7918 -2.9449 -1.9959 0.6333 0 1
2.8694 -2.7931 -1.9696 0.6417 0 1
2.9420 -2.6423 -1.9450 0.6498 0 1
3.0099 -2.4925 -1.9222 0.6575 0 1
3.0729 -2.3433 -1.9007 0.6611 0 1
3.1314 -2.1949 -1.8809 0.6681 0 1
3.1868 -2.0480 -1.8632 0.6790 0 1
3.2386 -1.9021 -1.8473 0.6849 0 1
3.2864 -1.7568 -1.8329 0.6903 0 1
3.3303 -1.6119 -1.8198 0.6952 0 1
3.3705 -1.4674 -1.8081 0.6997 0 1
3.4072 -1.3234 -1.7978 0.6961 0 1
3.4407 -1.1798 -1.7890 0.6995 0 1
3.4705 -1.0363 -1.7814 0.7025 0 1
3.4967 -0.8930 -1.7751 0.7050 0 1
3.5195 -0.7498 -1.7699 0.7071 0 1
3.5388 -0.6065 -1.7660 0.7087 0 1
3.5547 -0.4633 -1.7632 0.7098 0 1
3.5672 -0.3200 -1.7616 0.7104 0 1
3.5763 -0.1765 -1.7612 0.7106 0 1
3.5823 -0.0328 -1.7620 0.7095 0 1
3.5870 0.1112 -1.7651 0.7083 0 1
3.5866 0.2555 -1.7686 0.6964 0 1
3.5811 0.4001 -1.7723 0.6949 0 1
3.5720 0.5450 -1.7773 0.6930 0 1
3.5594 0.6903 -1.7833 0.6906 0 1
3.5432 0.8360 -1.7906 0.6878 0 1
3.5234 0.9821 -1.7991 0.6846 0 1
3.4999 1.1288 -1.8087 0.6809 0 1
3.4726 1.2760 -1.8197 0.6768 0 1
3.4414 1.4238 -1.8318 0.6723 0 1
3.4064 1.5723 -1.8453 0.6674 0 1
3.3673 1.7214 -1.8601 0.6621 0 1
3.3241 1.8712 -1.8762 0.6564 0 1
3.2776 2.0225 -1.8943 0.6613 0 1
3.2259 2.1740 -1.9133 0.6482 0 1
3.1705 2.3270 -1.9344 0.6411 0 1
3.1105 2.4811 -1.9570 0.6337 0 1
3.0457 2.6362 -1.9813 0.6260 0 1
2.9760 2.7924 -2.0072 0.6179 0 1
2.9010 2.9498 -2.0349 0.6095 0 1
2.8206 3.1083 -2.0645 0.6007 0 1
2.7347 3.2681 -2.0959 0.5917 0 1
2.6428 3.4291 -2.1294 0.5824 0 1
2.5448 3.5914 -2.1649 0.5729 0 1
2.4387 3.7523 -2.2011 0.5679 0 1
2.3253 3.9130 -2.2388 0.5584 0 1
2.2050 4.0745 -2.2787 0.5486 0 1
2.0775 4.2369 -2.3210 0.5386 0 1
1.9309 4.3737 -2.3515 0.5299 0 24
1.7896 4.5383 -2.3995 0.5194 0 24
1.6484 4.7281 -2.4628 0.5081 0 1
1.4885 4.8930 -2.5155 0.4975 0 1
1.3194 5.0581 -2.5711 0.4871 0 1
1.1408 5.2234 -2.6297 0.4763 0 1
0.9522 5.3895 -2.6919 0.4655 0 1
0.7532 5.5568 -2.7581 0.4543 0 1
0.5430 5.7241 -2.8281 0.4431 0 1
0.3210 5.8911 -2.9019 0.4318 0 1
0.0866 6.0572 -2.9796 0.4213 0 1
-0.1609 6.2221 -3.0614 0.4101 0 1
-8.9055 7.5164 -5.8931 0.2138 0 1
-9.5159 7.3986 -6.0955 0.2067 0 1
-10.1358 7.2470 -6.3010 0.2000 0 1
-10.7674 7.0633 -6.5120 0.1918 0 1
-11.4048 6.8430 -6.7258 0.1857 0 1
-12.0413 6.5826 -6.9397 0.1807 0 1
-12.6727 6.2809 -7.1524 0.1729 0 1
-13.2481 5.9161 -7.3371 0.1673 0 24
-13.8960 5.5478 -7.5664 0.1639 0 1
-14.4667 5.1126 -7.7591 0.1598 0 1
-15.0068 4.6349 -7.9426 0.1546 0 1
-15.4977 4.1130 -8.1084 0.1516 0 1
-15.9372 3.5516 -8.2570 0.1489 0 1
-16.3082 2.9528 -8.3810 0.1478 0 1
-16.5506 2.3151 -8.4510 0.1461 0 24
-16.8423 1.6700 -8.5588 0.1447 0 1
-16.9961 0.9986 -8.6097 0.1438 0 1
-17.0066 0.3154 -8.6016 0.1440 0 24
-17.0618 -0.3687 -8.6300 0.1440 0 1
-16.9753 -1.0496 -8.6007 0.1445 0 1
-16.7452 -1.7122 -8.5121 0.1458 0 24
-16.5694 -2.3695 -8.4643 0.1476 0 1
-16.2612 -2.9958 -8.3616 0.1494 0 1
-15.8873 -3.5916 -8.2369 0.1517 0 1
-15.4536 -4.1520 -8.0919 0.1547 0 1
-14.9632 -4.6717 -7.9270 0.1570 0 1
-14.4231 -5.1469 -7.7441 0.1592 0 1
-13.8428 -5.5758 -7.5468 0.1625 0 1
-13.2294 -5.9565 -7.3368 0.1672 0 1
-12.5963 -6.2912 -7.1202 0.1727 0 1
-11.9558 -6.5836 -6.9020 0.1828 0 1
-11.3177 -6.8380 -6.6868 0.1886 0 1
-10.6789 -7.0522 -6.4715 0.1948 0 1
-10.0447 -7.2286 -6.2581 0.2089 0 1
-9.4376 -7.3842 -6.0598 0.2158 0 1
-8.8394 -7.5071 -5.8646 0.2230 0 1
-8.2220 -7.5713 -5.6521 0.2294 0 24
-7.6512 -7.6354 -5.4662 0.2371 0 24
-7.1122 -7.6916 -5.2976 0.2419 0 1
-6.5664 -7.6995 -5.1173 0.2504 0 1
-6.0396 -7.6864 -4.9433 0.2592 0 1
-5.5141 -7.6291 -4.7602 0.2688 0 24
-5.0278 -7.5794 -4.5994 0.2785 0 24
-4.5617 -7.5150 -4.4456 0.2888 0 24
-4.1280 -7.4599 -4.3115 0.2973 0 1
-3.7005 -7.3711 -4.1709 0.3099 0 1
-3.2923 -7.2720 -4.0367 0.3179 0 1
-2.9011 -7.1598 -3.9066 0.3284 0 1
-2.5287 -7.0401 -3.7828 0.3392 0 1
-2.1745 -6.9145 -3.6655 0.3530 0 1
-1.8381 -6.7853 -3.5550 0.3640 0 1
-1.5181 -6.6513 -3.4500 0.3751 0 1
-1.2138 -6.5130 -3.3503 0.3862 0 1
-0.9243 -6.3698 -3.2549 0.3965 0 1
-0.6493 -6.2228 -3.1639 0.4078 0 1
-0.3881 -6.0735 -3.0776 0.4192 0 1
-0.1402 -5.9224 -2.9958 0.4307 0 1
0.0951 -5.7696 -2.9180 0.4405 0 1
0.3183 -5.6156 -2.8443 0.4520 0 1
0.5301 -5.4607 -2.7744 0.4633 0 1
0.7310 -5.3054 -2.7083 0.4748 0 1
0.9215 -5.1499 -2.6456 0.4861 0 1
1.1022 -4.9942 -2.5863 0.4972 0 1
1.2732 -4.8375 -2.5296 0.5086 0 1
1.4351 -4.6807 -2.4757 0.5196 0 1
1.5884 -4.5243 -2.4248 0.5306 0 1
1.7336 -4.3683 -2.3766 0.5413 0 1
1.8592 -4.1865 -2.3164 0.5510 0 24
1.9865 -4.0290 -2.2716 0.5620 0 24
2.1095 -3.8779 -2.2324 0.5789 0 1
2.2234 -3.7230 -2.1929 0.5893 0 1
2.3309 -3.5693 -2.1557 0.5995 0 1
2.4322 -3.4166 -2.1208 0.6093 0 1
2.5276 -3.2649 -2.0880 0.6189 0 1
2.6174 -3.1142 -2.0572 0.6282 0 1
2.7019 -2.9645 -2.0283 0.6371 0 1
2.7812 -2.8157 -2.0013 0.6457 0 1
2.8555 -2.6677 -1.9761 0.6540 0 1
2.9250 -2.5206 -1.9526 0.6580 0 1
2.9896 -2.3740 -1.9305 0.6656 0 1
3.0498 -2.2282 -1.9100 0.6727 0 1
3.1063 -2.0836 -1.8915 0.6839 0 1
3.1596 -1.9402 -1.8750 0.6899 0 1
3.2090 -1.7973 -1.8599 0.6955 0 1
3.2544 -1.6548 -1.8463 0.7007 0 1
3.2961 -1.5127 -1.8340 0.7054 0 1
3.3341 -1.3709 -1.8230 0.7096 0 1
3.3684 -1.2294 -1.8133 0.7134 0 1
3.3994 -1.0882 -1.8050 0.7089 0 1
3.4272 -0.9473 -1.7981 0.7117 0 1
3.4514 -0.8064 -1.7924 0.7139 0 1
3.4722 -0.6655 -1.7879 0.7157 0 1
3.4896 -0.5247 -1.7845 0.7171 0 1
3.5036 -0.3837 -1.7824 0.7179 0 1
3.5142 -0.2427 -1.7814 0.7183 0 1
3.5215 -0.1014 -1.7815 0.7183 0 1
3.5267 0.0400 -1.7836 0.7167 0 1
3.5283 0.1818 -1.7866 0.7049 0 1
3.5244 0.3239 -1.7898 0.7036 0 1
3.5171 0.4662 -1.7941 0.7019 0 1
3.5062 0.6088 -1.7996 0.6998 0 1
3.4918 0.7518 -1.8062 0.6972 0 1
3.4738 0.8952 -1.8141 0.6942 0 1
3.4522 1.0391 -1.8231 0.6907 0 1
3.4268 1.1834 -1.8333 0.6869 0 1
3.3977 1.3282 -1.8448 0.6826 0 1
3.3647 1.4736 -1.8575 0.6779 0 1
3.3278 1.6196 -1.8716 0.6843 0 1
3.2877 1.7667 -1.8874 0.6786 0 1
3.2436 1.9146 -1.9047 0.6724 0 1
3.1951 2.0632 -1.9233 0.6658 0 1
3.1408 2.2117 -1.9426 0.6528 0 1
3.0835 2.3620 -1.9642 0.6456 0 1
3.0216 2.5133 -1.9875 0.6380 0 1
2.9548 2.6655 -2.0123 0.6302 0 1
2.8830 2.8186 -2.0389 0.6219 0 1
2.8060 2.9728 -2.0673 0.6134 0 1
2.7237 3.1281 -2.0975 0.6046 0 1
2.6356 3.2844 -2.1295 0.5955 0 1
2.5418 3.4417 -2.1636 0.5861 0 1
2.4414 3.5997 -2.1995 0.5811 0 1
2.3327 3.7555 -2.2357 0.5717 0 1
2.2174 3.9120 -2.2740 0.5621 0 1
2.0953 4.0690 -2.3145 0.5523 0 1
1.9541 4.2010 -2.3430 0.5438 0 24
1.8189 4.3598 -2.3889 0.5334 0 24
1.6758 4.5193 -2.4374 0.5228 0 24
1.5318 4.7019 -2.5007 0.5117 0 1
1.3704 4.8608 -2.5539 0.5014 0 1
1.1999 5.0195 -2.6098 0.4907 0 1
1.0201 5.1781 -2.6689 0.4800 0 1
0.8306 5.3381 -2.7319 0.4689 0 1
0.6307 5.4978 -2.7984 0.4578 0 1
0.4198 5.6569 -2.8685 0.4466 0 1
0.1974 5.8153 -2.9425 0.4354 0 1
-0.0371 5.9657 -3.0169 0.4234 0 24
-0.2843 6.1272 -3.1018 0.4138 0 1
-0.5447 6.2805 -3.1879 0.4026 0 1
-0.8190 6.4314 -3.2786 0.3915 0 1
-1.1077 6.5794 -3.3740 0.3804 0 1
-1.4111 6.7213 -3.4730 0.3731 0 1
-1.7294 6.8562 -3.5757 0.3620 0 1
-2.0636 6.9858 -3.6836 0.3514 0 1
-2.4143 7.1093 -3.7968 0.3409 0 1
-2.7820 7.2256 -3.9154 0.3306 0 1
-3.1672 7.3338 -4.0397 0.3205 0 1
-3.5703 7.4324 -4.1697 0.3107 0 1
-3.9915 7.5202 -4.3054 0.3009 0 1
-4.4313 7.5959 -4.4470 0.2913 0 1
-4.8898 7.6581 -4.5948 0.2791 0 1
-5.3691 7.7083 -4.7504 0.2699 0 1
-5.8659 7.7395 -4.9109 0.2634 0 1
-6.3780 7.7485 -5.0750 0.2548 0 1
-6.9071 7.7363 -5.2445 0.2466 0 1
-7.4496 7.6984 -5.4173 0.2417 0 1
-8.0085 7.6372 -5.5961 0.2253 0 1
-8.5983 7.5645 -5.7913 0.2177 0 1
-9.2026 7.4628 -5.9916 0.2103 0 1
-9.8180 7.3288 -6.1956 0.2034 0 1
-10.4431 7.1612 -6.4034 0.1955 0 1
-11.0790 6.9605 -6.6165 0.1887 0 1
-11.7162 6.7207 -6.8303 0.1836 0 1
-12.3495 6.4395 -7.0431 0.1785 0 1
-12.9791 6.1184 -7.2562 0.1704 0 1
-13.5927 5.7527 -7.4640 0.1657 0 1
-14.1790 5.3405 -7.6620 0.1618 0 1
-14.7356 4.8844 -7.8504 0.1555 0 1
-15.1965 4.3686 -7.9960 0.1530 0 24
-15.7196 3.8432 -8.1834 0.1502 0 1
-16.1270 3.2630 -8.3206 0.1489 0 1
-16.4652 2.6486 -8.4334 0.1469 0 1
-16.7338 2.0067 -8.5228 0.1459 0 1
-16.9274 1.3435 -8.5870 0.1442 0 1
-17.0423 0.6659 -8.6247 0.1436 0 1
-17.0751 -0.0186 -8.6348 0.1438 0 1
-17.0296 -0.7026 -8.6191 0.1442 0 1
-16.9038 -1.3787 -8.5765 0.1449 0 1
-16.7000 -2.0395 -8.5078 0.1465 0 1
-16.4273 -2.6792 -8.4169 0.1484 0 1
-16.0862 -3.2913 -8.3032 0.1504 0 1
-15.6826 -3.8704 -8.1685 0.1529 0 1
-15.2206 -4.4115 -8.0137 0.1562 0 1
-14.7042 -4.9096 -7.8394 0.1588 0 1
-14.1438 -5.3625 -7.6492 0.1612 0 1
-13.5456 -5.7676 -7.4450 0.1648 0 1
-12.9219 -6.1258 -7.2316 0.1700 0 1
-12.2801 -6.4374 -7.0115 0.1799 0 1
-11.6441 -6.7131 -6.7969 0.1856 0 1
-11.0053 -6.9477 -6.5815 0.1916 0 1
-10.3678 -7.1428 -6.3667 0.1981 0 1
-9.7470 -7.3089 -6.1608 0.2122 0 1
-9.1438 -7.4483 -5.9639 0.2192 0 1
-8.5510 -7.5561 -5.7705 0.2266 0 1
-7.9409 -7.6059 -5.5605 0.2332 0 24
-7.3982 -7.6787 -5.3921 0.2376 0 1
-6.8430 -7.6982 -5.2086 0.2460 0 1
-6.3064 -7.6956 -5.0314 0.2547 0 1
-5.7705 -7.6482 -4.8450 0.2640 0 24
-5.2738 -7.6067 -4.6807 0.2735 0 24
-4.7973 -7.5496 -4.5233 0.2835 0 24
-4.3545 -7.5019 -4.3864 0.2922 0 1
-3.9050 -7.3961 -4.2294 0.3039 0 24
-3.4986 -7.3241 -4.1046 0.3149 0 1
-3.0986 -7.2181 -3.9723 0.3230 0 1
-2.7167 -7.1021 -3.8453 0.3337 0 1
-2.3532 -6.9791 -3.7245 0.3445 0 1
-2.0015 -6.8302 -3.5992 0.3572 0 24
-1.6796 -6.7203 -3.5030 0.3694 0 1
-1.3674 -6.5841 -3.4006 0.3805 0 1
-1.0705 -6.4439 -3.3033 0.3907 0 1
-0.7880 -6.2982 -3.2098 0.4020 0 1
-0.5199 -6.1500 -3.1211 0.4134 0 1
-0.2653 -5.9998 -3.0370 0.4248 0 1
-0.0236 -5.8346 -2.9505 0.4369 0 24
0.2057 -5.6944 -2.8815 0.4461 0 1
0.4222 -5.5261 -2.8026 0.4593 0 24
0.6296 -5.3848 -2.7416 0.4689 0 1
0.8254 -5.2294 -2.6772 0.4804 0 1
1.0110 -5.0738 -2.6162 0.4916 0 1
1.1870 -4.9178 -2.5583 0.5029 0 1
1.3534 -4.7608 -2.5029 0.5140 0 1
1.5111 -4.6041 -2.4505 0.5250 0 1
1.6604 -4.4480 -2.4009 0.5358 0 1
1.7912 -4.2672 -2.3403 0.5449 0 24
1.9224 -4.1094 -2.2942 0.5565 0 24
2.0501 -3.9600 -2.2550 0.5504 0 1
2.1661 -3.8020 -2.2128 0.5840 0 1
2.2768 -3.6477 -2.1744 0.5943 0 1
2.3812 -3.4945 -2.1384 0.6043 0 1
2.4796 -3.3423 -2.1045 0.6141 0 1
2.5722 -3.1911 -2.0727 0.6235 0 1
2.6594 -3.0408 -2.0428 0.6326 0 1
2.7413 -2.8916 -2.0149 0.6414 0 1
2.8181 -2.7432 -1.9888 0.6498 0 1
2.8901 -2.5957 -1.9644 0.6578 0 1
2.9572 -2.4488 -1.9416 0.6618 0 1
3.0196 -2.3026 -1.9203 0.6691 0 1
3.0776 -2.1572 -1.9005 0.6760 0 1
3.1329 -2.0134 -1.8832 0.6869 0 1
3.1843 -1.8702 -1.8675 0.6927 0 1
3.2317 -1.7275 -1.8531 0.6981 0 1
3.2753 -1.5852 -1.8401 0.7030 0 1
3.3151 -1.4433 -1.8284 0.7075 0 1
3.3513 -1.3017 -1.8181 0.7115 0 1
3.3839 -1.1603 -1.8090 0.7151 0 1
3.4134 -1.0193 -1.8015 0.7103 0 1
3.4395 -0.8784 -1.7951 0.7128 0 1
3.4620 -0.7375 -1.7900 0.7149 0 1
3.4812 -0.5967 -1.7861 0.7164 0 1
3.4969 -0.4558 -1.7833 0.7175 0 1
3.5092 -0.3148 -1.7817 0.7182 0 1
3.5182 -0.1736 -1.7813 0.7184 0 1
3.5240 -0.0323 -1.7821 0.7173 0 1
3.5285 0.1093 -1.7852 0.7160 0 1
3.5268 0.2513 -1.7880 0.7043 0 1
3.5213 0.3934 -1.7918 0.7028 0 1
3.5122 0.5359 -1.7967 0.7009 0 1
3.4996 0.6787 -1.8027 0.6986 0 1
3.4835 0.8219 -1.8099 0.6958 0 1
3.4637 0.9655 -1.8183 0.6926 0 1
3.4402 1.1096 -1.8279 0.6889 0 1
3.4130 1.2541 -1.8388 0.6848 0 1
3.3820 1.3993 -1.8509 0.6804 0 1
3.3472 1.5449 -1.8642 0.6755 0 1
3.3087 1.6915 -1.8792 0.6816 0 1
3.2667 1.8389 -1.8957 0.6756 0 1
3.2205 1.9872 -1.9137 0.6693 0 1
3.1689 2.1356 -1.9324 0.6627 0 1
3.1134 2.2851 -1.9530 0.6493 0 1
3.0538 2.4359 -1.9754 0.6419 0 1
2.9895 2.5876 -1.9994 0.6342 0 1
2.9203 2.7402 -2.0251 0.6262 0 1
2.8460 2.8939 -2.0526 0.6178 0 1
2.7665 3.0486 -2.0818 0.6091 0 1
2.6813 3.2044 -2.1129 0.6002 0 1
2.5905 3.3612 -2.1460 0.5909 0 1
2.4936 3.5191 -2.1811 0.5814 0 1
2.3891 3.6758 -2.2170 0.5766 0 1
2.2772 3.8319 -2.2541 0.5670 0 1
2.1586 3.9887 -2.2935 0.5573 0 1
2.0330 4.1460 -2.3351 0.5474 0 1
1.9001 4.3039 -2.3791 0.5373 0 1
1.7499 4.4377 -2.4123 0.5282 0 24
1.6110 4.6207 -2.4746 0.5171 0 1
1.4540 4.7796 -2.5264 0.5065 0 1
1.2882 4.9384 -2.5809 0.4962 0 1
1.1132 5.0971 -2.6383 0.4854 0 1
0.9287 5.2564 -2.6993 0.4746 0 1
0.7342 5.4162 -2.7640 0.4635 0 1
0.5290 5.5757 -2.8322 0.4523 0 1
0.3125 5.7345 -2.9042 0.4411 0 1
0.0842 5.8922 -2.9800 0.4307 0 1
-0.1564 6.0482 -3.0595 0.4195 0 1
-8.4378 7.1217 -5.7381 0.2244 0 1
-8.9999 6.9974 -5.9245 0.2174 0 1
-9.5686 6.8416 -6.1130 0.2107 0 1
-10.1420 6.6530 -6.3035 0.2074 0 1
-10.7231 6.4340 -6.4988 0.1972 0 1
-11.3007 6.1778 -6.6931 0.1915 0 1
-11.8155 5.8560 -6.8532 0.1832 0 24
-12.4201 5.5464 -7.0689 0.1788 0 1
-12.9594 5.1739 -7.2517 0.1743 0 1
-13.4203 4.7428 -7.3971 0.1705 0 24
-13.9451 4.3070 -7.5849 0.1673 0 1
-14.3790 3.8161 -7.7313 0.1652 0 1
-14.7641 3.2902 -7.8609 0.1598 0 1
-15.0985 2.7338 -7.9741 0.1576 0 1
-15.3101 2.1416 -8.0339 0.1571 0 24
-15.5710 1.5439 -8.1317 0.1558 0 1
-15.7075 0.9229 -8.1771 0.1554 0 1
-15.7143 0.2914 -8.1679 0.1549 0 24
-15.7668 -0.3407 -8.1957 0.1551 0 1
-15.6924 -0.9702 -8.1707 0.1555 0 1
-15.4869 -1.5835 -8.0903 0.1566 0 24
-15.2798 -2.1851 -8.0215 0.1581 0 24
-15.0647 -2.7754 -7.9607 0.1599 0 1
-14.7352 -3.3312 -7.8509 0.1621 0 1
-14.3503 -3.8556 -7.7221 0.1623 0 1
-13.9091 -4.3426 -7.5725 0.1664 0 1
-13.3853 -4.7766 -7.3858 0.1686 0 24
-12.9040 -5.1977 -7.2296 0.1734 0 1
-12.3554 -5.5630 -7.0418 0.1780 0 1
-11.7995 -5.8932 -6.8543 0.1877 0 1
-11.2282 -6.1829 -6.6614 0.1935 0 1
-10.6492 -6.4341 -6.4659 0.1994 0 1
-10.0671 -6.6481 -6.2696 0.2055 0 1
-9.5045 -6.8398 -6.0854 0.2196 0 1
-8.9449 -6.9986 -5.9023 0.2243 0 1
-8.3902 -7.1256 -5.7206 0.2315 0 1
-7.8446 -7.2237 -5.5419 0.2389 0 1
-7.3054 -7.2903 -5.3636 0.2441 0 1
-6.7798 -7.3321 -5.1897 0.2523 0 1
-6.2699 -7.3517 -5.0214 0.2627 0 1
-5.7576 -7.3275 -4.8429 0.2702 0 24
-5.2994 -7.3320 -4.7014 0.2786 0 1
-4.8382 -7.2936 -4.5485 0.2879 0 1
-4.3950 -7.2404 -4.4017 0.2975 0 1
-3.9705 -7.1754 -4.2618 0.3099 0 1
-3.5641 -7.0994 -4.1283 0.3199 0 1
-3.1740 -7.0109 -3.9995 0.3278 0 1
-2.8002 -6.9107 -3.8750 0.3384 0 1
-2.4434 -6.8026 -3.7564 0.3490 0 1
-2.1039 -6.6900 -3.6446 0.3628 0 1
-1.7801 -6.5714 -3.5382 0.3737 0 1
-1.4716 -6.4476 -3.4369 0.3847 0 1
-1.1777 -6.3192 -3.3405 0.3958 0 1
-0.8975 -6.1852 -3.2480 0.4060 0 1
-0.6310 -6.0473 -3.1598 0.4172 0 1
-0.3774 -5.9068 -3.0759 0.4286 0 1
-0.1364 -5.7636 -2.9961 0.4384 0 1
0.0926 -5.6187 -2.9203 0.4498 0 1
0.3102 -5.4723 -2.8484 0.4612 0 1
0.5169 -5.3247 -2.7802 0.4725 0 1
0.7132 -5.1764 -2.7155 0.4839 0 1
0.8996 -5.0275 -2.6542 0.4951 0 1
1.0765 -4.8781 -2.5961 0.5062 0 1
1.2443 -4.7277 -2.5406 0.5174 0 1
1.4032 -4.5766 -2.4877 0.5284 0 1
1.5538 -4.4257 -2.4376 0.5393 0 1
1.6960 -4.2738 -2.3895 0.5308 0 1
1.8203 -4.0990 -2.3308 0.5595 0 24
1.9458 -3.9465 -2.2867 0.5715 0 24
2.0676 -3.8008 -2.2486 0.5873 0 1
2.1800 -3.6503 -2.2096 0.5976 0 1
2.2861 -3.5007 -2.1729 0.6077 0 1
2.3862 -3.3520 -2.1383 0.6176 0 1
2.4806 -3.2041 -2.1058 0.6271 0 1
2.5694 -3.0571 -2.0753 0.6363 0 1
2.6530 -2.9108 -2.0468 0.6452 0 1
2.7315 -2.7654 -2.0200 0.6537 0 1
2.8051 -2.6207 -1.9950 0.6581 0 1
2.8737 -2.4764 -1.9714 0.6660 0 1
2.9378 -2.3328 -1.9495 0.6735 0 1
2.9974 -2.1899 -1.9292 0.6806 0 1
3.0538 -2.0484 -1.9110 0.6917 0 1
3.1067 -1.9077 -1.8946 0.6977 0 1
3.1557 -1.7674 -1.8797 0.7032 0 1
3.2008 -1.6275 -1.8661 0.7084 0 1
3.2421 -1.4879 -1.8538 0.7130 0 1
3.2798 -1.3486 -1.8429 0.7173 0 1
3.3138 -1.2095 -1.8333 0.7210 0 1
3.3444 -1.0706 -1.8249 0.7243 0 1
3.3714 -0.9319 -1.8178 0.7272 0 1
3.3953 -0.7933 -1.8120 0.7216 0 1
3.4159 -0.6548 -1.8075 0.7234 0 1
3.4331 -0.5162 -1.8042 0.7247 0 1
3.4470 -0.3775 -1.8021 0.7256 0 1
3.4574 -0.2387 -1.8011 0.7260 0 1
3.4646 -0.0998 -1.8012 0.7259 0 1
3.4696 0.0394 -1.8032 0.7244 0 1
3.4698 0.1788 -1.8056 0.7127 0 1
3.4659 0.3185 -1.8088 0.7114 0 1
3.4586 0.4584 -1.8131 0.7097 0 1
3.4477 0.5987 -1.8185 0.7076 0 1
3.4333 0.7392 -1.8252 0.7050 0 1
3.4154 0.8802 -1.8329 0.7020 0 1
3.3938 1.0215 -1.8419 0.6986 0 1
3.3686 1.1633 -1.8521 0.6948 0 1
3.3396 1.3055 -1.8634 0.6906 0 1
3.3074 1.4485 -1.8764 0.6975 0 1
3.2714 1.5922 -1.8908 0.6922 0 1
3.2316 1.7365 -1.9065 0.6865 0 1
3.1877 1.8816 -1.9236 0.6804 0 1
3.1393 2.0272 -1.9420 0.6738 0 1
3.0849 2.1724 -1.9608 0.6673 0 1
3.0280 2.3195 -1.9823 0.6537 0 1
2.9666 2.4675 -2.0053 0.6462 0 1
2.9003 2.6163 -2.0299 0.6383 0 1
2.8292 2.7660 -2.0562 0.6302 0 1
2.7529 2.9166 -2.0843 0.6217 0 1
2.6714 3.0680 -2.1141 0.6129 0 1
2.5843 3.2204 -2.1458 0.6039 0 1
2.4914 3.3736 -2.1795 0.5945 0 1
2.3925 3.5277 -2.2152 0.5896 0 1
2.2852 3.6791 -2.2508 0.5803 0 1
2.1715 3.8310 -2.2885 0.5707 0 1
2.0512 3.9834 -2.3284 0.5609 0 1
1.9124 4.1115 -2.3565 0.5525 0 24
1.7793 4.2651 -2.4017 0.5422 0 24
1.6386 4.4191 -2.4494 0.5316 0 24
1.4971 4.5953 -2.5116 0.5206 0 1
1.3387 4.7483 -2.5638 0.5100 0 1
1.1716 4.9009 -2.6187 0.4997 0 1
0.9955 5.0533 -2.6766 0.4891 0 1
0.8101 5.2064 -2.7383 0.4781 0 1
0.6148 5.3590 -2.8032 0.4670 0 1
0.4089 5.5106 -2.8717 0.4559 0 1
0.1921 5.6611 -2.9437 0.4447 0 1
-0.0361 5.8100 -3.0194 0.4344 0 1
-0.2761 5.9506 -3.0958 0.4224 0 24
-0.5291 6.1008 -3.1824 0.4121 0 1
-0.7949 6.2423 -3.2702 0.4011 0 1
-1.0742 6.3805 -3.3625 0.3901 0 1
-1.3675 6.5133 -3.4587 0.3804 0 1
-1.6745 6.6384 -3.5579 0.3721 0 1
-1.9961 6.7573 -3.6617 0.3616 0 1
-2.3330 6.8698 -3.7704 0.3508 0 1
-2.6855 6.9749 -3.8841 0.3406 0 1
-3.0540 7.0715 -4.0030 0.3304 0 1
-3.4387 7.1586 -4.1272 0.3206 0 1
-3.8398 7.2344 -4.2564 0.3110 0 1
-4.2575 7.2981 -4.3909 0.3015 0 1
-4.6919 7.3482 -4.5308 0.2922 0 1
-5.1428 7.3833 -4.6761 0.2802 0 1
-5.6119 7.4045 -4.8283 0.2714 0 1
-6.0937 7.4030 -4.9830 0.2652 0 1
-6.5893 7.3803 -5.1417 0.2570 0 1
-7.0983 7.3353 -5.3047 0.2491 0 1
-7.6182 7.2650 -5.4707 0.2446 0 1
-8.1542 7.1738 -5.6442 0.2283 0 1
-8.7116 7.0647 -5.8289 0.2209 0 1
-9.2774 6.9253 -6.0165 0.2140 0 1
-9.8485 6.7535 -6.2059 0.2101 0 1
-10.4262 6.5504 -6.3990 0.2003 0 1
-11.0063 6.3135 -6.5940 0.1943 0 1
-11.5804 6.0385 -6.7872 0.1888 0 1
-12.1399 5.7228 -6.9748 0.1842 0 1
-12.6867 5.3693 -7.1593 0.1765 0 1
-13.2126 4.9766 -7.3373 0.1727 0 1
-13.7062 4.5432 -7.5041 0.1688 0 1
-14.1644 4.0719 -7.6592 0.1656 0 1
-14.5721 3.5627 -7.7960 0.1638 0 1
-14.9347 3.0218 -7.9187 0.1587 0 1
-15.2374 2.4511 -8.0205 0.1579 0 1
-15.4746 1.8556 -8.0996 0.1564 0 1
-15.6467 1.2418 -8.1569 0.1553 0 1
-15.7479 0.6154 -8.1902 0.1551 0 1
-15.7773 -0.0172 -8.1993 0.1550 0 1
-15.7393 -0.6494 -8.1865 0.1552 0 1
-15.6299 -1.2748 -8.1496 0.1563 0 1
-15.4511 -1.8870 -8.0894 0.1574 0 1
-15.2108 -2.4808 -8.0093 0.1589 0 1
-14.9106 -3.0507 -7.9094 0.1609 0 1
-14.5011 -3.5788 -7.7621 0.1621 0 24
-14.1415 -4.0987 -7.6516 0.1646 0 1
-13.6771 -4.5666 -7.4935 0.1681 0 1
-13.1751 -4.9952 -7.3225 0.1712 0 1
-12.6385 -5.3814 -7.1387 0.1756 0 1
-12.0857 -5.7295 -6.9508 0.1858 0 1
-11.4639 -6.0096 -6.7266 0.1864 0 24
-10.9457 -6.3104 -6.5660 0.1963 0 1
-10.3646 -6.5433 -6.3699 0.2023 0 1
-9.7917 -6.7460 -6.1794 0.2162 0 1
-9.2304 -6.9216 -5.9958 0.2228 0 1
-8.6727 -7.0645 -5.8131 0.2278 0 1
-8.1221 -7.1771 -5.6328 0.2351 0 1
-7.5794 -7.2596 -5.4542 0.2401 0 1
-7.0466 -7.3137 -5.2779 0.2481 0 1
-6.5283 -7.3442 -5.1066 0.2564 0 1
-6.0269 -7.3544 -4.9414 0.2669 0 1
-5.5419 -7.3454 -4.7819 0.2739 0 1
-5.0717 -7.3152 -4.6259 0.2831 0 1
-4.6192 -7.2693 -4.4760 0.2926 0 1
-4.1850 -7.2098 -4.3323 0.3048 0 1
-3.7696 -7.1396 -4.1958 0.3147 0 1
-3.3716 -7.0583 -4.0651 0.3249 0 1
-2.9891 -6.9629 -3.9379 0.3330 0 1
-2.6236 -6.8588 -3.8163 0.3436 0 1
-2.2753 -6.7483 -3.7010 0.3573 0 1
-1.9373 -6.6109 -3.5801 0.3671 0 24
-1.6274 -6.5115 -3.4880 0.3791 0 1
-1.3261 -6.3853 -3.3892 0.3901 0 1
-1.0390 -6.2544 -3.2949 0.4002 0 1
-0.7655 -6.1181 -3.2043 0.4114 0 1
-0.5054 -5.9789 -3.1182 0.4228 0 1
-0.2581 -5.8371 -3.0364 0.4326 0 1
-0.0229 -5.6808 -2.9523 0.4461 0 24
0.1999 -5.5348 -2.8782 0.4573 0 24
0.4126 -5.4003 -2.8146 0.4667 0 1
0.6141 -5.2523 -2.7482 0.4782 0 1
0.8055 -5.1037 -2.6852 0.4894 0 1
0.9873 -4.9545 -2.6254 0.5005 0 1
1.1597 -4.8049 -2.5688 0.5118 0 1
1.3230 -4.6538 -2.5144 0.5228 0 1
1.4778 -4.5028 -2.4629 0.5338 0 1
1.6245 -4.3520 -2.4141 0.5446 0 1
1.7609 -4.1952 -2.3645 0.5364 0 1
1.8878 -4.0356 -2.3154 0.5478 0 1
2.0046 -3.8722 -2.2660 0.5767 0 24
2.1234 -3.7271 -2.2292 0.5924 0 1
2.2327 -3.5771 -2.1913 0.6026 0 1
2.3358 -3.4279 -2.1557 0.6126 0 1
2.4331 -3.2796 -2.1222 0.6223 0 1
2.5247 -3.1321 -2.0907 0.6316 0 1
2.6109 -2.9855 -2.0611 0.6407 0 1
2.6920 -2.8396 -2.0335 0.6494 0 1
2.7681 -2.6946 -2.0076 0.6578 0 1
2.8392 -2.5500 -1.9833 0.6620 0 1
2.9056 -2.4061 -1.9605 0.6697 0 1
2.9675 -2.2629 -1.9394 0.6770 0 1
3.0252 -2.1205 -1.9199 0.6885 0 1
3.0802 -1.9795 -1.9028 0.6947 0 1
3.1311 -1.8390 -1.8871 0.7005 0 1
3.1782 -1.6989 -1.8728 0.7058 0 1
3.2214 -1.5592 -1.8599 0.7107 0 1
3.2610 -1.4197 -1.8483 0.7152 0 1
3.2969 -1.2805 -1.8380 0.7192 0 1
3.3292 -1.1416 -1.8290 0.7227 0 1
3.3580 -1.0028 -1.8213 0.7258 0 1
3.3835 -0.8641 -1.8148 0.7205 0 1
3.4058 -0.7255 -1.8097 0.7225 0 1
3.4248 -0.5870 -1.8058 0.7241 0 1
3.4403 -0.4484 -1.8030 0.7252 0 1
3.4525 -0.3097 -1.8014 0.7259 0 1
3.4614 -0.1708 -1.8010 0.7260 0 1
3.4670 -0.0318 -1.8018 0.7249 0 1
3.4705 0.1075 -1.8044 0.7131 0 1
3.4684 0.2471 -1.8070 0.7121 0 1
3.4628 0.3869 -1.8108 0.7106 0 1
3.4537 0.5270 -1.8156 0.7087 0 1
3.4411 0.6674 -1.8216 0.7064 0 1
3.4250 0.8081 -1.8288 0.7036 0 1
3.4053 0.9492 -1.8372 0.7004 0 1
3.3819 1.0908 -1.8467 0.6968 0 1
3.3549 1.2328 -1.8575 0.6928 0 1
3.3243 1.3754 -1.8696 0.7000 0 1
3.2903 1.5187 -1.8833 0.6949 0 1
3.2524 1.6627 -1.8983 0.6894 0 1
3.2106 1.8074 -1.9147 0.6835 0 1
3.1647 1.9528 -1.9326 0.6772 0 1
3.1133 2.0981 -1.9510 0.6707 0 1
3.0577 2.2442 -1.9711 0.6574 0 1
2.9985 2.3918 -1.9933 0.6501 0 1
2.9348 2.5402 -2.0171 0.6424 0 1
2.8662 2.6894 -2.0426 0.6344 0 1
2.7926 2.8395 -2.0697 0.6261 0 1
2.7137 2.9905 -2.0986 0.6174 0 1
2.6295 3.1424 -2.1294 0.6085 0 1
2.5396 3.2952 -2.1620 0.5993 0 1
2.4439 3.4489 -2.1967 0.5899 0 1
2.3409 3.6017 -2.2323 0.5851 0 1
2.2305 3.7533 -2.2690 0.5756 0 1
2.1135 3.9055 -2.3078 0.5660 0 1
1.9776 4.0331 -2.3344 0.5578 0 24
1.8590 4.2108 -2.3921 0.5460 0 1
1.7208 4.3639 -2.4378 0.5358 0 1
1.5670 4.4946 -2.4736 0.5264 0 24
1.4207 4.6701 -2.5368 0.5154 0 1
1.2581 4.8229 -2.5903 0.5052 0 1
1.0866 4.9753 -2.6466 0.4944 0 1
0.9061 5.1282 -2.7064 0.4837 0 1
0.7159 5.2811 -2.7696 0.4727 0 1
0.5155 5.4332 -2.8363 0.4616 0 1
0.3043 5.5844 -2.9064 0.4504 0 1
0.0820 5.7342 -2.9803 0.4393 0 1
-0.1519 5.8761 -3.0547 0.4261 0 24
-8.0127 6.7629 -5.5975 0.2379 0 1
-8.5343 6.6354 -5.7710 0.2307 0 1
-9.0611 6.4786 -5.9464 0.2239 0 1
-9.5899 6.2909 -6.1227 0.2175 0 1
-10.1128 6.0678 -6.2959 0.2121 0 1
-10.6389 5.8160 -6.4727 0.2022 0 1
-11.1560 5.5292 -6.6469 0.1969 0 1
-11.6551 5.2048 -6.8142 0.1925 0 1
-12.1343 4.8444 -6.9750 0.1881 0 1
-12.5450 4.4334 -7.1030 0.1818 0 24
-13.0185 4.0208 -7.2737 0.1781 0 1
-13.3576 3.5450 -7.3777 0.1756 0 24
-13.7531 3.0649 -7.5221 0.1734 0 1
-14.0462 2.5432 -7.6204 0.1712 0 1
-14.2856 1.9982 -7.7005 0.1692 0 1
-14.4661 1.4344 -7.7605 0.1679 0 1
-14.5869 0.8570 -7.8005 0.1659 0 1
-14.6459 0.2716 -7.8199 0.1654 0 1
-14.6422 -0.3164 -7.8185 0.1660 0 1
-14.5762 -0.9012 -7.7963 0.1665 0 1
-14.4482 -1.4773 -7.7533 0.1675 0 1
-14.2602 -2.0393 -7.6902 0.1690 0 1
-14.0132 -2.5816 -7.6067 0.1683 0 1
-13.7159 -3.1007 -7.5069 0.1705 0 1
-13.3242 -3.5799 -7.3653 0.1739 0 24
-12.9806 -4.0527 -7.2595 0.1772 0 1
-12.5454 -4.4769 -7.1110 0.1800 0 1
-12.0814 -4.8663 -6.9531 0.1897 0 1
-11.5999 -5.2228 -6.7912 0.1942 0 1
-11.0954 -5.5416 -6.6209 0.1985 0 1
-10.5764 -5.8240 -6.4456 0.2039 0 1
-10.0492 -6.0716 -6.2678 0.2177 0 1
-9.4972 -6.2718 -6.0758 0.2226 0 24
-9.0113 -6.4849 -5.9268 0.2282 0 1
-8.4928 -6.6449 -5.7567 0.2349 0 1
-7.9786 -6.7760 -5.5881 0.2420 0 1
-7.4678 -6.8768 -5.4194 0.2467 0 1
-6.9651 -6.9507 -5.2530 0.2545 0 1
-6.4747 -7.0021 -5.0912 0.2646 0 1
-5.9974 -7.0323 -4.9340 0.2730 0 1
-5.5335 -7.0423 -4.7812 0.2797 0 1
-5.0819 -7.0311 -4.6313 0.2888 0 1
-4.6459 -7.0037 -4.4867 0.2981 0 1
-4.2265 -6.9628 -4.3483 0.3102 0 1
-3.8120 -6.8889 -4.2031 0.3193 0 24
-3.4360 -6.8442 -4.0883 0.3299 0 1
-3.0628 -6.7651 -3.9644 0.3378 0 1
-2.7050 -6.6757 -3.8452 0.3482 0 1
-2.3633 -6.5797 -3.7323 0.3618 0 1
-2.0370 -6.4772 -3.6248 0.3725 0 1
-1.7251 -6.3684 -3.5222 0.3834 0 1
-1.4274 -6.2539 -3.4244 0.3943 0 1
-1.1432 -6.1345 -3.3312 0.4054 0 1
-0.8720 -6.0090 -3.2414 0.4154 0 1
-0.6134 -5.8795 -3.1558 0.4251 0 1
-0.3672 -5.7467 -3.0741 0.4364 0 1
-0.1328 -5.6113 -2.9964 0.4477 0 1
0.0902 -5.4738 -2.9226 0.4590 0 1
0.3024 -5.3346 -2.8524 0.4703 0 1
0.5042 -5.1939 -2.7858 0.4818 0 1
0.6961 -5.0522 -2.7225 0.4929 0 1
0.8785 -4.9095 -2.6625 0.5041 0 1
1.0518 -4.7661 -2.6056 0.5151 0 1
1.2163 -4.6216 -2.5512 0.5262 0 1
1.3723 -4.4760 -2.4992 0.5372 0 1
1.5203 -4.3303 -2.4500 0.5480 0 1
1.6591 -4.1808 -2.4012 0.5394 0 1
1.7826 -4.0141 -2.3447 0.5682 0 24
1.9095 -3.8729 -2.3052 0.5850 0 1
2.0233 -3.7194 -2.2603 0.5914 0 24
2.1378 -3.5796 -2.2258 0.6059 0 1
2.2426 -3.4340 -2.1895 0.6159 0 1
2.3415 -3.2891 -2.1554 0.6257 0 1
2.4347 -3.1449 -2.1232 0.6352 0 1
2.5226 -3.0014 -2.0930 0.6443 0 1
2.6053 -2.8585 -2.0647 0.6532 0 1
2.6830 -2.7163 -2.0382 0.6579 0 1
2.7556 -2.5744 -2.0132 0.6660 0 1
2.8236 -2.4332 -1.9898 0.6739 0 1
2.8871 -2.2926 -1.9681 0.6813 0 1
2.9462 -2.1526 -1.9479 0.6884 0 1
3.0025 -2.0140 -1.9301 0.6994 0 1
3.0550 -1.8759 -1.9138 0.7054 0 1
3.1035 -1.7382 -1.8989 0.7109 0 1
3.1482 -1.6008 -1.8854 0.7160 0 1
3.1892 -1.4636 -1.8733 0.7206 0 1
3.2266 -1.3267 -1.8624 0.7248 0 1
3.2604 -1.1900 -1.8528 0.7286 0 1
3.2907 -1.0534 -1.8445 0.7319 0 1
3.3175 -0.9170 -1.8374 0.7347 0 1
3.3409 -0.7806 -1.8316 0.7371 0 1
3.3610 -0.6442 -1.8269 0.7389 0 1
3.3778 -0.5079 -1.8235 0.7323 0 1
3.3915 -0.3714 -1.8214 0.7332 0 1
3.4018 -0.2349 -1.8204 0.7336 0 1
3.4088 -0.0982 -1.8205 0.7335 0 1
3.4132 0.0387 -1.8222 0.7212 0 1
3.4127 0.1759 -1.8242 0.7204 0 1
3.4087 0.3132 -1.8274 0.7191 0 1
3.4014 0.4509 -1.8317 0.7175 0 1
3.3905 0.5887 -1.8371 0.7154 0 1
3.3762 0.7269 -1.8436 0.7128 0 1
3.3583 0.8655 -1.8514 0.7098 0 1
3.3369 1.0044 -1.8603 0.7185 0 1
3.3123 1.1438 -1.8707 0.7145 0 1
3.2840 1.2838 -1.8824 0.7101 0 1
3.2521 1.4243 -1.8953 0.7052 0 1
3.2163 1.5654 -1.9096 0.7000 0 1
3.1766 1.7070 -1.9252 0.6943 0 1
3.1330 1.8493 -1.9422 0.6882 0 1
3.0848 1.9920 -1.9603 0.6817 0 1
3.0309 2.1343 -1.9789 0.6753 0 1
2.9739 2.2780 -1.9998 0.6617 0 1
2.9129 2.4229 -2.0226 0.6543 0 1
2.8472 2.5684 -2.0470 0.6465 0 1
2.7767 2.7147 -2.0731 0.6383 0 1
2.7012 2.8618 -2.1008 0.6299 0 1
2.6205 3.0096 -2.1303 0.6212 0 1
2.5343 3.1581 -2.1617 0.6122 0 1
2.4425 3.3074 -2.1949 0.6029 0 1
2.3449 3.4574 -2.2302 0.5934 0 1
2.2392 3.6049 -2.2655 0.5888 0 1
2.1270 3.7525 -2.3027 0.5793 0 1
1.9960 3.8762 -2.3275 0.5713 0 24
1.8831 4.0483 -2.3835 0.5596 0 1
1.7411 4.1734 -2.4140 0.5508 0 24
1.6109 4.3444 -2.4735 0.5393 0 1
1.4567 4.4712 -2.5104 0.5297 0 24
1.3081 4.6396 -2.5734 0.5189 0 1
1.1442 4.7865 -2.6272 0.5087 0 1
0.9718 4.9330 -2.6841 0.4981 0 1
0.7904 5.0797 -2.7444 0.4872 0 1
0.5995 5.2255 -2.8079 0.4761 0 1
0.3985 5.3701 -2.8747 0.4651 0 1
0.1871 5.5133 -2.9449 0.4540 0 1
-0.0352 5.6546 -3.0187 0.4429 0 1
-0.2688 5.7932 -3.0960 0.4327 0 1
-0.5135 5.9207 -3.1726 0.4225 0 24
-0.7719 6.0619 -3.2623 0.4106 0 1
-1.0424 6.1911 -3.3516 0.3997 0 1
-1.3258 6.3150 -3.4447 0.3901 0 1
-1.6224 6.4318 -3.5411 0.3818 0 1
-1.9323 6.5410 -3.6411 0.3713 0 1
-2.2562 6.6435 -3.7455 0.3610 0 1
-2.5944 6.7384 -3.8547 0.3508 0 1
-2.9473 6.8246 -3.9685 0.3404 0 1
-3.3151 6.9012 -4.0872 0.3305 0 1
-3.6977 6.9666 -4.2105 0.3211 0 1
-4.0951 7.0197 -4.3385 0.3116 0 1
-4.5074 7.0593 -4.4713 0.3024 0 1
-4.9343 7.0841 -4.6088 0.2934 0 1
-5.3754 7.0924 -4.7508 0.2846 0 1
-5.8307 7.0835 -4.8978 0.2756 0 1
-6.2963 7.0521 -5.0469 0.2674 0 1
-6.7731 6.9992 -5.1995 0.2596 0 1
-7.2595 6.9230 -5.3552 0.2520 0 1
-7.7539 6.8217 -5.5133 0.2448 0 1
-8.2670 6.7041 -5.6820 0.2343 0 1
-8.7914 6.5625 -5.8566 0.2274 0 1
-9.3196 6.3908 -6.0326 0.2207 0 1
-9.8463 6.1861 -6.2077 0.2151 0 1
-10.3232 5.9216 -6.3533 0.2086 0 24
-10.8932 5.6802 -6.5584 0.1995 0 1
-11.4023 5.3750 -6.7294 0.1950 0 1
-11.8922 5.0331 -6.8938 0.1903 0 1
-12.3596 4.6553 -7.0506 0.1830 0 1
-12.8041 4.2442 -7.2011 0.1799 0 1
-13.2146 3.7989 -7.3402 0.1765 0 1
-13.5845 3.3212 -7.4656 0.1747 0 1
-13.9027 2.8130 -7.5723 0.1723 0 1
-14.1705 2.2794 -7.6621 0.1702 0 1
-14.3812 1.7245 -7.7323 0.1686 0 1
-14.5328 1.1534 -7.7826 0.1675 0 1
-14.6236 0.5714 -7.8127 0.1656 0 1
-14.6515 -0.0160 -7.8216 0.1659 0 1
-14.6178 -0.6031 -7.8103 0.1662 0 1
-14.5213 -1.1844 -7.7778 0.1670 0 1
-14.3637 -1.7542 -7.7249 0.1681 0 1
-14.1456 -2.3071 -7.6513 0.1699 0 1
-13.8742 -2.8387 -7.5601 0.1693 0 1
-13.5526 -3.3447 -7.4520 0.1718 0 1
-13.1851 -3.8215 -7.3285 0.1747 0 1
-12.7729 -4.2648 -7.1888 0.1790 0 1
-12.3191 -4.6707 -7.0333 0.1820 0 1
-11.8487 -5.0451 -6.8749 0.1918 0 1
-11.3558 -5.3834 -6.7089 0.1959 0 1
-10.7841 -5.6532 -6.5001 0.2060 0 24
-10.3192 -5.9493 -6.3588 0.2067 0 1
-9.7964 -6.1846 -6.1847 0.2186 0 1
-9.2770 -6.3914 -6.0141 0.2248 0 1
-8.7574 -6.5669 -5.8435 0.2314 0 1
-8.2406 -6.7125 -5.6740 0.2383 0 1
-7.7026 -6.8064 -5.4874 0.2462 0 24
-7.2206 -6.9160 -5.3376 0.2505 0 1
-6.7235 -6.9784 -5.1732 0.2604 0 1
-6.2397 -7.0194 -5.0138 0.2687 0 1
-5.7494 -7.0158 -4.8423 0.2761 0 24
-5.3108 -7.0390 -4.7073 0.2841 0 1
-4.8667 -7.0196 -4.5599 0.2933 0 1
-4.4386 -6.9851 -4.4181 0.3053 0 1
-4.0274 -6.9383 -4.2828 0.3149 0 1
-3.6320 -6.8790 -4.1527 0.3248 0 1
-3.2518 -6.8073 -4.0274 0.3325 0 1
