ply
format ascii 1.0
element vertex 1404
property float32 x
property float32 y
property float32 z
property float32 CosAngle
property uint32 ObjIdx
property uint32 ObjTag
end_header
17.6881 4.2684 2.7942 0.1664 0 1
17.7670 5.0519 2.8365 0.1639 0 1
17.8683 5.8672 2.8880 0.1627 0 1
17.8026 6.6503 2.9183 0.1838 0 1
13.9411 5.8572 2.3221 0.4658 0 14
12.3296 5.7742 2.0907 0.4063 0 14
11.2686 5.8411 1.9491 0.4545 0 14
10.7019 6.1057 1.8920 0.5121 0 14
10.6238 6.6414 1.9239 0.4247 0 14
14.6303 9.9863 2.7201 0.9776 0 9
19.5327 14.5180 3.7372 0.1082 0 2
18.2140 14.7114 3.5953 0.6158 0 3
16.8024 14.7266 3.4309 0.6409 0 0
15.4783 14.7083 3.2788 0.6706 0 0
14.2649 14.6916 3.1445 0.6992 0 0
13.1452 14.6761 3.0255 0.7267 0 0
12.0243 14.5634 2.9001 0.6500 0 3
11.1734 14.6995 2.8353 0.7827 0 3
10.2632 14.6936 2.7523 0.8064 0 3
9.4035 14.6879 2.6781 0.8287 0 3
8.5876 14.6826 2.6120 0.8497 0 3
7.8098 14.6775 2.5531 0.8693 0 3
7.4233 15.4165 2.6275 0.4608 0 3
7.3336 16.9419 2.8349 0.4266 0 3
7.2444 18.7737 3.0901 0.3918 0 3
8.1987 24.0902 3.9077 0.3565 0 3
3.8837 13.1199 2.1011 0.0965 0 9
3.2940 13.0332 2.0643 0.8162 0 9
3.1273 14.8678 2.3331 0.4606 0 9
2.2537 13.3629 2.0810 0.8642 0 9
1.9356 15.1782 2.3496 0.7226 0 9
1.1945 13.7589 2.1208 0.6993 0 9
0.7113 15.3304 2.3567 0.7759 0 9
0.1691 27.6065 4.2393 0.1022 0 9
-0.5305 15.5457 2.3886 0.8154 0 9
-1.1188 15.0189 2.3127 0.2464 0 9
-2.8351 24.6327 3.8076 0.1975 0 9
-2.4100 15.4408 2.3998 0.2969 0 9
2.0008 -17.8494 2.7581 0.6595 0 22
7.2351 -47.2747 7.3440 0.8227 0 3
3.7435 -19.2464 3.0109 0.6496 0 22
7.3110 -30.8980 4.8757 0.2576 0 3
7.8720 -28.1605 4.4901 0.9541 0 3
8.8781 -27.4489 4.4301 0.9427 0 3
10.9315 -29.6650 4.8548 0.9299 0 3
12.2717 -29.5763 4.9172 0.9157 0 3
13.2063 -28.5290 4.8275 0.8998 0 3
14.6849 -28.6408 4.9425 0.8827 0 3
9.5392 -16.8943 2.9793 0.0475 0 9
17.6523 -28.5186 5.1504 0.8441 0 3
20.0118 -29.5997 5.4867 0.8227 0 3
21.7225 -29.4988 5.6255 0.8117 0 3
22.6935 -28.3536 5.5768 0.7959 0 3
23.8742 -27.4850 5.5905 0.7284 0 3
24.9450 -26.4859 5.5871 0.7007 0 3
23.3709 -22.8948 5.0240 0.0805 0 2
21.9152 -19.8054 4.5360 0.0892 0 2
20.7651 -17.3005 4.1504 0.0975 0 2
20.9051 -16.0376 4.0460 0.6181 0 2
5.9515 -4.1965 1.1183 0.9283 14 6
19.8237 -12.8162 3.6249 0.1319 0 1
19.3718 -11.4461 3.4552 0.1251 0 1
18.8251 -10.1243 3.2823 0.1251 0 1
8.5357 -4.1570 1.4579 0.7127 0 9
8.7457 -3.8320 1.4662 0.4378 0 9
17.2810 -6.7568 2.8493 0.1396 0 1
16.9649 -5.8580 2.7561 0.1473 0 1
16.7830 5.6213 2.5175 0.1713 0 1
16.8083 6.3927 2.5578 0.1945 0 1
13.4495 5.7447 2.0802 0.3356 0 14
12.0491 5.7302 1.8977 0.4010 0 14
11.0445 5.8083 1.7749 0.4798 0 14
10.5096 6.0788 1.7269 0.5712 0 14
10.4156 6.5974 1.7537 0.4694 0 14
14.5788 10.0784 2.5209 0.9985 0 9
17.8778 13.4532 3.1824 0.1179 0 2
17.8283 14.5754 3.2754 0.7757 0 3
16.5983 14.7227 3.1558 0.6464 0 0
15.2919 14.7047 3.0175 0.6760 0 0
14.0933 14.6882 2.8954 0.7046 0 0
12.8716 14.5433 2.7624 0.7369 0 3
11.9948 14.7045 2.6991 0.7629 0 3
11.0355 14.6982 2.6143 0.7876 0 3
10.1332 14.6923 2.5386 0.8111 0 3
9.2804 14.6867 2.4711 0.8333 0 3
8.4705 14.6814 2.4109 0.8541 0 3
7.6979 14.6763 2.3572 0.8735 0 3
7.4704 15.7527 2.4798 0.4530 0 3
7.3909 17.3559 2.6832 0.4187 0 3
7.2424 19.1051 2.9061 0.9232 0 3
8.0460 24.1094 3.6151 0.9368 0 3
6.9795 24.1024 3.5691 0.9489 0 3
5.9069 23.9683 3.5112 0.9594 0 3
3.0589 14.9829 2.1751 0.3085 0 9
3.0980 25.4964 3.6532 0.3174 0 9
1.2598 15.5823 2.2236 0.3988 0 9
0.6745 16.6720 2.3733 0.7913 0 9
0.0029 14.5647 2.0716 0.4798 0 9
-0.6530 16.2979 2.3200 0.5592 0 9
-1.2094 15.0327 2.1451 0.5452 0 9
-1.9097 15.7687 2.2593 0.3844 0 9
-2.5069 15.4595 2.2276 0.4649 0 9
2.1114 -17.8784 2.5606 0.5279 0 22
7.5087 -47.1898 6.7965 0.8259 0 3
3.8682 -19.2771 2.7966 0.6488 0 22
7.4405 -30.6335 4.4839 0.2598 0 3
7.8509 -27.4562 4.0618 0.9539 0 3
9.7922 -29.6732 4.4445 0.9424 0 3
11.1091 -29.6046 4.4976 0.9294 0 3
8.4911 -20.1268 3.1071 0.2592 0 9
13.4119 -28.5281 4.4838 0.8954 0 3
9.6364 -18.5232 2.9699 0.5685 0 9
16.3906 -28.6305 4.6924 0.8626 0 3
17.8669 -28.4867 4.7829 0.5378 0 3
20.2680 -29.5989 5.1025 0.8207 0 3
22.0593 -29.5872 5.2493 0.7978 0 3
22.2792 -27.5001 5.0341 0.7505 0 3
23.2999 -26.5048 5.0195 0.7479 0 3
21.7771 -22.8493 4.4896 0.0836 0 2
20.4769 -19.8233 4.0538 0.0926 0 2
19.4468 -17.3662 3.7084 0.1012 0 2
19.5036 -16.0545 3.5931 0.6458 0 2
18.9757 -14.3795 3.3864 0.1356 0 1
6.0070 -4.1825 1.0411 0.7185 14 6
18.2395 -11.6392 3.0775 0.1240 0 1
17.7256 -10.3322 2.9183 0.1306 0 1
17.2125 -9.1259 2.7711 0.1271 0 1
8.5527 -4.1027 1.3492 0.8510 0 9
8.8654 -3.8219 1.3732 0.3432 0 9
15.9374 -6.1228 2.4284 0.1517 0 24
15.2321 -5.1588 2.2874 0.1645 0 25
15.0773 -4.4388 2.2356 0.1684 0 25
14.9480 -3.7544 2.1922 0.1717 0 25
14.8417 -3.0989 2.1565 0.1745 0 25
14.7566 -2.4663 2.1280 0.1769 0 25
15.2899 -1.9268 2.1920 0.1767 0 1
15.2850 -1.3042 2.1820 0.1789 0 1
15.3047 -0.6874 2.1791 0.1802 0 1
15.3428 -0.0712 2.1823 0.1799 0 1
15.4893 0.5516 2.2045 0.1782 0 1
15.6616 1.1900 2.2341 0.1755 0 1
15.7896 1.8410 2.2611 0.1718 0 24
16.0664 2.5320 2.3134 0.1705 0 1
16.2924 3.2442 2.3629 0.1660 0 1
16.5523 3.9944 2.4219 0.1619 0 1
16.6860 4.7445 2.4674 0.1729 0 1
16.7689 5.5062 2.5104 0.1718 0 1
16.8351 6.2889 2.5562 0.1946 0 1
13.7975 5.7969 2.1287 0.3748 0 14
12.2460 5.7351 1.9234 0.4041 0 14
11.1863 5.7985 1.7922 0.3720 0 14
10.5389 6.0127 1.7258 0.5832 0 14
10.4194 6.5136 1.7478 0.4789 0 14
10.5018 7.1683 1.8085 0.7325 0 14
17.7887 13.2217 3.1525 0.1191 0 2
18.2504 14.7408 3.3368 0.6168 0 3
16.8011 14.7255 3.1777 0.6420 0 0
15.4772 14.7072 3.0368 0.6717 0 0
14.2639 14.6905 2.9124 0.7004 0 0
13.1443 14.6751 2.8022 0.7280 0 0
12.0905 14.6436 2.7010 0.6475 0 3
11.1731 14.6991 2.6262 0.7840 0 3
10.2629 14.6931 2.5492 0.8077 0 3
9.4032 14.6875 2.4806 0.8301 0 3
8.5873 14.6822 2.4193 0.8511 0 3
7.8096 14.6771 2.3647 0.8707 0 3
7.4811 15.5364 2.4527 0.4580 0 3
7.4035 17.1035 2.6509 0.4238 0 3
7.3108 18.9457 2.8884 0.3889 0 3
8.2055 24.1104 3.6225 0.9349 0 3
7.1362 24.1075 3.5760 0.9472 0 3
6.8866 27.2474 3.9974 0.2812 0 3
2.7197 12.9297 1.8793 0.0357 0 9
2.6828 15.9073 2.2945 0.3990 0 9
2.1536 16.8875 2.4215 0.4512 0 9
1.2584 14.4939 2.0693 0.2097 0 9
1.3142 28.3256 4.0333 0.7853 0 9
0.0892 14.5704 2.0725 0.2169 0 9
-0.5205 15.2509 2.1705 0.1048 0 9
-1.1256 15.1108 2.1553 0.3059 0 9
-2.4244 15.5330 2.2361 0.3382 0 9
1.9928 -17.7781 2.5445 0.6310 0 22
7.2574 -47.4206 6.8235 0.8226 0 3
3.7311 -19.1826 2.7796 0.6843 0 22
7.5539 -31.9247 4.6662 0.2544 0 3
7.5766 -27.1039 4.0030 0.2910 0 3
9.5979 -29.6744 4.4361 0.9442 0 3
10.9206 -29.6352 4.4923 0.9314 0 3
12.2720 -29.5771 4.5547 0.9171 0 3
13.2060 -28.5282 4.4714 0.9013 0 3
10.0400 -19.5816 3.1300 0.0308 0 9
16.1668 -28.6320 4.6769 0.8655 0 3
17.6818 -28.5664 4.7786 0.8445 0 3
20.0124 -29.6006 5.0822 0.8240 0 3
20.3678 -27.6591 4.8857 0.7556 0 3
22.0028 -27.4907 5.0084 0.7543 0 3
23.0106 -26.4907 4.9909 0.7277 0 3
21.9976 -23.3564 4.5636 0.0822 0 2
20.6494 -20.2288 4.1116 0.0913 0 2
19.5847 -17.6993 3.7547 0.1000 0 2
19.2828 -16.0655 3.5699 0.6500 0 2
19.0234 -14.5940 3.4103 0.1346 0 1
5.9643 -4.2056 1.0380 0.9279 14 6
18.3230 -11.8459 3.1034 0.1230 0 1
17.7956 -10.5149 2.9400 0.1296 0 1
17.2953 -9.3016 2.7932 0.1261 0 1
8.5609 -4.1692 1.3544 0.7884 0 9
8.7745 -3.8446 1.3626 0.6930 0 9
16.0493 -6.2752 2.4511 0.1519 0 1
15.2573 -5.2684 2.2959 0.1639 0 25
15.7952 5.2904 2.1813 0.1803 0 1
15.8805 6.0398 2.2248 0.1768 0 1
13.5197 5.7747 1.9251 0.9757 0 14
12.0593 5.7350 1.7486 0.4151 0 14
10.8367 5.6990 1.6033 0.4851 0 14
10.3484 5.9856 1.5654 0.4461 0 14
10.2309 6.4804 1.5859 0.4235 0 14
10.2744 7.1028 1.6356 0.3166 0 14
16.4039 12.3441 2.6883 0.1287 0 2
16.9231 13.8353 2.8624 0.1209 0 2
16.4476 14.5890 2.8790 0.6529 0 3
15.2908 14.7036 2.7778 0.6771 0 0
14.0923 14.6871 2.6654 0.7057 0 0
12.8712 14.5428 2.5431 0.7380 0 3
11.9944 14.7040 2.4848 0.7640 0 3
11.0352 14.6977 2.4067 0.7888 0 3
10.1329 14.6918 2.3371 0.8123 0 3
5.9984 9.4927 1.4704 0.5491 0 8
8.4702 14.6810 2.2195 0.8554 0 3
7.6977 14.6759 2.1701 0.8748 0 3
7.5295 15.8772 2.3010 0.4501 0 3
7.4541 17.5044 2.4913 0.4157 0 3
7.2422 19.1046 2.6754 0.9246 0 3
8.0458 24.1087 3.3282 0.9382 0 3
6.9794 24.1018 3.2858 0.9503 0 3
6.9458 28.1840 3.8011 0.2727 0 3
2.5889 12.6809 1.6948 0.3522 0 9
2.1360 17.5796 2.3189 0.1175 0 9
1.2800 15.8318 2.0799 0.5528 0 9
0.9653 23.8609 3.1271 0.8541 0 9
0.0032 16.1953 2.1207 0.7751 0 9
-0.5719 14.2735 1.8706 0.1087 0 9
2.1010 -17.7904 2.3458 0.7700 0 22
7.5316 -47.3336 6.2762 0.8235 0 3
3.8606 -19.2392 2.5696 0.6360 0 22
7.5821 -31.2169 4.2066 0.9653 0 3
7.8939 -27.6067 3.7599 0.9553 0 3
9.7727 -29.6140 4.0836 0.9438 0 3
11.1318 -29.6652 4.1491 0.9308 0 3
12.4778 -29.5765 4.2035 0.9163 0 3
9.7755 -20.7933 3.0087 0.1195 0 9
14.9001 -28.6410 4.2277 0.8828 0 3
16.3910 -28.6313 4.3201 0.8639 0 3
17.8870 -28.5187 4.4082 0.8437 0 3
20.2686 -29.5998 4.6977 0.8219 0 3
20.5060 -27.5037 4.4924 0.7754 0 3
21.4715 -26.5031 4.4665 0.7497 0 3
20.5316 -23.3557 4.0721 0.0850 0 2
19.3272 -20.2788 3.6683 0.0943 0 2
18.3740 -17.7875 3.3488 0.1033 0 2
18.0082 -16.0816 3.1616 0.6767 0 2
17.8605 -14.7020 3.0293 0.1387 0 1
17.5556 -13.3033 2.8844 0.1392 0 1
6.0162 -4.1890 0.9600 0.9251 14 6
16.8001 -10.7207 2.6097 0.1270 0 1
16.3526 -9.5319 2.4786 0.1271 0 1
15.8644 -8.4112 2.3513 0.1349 0 1
8.5938 -4.1224 1.2481 0.7315 0 9
8.8584 -3.8189 1.2632 0.4185 0 9
14.4590 -5.5548 2.0283 0.1711 0 2
14.3106 -4.8467 1.9785 0.1754 0 25
14.1846 -4.1760 1.9363 0.1792 0 25
14.0791 -3.5362 1.9009 0.1826 0 25
13.9922 -2.9215 1.8718 0.1854 0 25
13.9226 -2.3269 1.8484 0.1878 0 2
14.4308 -1.8186 1.9046 0.1913 0 1
14.4354 -1.2317 1.8972 0.1921 0 1
14.4549 -0.6492 1.8947 0.1923 0 1
14.4894 -0.0673 1.8974 0.1921 0 1
14.6203 0.5206 1.9157 0.1891 0 1
14.7716 1.1223 1.9399 0.1867 0 1
14.9432 1.7423 1.9700 0.1835 0 1
15.1265 2.3839 2.0052 0.1814 0 1
15.3167 3.0499 2.0451 0.1779 0 1
15.5354 3.7490 2.0927 0.1728 0 1
15.7148 4.4683 2.1394 0.1816 0 1
15.7843 5.1829 2.1755 0.1808 0 1
15.8666 5.9271 2.2179 0.1773 0 1
13.7750 5.7874 1.9565 0.3602 0 14
12.2524 5.7380 1.7717 0.4058 0 14
10.9916 5.6975 1.6212 0.4649 0 14
10.3645 5.9131 1.5626 0.5049 0 14
10.2399 6.4014 1.5814 0.4247 0 14
10.2462 6.9939 1.6245 0.3187 0 14
16.3348 12.1411 2.6651 0.1298 0 2
16.8406 13.6022 2.8347 0.1221 0 2
16.6469 14.5903 2.8986 0.6485 0 3
15.4760 14.7061 2.7956 0.6728 0 0
14.2628 14.6895 2.6811 0.7015 0 0
13.1434 14.6741 2.5796 0.7291 0 0
12.1412 14.7050 2.4971 0.7603 0 3
11.1727 14.6986 2.4177 0.7853 0 3
10.2626 14.6927 2.3468 0.8090 0 3
6.0034 9.3770 1.4580 0.5538 0 8
8.5871 14.6817 2.2272 0.8524 0 3
7.8094 14.6767 2.1770 0.8721 0 3
7.5395 15.6579 2.2757 0.4551 0 3
7.4661 17.2481 2.4611 0.4208 0 3
7.3724 19.1054 2.6816 0.9225 0 3
8.2053 24.1098 3.3350 0.9363 0 3
7.1348 24.1028 3.2916 0.9487 0 3
6.9747 27.5960 3.7273 0.2781 0 3
2.7056 12.8630 1.7212 0.7174 0 9
2.2510 13.3472 1.7725 0.0849 0 9
1.3546 15.6023 2.0508 0.9656 0 9
1.1389 24.5467 3.2178 0.4989 0 9
0.0988 16.1259 2.1117 0.8260 0 9
-0.4976 14.5811 1.9105 0.1748 0 9
-1.1740 15.7604 2.0695 0.2299 0 9
2.8184 -18.4159 2.4396 0.6644 0 22
3.7214 -19.1330 2.5524 0.6872 0 22
7.3766 -31.1753 4.1951 0.4759 0 3
7.7175 -27.6078 3.7538 0.9569 0 3
9.5724 -29.5957 4.0732 0.6060 0 3
10.9321 -29.6665 4.1401 0.9328 0 3
12.2834 -29.6045 4.1971 0.9185 0 3
12.7648 -27.5751 3.9790 0.9027 0 3
14.6857 -28.6424 4.2149 0.8855 0 3
16.1672 -28.6327 4.3058 0.8668 0 3
17.7167 -28.6226 4.4080 0.8467 0 3
20.0130 -29.6015 4.6790 0.8252 0 3
20.4091 -27.7151 4.5071 0.0624 0 3
21.2069 -26.4961 4.4441 0.7818 0 3
20.7361 -23.8723 4.1407 0.0836 0 2
19.4869 -20.6906 3.7219 0.0930 0 2
18.5017 -18.1248 3.3916 0.1020 0 2
17.8063 -16.0920 3.1428 0.6807 0 2
17.9093 -14.9212 3.0525 0.1377 0 1
17.6036 -13.5048 2.9054 0.1382 0 1
5.9820 -4.2181 0.9585 0.9904 14 6
16.8679 -10.9052 2.6302 0.1338 0 1
16.3582 -9.6655 2.4881 0.1247 0 24
15.9325 -8.5687 2.3689 0.1339 0 1
8.6377 -4.2066 1.2581 0.5791 0 9
8.7706 -3.8429 1.2539 0.7895 0 9
15.0047 -5.8668 2.1097 0.1649 0 1
14.3310 -4.9485 1.9853 0.1748 0 25
14.9109 4.9943 1.8822 0.1890 0 1
14.9828 5.6984 1.9186 0.1854 0 1
13.5447 5.7854 1.7629 0.8192 0 14
12.0660 5.7382 1.5992 0.4115 0 14
10.8127 5.6864 1.4623 0.4317 0 14
10.0149 5.7927 1.3848 0.4040 0 14
9.7936 6.2034 1.3876 0.9171 0 14
9.7536 6.7427 1.4192 0.8011 0 14
14.5281 10.9326 2.1763 0.1337 0 9
15.5611 12.7218 2.4058 0.1317 0 2
16.0398 14.2273 2.5663 0.1234 0 2
15.1623 14.5800 2.5177 0.6834 0 3
14.0913 14.6861 2.4361 0.7067 0 0
12.8708 14.5424 2.3244 0.7391 0 3
11.9941 14.7036 2.2712 0.7651 0 3
11.0348 14.6973 2.1998 0.7899 0 3
10.1326 14.6914 2.1361 0.8135 0 3
9.2799 14.6858 2.0793 0.8357 0 3
8.4700 14.6806 2.0286 0.8566 0 3
7.6975 14.6755 1.9835 0.8761 0 3
7.5893 16.0033 2.1199 0.4472 0 3
7.5183 17.6551 2.2968 0.4128 0 3
7.2871 19.2229 2.4606 0.3777 0 3
8.0456 24.1081 3.0420 0.9396 0 3
7.0573 24.3711 3.0369 0.3060 0 3
7.0373 28.5555 3.5201 0.2695 0 3
7.3955 36.2246 4.4252 0.9977 0 6
1.2148 15.0260 1.8044 0.7987 0 9
0.0029 14.9990 1.7953 0.2506 0 9
2.0973 -17.7584 2.1403 0.7558 0 22
2.9357 -18.4502 2.2361 0.5865 0 22
3.8500 -19.1861 2.3422 0.6236 0 22
7.7943 -32.0903 3.9526 0.2535 0 3
7.8941 -27.6074 3.4368 0.9566 0 3
9.7927 -29.6747 3.7402 0.9451 0 3
7.2508 -19.3228 2.4703 0.2021 0 9
12.4894 -29.6039 3.8458 0.9175 0 3
12.9636 -27.5746 3.6470 0.9015 0 3
14.9005 -28.6418 3.8644 0.8840 0 3
16.3915 -28.6321 3.9489 0.8651 0 3
17.9244 -28.5783 4.0377 0.5981 0 3
18.9229 -27.6345 4.0088 0.0654 0 3
19.7623 -26.5062 3.9573 0.8008 0 3
19.3724 -23.9122 3.6835 0.0860 0 2
18.2582 -20.7696 3.3100 0.0957 0 2
17.3780 -18.2336 3.0149 0.1051 0 2
16.6673 -16.1353 2.7766 0.1141 0 2
16.8615 -15.0576 2.7058 0.1422 0 1
16.5722 -13.6416 2.5692 0.1392 0 1
16.2976 -12.3501 2.4475 0.1392 0 1
6.0292 -4.1980 0.8793 0.9244 14 6
15.5191 -9.9032 2.2035 0.1410 0 1
15.0917 -8.7969 2.0908 0.1379 0 1
14.7077 -7.7979 1.9925 0.1447 0 1
8.6278 -4.1387 1.1453 0.7007 0 9
8.8856 -3.8306 1.1582 0.3878 0 9
13.6170 -5.2314 1.7460 0.1819 0 25
13.4964 -4.5709 1.7055 0.1862 0 25
13.3939 -3.9432 1.6712 0.1901 0 25
13.3078 -3.3425 1.6423 0.1934 0 25
13.2368 -2.7638 1.6185 0.1963 0 25
13.1798 -2.2027 1.5994 0.1986 0 2
13.6202 -1.7164 1.6431 0.2013 0 24
5.6653 -0.4834 0.6806 0.1747 25 14
5.5779 -0.2505 0.6683 0.1779 25 14
5.4676 -0.0254 0.6544 0.1571 25 14
5.5693 0.1983 0.6670 0.1542 25 14
5.7230 0.4348 0.6870 0.1731 25 14
14.1142 1.6457 1.7008 0.1874 0 1
14.2831 2.2510 1.7307 0.1854 0 1
14.4538 2.8781 1.7640 0.1811 0 1
14.6416 3.5333 1.8028 0.1847 0 1
14.8489 4.2221 1.8477 0.1925 0 1
14.9017 4.8931 1.8773 0.1894 0 1
14.9711 5.5926 1.9129 0.1859 0 1
13.8327 5.8116 1.7959 0.5004 0 14
12.2663 5.7445 1.6212 0.3924 0 14
10.9805 5.6918 1.4804 0.4264 0 14
10.0828 5.7524 1.3894 0.3715 0 14
9.8060 6.1301 1.3842 0.9193 0 14
9.7507 6.6557 1.4131 0.8046 0 14
14.5384 10.8059 2.1682 0.1418 0 9
15.4973 12.5172 2.3844 0.1328 0 2
15.9638 13.9916 2.5408 0.1247 0 2
15.3446 14.5812 2.5336 0.6791 0 3
14.2618 14.6884 2.4505 0.7026 0 0
13.0262 14.5434 2.3369 0.7351 0 3
12.1408 14.7045 2.2824 0.7614 0 3
11.1724 14.6982 2.2098 0.7864 0 3
10.2623 14.6923 2.1451 0.8101 0 3
6.0421 9.4375 1.3413 0.5510 0 8
8.5869 14.6813 2.0357 0.8536 0 3
7.8091 14.6763 1.9898 0.8733 0 3
7.5988 15.7809 2.0964 0.4522 0 3
7.5296 17.3947 2.2687 0.4179 0 3
7.3722 19.1050 2.4511 0.9238 0 3
7.5295 22.1239 2.7972 0.2576 0 3
7.1346 24.1022 3.0086 0.9500 0 3
7.0648 27.9525 3.4509 0.2749 0 3
4.0308 23.8999 2.9010 0.2009 0 3
1.3588 15.6513 1.8804 0.9239 0 9
1.0855 23.3955 2.8033 0.1400 0 9
0.1036 16.9080 2.0238 0.3426 0 9
-0.4894 14.3407 1.7175 0.4206 0 9
-1.1588 15.5560 1.8671 0.3523 0 9
-1.8480 16.0568 1.9346 0.3622 0 9
-1.9204 -38.8979 4.6614 0.6630 0 6
2.8052 -18.3297 2.2195 0.6388 0 22
3.7101 -19.0748 2.3259 0.6184 0 22
7.6315 -32.2527 3.9670 0.9977 0 3
7.7659 -27.7811 3.4527 0.2848 0 3
9.5726 -29.5961 3.7231 0.9469 0 3
10.9324 -29.6673 3.7844 0.9341 0 3
12.3057 -29.6584 3.8433 0.9198 0 3
12.7651 -27.5759 3.6371 0.9039 0 3
10.2161 -19.9252 2.6801 0.5206 0 9
16.1677 -28.6335 3.9358 0.8680 0 3
17.7172 -28.6234 4.0292 0.8478 0 3
19.2126 -28.4176 4.1058 0.0641 0 3
19.8782 -26.9942 4.0125 0.0743 0 3
19.5619 -24.4409 3.7470 0.0845 0 2
18.4057 -21.1895 3.3594 0.0943 0 2
17.4958 -18.5765 3.0544 0.1037 0 2
16.7632 -16.4218 2.8088 0.1128 0 2
16.9050 -15.2775 2.7273 0.1410 0 1
16.6166 -13.8442 2.5887 0.1382 0 1
16.3368 -12.5329 2.4645 0.1452 0 1
6.0000 -4.2307 0.8787 0.9888 14 6
15.5709 -10.0667 2.2193 0.1400 0 1
15.1533 -8.9536 2.1067 0.1369 0 1
14.7608 -7.9385 2.0061 0.1437 0 1
8.6687 -4.2217 1.1541 0.6299 0 9
8.7847 -3.8491 1.1480 0.6012 0 9
13.6365 -5.3318 1.7525 0.1813 0 25
13.5130 -4.6661 1.7111 0.1856 0 25
14.1148 4.7276 1.6146 0.1972 0 1
14.1691 5.3889 1.6443 0.1937 0 1
13.6678 5.8380 1.6121 0.3614 0 14
12.0819 5.7458 1.4511 0.3716 0 14
10.8102 5.6851 1.3248 0.4155 0 14
10.0290 5.8009 1.2567 0.9461 0 14
9.8437 6.2352 1.2639 0.9079 0 14
9.8056 6.7787 1.2930 0.7786 0 14
14.0904 10.6032 1.9127 0.1503 0 2
14.4049 11.7766 2.0181 0.1424 0 2
14.7748 13.1052 2.1422 0.1342 0 2
15.1617 14.5795 2.2815 0.6843 0 3
13.9821 14.5723 2.1905 0.7222 0 3
12.8703 14.5419 2.1064 0.7400 0 3
11.9937 14.7031 2.0581 0.7661 0 3
11.0345 14.6969 1.9934 0.7910 0 3
10.1323 14.6910 1.9357 0.8145 0 3
9.2796 14.6854 1.8842 0.8368 0 3
8.4698 14.6802 1.8383 0.8577 0 3
7.7060 14.6919 1.7995 0.4780 0 3
7.6499 16.1311 1.9365 0.4442 0 3
7.5834 17.8079 2.0994 0.4097 0 3
7.3561 19.4049 2.2509 0.3746 0 3
8.0454 24.1075 2.7566 0.9408 0 3
7.1377 24.6486 2.7834 0.3029 0 3
7.1311 28.9358 3.2325 0.2663 0 3
2.8946 14.1781 1.5696 0.6412 0 9
2.3767 14.6206 1.6067 0.6516 0 9
0.5601 13.8451 1.5030 0.1448 0 9
0.0030 15.2207 1.6509 0.2960 0 9
-0.6159 15.3723 1.6687 0.2490 0 9
-2.0325 16.7829 1.8337 0.2999 0 9
1.4415 -38.8609 4.2180 0.9995 0 22
2.9231 -18.3709 2.0177 0.5897 0 22
6.5447 -32.6152 3.6082 0.9763 0 3
7.8186 -32.1905 3.5931 0.6859 0 3
7.8943 -27.6081 3.1146 0.9578 0 3
9.7666 -29.5956 3.3804 0.9463 0 3
11.1113 -29.6104 3.4304 0.9332 0 3
12.4997 -29.6285 3.4880 0.9187 0 3
12.9639 -27.5753 3.3050 0.9026 0 3
14.9009 -28.6425 3.5020 0.8851 0 3
16.3920 -28.6329 3.5786 0.8661 0 3
17.8110 -28.3974 3.6359 0.0657 0 3
18.5080 -27.0286 3.5532 0.0762 0 3
18.2795 -24.5174 3.3171 0.0866 0 2
17.2522 -21.2950 2.9727 0.0967 0 2
16.4424 -18.7040 2.7012 0.1064 0 2
15.7897 -16.5671 2.4824 0.1158 0 2
15.6411 -13.9677 2.2745 0.1427 0 1
15.3841 -12.6635 2.1613 0.1430 0 1
15.0746 -11.4233 2.0515 0.1374 0 1
6.0429 -4.2075 0.7987 0.9872 14 6
14.3773 -9.1746 1.8499 0.1452 0 1
14.0285 -8.1771 1.7613 0.1526 0 1
13.7661 -7.2987 1.6900 0.1696 0 1
8.6739 -4.1608 1.0435 0.7307 0 9
8.8829 -3.8295 1.0492 0.6052 0 9
12.8695 -4.9442 1.4954 0.1927 0 25
12.7717 -4.3255 1.4626 0.1971 0 25
12.6884 -3.7355 1.4347 0.2009 0 25
12.6183 -3.1693 1.4112 0.2042 0 25
12.5604 -2.6225 1.3918 0.2071 0 25
13.0055 -2.1736 1.4302 0.2083 0 2
12.9413 -1.6309 1.4148 0.2122 0 24
5.3405 -0.4557 0.5814 0.1856 25 14
5.2257 -0.2347 0.5674 0.1644 25 14
5.1414 -0.0239 0.5577 0.2415 25 14
5.2103 0.1855 0.5655 0.1650 25 14
5.3885 0.4094 0.5862 0.1592 25 14
13.3592 1.5577 1.4588 0.1982 0 1
13.5111 2.1293 1.4836 0.1962 0 1
13.6556 2.7191 1.5103 0.1928 0 1
13.8201 3.3350 1.5421 0.1879 0 1
14.0055 3.9823 1.5793 0.1835 0 1
14.1080 4.6325 1.6106 0.1977 0 1
14.1602 5.2897 1.6396 0.1942 0 1
13.8233 5.8077 1.6263 0.3779 0 14
12.2882 5.7548 1.4718 0.3750 0 14
11.0699 5.7381 1.3524 0.4736 0 14
10.0672 5.7436 1.2572 0.9037 0 14
9.8592 6.1634 1.2612 0.9194 0 14
9.8025 6.6910 1.2873 0.7960 0 14
14.0481 10.4415 1.8986 0.1514 0 2
14.3553 11.5948 2.0015 0.1436 0 2
14.7163 12.8982 2.1225 0.1354 0 2
15.1441 14.3907 2.2660 0.1268 0 2
14.1496 14.5729 2.2032 0.7086 0 3
13.0258 14.5429 2.1177 0.7361 0 3
12.1404 14.7041 2.0683 0.7623 0 3
11.1721 14.6978 2.0025 0.7874 0 3
10.2620 14.6918 1.9438 0.8112 0 3
6.0812 9.4986 1.2233 0.5481 0 8
8.5866 14.6809 1.8448 0.8547 0 3
7.8089 14.6759 1.8032 0.8744 0 3
7.6588 15.9055 1.9148 0.4492 0 3
7.5939 17.5434 2.0735 0.4149 0 3
7.3720 19.1045 2.2211 0.9250 0 3
8.2049 24.1085 2.7623 0.9389 0 3
7.1595 24.1863 2.7359 0.3082 0 3
3.5896 14.2027 1.5890 0.3765 0 9
2.3100 13.6970 1.5066 0.6985 0 9
2.0644 16.1880 1.7701 0.8497 0 9
1.3167 15.1657 1.6512 0.6534 0 9
0.6497 14.0025 1.5204 0.6304 0 9
0.1437 23.4590 2.5446 0.2604 0 9
-0.5260 15.4140 1.6729 0.5437 0 9
-1.9824 17.2237 1.8805 0.1240 0 9
1.2112 -38.8719 4.2184 0.9945 0 22
2.7943 -18.2583 2.0035 0.6405 0 22
6.3441 -32.6168 3.6041 0.9774 0 3
8.6526 -36.5683 4.0760 0.2448 0 3
7.8637 -28.1310 3.1683 0.2816 0 3
9.5986 -29.6767 3.3831 0.9481 0 3
10.9327 -29.6680 3.4295 0.9353 0 3
12.2827 -29.6028 3.4763 0.9209 0 3
12.8281 -27.7120 3.3123 0.4242 0 3
14.5092 -28.2981 3.4493 0.7655 0 3
16.1681 -28.6343 3.5668 0.8690 0 3
17.6750 -28.5553 3.6426 0.8489 0 3
18.2764 -27.0329 3.5394 0.7180 0 3
18.4545 -25.0608 3.3758 0.0851 0 2
17.3881 -21.7249 3.0182 0.0952 0 2
16.5507 -19.0538 2.7375 0.1050 0 2
15.8777 -16.8585 2.5119 0.1144 0 2
16.1810 -15.8515 2.4569 0.1354 0 2
15.6746 -14.1656 2.2916 0.1452 0 1
15.4231 -12.8499 2.1774 0.1420 0 1
15.1333 -11.6096 2.0688 0.1330 0 1
6.0205 -4.2452 0.7990 0.8982 14 6
14.4331 -9.3311 1.8642 0.1441 0 1
14.0768 -8.3175 1.7735 0.1515 0 1
13.7943 -7.4187 1.6989 0.1687 0 1
8.7060 -4.2399 1.0503 0.5434 0 9
8.8173 -3.8633 1.0442 0.7577 0 9
12.8852 -5.0381 1.5006 0.1921 0 25
12.7852 -4.4147 1.4671 0.1965 0 25
13.3801 4.4816 1.3725 0.2026 0 1
13.4350 5.1097 1.3981 0.1989 0 1
13.4859 5.7602 1.4264 0.2004 0 1
12.0920 5.7506 1.3024 0.3601 0 14
10.8322 5.6966 1.1904 0.4293 0 14
10.0413 5.8079 1.1283 0.9100 0 14
9.8734 6.2540 1.1368 0.8867 0 14
9.8413 6.8034 1.1637 0.7952 0 14
13.1655 9.9072 1.6027 0.1610 0 2
13.4108 10.9639 1.6849 0.1531 0 2
13.6971 12.1493 1.7809 0.1449 0 2
14.0338 13.4949 1.8937 0.1363 0 2
13.9812 14.5713 1.9642 0.7136 0 3
12.8699 14.5414 1.8888 0.7409 0 3
11.9933 14.7027 1.8455 0.7670 0 3
11.0342 14.6964 1.7876 0.7919 0 3
6.2978 9.1312 1.0789 0.3603 22 6
9.2793 14.6850 1.6896 0.8378 0 3
8.4695 14.6798 1.6485 0.8587 0 3
7.7635 14.8015 1.6257 0.4750 0 3
7.7113 16.2606 1.7505 0.4412 0 3
7.6494 17.9631 1.8991 0.4067 0 3
7.4262 19.5899 2.0378 0.3715 0 3
8.0452 24.1069 2.4720 0.9419 0 3
7.0944 24.4993 2.4809 0.6021 0 3
3.4090 13.8328 1.3857 0.1129 0 9
1.9583 16.1166 1.5792 0.6711 0 9
1.2873 15.9221 1.5538 0.8620 0 9
0.0049 24.9520 2.4270 0.9368 0 9
-0.6295 15.7126 1.5296 0.3846 0 9
-0.1229 -38.8980 3.7835 0.9910 0 22
1.4429 -38.8989 3.7862 0.9844 0 22
5.6918 -35.7711 3.5231 0.1725 0 3
8.5076 -42.3975 4.2061 0.2200 0 3
7.8690 -32.3980 3.2429 0.2470 0 3
7.9780 -27.9006 2.8226 0.2838 0 3
9.7672 -29.5973 3.0316 0.9654 0 3
11.1327 -29.6675 3.0822 0.9343 0 3
12.5124 -29.6586 3.1310 0.9197 0 3
12.9643 -27.5760 2.9639 0.9036 0 3
14.9013 -28.6433 3.1405 0.8861 0 3
16.3590 -28.5754 3.2027 0.8671 0 3
16.9571 -27.0360 3.1042 0.8205 0 3
17.2363 -25.1715 2.9674 0.0870 0 2
16.2943 -21.8548 2.6516 0.0973 0 2
15.5539 -19.1988 2.4034 0.1074 0 2
14.9583 -17.0158 2.2037 0.1171 0 2
15.2626 -16.0141 2.1518 0.1388 0 2
14.7768 -14.3052 2.0005 0.1458 0 1
14.5358 -12.9807 1.8956 0.1512 0 1
14.3070 -11.7770 1.8024 0.1391 0 1
13.9900 -10.6014 1.7073 0.1469 0 1
6.0610 -4.2202 0.7184 0.9853 14 6
13.4012 -8.5518 1.5463 0.1560 0 1
13.1202 -7.6477 1.4771 0.1742 0 1
12.9579 -6.8702 1.4266 0.1804 0 1
8.7048 -4.1756 0.9391 0.7092 0 9
8.9082 -3.8404 0.9436 0.6430 0 9
12.2012 -4.6875 1.2714 0.2035 0 25
12.1223 -4.1056 1.2449 0.2079 0 25
12.0550 -3.5490 1.2223 0.2117 0 25
11.9982 -3.0135 1.2033 0.2150 0 25
11.9512 -2.4953 1.1875 0.2179 0 25
12.3848 -2.0699 1.2214 0.2209 0 1
12.3799 -1.5601 1.2137 0.2222 0 1
5.0752 -0.4331 0.4955 0.2441 25 14
4.9995 -0.2245 0.4868 0.2484 25 14
4.9232 -0.0229 0.4789 0.2450 25 14
4.9877 0.1776 0.4855 0.2417 25 14
5.1013 0.3876 0.4976 0.2430 25 14
5.2242 0.6091 0.5116 0.1637 25 14
12.8168 2.0199 1.2621 0.2057 0 1
12.9450 2.5776 1.2839 0.2036 0 1
13.0845 3.1575 1.3092 0.1996 0 1
13.2419 3.7652 1.3391 0.1943 0 1
13.3730 4.3912 1.3691 0.2031 0 1
13.4261 5.0154 1.3941 0.1994 0 1
13.4777 5.6625 1.4219 0.2010 0 1
12.3145 5.7671 1.3226 0.4467 0 14
11.0159 5.7101 1.2069 0.3592 0 14
10.0907 5.7569 1.1300 0.9885 0 14
9.8877 6.1812 1.1342 0.9490 0 14
9.8385 6.7156 1.1587 0.7986 0 14
13.1324 9.7609 1.5916 0.1621 0 2
13.3723 10.8007 1.6720 0.1543 0 2
13.6520 11.9654 1.7657 0.1461 0 2
13.9806 13.2851 1.8759 0.1375 0 2
14.1491 14.5724 1.9756 0.7094 0 3
13.0254 14.5425 1.8989 0.7369 0 3
12.1400 14.7036 1.8547 0.7632 0 3
11.1717 14.6973 1.7957 0.7883 0 3
10.2617 14.6914 1.7431 0.8121 0 3
9.4021 14.6858 1.6961 0.8346 0 3
8.5864 14.6805 1.6542 0.8557 0 3
7.8087 14.6755 1.6169 0.8754 0 3
7.7196 16.0318 1.7307 0.4462 0 3
7.6593 17.6943 1.8754 0.4118 0 3
7.4379 19.2751 2.0096 0.3767 0 3
8.2047 24.1079 2.4770 0.9400 0 3
7.2350 24.4412 2.4793 0.3050 0 3
7.2515 28.6911 2.8785 0.2685 0 3
7.6291 36.2699 3.6051 0.4045 0 6
2.4711 14.6523 1.4453 0.9517 0 9
1.9529 22.4938 2.1962 0.2237 0 9
1.0921 23.5372 2.2919 0.1515 0 9
0.0888 14.4983 1.4102 0.2446 0 9
-0.5718 16.7547 1.6306 0.3207 0 9
-1.9302 25.9125 2.5274 0.1738 0 9
-1.8607 16.1663 1.5828 0.1088 0 9
-0.3536 -38.9044 3.7843 0.9945 0 22
1.2125 -38.9114 3.7867 0.9903 0 22
4.3387 -38.7059 3.7884 0.9985 0 6
8.0880 -41.5831 4.1205 0.0314 0 3
8.7985 -37.1848 3.7168 0.2415 0 3
7.9638 -28.4891 2.8773 0.2784 0 3
9.5806 -29.6210 3.0281 0.9491 0 3
10.9329 -29.6688 3.0755 0.9363 0 3
12.3064 -29.6599 3.1234 0.9219 0 3
12.9361 -27.9451 2.9953 0.4211 0 3
14.4346 -28.1527 3.0773 0.6730 0 3
16.1357 -28.5768 3.1921 0.8700 0 3
16.7289 -27.0268 3.0917 0.8238 0 3
17.3970 -25.7322 3.0213 0.0854 0 2
16.4187 -22.2963 2.6933 0.0958 0 2
15.6528 -19.5568 2.4365 0.1059 0 2
15.0386 -17.3130 2.2306 0.1157 0 2
15.1637 -16.1003 2.1513 0.7415 0 2
14.8182 -14.5164 2.0177 0.1445 0 1
14.5465 -13.1461 1.9071 0.1476 0 24
14.3537 -11.9589 1.8172 0.1488 0 1
14.0337 -10.7661 1.7204 0.1458 0 1
6.0438 -4.2616 0.7193 0.8958 14 6
13.4462 -8.6931 1.5574 0.1549 0 1
13.1581 -7.7747 1.4866 0.1623 0 1
12.9804 -6.9810 1.4336 0.1795 0 1
8.7629 -4.2676 0.9481 0.4453 0 9
8.8443 -3.8752 0.9392 0.8643 0 9
12.2139 -4.7756 1.2756 0.2029 0 25
12.1332 -4.1896 1.2485 0.2073 0 25
12.7160 4.2591 1.1545 0.2134 0 1
12.7563 4.8516 1.1750 0.2096 0 1
12.8063 5.4700 1.1989 0.2055 0 1
12.8555 6.1137 1.2256 0.2067 0 1
10.8944 5.7293 1.0597 0.7180 0 14
10.0388 5.8065 0.9984 0.8563 0 14
9.8296 6.2263 1.0017 0.8077 0 14
9.7832 6.7632 1.0239 0.8036 0 14
12.3562 9.2982 1.3313 0.1717 0 2
12.5468 10.2575 1.3952 0.1639 0 2
12.7678 11.3250 1.4693 0.1556 0 2
13.0257 12.5254 1.5558 0.1469 0 2
13.3290 13.8916 1.6575 0.1379 0 2
12.8695 14.5410 1.6718 0.7417 0 3
11.9930 14.7022 1.6335 0.7678 0 3
11.0338 14.6960 1.5821 0.7927 0 3
6.2838 9.1109 0.9529 0.6897 22 6
9.2791 14.6846 1.4955 0.8387 0 3
8.4693 14.6793 1.4590 0.8596 0 3
7.8217 14.9125 1.4497 0.4720 0 3
7.7736 16.3920 1.5619 0.4381 0 3
7.7165 18.1206 1.6956 0.4035 0 3
7.4975 19.7781 1.8210 0.3684 0 3
8.0450 24.1063 2.1879 0.9429 0 3
7.4628 25.7714 2.3099 0.2965 0 3
1.9995 24.7318 2.1362 0.1436 0 9
0.6138 15.1707 1.3072 0.1064 0 9
0.0053 26.8140 2.3085 0.2422 0 9
-2.0561 25.5561 2.2073 0.0933 0 9
-35.7819 -34.2043 4.2616 0.9267 0 20
-0.1229 -38.8947 3.3486 0.9934 0 22
1.4428 -38.8960 3.3510 0.9848 0 22
6.7799 -42.6094 3.7145 0.9852 0 3
8.8794 -44.2503 3.8856 0.2065 0 3
9.0278 -37.1689 3.2930 0.2437 0 3
8.0786 -28.2526 2.5298 0.2805 0 3
9.7934 -29.6769 2.6905 0.9483 0 3
11.1330 -29.6683 2.7281 0.9352 0 3
12.5128 -29.6594 2.7714 0.9206 0 3
13.0534 -27.7656 2.6414 0.4231 0 3
14.8713 -28.5858 2.7742 0.8870 0 3
15.4781 -27.0366 2.6821 0.8681 0 3
16.2284 -25.8743 2.6295 0.0869 0 2
15.3720 -22.4489 2.3424 0.0976 0 2
14.7011 -19.7180 2.1175 0.1080 0 2
14.1628 -17.4817 1.9370 0.1180 0 2
14.1669 -16.1155 1.8473 0.7651 0 2
14.0023 -14.6917 1.7473 0.1477 0 1
13.7623 -13.3230 1.6491 0.1540 0 1
13.5631 -12.1120 1.5655 0.1531 0 1
13.2953 -10.9442 1.4826 0.1511 0 1
13.0552 -9.8930 1.4102 0.1588 0 1
6.0792 -4.2328 0.6377 0.9834 14 6
12.5481 -8.0073 1.2815 0.1656 0 1
12.3698 -7.2103 1.2327 0.1850 0 1
12.2402 -6.4896 1.1927 0.1875 0 1
8.7491 -4.1969 0.8354 0.7811 0 9
8.9294 -3.8495 0.8372 0.7452 0 9
11.6002 -4.4566 1.0699 0.2143 0 25
11.5370 -3.9073 1.0487 0.2186 0 25
11.4830 -3.3806 1.0306 0.2225 0 25
11.4373 -2.8727 1.0153 0.2258 0 25
11.3995 -2.3802 1.0026 0.2287 0 25
11.8162 -1.9748 1.0314 0.2302 0 1
11.8157 -1.4890 1.0253 0.2314 0 1
4.8679 -0.4154 0.4206 0.2547 25 14
4.7957 -0.2154 0.4133 0.2516 25 14
4.7225 -0.0219 0.4066 0.2557 25 14
4.7830 0.1703 0.4120 0.2523 25 14
4.8932 0.3718 0.4225 0.2536 25 14
5.0045 0.5835 0.4338 0.2470 25 14
12.1968 1.9222 1.0630 0.2179 0 1
12.3061 2.4504 1.0803 0.2144 0 1
12.4265 2.9987 1.1005 0.2104 0 1
12.5599 3.5713 1.1242 0.2060 0 1
12.7091 4.1732 1.1516 0.2002 0 1
12.7497 4.7628 1.1718 0.2102 0 1
12.7983 5.3771 1.1951 0.2061 0 1
12.8483 6.0171 1.2214 0.2074 0 1
11.0753 5.7409 1.0740 0.4103 0 14
10.1090 5.7674 1.0020 0.8381 0 14
9.8450 6.1545 0.9996 0.8094 0 14
9.7871 6.6805 1.0202 0.3379 0 14
12.3303 9.1647 1.3227 0.1728 0 2
12.5169 10.1099 1.3852 0.1650 0 2
12.7331 11.1600 1.4577 0.1568 0 2
12.9850 12.3390 1.5422 0.1482 0 2
13.2810 13.6783 1.6414 0.1393 0 2
13.0250 14.5420 1.6807 0.7377 0 3
12.1396 14.7032 1.6415 0.7640 0 3
11.1714 14.6969 1.5893 0.7891 0 3
10.2614 14.6910 1.5428 0.8130 0 3
9.4019 14.6854 1.5012 0.8355 0 3
8.5861 14.6801 1.4642 0.8566 0 3
7.8282 14.7120 1.4347 0.4769 0 3
7.7812 16.1598 1.5441 0.4431 0 3
7.7256 17.8476 1.6743 0.4087 0 3
7.5083 19.4577 1.7956 0.3736 0 3
8.2045 24.1073 2.1924 0.9409 0 3
7.3253 24.7462 2.2219 0.3018 0 3
3.6666 14.5072 1.2882 0.8290 0 9
1.2730 14.6628 1.2671 0.1214 0 9
0.6735 14.5147 1.2510 0.1378 0 9
0.1637 26.7315 2.3014 0.3287 0 9
-0.8687 25.4558 2.1928 0.4408 0 9
-1.9446 26.1062 2.2538 0.3018 0 9
-36.0536 -34.0572 4.2699 0.9249 0 20
-0.3537 -38.9062 3.3497 0.9957 0 22
6.5214 -42.6112 3.7112 0.9860 0 3
4.7987 -24.6715 2.1638 0.7589 0 6
8.8965 -37.5989 3.3264 0.9712 0 3
8.0663 -28.8555 2.5795 0.2751 0 3
9.5991 -29.6781 2.6854 0.9501 0 3
10.9136 -29.6164 2.7174 0.9372 0 3
12.3067 -29.6607 2.7647 0.9228 0 3
13.0456 -28.1817 2.6736 0.4180 0 3
14.4042 -28.0934 2.7180 0.6645 0 3
15.5617 -27.5603 2.7249 0.8707 0 3
16.3749 -26.4549 2.6786 0.0853 0 2
15.4850 -22.9040 2.3802 0.0960 0 2
14.7907 -20.0854 2.1475 0.1065 0 2
14.2353 -17.7857 1.9613 0.1166 0 2
14.0066 -16.1250 1.8388 0.7686 0 2
14.0385 -14.9056 1.7628 0.1464 0 1
13.7908 -13.5099 1.6621 0.1528 0 1
13.5935 -12.2848 1.5774 0.1519 0 1
13.3345 -11.1097 1.4942 0.1487 0 1
13.0884 -10.0409 1.4202 0.1577 0 1
6.0692 -4.2795 0.6393 0.6671 14 6
12.5815 -8.1340 1.2898 0.1646 0 1
12.3903 -7.3210 1.2390 0.1840 0 1
12.2585 -6.5928 1.1983 0.1866 0 1
8.7880 -4.2798 0.8415 0.3343 0 9
8.8651 -3.8843 0.8333 0.8479 0 9
11.6104 -4.5396 1.0733 0.2136 0 25
11.5457 -3.9868 1.0516 0.2180 0 25
12.0920 4.0501 0.9556 0.2098 0 1
12.1453 4.6192 0.9738 0.2226 0 1
12.1806 5.2027 0.9926 0.2184 0 1
12.2240 5.8134 1.0144 0.2137 0 1
10.9028 5.7338 0.9231 0.6859 0 14
10.0681 5.8234 0.8716 0.9563 0 14
9.8721 6.2531 0.8757 0.8994 0 14
9.8509 6.8100 0.8974 0.8238 0 14
11.6419 8.7607 1.0919 0.1824 0 2
11.7888 9.6378 1.1411 0.1745 0 2
10.3283 9.1612 1.0346 0.1709 0 20
12.1542 11.6874 1.2636 0.1576 0 2
12.3831 12.9057 1.3403 0.1486 0 2
12.6524 14.2957 1.4306 0.1392 0 2
11.9926 14.7017 1.4218 0.7685 0 3
11.0071 14.6603 1.3738 0.5968 0 3
6.2876 9.1164 0.8299 0.9119 22 6
8.7346 13.8230 1.2254 0.8443 0 21
8.4691 14.6789 1.2700 0.8604 0 3
7.8807 15.0249 1.2714 0.4689 0 3
7.8368 16.5252 1.3706 0.4349 0 3
7.7847 18.2806 1.4890 0.4004 0 3
8.5129 22.4566 1.7997 0.9158 0 3
8.0448 24.1057 1.9044 0.9437 0 3
7.5528 26.0821 2.0349 0.2932 0 3
1.6432 13.5236 1.0209 0.7733 0 9
1.9380 23.9706 1.8022 0.7204 0 9
0.5851 14.4612 1.0846 0.1757 0 9
0.0029 14.9777 1.1224 0.8689 0 9
-1.0199 25.4558 1.9092 0.1900 0 9
-1.2833 15.9512 1.1992 0.1212 0 9
-30.6302 17.7327 2.6523 0.7911 0 3
-35.5408 -33.9738 3.6845 0.8751 0 20
-0.1229 -38.8936 2.9147 0.9920 0 22
1.4422 -38.8782 2.9155 0.9909 0 22
4.5732 -38.7233 2.9221 0.8045 0 6
9.0339 -45.0202 3.4410 0.2032 0 3
9.0965 -37.4515 2.8882 0.9718 0 3
8.1817 -28.6129 2.2302 0.2772 0 3
9.7937 -29.6776 2.3420 0.9491 0 3
11.1223 -29.6397 2.3724 0.9360 0 3
12.5131 -29.6601 2.4124 0.9214 0 3
13.1633 -27.9994 2.3186 0.4199 0 3
14.3422 -27.5687 2.3288 0.8890 0 3
15.2077 -26.5642 2.2938 0.8672 0 3
14.4744 -23.0777 2.0414 0.0976 0 2
13.8743 -20.2616 1.8403 0.1082 0 2
13.3941 -17.9648 1.6793 0.1186 0 2
13.0754 -16.1395 1.5566 0.7911 0 2
13.2600 -15.0839 1.5051 0.1494 0 1
13.0262 -13.6675 1.4149 0.1564 0 1
12.8476 -12.4375 1.3400 0.1558 0 1
12.6392 -11.2870 1.2699 0.1537 0 1
12.4253 -10.2280 1.2060 0.1618 0 1
12.2048 -9.2486 1.1476 0.1602 0 1
6.1009 -4.2480 0.5571 0.8928 14 6
11.8081 -7.5351 1.0497 0.1856 0 1
11.6902 -6.8142 1.0140 0.1921 0 1
11.5524 -6.1250 0.9799 0.2025 0 24
8.8132 -4.2276 0.7325 0.6104 0 9
8.9303 -3.8499 0.7288 0.8458 0 9
11.0566 -4.2477 0.8876 0.2250 0 25
11.0066 -3.7277 0.8709 0.2294 0 25
10.9637 -3.2278 0.8565 0.2332 0 25
10.9275 -2.7446 0.8443 0.2366 0 25
10.8974 -2.2753 0.8343 0.2394 0 2
6.0496 -1.0111 0.4596 0.9646 25 14
7.0786 -0.8920 0.5347 0.2709 25 14
4.6769 -0.3991 0.3518 0.2575 25 14
4.6052 -0.2068 0.3455 0.2622 25 14
4.5378 -0.0211 0.3401 0.2664 25 14
4.5948 0.1636 0.3446 0.2629 25 14
4.6991 0.3570 0.3532 0.2565 25 14
4.8038 0.5601 0.3624 0.2576 25 14
11.6331 1.8333 0.8825 0.2287 0 1
11.7267 2.3350 0.8960 0.2257 0 1
11.8297 2.8547 0.9120 0.2198 0 1
11.9451 3.3965 0.9306 0.2154 0 1
12.0722 3.9640 0.9522 0.2105 0 1
12.1408 4.5353 0.9712 0.2232 0 1
12.1749 5.1152 0.9896 0.2190 0 1
12.2171 5.7215 1.0110 0.2144 0 1
11.0725 5.7395 0.9346 0.8110 0 14
10.1361 5.7829 0.8745 0.8366 0 14
9.8891 6.1821 0.8740 0.9043 0 14
9.8515 6.7245 0.8939 0.8300 0 14
11.6219 8.6382 1.0852 0.1835 0 2
11.7658 9.5032 1.1334 0.1757 0 2
11.9315 10.4575 1.1890 0.1675 0 2
12.1234 11.5203 1.2533 0.1589 0 2
12.3470 12.7163 1.3283 0.1500 0 2
12.6098 14.0784 1.4164 0.1406 0 2
12.1393 14.7027 1.4288 0.7647 0 3
11.1710 14.6964 1.3834 0.7899 0 3
6.3765 9.1290 0.8345 0.3596 22 6
8.8469 13.8185 1.2296 0.8414 0 21
8.5859 14.6797 1.2744 0.8574 0 3
7.8866 14.8218 1.2582 0.4738 0 3
7.8438 16.2897 1.3549 0.4400 0 3
7.7930 18.0032 1.4701 0.4055 0 3
7.5800 19.6434 1.5779 0.3704 0 3
8.2043 24.1067 1.9083 0.9418 0 3
7.5687 25.5687 1.9983 0.2986 0 3
1.7342 13.5988 1.0273 0.1491 0 9
1.2729 14.6616 1.1029 0.2862 0 9
0.6602 14.2297 1.0675 0.9009 0 9
0.0872 14.2328 1.0666 0.5617 0 9
-0.5664 16.5979 1.2446 0.2262 0 9
-30.6351 17.9790 2.6619 0.7883 0 3
-30.5324 16.3042 2.5939 0.8435 0 3
-35.8530 -33.8676 3.6960 0.8633 0 20
-0.3537 -38.9100 2.9160 0.9964 0 22
4.7976 -24.6662 1.8831 0.9480 0 6
8.9116 -37.6628 2.9004 0.2033 0 3
8.1712 -29.2308 2.2745 0.2718 0 3
9.5993 -29.6789 2.3376 0.9509 0 3
10.1029 -27.4163 2.1896 0.4777 0 3
12.3070 -29.6615 2.4066 0.9236 0 3
13.1567 -28.4219 2.3471 0.4148 0 3
14.1283 -27.5552 2.3206 0.8636 0 3
14.9922 -26.5517 2.2851 0.8364 0 3
14.5756 -23.5480 2.0754 0.0960 0 2
13.9542 -20.6399 1.8671 0.1067 0 2
13.4587 -18.2766 1.7009 0.1171 0 2
13.0552 -16.3114 1.5657 0.1272 0 2
13.2908 -15.3010 1.5188 0.1481 0 1
13.0500 -13.8561 1.4264 0.1551 0 1
12.8737 -12.6115 1.3505 0.1546 0 1
12.6734 -11.4533 1.2801 0.1524 0 1
12.4549 -10.3768 1.2149 0.1606 0 1
12.2398 -9.3898 1.1561 0.1591 0 1
6.1008 -4.3018 0.5594 0.6642 14 6
11.8268 -7.6461 1.0554 0.1846 0 1
11.7066 -6.9171 1.0190 0.1912 0 1
11.5642 -6.2194 0.9840 0.2017 0 24
11.1916 -5.4504 0.9329 0.2141 0 25
8.8647 -3.8841 0.7253 0.8410 0 9
11.0646 -4.3262 0.8903 0.2244 0 25
11.0135 -3.8030 0.8732 0.2288 0 25
11.5125 3.8560 0.7747 0.2205 0 1
11.5906 4.4083 0.7912 0.2295 0 1
11.6191 4.9629 0.8062 0.2291 0 1
11.6487 5.5398 0.8230 0.2244 0 1
10.9082 5.7366 0.7864 0.7875 0 14
10.1116 5.8486 0.7453 0.8318 0 14
9.9116 6.2782 0.7486 0.7570 0 14
10.6278 7.3471 0.8244 0.4622 0 14
11.0214 8.2937 0.8801 0.5556 0 2
11.1182 9.0896 0.9163 0.1852 0 2
10.3481 9.1788 0.8826 0.7357 0 20
11.3932 10.9557 1.0085 0.1683 0 2
11.5638 12.0519 1.0657 0.1592 0 2
11.7629 13.2906 1.1324 0.1499 0 2
11.9513 14.6512 1.2064 0.7691 0 3
11.0332 14.6951 1.1725 0.7941 0 3
6.2988 9.1327 0.7079 0.9927 22 6
8.7167 13.7946 1.0412 0.8466 0 21
8.4688 14.6785 1.0813 0.8611 0 3
7.9405 15.1389 1.0907 0.4657 0 3
7.9009 16.6604 1.1765 0.4317 0 3
7.8539 18.4432 1.2790 0.3971 0 3
8.5360 22.5175 1.5365 0.9141 0 3
8.0446 24.1051 1.6214 0.9445 0 3
7.6222 26.3217 1.7484 0.9567 0 3
0.6067 14.9963 0.9576 0.3931 0 9
0.0053 26.8516 1.7133 0.0478 0 9
-0.5946 14.8403 0.9476 0.4447 0 9
-30.7378 27.2859 2.6225 0.6829 0 3
-31.0082 25.3708 2.5563 0.3059 0 3
-31.1997 23.4974 2.4921 0.3138 0 3
-31.2885 21.6481 2.4276 0.7540 0 3
-31.4335 19.9278 2.3747 0.7753 0 3
-31.6782 18.3395 2.3355 0.3349 0 3
-31.8042 16.7418 2.2932 0.3411 0 3
-35.2583 -33.7037 3.1121 0.7950 0 20
-0.1230 -38.9080 2.4825 0.9998 0 22
1.4428 -38.8959 2.4834 0.4358 0 22
5.0427 -42.6989 2.7433 0.9925 0 3
4.9475 -24.6557 1.6045 0.9944 0 6
8.9729 -36.9428 2.4257 0.8675 0 3
8.2872 -28.9818 1.9233 0.2739 0 3
9.7939 -29.6784 1.9941 0.9498 0 3
11.1036 -29.5900 2.0165 0.9367 0 3
12.4910 -29.6078 2.0504 0.9221 0 3
12.9569 -27.5604 1.9431 0.8791 0 3
13.8159 -26.5570 1.9100 0.8526 0 3
13.5915 -23.7411 1.7455 0.0972 0 2
13.0646 -20.8300 1.5688 0.1082 0 2
12.6443 -18.4655 1.4279 0.1189 0 2
12.3021 -16.5002 1.3132 0.1292 0 2
12.7042 -15.6813 1.2877 0.1525 0 2
12.3258 -14.0211 1.1911 0.1519 0 1
12.1698 -12.7689 1.1255 0.1623 0 1
12.0126 -11.6292 1.0668 0.1558 0 1
11.8254 -10.5602 1.0116 0.1643 0 1
11.6472 -9.5875 0.9625 0.1628 0 1
11.4494 -8.6762 0.9166 0.1710 0 1
6.1247 -4.2645 0.4762 0.8900 14 6
11.1720 -7.1292 0.8456 0.1963 0 1
11.0880 -6.4632 0.8189 0.2071 0 1
11.0205 -5.8430 0.7959 0.2135 0 1
8.8327 -4.2370 0.6251 0.4967 0 9
8.9433 -3.8555 0.6214 0.7769 0 9
10.5625 -4.0579 0.7220 0.2357 0 25
10.5236 -3.5641 0.7089 0.2401 0 25
10.4902 -3.0884 0.6977 0.2439 0 25
10.4619 -2.6277 0.6883 0.2473 0 25
10.5852 -2.2101 0.6900 0.2550 0 2
6.0714 -1.0147 0.3928 0.9619 25 14
4.5631 -0.5750 0.2935 0.2710 25 14
4.4954 -0.3836 0.2879 0.2681 25 14
4.4296 -0.1989 0.2829 0.2728 25 14
4.3634 -0.0203 0.2784 0.3183 25 14
4.4211 0.1574 0.2823 0.2734 25 14
4.5172 0.3432 0.2891 0.2670 25 14
4.6188 0.5385 0.2967 0.2681 25 14
6.0833 0.9587 0.3929 0.9614 25 14
11.2029 2.2307 0.7288 0.2364 0 1
11.2896 2.7244 0.7410 0.2325 0 1
11.3870 3.2378 0.7553 0.2261 0 1
11.4957 3.7747 0.7720 0.2212 0 1
11.5865 4.3282 0.7892 0.2301 0 1
11.6153 4.8800 0.8039 0.2298 0 1
11.6440 5.4531 0.8204 0.2252 0 1
11.0678 5.7370 0.7954 0.7854 0 14
10.1709 5.8027 0.7471 0.7648 0 14
9.9274 6.2060 0.7470 0.7586 0 14
10.7791 7.3576 0.8327 0.2423 0 14
11.1471 8.2853 0.8862 0.6134 0 2
11.1008 8.9661 0.9105 0.1864 0 2
11.2260 9.8391 0.9524 0.1782 0 2
11.3702 10.8045 1.0008 0.1696 0 2
11.5370 11.8821 1.0567 0.1606 0 2
11.7315 13.0979 1.1219 0.1513 0 2
11.9602 14.4859 1.1986 0.1416 0 2
11.1707 14.6960 1.1778 0.7905 0 3
6.3635 9.1105 0.7091 0.6880 22 6
8.8286 13.7900 1.0447 0.8437 0 21
8.5857 14.6793 1.0850 0.8581 0 3
7.9458 14.9330 1.0793 0.4706 0 3
7.9072 16.4214 1.1629 0.4368 0 3
7.8614 18.1612 1.2627 0.4023 0 3
7.6529 19.8324 1.3563 0.3671 0 3
8.2041 24.1061 1.6247 0.9425 0 3
7.6593 25.8746 1.7217 0.2952 0 3
1.2374 14.2522 0.9128 0.1674 0 9
1.2415 26.7588 1.7092 0.1996 0 9
0.1544 25.2045 1.6082 0.3055 0 9
-30.6589 27.5427 2.6296 0.7175 0 3
-30.9783 25.6545 2.5664 0.3047 0 3
-31.1727 23.7680 2.5012 0.3126 0 3
-31.2940 21.9274 2.4381 0.7508 0 3
-31.4385 20.1933 2.3841 0.7722 0 3
-31.6584 18.5795 2.3421 0.3340 0 3
-31.7865 16.9739 2.2992 0.3402 0 3
-35.8090 -33.8261 3.1430 0.8741 0 20
-0.3537 -38.9137 2.4830 0.9979 0 22
1.2112 -38.8714 2.4814 0.7861 0 6
5.3289 -47.5398 3.0523 0.9928 0 3
4.8194 -24.7779 1.6106 0.9513 0 6
10.0209 -42.3508 2.7768 0.9728 0 3
8.2787 -29.6153 1.9620 0.2685 0 3
9.5996 -29.6796 1.9903 0.9516 0 3
10.2189 -27.7311 1.8857 0.9805 0 3
12.2853 -29.6091 2.0454 0.9243 0 3
12.7584 -27.5613 1.9378 0.6240 0 3
13.6136 -26.5515 1.9038 0.8923 0 3
10.3834 -18.3895 1.3475 0.9218 0 9
10.2801 -16.6084 1.2463 0.5274 0 20
12.7008 -18.7859 1.4469 0.1173 0 2
12.3484 -16.7690 1.3287 0.1277 0 2
12.7281 -15.9026 1.2996 0.1511 0 2
12.3564 -14.2252 1.2022 0.1462 0 1
12.1907 -12.9437 1.1345 0.1610 0 1
12.0426 -11.7973 1.0756 0.1545 0 1
11.8513 -10.7103 1.0192 0.1630 0 1
11.6787 -9.7301 0.9699 0.1616 0 1
11.4769 -8.8046 0.9229 0.1698 0 1
6.1451 -4.3331 0.4798 0.3342 14 6
11.1864 -7.2321 0.8499 0.1953 0 1
11.0991 -6.5581 0.8226 0.2061 0 1
11.0295 -5.9318 0.7991 0.2137 0 1
10.6671 -5.1949 0.7570 0.2248 0 25
8.8975 -3.8985 0.6198 0.9191 0 9
10.5687 -4.1323 0.7240 0.2351 0 25
10.5289 -3.6357 0.7107 0.2395 0 25
10.9868 3.6799 0.6105 0.2312 0 1
11.0808 4.2144 0.6246 0.2402 0 1
11.1020 4.7420 0.6360 0.2359 0 1
11.1258 5.2911 0.6491 0.2351 0 1
10.9053 5.7351 0.6492 0.4621 0 14
10.1909 5.8945 0.6203 0.8137 0 14
10.0621 6.3735 0.6275 0.4686 0 14
10.8920 7.5298 0.6976 0.2584 0 1
10.9826 8.2645 0.7242 0.6203 0 2
10.5205 8.6010 0.7159 0.1959 0 2
10.6148 9.4153 0.7475 0.1876 0 2
10.7228 10.3110 0.7838 0.1789 0 2
10.8472 11.3050 0.8254 0.1699 0 2
10.9912 12.4188 0.8737 0.1605 0 2
11.1595 13.6805 0.9301 0.1508 0 2
11.0260 14.6856 0.9675 0.7946 0 3
6.3151 9.1563 0.5860 0.8183 22 7
8.6989 13.7664 0.8580 0.8489 0 21
8.4686 14.6781 0.8928 0.8617 0 3
8.0011 15.2544 0.9075 0.4625 0 3
7.9629 16.7910 0.9791 0.4285 0 3
7.9243 18.6084 1.0656 0.3939 0 3
8.5592 22.5787 1.2722 0.9122 0 3
8.0444 24.1045 1.3388 0.9451 0 3
7.7390 26.7251 1.4659 0.2865 0 3
1.7917 14.7462 0.7826 0.2371 0 9
1.1298 13.9739 0.7386 0.3186 0 9
0.6993 17.2838 0.9114 0.2748 0 9
0.0034 17.3635 0.9148 0.2576 0 9
-30.6660 37.6236 2.5573 0.9113 0 3
-31.2258 35.3092 2.4834 0.2602 0 3
-31.7159 30.5219 2.3191 0.2786 0 3
-31.9247 28.3395 2.2491 0.2873 0 3
-32.3192 24.3404 2.1316 0.7355 0 3
-32.2810 22.3348 2.0681 0.7581 0 3
-32.2487 20.4446 2.0117 0.7793 0 3
-32.2191 18.6526 1.9614 0.7993 0 3
-32.6220 17.1722 1.9423 0.3308 0 3
-35.2362 -33.6826 2.5682 0.7960 0 20
-0.1230 -38.9118 2.0501 0.9962 0 22
5.6143 -47.5384 2.5220 0.9928 0 3
4.9542 -24.6890 1.3267 0.6153 0 6
8.9766 -36.9580 2.0038 0.2510 0 3
8.3601 -29.2369 1.6021 0.9622 0 20
9.7942 -29.6791 1.6466 0.9504 0 3
11.1039 -29.5907 1.6652 0.9373 0 3
11.6931 -27.7164 1.5849 0.0735 0 3
12.5422 -26.6782 1.5531 0.0852 0 3
12.7145 -24.4399 1.4515 0.0966 0 2
10.5746 -18.4713 1.1214 0.7011 0 9
11.9066 -18.9836 1.1806 0.1188 0 2
11.6160 -16.9638 1.0832 0.1295 0 2
11.9958 -16.0894 1.0573 0.1535 0 2
11.6842 -14.4223 0.9779 0.1528 0 1
11.5297 -13.1155 0.9200 0.1640 0 1
11.4073 -11.9689 0.8711 0.1647 0 1
11.2496 -10.8905 0.8249 0.1664 0 1
11.1057 -9.9175 0.7845 0.1734 0 1
10.9373 -9.0031 0.7464 0.1735 0 1
10.7934 -8.1790 0.7135 0.1850 0 1
6.1519 -4.2835 0.3949 0.6624 14 6
10.6095 -6.7702 0.6631 0.2113 0 1
10.5505 -6.1499 0.6434 0.2178 0 1
10.2283 -5.4230 0.6099 0.2306 0 25
8.9579 -4.2970 0.5234 0.2734 0 9
8.9566 -3.8613 0.5139 0.8944 0 9
10.1112 -3.8845 0.5707 0.2464 0 25
10.0817 -3.4145 0.5608 0.2508 0 25
10.0564 -2.9607 0.5523 0.2546 0 25
10.0350 -2.5204 0.5451 0.2580 0 25
10.3913 -2.1697 0.5593 0.2604 0 1
10.3518 -1.7301 0.5530 0.2649 0 24
4.3648 -0.5501 0.2318 0.2008 25 14
4.2826 -0.3654 0.2265 0.2056 25 14
4.2407 -0.1905 0.2236 0.3273 25 14
4.2270 -0.0196 0.2227 0.3287 25 14
4.2521 0.1514 0.2242 0.3266 25 14
4.3159 0.3279 0.2280 0.2041 25 14
4.4417 0.5179 0.2356 0.1976 25 14
6.1043 0.9620 0.3256 0.9587 25 14
10.7245 2.1355 0.5761 0.2471 0 1
10.7998 2.6062 0.5853 0.2432 0 1
10.8814 3.0940 0.5960 0.2389 0 1
10.9724 3.6029 0.6085 0.2319 0 1
11.0735 4.1366 0.6228 0.2266 0 1
11.0986 4.6629 0.6342 0.2365 0 1
11.1229 5.2091 0.6471 0.2359 0 1
11.0793 5.7430 0.6575 0.4235 0 14
11.1182 6.3431 0.6744 0.2539 0 1
10.0729 6.2970 0.6259 0.4698 0 14
10.9091 7.4464 0.6959 0.2591 0 1
10.9981 8.1745 0.7220 0.2148 0 2
10.5077 8.4870 0.7116 0.1970 0 2
10.6001 9.2906 0.7426 0.1888 0 2
10.7059 10.1733 0.7781 0.1802 0 2
10.8277 11.1516 0.8189 0.1712 0 2
10.9686 12.2461 0.8662 0.1619 0 2
11.1330 13.4839 0.9213 0.1522 0 2
11.1425 14.6588 0.9701 0.5950 0 3
6.3678 9.1167 0.5859 0.9094 22 6
8.8105 13.7617 0.8609 0.8460 0 21
8.5854 14.6789 0.8959 0.8587 0 3
8.0058 15.0458 0.8979 0.4674 0 3
7.9715 16.5551 0.9681 0.4335 0 3
7.9309 18.3219 1.0519 0.3990 0 3
8.6722 22.4739 1.2691 0.9143 0 3
8.2039 24.1055 1.3415 0.9432 0 3
7.7519 26.1874 1.4389 0.2919 0 3
2.5166 14.9217 0.7973 0.5656 0 9
1.8810 14.7501 0.7834 0.8031 0 9
1.1839 13.6365 0.7211 0.8409 0 9
1.2385 26.6938 1.4079 0.3629 0 9
-30.8039 38.2538 2.5876 0.5719 0 3
-31.1853 35.6876 2.4969 0.2587 0 3
-31.3577 33.0976 2.4021 0.7292 0 3
-31.5047 30.6805 2.3169 0.2773 0 3
-31.8953 28.6534 2.2589 0.2860 0 3
-32.3247 24.6463 2.1416 0.7321 0 3
-32.2551 22.6009 2.0750 0.1911 0 3
-32.2532 20.7166 2.0196 0.7763 0 3
-32.2233 18.9110 1.9685 0.7964 0 3
-32.6124 17.4149 1.9478 0.8709 0 3
-35.5945 -33.6235 2.5797 0.7924 0 20
5.3290 -47.5408 2.5204 0.9934 0 3
3.6185 -18.6036 0.9985 0.9660 0 6
10.0210 -42.3512 2.2929 0.9734 0 3
8.1732 -29.2381 1.5995 0.9634 0 20
9.5998 -29.6804 1.6435 0.9522 0 3
10.9340 -29.6718 1.6660 0.9393 0 3
11.8075 -28.4575 1.6232 0.0718 0 3
12.5342 -27.0770 1.5720 0.3821 0 3
12.7907 -24.9465 1.4770 0.0949 0 2
10.3950 -18.4099 1.1139 0.9974 0 9
10.2620 -16.5790 1.0273 0.6984 0 20
11.6553 -17.2395 1.0964 0.1279 0 2
11.8809 -16.1341 1.0556 0.8212 0 2
11.7096 -14.6301 0.9873 0.1514 0 1
11.4969 -13.2358 0.9237 0.1587 0 24
11.4259 -12.1317 0.8780 0.1634 0 1
11.2718 -11.0422 0.8313 0.1651 0 1
11.1257 -10.0546 0.7901 0.1722 0 1
10.9617 -9.1328 0.7517 0.1722 0 1
10.8134 -8.2956 0.7180 0.1838 0 1
10.6923 -7.5393 0.6893 0.1990 0 1
10.6188 -6.8651 0.6662 0.2103 0 1
10.5092 -6.2095 0.6431 0.2180 0 24
10.2353 -5.5047 0.6123 0.2297 0 25
10.1902 -4.9627 0.5972 0.2355 0 25
8.9248 -3.9104 0.5134 0.9818 0 9
10.1159 -3.9553 0.5723 0.2457 0 25
10.0858 -3.4826 0.5622 0.2502 0 25
10.5088 3.5198 0.4608 0.2440 0 1
10.5944 4.0294 0.4713 0.2364 0 1
10.6266 4.5390 0.4805 0.2465 0 1
10.6420 5.0610 0.4900 0.2418 0 1
10.6599 5.6060 0.5008 0.2406 0 1
10.6615 6.1667 0.5121 0.2640 0 1
10.5635 6.6911 0.5199 0.2600 0 1
10.4650 7.2345 0.5290 0.2556 0 1
10.4872 7.8918 0.5457 0.2244 0 2
10.1220 8.2752 0.5436 0.6524 0 2
10.0513 8.9155 0.5586 0.1982 0 2
10.1276 9.7386 0.5842 0.1895 0 2
10.2149 10.6460 0.6135 0.1805 0 2
10.3154 11.6551 0.6472 0.1711 0 2
10.4318 12.7884 0.6862 0.1614 0 2
10.5680 14.0755 0.7318 0.1513 0 2
6.3345 9.1845 0.4639 0.6765 22 7
8.6708 13.7219 0.6749 0.8511 0 21
8.4684 14.6777 0.7046 0.8621 0 3
8.0625 15.3716 0.7217 0.4592 0 3
8.0289 16.9303 0.7791 0.4252 0 3
7.9958 18.7765 0.8486 0.3905 0 3
8.5825 22.6401 1.0067 0.9102 0 3
8.0442 24.1039 1.0566 0.9456 0 3
7.8354 27.0580 1.1713 0.2832 0 3
1.6721 13.7617 0.5764 0.4963 0 9
1.1135 13.7725 0.5745 0.0424 0 9
0.7043 17.4091 0.7245 0.3494 0 9
0.0034 17.4539 0.7257 0.2443 0 9
-32.3728 36.6062 2.0319 0.6093 0 3
-31.2976 32.6442 1.8804 0.4838 0 3
-32.2767 31.0615 1.8626 0.6647 0 3
-32.2357 28.6156 1.7923 0.6908 0 3
-32.1987 26.3449 1.7298 0.7157 0 3
-31.2271 23.5180 1.6254 0.9667 0 3
-32.1316 22.2315 1.6246 0.7620 0 3
-32.1034 20.3526 1.5805 0.7833 0 3
-32.0776 18.5707 1.5412 0.8032 0 3
-31.0472 16.3433 1.4589 0.4218 0 3
-33.7904 16.0860 1.5561 0.4289 0 3
-35.0439 -33.4988 2.0157 0.6792 0 20
1.4414 -38.8575 1.6168 0.8464 0 6
5.6144 -47.5394 1.9904 0.9933 0 3
3.7372 -18.6241 0.7898 0.4581 0 6
8.9862 -36.9977 1.5831 0.5539 0 3
8.3603 -29.2377 1.2644 0.9623 0 20
9.7944 -29.6799 1.2995 0.9509 0 3
10.7663 -28.6910 1.2742 0.0722 0 3
11.4246 -27.0800 1.2221 0.8944 0 3
11.8350 -25.1741 1.1566 0.0957 0 2
11.4664 -22.0408 1.0330 0.1072 0 2
10.5073 -18.3538 0.8793 0.6377 0 9
10.4151 -16.6056 0.8150 0.5262 0 20
11.0575 -16.1482 0.8138 0.8411 0 2
11.0557 -14.8285 0.7691 0.1535 0 1
10.9074 -13.4634 0.7205 0.1654 0 1
10.8095 -12.2963 0.6807 0.1664 0 1
10.6925 -11.2189 0.6444 0.1667 0 1
10.5727 -10.2353 0.6119 0.1755 0 1
10.4452 -9.3277 0.5823 0.1790 0 1
10.3211 -8.4959 0.5558 0.1875 0 1
10.2110 -7.7377 0.5327 0.1957 0 1
6.1841 -4.3059 0.3133 0.6593 14 6
10.1052 -6.4484 0.4984 0.2220 0 1
10.0653 -5.8670 0.4844 0.2299 0 1
9.7822 -5.1864 0.4604 0.2412 0 25
8.9521 -4.2943 0.4128 0.4731 0 9
8.9997 -3.8798 0.4075 0.8156 0 9
9.4415 -3.6272 0.4205 0.4831 0 9
9.6760 -3.2770 0.4248 0.2614 0 25
9.6576 -2.8432 0.4186 0.2653 0 25
9.6419 -2.4217 0.4134 0.2686 0 25
9.9878 -2.0854 0.4242 0.2711 0 1
