ply
format ascii 1.0
element vertex 1384
property float32 x
property float32 y
property float32 z
property float32 CosAngle
property uint32 ObjIdx
property uint32 ObjTag
end_header
8.0211 -42.6190 -0.1201 0.9856 0 3
7.8919 -34.2903 -0.0975 0.9098 0 3
8.1298 -29.7930 -0.0856 0.0863 0 2
8.1615 -25.7826 -0.0749 0.0986 0 2
8.1860 -22.6536 -0.0667 0.1106 0 2
8.2053 -20.1369 -0.0602 0.1226 0 2
8.2210 -18.0627 -0.0550 0.1343 0 2
8.2340 -16.3187 -0.0506 0.1458 0 2
8.5485 -14.0164 -0.0455 0.1585 0 1
8.5643 -12.8509 -0.0428 0.1769 0 1
8.5857 -11.8244 -0.0405 0.1860 0 1
8.6002 -10.8954 -0.0385 0.1958 0 1
8.6002 -10.0384 -0.0366 0.2035 0 1
8.5721 -9.2279 -0.0349 0.2057 0 1
8.5620 -8.5048 -0.0334 0.2298 0 1
8.5560 -7.8417 -0.0322 0.2389 0 1
8.5575 -7.2325 -0.0310 0.2509 0 1
8.5874 -6.6854 -0.0301 0.2818 0 1
8.6194 -6.1706 -0.0294 0.2893 0 1
6.2581 -4.1103 -0.0207 0.7710 14 6
8.3287 -5.0033 -0.0269 0.2751 0 25
8.3305 -4.5593 -0.0263 0.2815 0 25
8.3321 -4.1343 -0.0258 0.2874 0 25
8.3336 -3.7256 -0.0253 0.2928 0 25
8.3348 -3.3312 -0.0249 0.2978 0 25
8.3359 -2.9491 -0.0245 0.3023 0 25
8.3369 -2.5777 -0.0242 0.3063 0 25
8.4101 -2.2344 -0.0241 0.3173 0 2
8.6428 -1.9282 -0.0245 0.3131 0 1
8.6574 -1.5693 -0.0244 0.3153 0 1
3.9579 -0.5543 -0.0111 0.9641 25 14
3.9490 -0.3921 -0.0110 0.9709 25 14
3.9248 -0.2309 -0.0109 0.9728 25 14
3.8991 -0.0725 -0.0108 0.9807 25 14
3.8963 0.0841 -0.0108 0.9814 25 14
3.9215 0.2425 -0.0109 0.9735 25 14
3.9471 0.4038 -0.0110 0.9640 25 14
3.9584 0.5665 -0.0111 0.9636 25 14
8.8575 1.6330 -0.0250 0.3077 0 1
8.8894 2.0112 -0.0252 0.3041 0 1
8.9258 2.4001 -0.0256 0.2990 0 1
8.9638 2.8010 -0.0260 0.2943 0 1
9.0029 3.2155 -0.0265 0.2869 0 1
9.0371 3.6434 -0.0270 0.2815 0 1
9.0725 4.0887 -0.0276 0.2756 0 1
9.0674 4.5330 -0.0281 0.2850 0 1
9.0535 4.9904 -0.0286 0.2794 0 1
9.0374 5.4659 -0.0293 0.2731 0 1
9.0178 5.9616 -0.0299 0.2668 0 1
8.9371 6.4387 -0.0305 0.2962 0 1
8.8259 6.9137 -0.0311 0.2891 0 1
8.7306 7.4238 -0.0317 0.2828 0 1
8.7509 8.0687 -0.0330 0.2481 0 2
8.2902 8.2843 -0.0325 0.2265 0 2
8.2841 8.9717 -0.0338 0.2183 0 2
8.2795 9.7229 -0.0354 0.2087 0 2
8.2742 10.5474 -0.0371 0.1988 0 2
6.5137 9.0277 -0.0308 0.8249 22 6
8.2614 12.4772 -0.0415 0.1781 0 2
8.2534 13.6243 -0.0441 0.1673 0 2
8.2441 14.9312 -0.0473 0.1563 0 2
8.2331 16.4394 -0.0509 0.1450 0 2
8.2200 18.2050 -0.0553 0.1334 0 2
8.2040 20.3078 -0.0607 0.1217 0 2
8.1841 22.8627 -0.0673 0.1098 0 2
8.1592 26.0464 -0.0756 0.0976 0 2
8.1268 30.1376 -0.0865 0.0854 0 2
8.0833 35.6103 -0.1012 0.0730 0 2
8.4199 45.4881 -0.1282 0.0669 0 24
1.5221 14.7739 -0.0411 0.1970 0 9
1.5669 25.0441 -0.0695 0.4326 0 9
-0.4291 23.9948 -0.0665 0.1898 0 9
-31.6524 37.5052 -0.1360 0.6072 0 3
-31.4083 31.6647 -0.1236 0.6638 0 3
-29.7001 27.6287 -0.1124 0.9551 0 3
-31.5855 27.0993 -0.1153 0.7161 0 3
-34.9886 27.6583 -0.1236 0.6251 0 3
-31.3061 22.7652 -0.1072 0.1338 0 3
-31.3152 20.9018 -0.1043 0.7857 0 3
-31.3035 19.1224 -0.1016 0.8065 0 3
-31.2923 17.4294 -0.0992 0.8259 0 3
-31.6903 16.0183 -0.0984 0.7387 0 3
-36.9094 16.8305 -0.1124 0.9263 0 3
-36.7115 -33.3489 -0.1374 0.3805 0 20
-34.6596 -34.1247 -0.1347 0.8817 0 20
-33.6456 -35.9000 -0.1363 0.9283 0 20
7.7907 -45.0648 -0.1267 0.1204 0 3
3.9911 -18.6004 -0.0527 0.9637 0 6
8.1156 -31.5790 -0.0903 0.0817 0 2
8.1508 -27.1424 -0.0785 0.0940 0 2
8.1776 -23.7265 -0.0695 0.1062 0 2
8.1987 -21.0075 -0.0625 0.1182 0 2
8.2156 -18.7854 -0.0568 0.1300 0 2
8.2295 -16.9299 -0.0521 0.1416 0 2
8.6823 -16.1747 -0.0509 0.9148 0 2
8.5586 -14.5131 -0.0467 0.1479 0 1
8.5134 -13.1947 -0.0435 0.1721 0 24
8.5778 -12.1901 -0.0413 0.1844 0 1
8.5950 -11.2276 -0.0392 0.1922 0 1
8.6039 -10.3497 -0.0373 0.1999 0 1
8.5848 -9.5212 -0.0355 0.2021 0 1
8.5643 -8.7634 -0.0339 0.2263 0 1
8.5582 -8.0806 -0.0326 0.2356 0 1
8.5562 -7.4519 -0.0314 0.2478 0 1
8.5751 -6.8826 -0.0305 0.2789 0 1
8.6078 -6.3576 -0.0296 0.2866 0 1
6.2170 -4.2167 -0.0208 0.8079 14 6
8.3280 -5.1726 -0.0272 0.2726 0 25
8.3299 -4.7210 -0.0265 0.2792 0 25
8.3316 -4.2892 -0.0260 0.2852 0 25
8.3331 -3.8748 -0.0255 0.2908 0 25
8.3344 -3.4754 -0.0250 0.2960 0 25
8.3355 -3.0890 -0.0246 0.3007 0 25
8.3366 -2.7137 -0.0243 0.3049 0 25
8.3415 -2.3493 -0.0240 0.3008 0 2
8.6378 -2.0621 -0.0246 0.3122 0 1
8.6236 -1.6957 -0.0243 0.3143 0 24
4.0917 -0.6351 -0.0115 0.2634 25 14
3.9523 -0.4517 -0.0110 0.9686 25 14
3.9345 -0.2902 -0.0109 0.9695 25 14
3.9086 -0.1307 -0.0108 0.9780 25 14
3.8871 0.0262 -0.0108 0.9839 25 14
3.9121 0.1837 -0.0108 0.9766 25 14
3.9376 0.3439 -0.0110 0.9676 25 14
3.9550 0.5062 -0.0110 0.9664 25 14
4.5114 0.7627 -0.0127 0.0119 25 14
8.8775 1.8704 -0.0251 0.3055 0 1
8.9120 2.2551 -0.0255 0.3007 0 1
8.9496 2.6514 -0.0259 0.2961 0 1
8.9884 3.0607 -0.0263 0.2911 0 1
9.0243 3.4834 -0.0268 0.2835 0 1
9.0593 3.9220 -0.0273 0.2778 0 1
9.0724 4.3684 -0.0279 0.2869 0 1
9.0587 4.8194 -0.0284 0.2815 0 1
9.0443 5.2884 -0.0290 0.2753 0 1
9.0251 5.7758 -0.0297 0.2692 0 1
8.9774 6.2674 -0.0303 0.2980 0 1
8.8672 6.7360 -0.0308 0.2930 0 1
8.7663 7.2328 -0.0315 0.2852 0 1
8.7641 7.8434 -0.0326 0.2510 0 2
8.5182 8.2632 -0.0329 0.7423 0 2
8.2857 8.7104 -0.0333 0.2217 0 2
8.2813 9.4376 -0.0348 0.2123 0 2
8.2763 10.2335 -0.0365 0.2025 0 2
6.7144 9.0206 -0.0312 0.8166 22 6
8.2640 12.0876 -0.0406 0.1820 0 2
8.2565 13.1838 -0.0431 0.1713 0 2
8.2477 14.4275 -0.0460 0.1604 0 2
8.2374 15.8557 -0.0495 0.1492 0 2
8.2251 17.5184 -0.0536 0.1377 0 2
8.1309 19.2970 -0.0580 0.3735 0 3
8.1919 21.8565 -0.0647 0.1142 0 2
8.0955 24.5592 -0.0716 0.3023 0 3
8.1398 28.4965 -0.0821 0.0899 0 2
8.1011 33.3856 -0.0952 0.0776 0 2
2.9518 14.7227 -0.0416 0.6356 0 9
2.7766 23.5206 -0.0656 0.4202 0 9
1.9608 25.3066 -0.0703 0.9710 0 9
0.9461 25.4591 -0.0706 0.8089 0 9
-0.0732 24.0842 -0.0667 0.9086 0 9
-35.2600 -32.9987 -0.6690 0.9488 0 20
-34.2083 -34.6952 -0.6750 0.9404 0 20
5.6972 -38.7854 -0.5430 0.2525 0 6
6.8538 -36.4170 -0.5133 0.0719 0 2
7.0805 -30.7651 -0.4373 0.0844 0 2
7.2474 -26.5594 -0.3814 0.0968 0 2
7.3752 -23.2985 -0.3385 0.1091 0 2
7.4760 -20.6889 -0.3047 0.1211 0 2
7.5575 -18.5469 -0.2774 0.1331 0 2
7.6245 -16.7521 -0.2550 0.1448 0 2
8.1053 -16.0636 -0.2492 0.1722 0 2
8.0082 -14.4018 -0.2283 0.1513 0 1
8.0383 -13.1799 -0.2139 0.1769 0 1
8.0832 -12.1290 -0.2019 0.1885 0 1
8.1251 -11.1901 -0.1916 0.1965 0 1
8.1608 -10.3387 -0.1825 0.2063 0 1
8.1690 -9.5351 -0.1739 0.2063 0 1
8.1792 -8.8050 -0.1665 0.2307 0 1
8.1886 -8.1338 -0.1599 0.2402 0 1
8.1993 -7.5147 -0.1541 0.2527 0 1
8.2397 -6.9639 -0.1494 0.2842 0 1
8.2810 -6.4468 -0.1454 0.2922 0 1
8.2929 -5.9369 -0.1413 0.2519 0 1
6.2556 -4.1086 -0.1037 0.9796 14 6
8.0223 -4.8192 -0.1296 0.2856 0 25
8.0307 -4.3952 -0.1268 0.2919 0 25
8.0382 -3.9884 -0.1243 0.2978 0 25
8.0449 -3.5966 -0.1221 0.3033 0 25
8.0507 -3.2177 -0.1201 0.3083 0 25
8.0559 -2.8501 -0.1184 0.3128 0 25
8.0604 -2.4922 -0.1169 0.3168 0 25
8.3466 -2.2175 -0.1196 0.3201 0 1
8.3621 -1.8655 -0.1187 0.3237 0 1
8.3780 -1.5186 -0.1179 0.3258 0 1
3.9493 -0.5531 -0.0552 0.9661 25 14
3.9405 -0.3912 -0.0549 0.9729 25 14
3.9211 -0.2307 -0.0544 0.9736 25 14
3.8954 -0.0724 -0.0540 0.9816 25 14
3.8930 0.0841 -0.0539 0.9821 25 14
3.9181 0.2423 -0.0544 0.9742 25 14
3.9407 0.4032 -0.0549 0.9726 25 14
3.9500 0.5652 -0.0553 0.9655 25 14
8.5649 1.5791 -0.1206 0.3182 0 1
8.5923 1.9440 -0.1220 0.3146 0 1
8.6227 2.3186 -0.1237 0.3095 0 1
8.6547 2.7044 -0.1256 0.3048 0 1
8.6842 3.1017 -0.1277 0.2974 0 1
8.7112 3.5120 -0.1301 0.2920 0 1
8.7387 3.9382 -0.1328 0.2861 0 1
8.7443 4.3715 -0.1354 0.2955 0 1
8.7247 4.8091 -0.1380 0.2899 0 1
8.7016 5.2628 -0.1409 0.2836 0 1
8.6751 5.7351 -0.1441 0.2773 0 1
8.6310 6.2181 -0.1474 0.3066 0 1
8.5179 6.6724 -0.1499 0.3015 0 1
8.4185 7.1584 -0.1531 0.2933 0 1
8.2734 8.2675 -0.1620 0.7957 0 2
7.9036 8.5596 -0.1614 0.2287 0 2
7.8826 9.2569 -0.1684 0.2192 0 2
7.8589 10.0179 -0.1764 0.2093 0 2
6.5037 9.0138 -0.1540 0.9429 22 6
7.8011 11.7821 -0.1957 0.1886 0 2
7.7657 12.8192 -0.2076 0.1778 0 2
7.7247 13.9905 -0.2214 0.1668 0 2
7.6767 15.3283 -0.2375 0.1555 0 2
7.6199 16.8761 -0.2565 0.1439 0 2
7.5519 18.6936 -0.2793 0.1322 0 2
7.4690 20.8651 -0.3070 0.1202 0 2
7.3665 23.5159 -0.3414 0.1081 0 2
7.2363 26.8352 -0.3850 0.0959 0 2
7.0660 31.1289 -0.4422 0.0835 0 2
2.6004 14.0486 -0.1979 0.0863 0 9
6.7620 47.0147 -0.6580 0.0726 0 1
0.9282 14.8356 -0.2059 0.8882 0 9
0.3290 14.7505 -0.2044 0.1454 0 9
-31.4698 37.2889 -0.6759 0.6107 0 3
-16.4254 16.5595 -0.3231 0.5785 0 6
-35.1022 32.6541 -0.6641 0.6857 0 3
-31.4308 26.9666 -0.5737 0.7195 0 3
-34.9873 27.6573 -0.6178 0.6251 0 3
-31.4135 22.8434 -0.5381 0.7672 0 3
-33.9551 22.6639 -0.5655 0.5604 0 3
-36.4477 22.2648 -0.5917 0.8099 0 3
-31.9222 17.7803 -0.5062 0.4921 0 3
-32.5602 16.4580 -0.5054 0.2807 0 3
-38.8942 17.7356 -0.5922 0.4207 0 3
-40.4382 16.5112 -0.6051 0.2811 0 3
-36.8284 -33.4551 -0.6892 0.3896 0 20
-34.5990 -34.0650 -0.6726 0.9437 0 20
-33.5348 -35.7818 -0.6793 0.9313 0 20
-16.7945 -27.2649 -0.4436 0.7725 0 6
6.3700 -48.3463 -0.6755 0.0547 0 2
6.7482 -39.0343 -0.5488 0.0673 0 2
3.9944 -18.6156 -0.2637 0.8840 0 6
7.1912 -27.9821 -0.4002 0.0922 0 2
7.3317 -24.4146 -0.3531 0.1045 0 2
7.4414 -21.5903 -0.3164 0.1167 0 2
7.5293 -19.2923 -0.2869 0.1287 0 2
7.6012 -17.3805 -0.2628 0.1405 0 2
7.9067 -16.2659 -0.2505 0.9562 0 2
8.0189 -14.9388 -0.2349 0.1470 0 1
8.0202 -13.6002 -0.2187 0.1730 0 1
8.0671 -12.5031 -0.2061 0.1836 0 1
8.1107 -11.5263 -0.1952 0.1928 0 1
8.1481 -10.6437 -0.1857 0.2027 0 1
8.1738 -9.8323 -0.1771 0.2104 0 1
8.1754 -9.0671 -0.1691 0.2271 0 1
8.1853 -8.3755 -0.1622 0.2368 0 1
8.1937 -7.7365 -0.1561 0.2461 0 1
8.2236 -7.1622 -0.1511 0.2812 0 1
8.2661 -6.6345 -0.1468 0.2893 0 1
8.3056 -6.1344 -0.1430 0.2970 0 1
6.2334 -4.2278 -0.1043 0.8057 14 6
6.5803 -4.0871 -0.1073 0.3471 14 6
8.0277 -4.5497 -0.1278 0.2896 0 25
8.0355 -4.1368 -0.1252 0.2957 0 25
8.0425 -3.7397 -0.1229 0.3013 0 25
8.0487 -3.3562 -0.1208 0.3065 0 25
8.0541 -2.9846 -0.1190 0.3112 0 25
8.0588 -2.6233 -0.1174 0.3154 0 25
8.0629 -2.2708 -0.1160 0.3191 0 2
8.3563 -1.9949 -0.1190 0.3227 0 1
8.3722 -1.6463 -0.1182 0.3251 0 1
4.0250 -0.6247 -0.0564 0.3058 25 14
3.9438 -0.4507 -0.0550 0.9706 25 14
3.9307 -0.2899 -0.0546 0.9703 25 14
3.9049 -0.1306 -0.0541 0.9788 25 14
3.8838 0.0262 -0.0538 0.9847 25 14
3.9088 0.1836 -0.0542 0.9773 25 14
3.9342 0.3436 -0.0547 0.9684 25 14
3.9466 0.5051 -0.0551 0.9683 25 14
4.1543 0.7023 -0.0584 0.2589 25 14
8.5503 1.8015 -0.1210 0.3155 0 24
8.6109 2.1789 -0.1230 0.3112 0 1
8.6428 2.5605 -0.1249 0.3066 0 1
8.6743 2.9538 -0.1269 0.2993 0 1
8.7012 3.3587 -0.1292 0.2940 0 1
8.7285 3.7788 -0.1318 0.2883 0 1
8.7512 4.2138 -0.1345 0.2974 0 1
8.7321 4.6456 -0.1370 0.2920 0 1
8.7109 5.0935 -0.1398 0.2858 0 1
8.6851 5.5582 -0.1428 0.2797 0 1
8.6575 6.0441 -0.1463 0.2731 0 1
8.5602 6.5028 -0.1489 0.3034 0 1
8.4554 6.9763 -0.1519 0.2956 0 1
8.3538 7.4762 -0.1553 0.2891 0 1
8.3657 8.1152 -0.1615 0.2533 0 2
7.9145 8.3202 -0.1591 0.8105 0 2
7.8907 8.9924 -0.1657 0.2228 0 2
7.8680 9.7287 -0.1733 0.2130 0 2
6.7030 9.0053 -0.1555 0.8179 22 6
7.8130 11.4279 -0.1918 0.1925 0 2
7.7794 12.4220 -0.2030 0.1818 0 2
7.7406 13.5404 -0.2161 0.1709 0 2
7.6953 14.8123 -0.2312 0.1597 0 2
7.6420 16.2766 -0.2491 0.1482 0 2
7.5785 17.9862 -0.2704 0.1365 0 2
7.5018 20.0154 -0.2961 0.1247 0 2
7.4071 22.4708 -0.3278 0.1126 0 2
7.2883 25.5153 -0.3676 0.1004 0 2
7.1348 29.4032 -0.4191 0.0881 0 2
6.9286 34.5578 -0.4882 0.0756 0 2
6.9990 44.0164 -0.6174 0.0711 0 1
1.9610 25.3096 -0.3517 0.9162 0 9
0.9483 25.5196 -0.3538 0.5840 0 9
-35.1509 -32.8966 -1.2006 0.9515 0 20
-34.0451 -34.5297 -1.2093 0.9732 0 20
4.9170 -46.3606 -1.1626 0.0572 0 2
5.5462 -37.7575 -0.9517 0.0698 0 2
5.9799 -31.7737 -0.8063 0.0824 0 2
5.6749 -24.6574 -0.6310 0.9927 0 6
6.5376 -23.9582 -0.6193 0.1073 0 2
6.7269 -21.2505 -0.5559 0.1195 0 2
6.8792 -19.0374 -0.5048 0.1316 0 2
7.0043 -17.1893 -0.4629 0.1435 0 2
7.4432 -16.3537 -0.4481 0.9816 0 2
7.4671 -14.7989 -0.4134 0.1453 0 1
7.5114 -13.5084 -0.3855 0.1770 0 1
7.5512 -12.3812 -0.3617 0.1910 0 24
7.6260 -11.4429 -0.3429 0.1984 0 24
7.6900 -10.5908 -0.3264 0.2088 0 24
7.7375 -9.8025 -0.3114 0.2171 0 24
7.7686 -9.0677 -0.2978 0.2277 0 24
7.7925 -8.3887 -0.2855 0.2420 0 24
7.8178 -7.7655 -0.2748 0.2551 0 24
7.8457 -7.1906 -0.2654 0.2692 0 24
7.9480 -6.7174 -0.2595 0.2946 0 1
7.9956 -6.2246 -0.2527 0.3025 0 1
7.7042 -5.5154 -0.2363 0.2820 0 25
6.2605 -4.1119 -0.1868 0.9825 14 6
7.7375 -4.6481 -0.2251 0.2960 0 25
7.7517 -4.2425 -0.2204 0.3024 0 25
7.7642 -3.8525 -0.2162 0.3083 0 25
7.7754 -3.4761 -0.2124 0.3137 0 25
7.7853 -3.1116 -0.2091 0.3187 0 25
7.7940 -2.7574 -0.2062 0.3232 0 25
7.8015 -2.4121 -0.2036 0.3272 0 25
8.0816 -2.1471 -0.2085 0.3314 0 1
8.0990 -1.8068 -0.2069 0.3342 0 1
8.1159 -1.4711 -0.2057 0.3362 0 1
3.9408 -0.5519 -0.0992 0.9680 25 14
3.9320 -0.3904 -0.0985 0.9748 25 14
3.9174 -0.2305 -0.0979 0.9743 25 14
3.8918 -0.0724 -0.0971 0.9823 25 14
3.8897 0.0840 -0.0970 0.9828 25 14
3.9148 0.2421 -0.0978 0.9748 25 14
3.9324 0.4023 -0.0986 0.9744 25 14
3.9416 0.5640 -0.0993 0.9674 25 14
8.2910 1.5286 -0.2102 0.3297 0 1
8.3144 1.8811 -0.2126 0.3250 0 1
8.3394 2.2424 -0.2154 0.3200 0 1
8.3661 2.6142 -0.2186 0.3128 0 1
8.3872 2.9956 -0.2221 0.3078 0 1
8.4080 3.3897 -0.2261 0.3024 0 1
8.4284 3.7984 -0.2306 0.2966 0 1
8.4433 4.2210 -0.2354 0.3059 0 1
8.4189 4.6406 -0.2397 0.3004 0 1
8.3898 5.0743 -0.2445 0.2941 0 1
8.3575 5.5251 -0.2499 0.2878 0 1
8.3226 5.9960 -0.2558 0.2811 0 1
8.2310 6.4476 -0.2607 0.3119 0 1
8.1278 6.9112 -0.2661 0.3037 0 1
8.0213 7.3960 -0.2721 0.2970 0 1
8.0123 8.0066 -0.2825 0.2613 0 2
7.7032 8.3425 -0.2832 0.8547 0 2
7.5220 8.8333 -0.2893 0.2297 0 2
7.4832 9.5389 -0.3024 0.2198 0 2
6.5016 9.0109 -0.2771 0.9871 22 6
7.3894 11.1602 -0.3338 0.1991 0 2
7.3323 12.1038 -0.3529 0.1883 0 2
7.2667 13.1610 -0.3749 0.1772 0 2
7.1905 14.3576 -0.4005 0.1659 0 2
7.1013 15.7276 -0.4303 0.1544 0 2
6.9957 17.3168 -0.4658 0.1427 0 2
6.8689 19.1887 -0.5083 0.1307 0 2
6.7142 21.4336 -0.5601 0.1186 0 2
6.5217 24.1851 -0.6247 0.1064 0 2
6.2760 27.6484 -0.7070 0.0940 0 2
5.9523 32.1571 -0.8156 0.0815 0 2
4.7682 33.1524 -0.8353 0.8642 0 19
1.7741 17.2201 -0.4317 0.5304 0 9
0.9656 15.4344 -0.3857 0.5853 0 9
0.3259 14.6109 -0.3645 0.1707 0 9
-18.0885 36.5206 -1.0164 0.8164 0 6
-31.2893 37.0750 -1.2099 0.6141 0 3
-31.5282 34.4495 -1.1646 0.6429 0 3
-31.4061 31.6625 -1.1122 0.7143 0 3
-35.1010 32.6530 -1.1956 0.6856 0 3
-31.2777 26.8352 -1.0278 0.7229 0 3
-34.9859 27.6563 -1.1122 0.6250 0 3
-31.2673 22.7370 -0.9641 0.7705 0 3
-33.9537 22.6629 -1.0180 0.5603 0 3
-36.2898 22.1684 -1.0605 0.8133 0 3
-31.9206 17.7794 -0.9112 0.4921 0 3
-33.9948 17.1832 -0.9499 0.2600 0 3
-38.8920 17.7346 -1.0660 0.4206 0 3
-41.2963 16.8616 -1.1124 0.6626 0 3
-36.9577 -33.5726 -1.2452 0.2164 0 20
-34.5261 -33.9933 -1.2083 0.9740 0 20
-33.2217 -35.4477 -1.2116 0.9714 0 20
5.3426 -40.5485 -1.0200 0.0651 0 2
5.8364 -33.7603 -0.8544 0.0778 0 2
6.1902 -28.8488 -0.7358 0.0903 0 2
6.4557 -25.1200 -0.6468 0.1027 0 2
6.6620 -22.1844 -0.5777 0.1150 0 2
6.8266 -19.8066 -0.5225 0.1272 0 2
6.9608 -17.8357 -0.4775 0.1392 0 2
7.1818 -16.4216 -0.4470 0.9840 0 2
7.4629 -15.3530 -0.4257 0.1411 0 1
7.4793 -13.9336 -0.3944 0.1740 0 1
7.5182 -12.7490 -0.3691 0.1873 0 24
7.6004 -11.7797 -0.3496 0.1946 0 24
7.6672 -10.8961 -0.3323 0.2050 0 24
7.7224 -10.0877 -0.3168 0.2138 0 24
7.7584 -9.3327 -0.3027 0.2236 0 24
7.7837 -8.6326 -0.2899 0.2367 0 24
7.8082 -7.9897 -0.2786 0.2501 0 24
7.8350 -7.3978 -0.2687 0.2645 0 24
7.9295 -6.9061 -0.2622 0.2915 0 1
7.9784 -6.4037 -0.2551 0.2996 0 1
7.6977 -5.6854 -0.2387 0.2787 0 2
6.2499 -4.2390 -0.1883 0.8035 14 6
6.5570 -4.0726 -0.1925 0.5665 14 6
7.7466 -4.3904 -0.2221 0.3001 0 25
7.7598 -3.9949 -0.2177 0.3062 0 25
7.7715 -3.6137 -0.2137 0.3118 0 25
7.7818 -3.2450 -0.2103 0.3169 0 25
7.7909 -2.8871 -0.2072 0.3216 0 25
7.7989 -2.5387 -0.2045 0.3258 0 25
7.9371 -2.2353 -0.2056 0.3348 0 2
8.0925 -1.9319 -0.2075 0.3331 0 1
8.1098 -1.5947 -0.2061 0.3355 0 1
3.9639 -0.6152 -0.1000 0.3104 25 14
3.9353 -0.4498 -0.0988 0.9725 25 14
3.9266 -0.2896 -0.0982 0.9783 25 14
3.9012 -0.1305 -0.0973 0.9795 25 14
3.8805 0.0262 -0.0968 0.9853 25 14
3.9055 0.1834 -0.0975 0.9779 25 14
3.9290 0.3431 -0.0984 0.9766 25 14
3.9382 0.5040 -0.0990 0.9702 25 14
4.0840 0.6904 -0.1033 0.3007 25 14
8.2744 1.7434 -0.2109 0.3258 0 24
8.3295 2.1077 -0.2143 0.3216 0 1
8.3563 2.4756 -0.2173 0.3171 0 1
8.3795 2.8534 -0.2208 0.3097 0 1
8.4004 3.2426 -0.2246 0.3045 0 1
8.4209 3.6456 -0.2288 0.2988 0 1
8.4412 4.0645 -0.2336 0.2926 0 1
8.4281 4.4839 -0.2381 0.3025 0 1
8.4011 4.9123 -0.2427 0.2963 0 1
8.3697 5.3564 -0.2478 0.2902 0 1
8.3358 5.8195 -0.2535 0.2836 0 1
8.2737 6.2852 -0.2591 0.3139 0 1
8.1657 6.7372 -0.2640 0.3061 0 1
8.0613 7.2145 -0.2698 0.2995 0 1
7.8988 8.3037 -0.2858 0.8112 0 2
7.5352 8.5873 -0.2849 0.2332 0 2
7.4980 9.2712 -0.2974 0.2235 0 2
6.6916 8.9900 -0.2795 0.8191 22 6
7.4085 10.8363 -0.3274 0.2030 0 2
7.3543 11.7432 -0.3455 0.1923 0 2
7.2920 12.7558 -0.3664 0.1813 0 2
7.2200 13.8975 -0.3906 0.1701 0 2
7.1360 15.1988 -0.4187 0.1587 0 2
7.0369 16.7007 -0.4520 0.1470 0 2
6.9186 18.4593 -0.4916 0.1352 0 2
6.7751 20.5537 -0.5397 0.1231 0 2
6.5980 23.0988 -0.5991 0.1109 0 2
6.3742 26.2688 -0.6741 0.0986 0 2
6.0831 30.3406 -0.7717 0.0861 0 2
2.3624 14.8567 -0.3752 0.3563 0 9
3.9959 33.8488 -0.8500 0.6208 0 19
1.8741 24.1881 -0.6050 0.7704 0 9
-35.2486 -32.9880 -1.7394 0.9789 0 20
-33.9514 -34.4346 -1.7423 0.9772 0 20
2.5419 -38.7616 -1.3996 0.9978 0 6
4.1530 -39.1574 -1.4188 0.0676 0 2
4.8203 -32.8160 -1.1951 0.0803 0 2
5.3034 -28.1788 -1.0331 0.0929 0 2
4.2731 -18.5666 -0.6864 0.7034 0 6
5.9542 -21.8201 -0.8149 0.1178 0 2
6.1831 -19.5326 -0.7382 0.1300 0 2
6.3704 -17.6293 -0.6754 0.1421 0 2
6.7446 -16.5521 -0.6440 0.9971 0 2
6.9124 -15.1874 -0.6012 0.1404 0 1
6.9780 -13.8295 -0.5581 0.1776 0 1
7.0894 -12.7494 -0.5256 0.1875 0 1
7.1853 -11.7812 -0.4972 0.2008 0 1
7.2717 -10.9113 -0.4724 0.2103 0 1
7.3454 -10.1163 -0.4504 0.2206 0 1
7.4018 -9.3771 -0.4304 0.2246 0 1
7.4460 -8.6911 -0.4124 0.2344 0 1
7.4850 -8.0577 -0.3963 0.2586 0 1
7.5432 -7.4927 -0.3831 0.2769 0 1
7.5525 -6.9219 -0.3691 0.2808 0 24
7.5927 -6.4170 -0.3582 0.2901 0 24
7.7131 -6.0047 -0.3522 0.2469 0 1
7.4273 -5.3172 -0.3291 0.2924 0 25
6.2696 -4.1178 -0.2703 0.9194 14 6
7.4722 -4.4887 -0.3141 0.3064 0 25
7.4912 -4.1000 -0.3077 0.3128 0 25
7.5082 -3.7254 -0.3020 0.3187 0 25
7.5233 -3.3634 -0.2969 0.3241 0 25
7.5367 -3.0122 -0.2924 0.3291 0 25
7.5485 -2.6705 -0.2885 0.3336 0 25
7.5596 -2.3373 -0.2851 0.3391 0 2
7.8329 -2.0810 -0.2920 0.3418 0 1
7.8247 -1.7456 -0.2889 0.3446 0 24
4.1796 -0.7576 -0.1530 0.2565 25 14
3.9323 -0.5507 -0.1431 0.9698 25 14
3.9236 -0.3895 -0.1421 0.9766 25 14
3.9138 -0.2303 -0.1413 0.9749 25 14
3.8882 -0.0723 -0.1401 0.9829 25 14
3.8864 0.0839 -0.1401 0.9833 25 14
3.9115 0.2419 -0.1412 0.9753 25 14
3.9241 0.4015 -0.1421 0.9762 25 14
3.9332 0.5628 -0.1432 0.9691 25 14
4.4514 0.8207 -0.1631 0.0262 25 14
8.0238 1.8153 -0.2964 0.3348 0 24
8.0740 2.1711 -0.3012 0.3304 0 1
8.0936 2.5290 -0.3055 0.3232 0 1
8.1097 2.8965 -0.3103 0.3183 0 1
8.1250 3.2756 -0.3156 0.3129 0 1
8.1393 3.6681 -0.3217 0.3070 0 1
8.1528 4.0758 -0.3284 0.3007 0 1
8.1336 4.4833 -0.3346 0.3108 0 1
8.0994 4.8986 -0.3410 0.3045 0 1
8.0621 5.3298 -0.3482 0.2982 0 1
8.0217 5.7792 -0.3562 0.2915 0 1
7.9626 6.2374 -0.3644 0.3223 0 1
7.8564 6.6804 -0.3716 0.3141 0 1
7.7475 7.1436 -0.3797 0.3073 0 1
7.6323 7.6268 -0.3888 0.3002 0 1
7.6343 8.2680 -0.4055 0.2636 0 2
7.1951 8.4494 -0.3999 0.2478 0 2
7.1415 9.1034 -0.4169 0.2302 0 2
6.4905 8.9956 -0.3997 0.3209 22 6
7.0187 10.6004 -0.4581 0.2095 0 2
6.9445 11.4637 -0.4829 0.1987 0 2
6.8598 12.4240 -0.5113 0.1877 0 2
6.7621 13.5021 -0.5441 0.1764 0 2
6.6486 14.7250 -0.5821 0.1649 0 2
6.5156 16.1282 -0.6267 0.1531 0 2
6.3576 17.7604 -0.6797 0.1412 0 2
6.1676 19.6887 -0.7434 0.1291 0 2
5.9351 22.0097 -0.8213 0.1168 0 2
5.6445 24.8666 -0.9187 0.1045 0 2
5.2720 28.4818 -1.0436 0.0920 0 2
2.2477 15.6277 -0.5689 0.7867 0 9
1.6550 16.0634 -0.5818 0.6604 0 9
1.0387 16.6024 -0.5994 0.5405 0 9
-0.2743 15.3401 -0.5528 0.1472 0 9
-29.2413 37.6158 -1.7166 0.9858 0 3
-31.1108 36.8635 -1.7380 0.6174 0 3
-30.1308 32.9226 -1.6080 0.7784 0 3
-31.1207 31.3748 -1.5922 0.6739 0 3
-17.7713 16.5318 -0.8745 0.7425 0 6
-31.1259 26.7050 -1.4777 0.7262 0 3
-34.9846 27.6552 -1.6068 0.6248 0 3
-31.1249 22.6335 -1.3866 0.7738 0 3
-33.9522 22.6620 -1.4708 0.5602 0 3
-36.1332 22.0727 -1.5256 0.8165 0 3
-29.2646 16.3000 -1.2069 0.8735 0 3
-34.7139 17.5467 -1.4015 0.1555 0 3
-35.3614 16.1246 -1.4003 0.4205 0 3
-43.3613 17.7047 -1.6875 0.3837 0 3
-34.4311 -33.8997 -1.7409 0.9780 0 20
-33.0838 -35.3006 -1.7432 0.0435 0 20
3.8376 -42.1375 -1.5245 0.0629 0 2
4.6002 -34.9141 -1.2688 0.0756 0 2
5.1414 -29.7398 -1.0874 0.0883 0 2
5.5446 -25.8404 -0.9522 0.1008 0 2
5.8563 -22.7879 -0.8477 0.1132 0 2
6.1041 -20.3266 -0.7647 0.1255 0 2
6.3054 -18.2943 -0.6972 0.1376 0 2
6.4958 -16.6443 -0.6438 0.9992 0 2
6.9437 -14.2849 -0.5723 0.1516 0 1
7.0511 -13.1359 -0.5372 0.1834 0 1
7.1504 -12.1252 -0.5072 0.1943 0 1
7.2421 -11.2244 -0.4813 0.2064 0 1
7.3192 -10.4015 -0.4583 0.2168 0 1
7.3840 -9.6456 -0.4377 0.2208 0 1
7.4303 -8.9380 -0.4188 0.2308 0 1
7.4711 -8.2860 -0.4020 0.2404 0 1
7.5179 -7.6926 -0.3875 0.2645 0 1
7.5373 -7.1167 -0.3735 0.2763 0 24
7.5782 -6.6001 -0.3621 0.2868 0 24
7.7056 -6.1847 -0.3560 0.2980 0 1
7.4179 -5.4788 -0.3323 0.2897 0 25
6.2665 -4.2502 -0.2728 0.8010 14 6
6.5414 -4.0629 -0.2775 0.5676 14 6
7.4844 -4.2418 -0.3100 0.3105 0 25
7.5021 -3.8622 -0.3040 0.3166 0 25
7.5179 -3.4958 -0.2987 0.3222 0 25
7.5320 -3.1408 -0.2940 0.3273 0 25
7.5443 -2.7957 -0.2899 0.3320 0 25
7.5551 -2.4594 -0.2863 0.3362 0 25
7.8257 -2.2040 -0.2929 0.3408 0 1
7.8448 -1.8728 -0.2906 0.3437 0 1
7.8632 -1.5462 -0.2887 0.3459 0 1
3.9355 -0.6108 -0.1435 0.9668 25 14
3.9268 -0.4488 -0.1424 0.9742 25 14
3.9182 -0.2890 -0.1416 0.9801 25 14
3.8976 -0.1304 -0.1405 0.9801 25 14
3.8773 0.0262 -0.1397 0.9858 25 14
3.9022 0.1833 -0.1408 0.9784 25 14
3.9208 0.3424 -0.1418 0.9784 25 14
3.9298 0.5030 -0.1427 0.9719 25 14
4.0271 0.6808 -0.1472 0.3049 25 14
8.0468 1.6954 -0.2963 0.3379 0 1
8.0660 2.0410 -0.2998 0.3329 0 1
8.0874 2.3959 -0.3039 0.3249 0 1
8.1039 2.7595 -0.3084 0.3202 0 1
8.1194 3.1341 -0.3136 0.3149 0 1
8.1341 3.5215 -0.3194 0.3092 0 1
8.1479 3.9233 -0.3258 0.3031 0 1
8.1444 4.3329 -0.3324 0.3129 0 1
8.1124 4.7435 -0.3386 0.3067 0 1
8.0763 5.1686 -0.3455 0.3006 0 1
8.0370 5.6110 -0.3532 0.2941 0 1
7.9944 6.0731 -0.3617 0.2871 0 1
7.8951 6.5139 -0.3688 0.3164 0 1
7.7885 6.9703 -0.3766 0.3099 0 1
7.6756 7.4458 -0.3853 0.3029 0 1
7.6604 8.0530 -0.4005 0.2669 0 2
7.3685 8.3974 -0.4025 0.8677 0 2
7.1611 8.8546 -0.4103 0.2339 0 2
6.6605 8.9481 -0.4019 0.2238 22 6
7.0437 10.3027 -0.4497 0.2134 0 2
6.9731 11.1344 -0.4734 0.2027 0 2
6.8924 12.0568 -0.5004 0.1918 0 2
6.7998 13.0886 -0.5314 0.1806 0 2
6.6926 14.2544 -0.5674 0.1691 0 2
6.5673 15.5862 -0.6094 0.1575 0 2
6.4193 17.1271 -0.6590 0.1456 0 2
6.2421 18.9366 -0.7184 0.1336 0 2
6.0267 21.0988 -0.7906 0.1214 0 2
5.7599 23.7370 -0.8801 0.1090 0 2
5.4212 27.0391 -0.9936 0.0966 0 2
2.2403 14.0894 -0.5140 0.3833 0 9
2.5134 21.2910 -0.7724 0.4818 0 20
2.4148 31.1670 -1.1263 0.8118 0 20
0.6115 16.4552 -0.5933 0.2539 0 9
-35.3287 -33.0630 -2.2805 0.1862 0 20
-33.7934 -34.2744 -2.2685 0.9809 0 20
1.7110 -26.0923 -1.2324 0.8564 0 20
3.5941 -33.8879 -1.6061 0.0781 0 2
4.2621 -29.0155 -1.3822 0.0908 0 2
4.7639 -25.3126 -1.2140 0.1034 0 2
4.2498 -18.4655 -0.8930 0.9518 0 6
5.4660 -20.0310 -0.9786 0.1282 0 2
5.7203 -18.0706 -0.8933 0.1405 0 2
6.0745 -16.8103 -0.8424 0.9984 0 2
6.3555 -15.5971 -0.7938 0.1390 0 1
6.4390 -14.1474 -0.7326 0.1548 0 1
6.5868 -13.0542 -0.6891 0.1881 0 1
6.7120 -12.0706 -0.6509 0.1979 0 1
6.8269 -11.1936 -0.6179 0.2113 0 1
6.9249 -10.3909 -0.5885 0.2207 0 1
7.0073 -9.6506 -0.5621 0.2248 0 1
7.0701 -8.9570 -0.5378 0.2350 0 1
7.1281 -8.3201 -0.5164 0.2595 0 1
7.1931 -7.7434 -0.4981 0.2690 0 1
7.2676 -7.2190 -0.4828 0.2873 0 1
7.3389 -6.7261 -0.4692 0.2957 0 1
7.3961 -6.2509 -0.4564 0.2614 0 1
7.1377 -5.5568 -0.4263 0.2928 0 2
7.1694 -5.1326 -0.4156 0.3028 0 25
6.2820 -4.1260 -0.3542 0.9263 14 6
6.7066 -4.0288 -0.3687 0.3178 14 6
7.2475 -3.9666 -0.3894 0.3232 0 25
7.2683 -3.6064 -0.3824 0.3291 0 25
7.2869 -3.2577 -0.3762 0.3345 0 25
7.3033 -2.9189 -0.3707 0.3395 0 25
7.3177 -2.5889 -0.3658 0.3440 0 25
7.3391 -2.2691 -0.3621 0.4343 0 2
7.5979 -2.0186 -0.3705 0.3498 0 1
7.5928 -1.6939 -0.3667 0.3550 0 24
4.1098 -0.7450 -0.1969 0.2979 25 14
3.9238 -0.5495 -0.1867 0.9714 25 14
3.9152 -0.3887 -0.1854 0.9782 25 14
3.9067 -0.2299 -0.1844 0.9835 25 14
3.8845 -0.0722 -0.1831 0.9833 25 14
3.8832 0.0839 -0.1831 0.9836 25 14
3.9069 0.2416 -0.1845 0.9833 25 14
3.9158 0.4006 -0.1855 0.9778 25 14
3.9248 0.5616 -0.1869 0.9707 25 14
4.1356 0.7625 -0.1982 0.2959 25 14
7.7793 1.7600 -0.3759 0.3453 0 24
7.8248 2.1040 -0.3819 0.3407 0 1
7.8380 2.4492 -0.3870 0.3336 0 1
7.8498 2.8037 -0.3929 0.3287 0 1
7.8602 3.1689 -0.3994 0.3233 0 1
7.8692 3.5464 -0.4068 0.3174 0 1
7.8767 3.9378 -0.4150 0.3111 0 1
7.8663 4.3360 -0.4233 0.3207 0 1
7.8282 4.7346 -0.4312 0.3149 0 1
7.7867 5.1478 -0.4399 0.3086 0 1
7.7416 5.5774 -0.4497 0.3019 0 1
7.6925 6.0258 -0.4605 0.2967 0 1
7.6030 6.4650 -0.4704 0.3287 0 1
7.4933 6.9091 -0.4804 0.3219 0 1
7.3769 7.3716 -0.4915 0.3146 0 1
7.3416 7.9510 -0.5101 0.2740 0 2
7.1831 8.4353 -0.5222 0.9053 0 2
6.8295 8.7057 -0.5215 0.2406 0 2
6.4826 8.9845 -0.5222 0.7348 22 6
6.6831 10.0936 -0.5705 0.2199 0 2
6.5955 10.8874 -0.5999 0.2091 0 2
6.4957 11.7647 -0.6334 0.1981 0 2
6.3815 12.7423 -0.6717 0.1868 0 2
6.2499 13.8418 -0.7158 0.1753 0 2
6.0968 15.0916 -0.7671 0.1636 0 2
5.9169 16.5291 -0.8274 0.1516 0 2
5.7030 18.2054 -0.8992 0.1396 0 2
5.4449 20.1920 -0.9857 0.1273 0 2
5.1281 22.5917 -1.0919 0.1149 0 2
4.7308 25.5583 -1.2251 0.1024 0 2
2.2431 15.5958 -0.7426 0.8715 0 9
2.1992 21.3456 -1.0114 0.8231 0 20
1.0758 17.1958 -0.8120 0.3184 0 9
-29.5288 37.9857 -2.2676 0.7425 0 3
-29.2662 34.6778 -2.1387 0.1628 0 3
-30.9475 33.8150 -2.1604 0.6494 0 3
-30.9587 31.2115 -2.0719 0.6771 0 3
-30.0018 27.9094 -1.9312 0.9607 0 3
-30.9755 26.5760 -1.9236 0.7294 0 3
-29.1928 23.0768 -1.7539 0.6994 0 3
-30.9837 22.5308 -1.8056 0.7770 0 3
-30.9873 20.6830 -1.7559 0.7989 0 3
-30.9897 18.9307 -1.7115 0.8197 0 3
-31.9176 17.7777 -1.7219 0.4917 0 3
-35.1298 17.7569 -1.8552 0.4564 0 3
-37.0935 16.9145 -1.9214 0.4203 0 3
-43.3587 17.7036 -2.2073 0.3836 0 3
-45.4342 16.4544 -2.2775 0.2430 0 3
-34.3593 -33.8291 -2.2726 0.9791 0 20
-32.8313 -35.0311 -2.2628 0.9833 0 20
2.0684 -40.8101 -1.9259 0.7918 0 20
3.2882 -36.1048 -1.7087 0.0734 0 2
4.0386 -30.6515 -1.4571 0.0861 0 2
4.5938 -26.5728 -1.2710 0.0987 0 2
5.0207 -23.3984 -1.1279 0.1112 0 2
5.3585 -20.8506 -1.0146 0.1237 0 2
5.6320 -18.7548 -0.9229 0.1360 0 2
5.8577 -16.9956 -0.8473 0.1481 0 2
6.3862 -16.3633 -0.8279 0.1768 0 2
6.4052 -14.6458 -0.7534 0.1506 0 1
6.5342 -13.4424 -0.7044 0.1840 0 1
6.6679 -12.4220 -0.6645 0.1939 0 1
6.7859 -11.5072 -0.6296 0.2073 0 1
6.8905 -10.6795 -0.5990 0.2169 0 1
6.9801 -9.9196 -0.5717 0.2272 0 1
7.0478 -9.2064 -0.5465 0.2313 0 1
7.1060 -8.5478 -0.5239 0.2412 0 1
7.1698 -7.9519 -0.5046 0.2655 0 1
7.2398 -7.4081 -0.4882 0.2841 0 1
7.3132 -6.9051 -0.4740 0.2926 0 1
7.3809 -6.4283 -0.4613 0.3007 0 1
7.4064 -5.9445 -0.4476 0.2604 0 1
7.1580 -5.2868 -0.4194 0.3000 0 25
6.2832 -4.2615 -0.3578 0.7985 14 6
6.5259 -4.0533 -0.3621 0.5687 14 6
7.2392 -4.1028 -0.3922 0.3209 0 25
7.2609 -3.7380 -0.3849 0.3269 0 25
7.2803 -3.3853 -0.3784 0.3325 0 25
7.2975 -3.0430 -0.3726 0.3377 0 25
7.3126 -2.7099 -0.3676 0.3424 0 25
7.3284 -2.3855 -0.3632 0.3464 0 2
7.5900 -2.1376 -0.3716 0.3487 0 1
7.6119 -1.8172 -0.3688 0.3549 0 1
7.6312 -1.5006 -0.3666 0.3571 0 1
3.9270 -0.6095 -0.1873 0.9685 25 14
3.9184 -0.4478 -0.1859 0.9759 25 14
3.9098 -0.2883 -0.1848 0.9817 25 14
3.8939 -0.1302 -0.1836 0.9806 25 14
3.8740 0.0261 -0.1826 0.9862 25 14
3.8989 0.1831 -0.1840 0.9788 25 14
3.9125 0.3417 -0.1851 0.9800 25 14
3.9215 0.5019 -0.1863 0.9735 25 14
3.9717 0.6715 -0.1898 0.3090 25 14
7.8038 1.6442 -0.3759 0.3482 0 1
7.8189 1.9785 -0.3801 0.3443 0 1
7.8333 2.3207 -0.3851 0.3353 0 1
7.8456 2.6716 -0.3906 0.3305 0 1
7.8565 3.0326 -0.3969 0.3253 0 1
7.8660 3.4054 -0.4040 0.3196 0 1
7.8741 3.7915 -0.4119 0.3135 0 1
7.8790 4.1917 -0.4206 0.3233 0 1
7.8427 4.5858 -0.4282 0.3171 0 1
7.8025 4.9933 -0.4366 0.3110 0 1
7.7587 5.4167 -0.4460 0.3045 0 1
7.7111 5.8579 -0.4564 0.2975 0 1
7.6420 6.3052 -0.4669 0.3312 0 1
7.5346 6.7431 -0.4766 0.3245 0 1
7.4207 7.1985 -0.4873 0.3174 0 1
7.3046 7.6791 -0.4995 0.3041 0 1
7.2909 8.3089 -0.5210 0.2687 0 2
6.8885 8.5175 -0.5163 0.9163 0 2
6.6440 8.9260 -0.5244 0.7976 22 6
6.7129 9.8188 -0.5606 0.2238 0 2
6.6291 10.5853 -0.5887 0.2132 0 2
6.5341 11.4300 -0.6205 0.2022 0 2
6.4256 12.3683 -0.6569 0.1910 0 2
6.3008 13.4199 -0.6987 0.1796 0 2
6.1561 14.6103 -0.7472 0.1679 0 2
5.9868 15.9734 -0.8040 0.1561 0 2
5.7865 17.5544 -0.8711 0.1440 0 2
5.5462 19.4164 -0.9517 0.1318 0 2
5.2532 21.6489 -1.0499 0.1195 0 2
4.8888 24.3837 -1.1721 0.1071 0 2
2.1975 13.8201 -0.6595 0.5105 0 9
2.4583 20.8242 -0.9883 0.5136 0 20
3.1361 40.4768 -1.9134 0.0754 0 1
1.7985 48.3975 -2.2826 0.0640 0 1
-0.0444 14.6067 -0.6884 0.2476 0 9
-35.2510 -32.9903 -2.8120 0.9791 0 20
-33.6233 -34.1019 -2.7893 0.9552 0 20
1.1263 -44.5050 -2.5930 0.0630 0 2
1.7142 -26.1407 -1.5258 0.9818 0 20
3.1674 -29.8647 -1.7492 0.0886 0 2
3.8193 -26.0012 -1.5306 0.1012 0 2
4.3237 -22.9735 -1.3615 0.1138 0 2
4.2502 -18.4673 -1.1037 0.7967 0 6
5.0514 -18.5115 -1.1176 0.1387 0 2
5.4242 -17.1353 -1.0468 0.9695 0 2
5.7836 -16.0054 -0.9912 0.1375 0 1
5.9073 -14.4972 -0.9118 0.1495 0 1
6.0756 -13.3489 -0.8542 0.1874 0 1
6.2357 -12.3583 -0.8062 0.1974 0 1
6.3761 -11.4666 -0.7642 0.2110 0 1
6.5022 -10.6612 -0.7273 0.2206 0 1
6.6093 -9.9173 -0.6941 0.2311 0 1
6.6935 -9.2184 -0.6635 0.2352 0 1
6.7711 -8.5782 -0.6365 0.2600 0 1
6.8508 -7.9964 -0.6133 0.2699 0 1
6.9289 -7.4590 -0.5930 0.2889 0 1
7.0113 -6.9644 -0.5756 0.2976 0 1
7.0807 -6.4895 -0.5594 0.2634 0 1
7.1081 -6.0075 -0.5421 0.2718 0 1
6.8916 -5.3652 -0.5087 0.3055 0 25
6.9286 -4.9602 -0.4963 0.3131 0 25
6.2981 -4.1366 -0.4389 0.8041 14 6
6.6469 -3.9930 -0.4516 0.5194 14 6
7.0189 -3.8415 -0.4660 0.3335 0 25
7.0430 -3.4946 -0.4579 0.3394 0 25
7.0646 -3.1583 -0.4507 0.3448 0 25
7.0837 -2.8312 -0.4443 0.3498 0 25
7.1005 -2.5121 -0.4387 0.3543 0 25
7.3134 -2.2612 -0.4459 0.4383 0 2
7.3761 -1.9597 -0.4445 0.3621 0 1
7.4003 -1.6510 -0.4416 0.3661 0 1
4.0457 -0.7333 -0.2395 0.3024 25 14
3.9154 -0.5483 -0.2303 0.9729 25 14
3.9069 -0.3879 -0.2287 0.9797 25 14
3.8984 -0.2294 -0.2274 0.9850 25 14
3.8809 -0.0722 -0.2261 0.9837 25 14
3.8799 0.0838 -0.2260 0.9839 25 14
3.8987 0.2411 -0.2275 0.9847 25 14
3.9076 0.3998 -0.2288 0.9793 25 14
3.9165 0.5605 -0.2304 0.9722 25 14
4.0770 0.7517 -0.2415 0.3000 25 14
7.5826 1.7155 -0.4528 0.3621 0 1
7.5939 2.0420 -0.4580 0.3580 0 1
7.6032 2.3758 -0.4640 0.3535 0 1
7.6108 2.7183 -0.4707 0.3485 0 1
7.6167 3.0707 -0.4783 0.3429 0 1
7.6207 3.4344 -0.4868 0.3369 0 1
7.6228 3.8109 -0.4964 0.3305 0 1
7.6167 4.1984 -0.5066 0.3332 0 1
7.5755 4.5818 -0.5156 0.3273 0 1
7.5306 4.9785 -0.5258 0.3210 0 1
7.4818 5.3902 -0.5371 0.3142 0 1
7.4285 5.8190 -0.5496 0.3071 0 1
7.3681 6.2652 -0.5633 0.3390 0 1
7.2570 6.6912 -0.5749 0.3322 0 1
7.1390 7.1339 -0.5878 0.3249 0 1
7.0214 7.6042 -0.6028 0.3112 0 1
6.9832 8.2006 -0.6273 0.2756 0 2
6.7181 8.5637 -0.6339 0.9441 0 2
6.4653 8.9607 -0.6436 0.2408 0 2
6.3779 9.6327 -0.6729 0.2303 0 2
6.2795 10.3658 -0.7059 0.2195 0 2
6.1680 11.1712 -0.7432 0.2085 0 2
6.0412 12.0627 -0.7858 0.1972 0 2
5.8959 13.0579 -0.8345 0.1857 0 2
5.7282 14.1792 -0.8907 0.1740 0 2
5.5329 15.4564 -0.9562 0.1621 0 2
5.3030 16.9287 -1.0332 0.1500 0 2
5.0291 18.6502 -1.1250 0.1377 0 2
4.6979 20.6963 -1.2361 0.1254 0 2
4.2900 23.1769 -1.3728 0.1129 0 2
2.2449 15.6085 -0.9184 0.9207 0 9
1.9870 19.2863 -1.1292 0.9722 0 20
1.4516 23.2024 -1.3540 0.9961 0 20
0.9912 44.4364 -2.5888 0.0722 0 1
-30.7592 36.4469 -2.7777 0.6238 0 3
-29.8428 32.6080 -2.5745 0.5993 0 3
-30.4038 30.6520 -2.5146 0.1683 0 3
-30.0529 27.9570 -2.3907 0.3402 0 3
-29.7024 25.4836 -2.2794 0.1857 0 3
-28.9922 22.9182 -2.1525 0.9395 0 3
-29.1587 21.2037 -2.0999 0.5963 0 3
-29.1634 19.4656 -2.0422 0.8020 0 3
-30.8569 18.8496 -2.1060 0.8227 0 3
-31.9160 17.7768 -2.1278 0.4915 0 3
-35.1280 17.7560 -2.2925 0.4561 0 3
-38.4885 17.5506 -2.4638 0.2336 0 3
-41.0799 16.7732 -2.5844 0.2020 0 3
-46.2304 16.7428 -2.8638 0.7912 0 3
-34.2827 -33.7536 -2.8021 0.9826 0 20
-32.9907 -35.2013 -2.8099 0.2195 0 20
0.4957 -47.3976 -2.7607 0.0590 0 1
1.3330 -26.2997 -1.5337 0.4024 0 20
2.8760 -31.5790 -1.8469 0.0839 0 2
3.5988 -27.3134 -1.6046 0.0966 0 2
4.1513 -24.0129 -1.4193 0.1092 0 2
4.5867 -21.3762 -1.2734 0.1217 0 2
4.9382 -19.2153 -1.1555 0.1341 0 2
5.2274 -17.4073 -1.0586 0.1464 0 2
5.7722 -16.7475 -1.0317 0.1751 0 2
5.8644 -15.0264 -0.9395 0.1451 0 1
5.9747 -13.6616 -0.8685 0.1791 0 24
6.1797 -12.7132 -0.8233 0.1944 0 1
6.3254 -11.7839 -0.7790 0.2070 0 1
6.4574 -10.9501 -0.7404 0.2178 0 1
6.5712 -10.1845 -0.7059 0.2273 0 1
6.6642 -9.4706 -0.6745 0.2314 0 1
6.7406 -8.8051 -0.6459 0.2417 0 1
6.8223 -8.2066 -0.6216 0.2663 0 1
6.8970 -7.6493 -0.5999 0.2759 0 1
6.9817 -7.1439 -0.5818 0.2945 0 1
7.0598 -6.6658 -0.5655 0.3029 0 1
7.0984 -6.1823 -0.5483 0.2687 0 1
6.8800 -5.5221 -0.5138 0.3013 0 2
6.9154 -5.1076 -0.5007 0.3104 0 25
6.3000 -4.2729 -0.4434 0.7959 14 6
6.5032 -4.0392 -0.4459 0.5320 14 6
7.0093 -3.9725 -0.4693 0.3312 0 25
7.0344 -3.6215 -0.4608 0.3373 0 25
7.0569 -3.2814 -0.4533 0.3429 0 25
7.0769 -2.9510 -0.4466 0.3480 0 25
7.0945 -2.6291 -0.4407 0.3527 0 25
7.1120 -2.3151 -0.4356 0.3567 0 2
7.3673 -2.0749 -0.4458 0.3599 0 1
7.3917 -1.7646 -0.4426 0.3637 0 1
4.2126 -0.8284 -0.2501 0.2536 25 14
3.9185 -0.6082 -0.2310 0.9700 25 14
3.9100 -0.4469 -0.2292 0.9774 25 14
3.9015 -0.2877 -0.2279 0.9832 25 14
3.8903 -0.1301 -0.2267 0.9809 25 14
3.8708 0.0261 -0.2255 0.9864 25 14
3.8954 0.1829 -0.2271 0.9864 25 14
3.9043 0.3410 -0.2283 0.9815 25 14
3.9132 0.5008 -0.2298 0.9750 25 14
3.9222 0.6631 -0.2317 0.9670 25 14
7.5780 1.5966 -0.4511 0.3635 0 1
7.5899 1.9206 -0.4560 0.3596 0 1
7.6000 2.2516 -0.4617 0.3553 0 1
7.6082 2.5907 -0.4681 0.3504 0 1
7.6147 2.9393 -0.4754 0.3450 0 1
7.6194 3.2986 -0.4836 0.3392 0 1
7.6223 3.6702 -0.4927 0.3329 0 1
7.6229 4.0555 -0.5029 0.3229 0 1
7.5911 4.4387 -0.5122 0.3295 0 1
7.5477 4.8303 -0.5219 0.3234 0 1
7.5003 5.2362 -0.5328 0.3168 0 1
7.4487 5.6585 -0.5448 0.3098 0 1
7.3966 6.1027 -0.5585 0.3020 0 1
7.2988 6.5321 -0.5705 0.3348 0 1
7.1834 6.9683 -0.5829 0.3276 0 1
7.0618 7.4238 -0.5968 0.3144 0 1
6.8807 8.5079 -0.6373 0.9391 0 2
6.4955 8.7265 -0.6336 0.2429 0 2
6.4114 9.3778 -0.6616 0.2342 0 2
6.3172 10.0872 -0.6932 0.2236 0 2
6.2108 10.8645 -0.7289 0.2126 0 2
6.0900 11.7224 -0.7694 0.2014 0 2
5.9520 12.6769 -0.8157 0.1900 0 2
5.7931 13.7487 -0.8689 0.1783 0 2
5.6086 14.9643 -0.9308 0.1665 0 2
5.3925 16.3591 -1.0032 0.1545 0 2
5.1362 17.9811 -1.0892 0.1423 0 2
4.8280 19.8967 -1.1925 0.1300 0 2
4.4512 22.2011 -1.3188 0.1175 0 2
3.9809 25.0355 -1.4765 0.1050 0 2
2.4397 20.6668 -1.2121 0.8215 0 20
2.7034 34.8917 -2.0383 0.0800 0 1
1.5486 41.6740 -2.4289 0.0764 0 1
-35.3384 -33.0721 -3.3575 0.9444 0 20
-33.5609 -34.0386 -3.3160 0.9571 0 20
-0.6685 -44.9213 -3.1165 0.0626 0 1
0.9605 -37.9546 -2.6338 0.0725 0 1
1.7136 -26.1319 -1.8167 0.9918 0 20
2.8309 -26.6918 -1.8620 0.0991 0 2
3.4594 -23.5513 -1.6513 0.1117 0 2
3.9575 -21.0278 -1.4843 0.1243 0 2
4.2647 -18.5301 -1.3190 0.7762 0 6
4.7862 -17.5397 -1.2612 0.9336 0 2
5.1889 -16.3919 -1.1927 0.1272 0 1
5.3703 -14.8616 -1.0962 0.1472 0 1
5.5576 -13.6391 -1.0217 0.1879 0 1
5.7514 -12.6367 -0.9631 0.1978 0 1
5.9210 -11.7346 -0.9118 0.2105 0 1
6.0723 -10.9202 -0.8668 0.2214 0 1
6.2055 -10.1747 -0.8267 0.2310 0 1
6.3147 -9.4753 -0.7899 0.2352 0 1
6.4128 -8.8319 -0.7571 0.2602 0 1
6.5080 -8.2449 -0.7287 0.2703 0 1
6.5939 -7.6966 -0.7031 0.2802 0 1
6.6856 -7.1971 -0.6814 0.2992 0 1
6.7673 -6.7220 -0.6617 0.2650 0 1
6.8068 -6.2385 -0.6405 0.2738 0 1
6.8413 -5.7820 -0.6214 0.2822 0 1
6.6620 -5.1864 -0.5857 0.3158 0 25
6.2825 -4.4976 -0.5360 0.5566 14 6
6.2997 -4.1376 -0.5228 0.3307 14 6
6.6472 -3.9931 -0.5379 0.5190 14 6
6.8040 -3.7239 -0.5381 0.3438 0 25
6.8311 -3.3895 -0.5290 0.3497 0 25
6.8552 -3.0647 -0.5209 0.3551 0 25
6.8766 -2.7484 -0.5137 0.3601 0 25
6.8970 -2.4401 -0.5075 0.3622 0 2
7.1414 -2.2080 -0.5185 0.3682 0 1
7.1674 -1.9042 -0.5145 0.3724 0 1
7.1923 -1.6046 -0.5112 0.3748 0 1
3.9835 -0.7221 -0.2808 0.3069 25 14
3.9069 -0.5471 -0.2737 0.9743 25 14
3.8985 -0.3870 -0.2718 0.9812 25 14
3.8901 -0.2289 -0.2703 0.9864 25 14
3.8773 -0.0721 -0.2690 0.9839 25 14
3.8766 0.0837 -0.2690 0.9840 25 14
3.8905 0.2406 -0.2704 0.9861 25 14
3.8994 0.3989 -0.2719 0.9806 25 14
3.9082 0.5593 -0.2739 0.9736 25 14
4.0200 0.7411 -0.2836 0.3041 25 14
7.3686 1.6671 -0.5241 0.3724 0 1
7.3773 1.9837 -0.5299 0.3682 0 1
7.3836 2.3072 -0.5366 0.3638 0 1
7.3879 2.6387 -0.5442 0.3587 0 1
7.3901 2.9794 -0.5527 0.3532 0 1
7.3900 3.3304 -0.5623 0.3472 0 1
7.3877 3.6933 -0.5730 0.3407 0 1
7.3749 4.0651 -0.5842 0.3308 0 1
7.3389 4.4387 -0.5950 0.3376 0 1
7.2909 4.8200 -0.6063 0.3313 0 1
7.2387 5.2151 -0.6189 0.3246 0 1
7.1817 5.6257 -0.6328 0.3174 0 1
7.1273 6.0605 -0.6490 0.3093 0 1
7.0348 6.4864 -0.6638 0.3424 0 1
6.9157 6.9108 -0.6782 0.3352 0 1
6.7930 7.3568 -0.6946 0.3215 0 1
6.6755 7.8393 -0.7143 0.3126 0 1
6.6258 8.4460 -0.7447 0.2768 0 2
6.2877 8.7145 -0.7455 0.9741 0 2
6.0990 9.2114 -0.7664 0.2407 0 2
5.9920 9.8913 -0.8022 0.2299 0 2
5.8715 10.6341 -0.8427 0.2189 0 2
5.7350 11.4512 -0.8884 0.2076 0 2
5.5795 12.3571 -0.9405 0.1961 0 2
5.4013 13.3699 -1.0003 0.1844 0 2
5.1953 14.5133 -1.0693 0.1725 0 2
4.9551 15.8180 -1.1499 0.1604 0 2
4.6719 17.3255 -1.2448 0.1482 0 2
4.3339 19.0925 -1.3581 0.1358 0 2
3.9239 21.1991 -1.4956 0.1233 0 2
2.2475 15.6262 -1.0951 0.7201 0 9
2.1519 20.8864 -1.4566 0.2782 0 20
1.4516 23.2019 -1.6127 0.9954 0 20
0.8574 38.4372 -2.6671 0.0705 0 1
-0.8198 45.8433 -3.1807 0.0672 0 1
-30.5530 39.3032 -3.4534 0.5972 0 3
-30.5861 36.2418 -3.2898 0.6269 0 3
-30.6146 33.4513 -3.1456 0.6556 0 3
-30.6392 30.8894 -3.0181 0.6833 0 3
-29.6931 27.6223 -2.8133 0.9705 0 3
-19.2415 16.5086 -1.7587 0.8100 0 6
-30.6941 24.2635 -2.7142 0.7598 0 3
-30.7047 22.3279 -2.6336 0.7830 0 3
-30.3453 20.2545 -2.5309 0.1981 0 3
-30.0981 18.3860 -2.4466 0.2054 0 3
-29.9520 16.6829 -2.3783 0.2193 0 3
-35.1261 17.7551 -2.7303 0.4558 0 3
-40.9505 18.6733 -3.1221 0.8798 0 3
-41.1900 16.8182 -3.0864 0.5314 0 3
-46.3073 16.7706 -3.4165 0.8241 0 3
-34.2124 -33.6844 -3.3306 0.9529 0 20
-33.0647 -35.2802 -3.3542 0.3863 0 20
-18.4658 -27.4445 -2.2947 0.8032 0 22
-1.4591 -49.0774 -3.4060 0.0507 0 1
0.4196 -40.1162 -2.7830 0.0694 0 1
1.6480 -32.5162 -2.2585 0.0817 0 2
2.5553 -28.0574 -1.9544 0.0944 0 2
3.2449 -24.6278 -1.7232 0.1070 0 2
3.7861 -21.9004 -1.5418 0.1196 0 2
4.2214 -19.6737 -1.3958 0.1321 0 2
4.5786 -17.8162 -1.2761 0.1445 0 2
5.1456 -17.1350 -1.2411 0.1729 0 2
5.3088 -15.4029 -1.1302 0.1428 0 1
5.4796 -14.0404 -1.0455 0.1836 0 1
5.6828 -12.9939 -0.9838 0.1937 0 1
5.8604 -12.0562 -0.9299 0.2037 0 1
6.0185 -11.2121 -0.8828 0.2174 0 1
6.1589 -10.4438 -0.8411 0.2281 0 1
6.2781 -9.7302 -0.8033 0.2313 0 1
6.3751 -9.0598 -0.7685 0.2563 0 1
6.4740 -8.4569 -0.7388 0.2666 0 1
6.5632 -7.8949 -0.7122 0.2766 0 1
6.6518 -7.3773 -0.6891 0.2959 0 1
6.7410 -6.8977 -0.6690 0.3048 0 1
6.7928 -6.4137 -0.6481 0.2706 0 1
6.8291 -5.9477 -0.6282 0.2791 0 1
6.6468 -5.3349 -0.5912 0.3130 0 2
6.6884 -4.9400 -0.5768 0.3207 0 25
6.2873 -4.2644 -0.5270 0.3280 14 6
6.4312 -3.9945 -0.5252 0.5316 14 6
6.7933 -3.8501 -0.5417 0.3415 0 25
6.8214 -3.5118 -0.5322 0.3475 0 25
6.8466 -3.1836 -0.5238 0.3531 0 25
6.8690 -2.8643 -0.5163 0.3583 0 25
6.8888 -2.5528 -0.5096 0.3630 0 25
7.0799 -2.3047 -0.5165 0.5751 0 2
7.1577 -2.0158 -0.5158 0.3714 0 1
7.1834 -1.7149 -0.5123 0.3740 0 1
4.1450 -0.8151 -0.2930 0.2942 25 14
3.9101 -0.6069 -0.2745 0.9714 25 14
3.9016 -0.4459 -0.2724 0.9788 25 14
3.8932 -0.2871 -0.2708 0.9846 25 14
3.8848 -0.1299 -0.2696 0.9889 25 14
3.8675 0.0261 -0.2683 0.9865 25 14
3.8873 0.1826 -0.2700 0.9877 25 14
3.8961 0.3403 -0.2713 0.9828 25 14
3.9049 0.4998 -0.2731 0.9764 25 14
3.9138 0.6617 -0.2754 0.9684 25 14
7.3649 1.5517 -0.5221 0.3737 0 1
7.3743 1.8660 -0.5277 0.3698 0 1
7.3816 2.1868 -0.5341 0.3655 0 1
7.3866 2.5152 -0.5413 0.3607 0 1
7.3895 2.8524 -0.5495 0.3553 0 1
7.3903 3.1995 -0.5586 0.3495 0 1
7.3889 3.5578 -0.5689 0.3432 0 1
7.3815 3.9271 -0.5800 0.3332 0 1
7.3556 4.3010 -0.5911 0.3398 0 1
7.3091 4.6776 -0.6020 0.3337 0 1
7.2585 5.0674 -0.6141 0.3271 0 1
7.2033 5.4721 -0.6275 0.3201 0 1
7.1474 5.8970 -0.6428 0.3123 0 1
7.0770 6.3336 -0.6588 0.3450 0 1
6.9606 6.7521 -0.6727 0.3379 0 1
6.8367 7.1871 -0.6881 0.3303 0 1
6.7199 7.6582 -0.7068 0.3159 0 1
6.6641 8.2400 -0.7352 0.2803 0 2
6.4392 8.6509 -0.7481 0.9706 0 2
6.1355 8.9743 -0.7541 0.2446 0 2
6.0330 9.6334 -0.7885 0.2339 0 2
5.9177 10.3517 -0.8272 0.2230 0 2
5.7874 11.1399 -0.8708 0.2118 0 2
5.6393 12.0111 -0.9205 0.2004 0 2
5.4700 12.9820 -0.9772 0.1887 0 2
5.2750 14.0740 -1.0426 0.1769 0 2
5.0483 15.3149 -1.1186 0.1649 0 2
4.7822 16.7418 -1.2078 0.1527 0 2
4.4661 18.4051 -1.3138 0.1404 0 2
4.0851 20.3750 -1.4415 0.1280 0 2
2.4873 15.6424 -1.0987 0.4317 0 9
2.0746 17.5735 -1.2275 0.9818 0 20
1.7383 22.4349 -1.5610 0.9940 0 6
1.3395 36.0468 -2.5023 0.0776 0 1
-0.1302 42.8711 -2.9740 0.0724 0 1
-35.2747 -33.0124 -3.8898 0.9461 0 20
-33.3843 -33.8594 -3.8284 0.8997 0 20
-33.3752 -36.6879 -3.9933 0.3749 0 20
-19.4907 -27.4400 -2.7099 0.9281 0 6
-2.5788 -46.7864 -3.7727 0.0470 0 1
-0.5721 -38.4427 -3.0955 0.0747 0 1
0.8342 -32.9624 -2.6548 0.0841 0 1
1.7136 -26.1311 -2.1084 0.9382 0 20
2.5587 -24.1247 -1.9533 0.1095 0 2
3.1611 -21.5205 -1.7513 0.1221 0 2
3.6481 -19.3836 -1.5880 0.1347 0 2
4.1505 -18.0339 -1.4899 0.8864 0 2
4.5720 -16.7550 -1.3983 0.1258 0 1
4.8166 -15.2157 -1.2850 0.1457 0 1
5.0334 -13.9293 -1.1925 0.1892 0 1
5.2620 -12.9135 -1.1227 0.1983 0 1
5.4610 -11.9986 -1.0614 0.2112 0 1
5.6380 -11.1737 -1.0077 0.2208 0 1
5.7957 -10.4229 -0.9602 0.2318 0 1
5.9326 -9.7273 -0.9173 0.2348 0 1
6.0521 -9.0812 -0.8787 0.2600 0 1
6.1636 -8.4887 -0.8446 0.2705 0 1
6.2642 -7.9360 -0.8140 0.2806 0 1
6.3607 -7.4244 -0.7871 0.3004 0 1
6.4547 -6.9485 -0.7636 0.2663 0 1
6.5068 -6.4633 -0.7384 0.2754 0 1
6.5529 -6.0058 -0.7157 0.2842 0 1
6.5883 -5.5682 -0.6945 0.2861 0 1
6.4468 -5.0189 -0.6578 0.3261 0 25
6.3075 -4.5156 -0.6246 0.5680 14 6
6.2911 -4.1320 -0.6060 0.7607 14 6
6.5687 -3.9460 -0.6170 0.3477 0 25
6.6016 -3.6131 -0.6059 0.3540 0 25
6.6312 -3.2903 -0.5960 0.3599 0 25
6.6576 -2.9764 -0.5872 0.3653 0 25
6.6810 -2.6702 -0.5793 0.3703 0 25
6.7844 -2.4002 -0.5794 0.6593 0 2
6.9424 -2.1465 -0.5851 0.3785 0 1
6.9699 -1.8518 -0.5806 0.3827 0 1
6.9953 -1.5606 -0.5771 0.3850 0 1
3.9231 -0.7111 -0.3210 0.3114 25 14
3.8985 -0.5460 -0.3169 0.9756 25 14
3.8902 -0.3862 -0.3148 0.9824 25 14
3.8818 -0.2284 -0.3131 0.9877 25 14
3.8735 -0.0720 -0.3119 0.9914 25 14
3.8734 0.0836 -0.3119 0.9840 25 14
3.8824 0.2401 -0.3132 0.9874 25 14
3.8912 0.3981 -0.3149 0.9819 25 14
3.8999 0.5581 -0.3172 0.9749 25 14
3.9644 0.7309 -0.3246 0.3081 25 14
7.1661 1.6213 -0.5915 0.3826 0 1
7.1723 1.9286 -0.5980 0.3784 0 1
7.1760 2.2423 -0.6053 0.3740 0 1
7.1773 2.5635 -0.6136 0.3689 0 1
7.1762 2.8932 -0.6230 0.3634 0 1
7.1726 3.2325 -0.6334 0.3574 0 1
7.1664 3.5827 -0.6451 0.3510 0 1
7.1467 3.9393 -0.6570 0.3411 0 1
7.1163 4.3040 -0.6696 0.3479 0 1
7.0657 4.6711 -0.6820 0.3416 0 1
7.0105 5.0507 -0.6957 0.3349 0 1
6.9504 5.4445 -0.7109 0.3277 0 1
6.8925 5.8608 -0.7284 0.3196 0 1
6.8256 6.2935 -0.7475 0.3526 0 1
6.7057 6.7009 -0.7633 0.3454 0 1
6.5787 7.1247 -0.7808 0.3317 0 1
6.4591 7.5851 -0.8021 0.3228 0 1
6.3301 8.0691 -0.8257 0.3136 0 1
6.2684 8.6877 -0.8625 0.2774 0 2
5.8784 8.8782 -0.8573 0.9822 0 2
5.7294 9.4577 -0.8903 0.2403 0 2
5.6017 10.1455 -0.9331 0.2292 0 2
5.4579 10.8979 -0.9813 0.2180 0 2
5.2949 11.7268 -1.0360 0.2065 0 2
5.1092 12.6470 -1.0982 0.1948 0 2
4.8961 13.6775 -1.1697 0.1829 0 2
4.6496 14.8427 -1.2523 0.1708 0 2
4.3617 16.1749 -1.3488 0.1586 0 2
4.0217 17.7174 -1.4628 0.1462 0 2
3.6150 19.5299 -1.5991 0.1338 0 2
1.9965 13.8815 -1.1292 0.5822 0 20
2.5079 24.3424 -1.9703 0.1086 0 2
1.4516 23.2013 -1.8717 0.9946 0 20
0.7478 33.5262 -2.7000 0.0797 0 1
-0.7065 39.5071 -3.1814 0.0750 0 1
-2.7528 47.3587 -3.8195 0.0660 0 1
-30.1700 38.8105 -3.9579 0.6532 0 3
-31.7879 37.6658 -3.9683 0.7660 0 3
-30.4505 33.2719 -3.6314 0.6586 0 3
-30.4816 30.7305 -3.4849 0.6863 0 3
-30.5085 28.3808 -3.3549 0.7129 0 3
-30.5318 26.1953 -3.2390 0.7384 0 3
-28.7120 22.6967 -2.9468 0.2879 0 3
-30.5668 22.2276 -3.0429 0.7859 0 3
-30.5816 20.4122 -2.9603 0.8078 0 3
-30.5941 18.6890 -2.8865 0.8285 0 3
-31.5002 17.5452 -2.9031 0.4907 0 3
-35.1243 17.7541 -3.1687 0.4555 0 3
-40.7867 18.5986 -3.6092 0.8826 0 3
-45.9297 18.7534 -3.9944 0.8979 0 3
-34.1309 -33.6042 -3.8564 0.8931 0 20
-32.7715 -34.9674 -3.8585 0.3895 0 20
-20.1262 -27.4621 -2.7413 0.7826 0 22
-18.4707 -27.4518 -2.6640 0.8023 0 22
-1.2168 -40.9268 -3.2966 0.0680 0 1
0.3639 -34.7940 -2.8016 0.0797 0 1
1.4597 -28.7991 -2.3217 0.0921 0 2
2.2986 -25.2386 -2.0405 0.1048 0 2
2.9540 -22.4200 -1.8207 0.1175 0 2
3.4795 -20.1271 -1.6445 0.1301 0 2
3.9149 -18.2450 -1.5024 0.6897 0 2
4.5039 -17.5253 -1.4569 0.1704 0 2
4.7313 -15.7553 -1.3245 0.1475 0 1
4.9429 -14.3412 -1.2213 0.1532 0 1
5.1817 -13.2770 -1.1475 0.1940 0 1
5.3903 -12.3253 -1.0831 0.2055 0 1
5.5750 -11.4691 -1.0267 0.2179 0 1
5.7396 -10.6925 -0.9771 0.2278 0 1
5.8857 -9.9807 -0.9329 0.2374 0 1
6.0078 -9.3113 -0.8922 0.2560 0 1
6.1237 -8.7026 -0.8568 0.2666 0 1
6.2282 -8.1359 -0.8250 0.2769 0 1
6.3227 -7.6056 -0.7963 0.2869 0 1
6.4234 -7.1240 -0.7723 0.3062 0 1
6.4883 -6.6391 -0.7474 0.2721 0 1
6.5365 -6.1718 -0.7238 0.2810 0 1
6.5790 -5.7299 -0.7024 0.2895 0 1
6.5983 -5.2960 -0.6812 0.2845 0 1
6.4756 -4.7828 -0.6482 0.3309 0 25
6.2942 -4.2690 -0.6123 0.7529 14 6
6.4315 -3.9947 -0.6096 0.5311 14 6
6.5899 -3.7348 -0.6099 0.3517 0 25
6.6206 -3.4084 -0.5995 0.3578 0 25
6.6482 -3.0913 -0.5903 0.3634 0 25
6.6727 -2.7825 -0.5821 0.3685 0 25
6.6953 -2.4811 -0.5749 0.3782 0 2
6.9321 -2.2565 -0.5870 0.3773 0 1
6.9599 -1.9601 -0.5822 0.3817 0 1
6.9863 -1.6678 -0.5783 0.3842 0 1
4.0855 -0.8034 -0.3352 0.2769 25 14
3.9016 -0.6056 -0.3179 0.9727 25 14
3.8933 -0.4450 -0.3155 0.9801 25 14
3.8849 -0.2865 -0.3136 0.9859 25 14
3.8766 -0.1297 -0.3123 0.9902 25 14
3.8643 0.0261 -0.3111 0.9866 25 14
3.8792 0.1822 -0.3127 0.9890 25 14
3.8879 0.3395 -0.3142 0.9841 25 14
3.8967 0.4987 -0.3163 0.9776 25 14
3.9055 0.6603 -0.3189 0.9696 25 14
7.1632 1.5093 -0.5894 0.3840 0 1
7.1702 1.8144 -0.5955 0.3800 0 1
7.1750 2.1256 -0.6025 0.3758 0 1
7.1771 2.4439 -0.6104 0.3709 0 1
7.1769 2.7703 -0.6194 0.3655 0 1
7.1743 3.1059 -0.6294 0.3597 0 1
7.1690 3.4520 -0.6406 0.3534 0 1
7.1547 3.8064 -0.6525 0.3435 0 1
7.1319 4.1702 -0.6652 0.3369 0 1
7.0849 4.5341 -0.6772 0.3440 0 1
7.0315 4.9089 -0.6904 0.3374 0 1
6.9732 5.2973 -0.7051 0.3304 0 1
6.9140 5.7045 -0.7217 0.3225 0 1
6.8539 6.1339 -0.7406 0.3143 0 1
6.7508 6.5487 -0.7573 0.3481 0 1
6.6261 6.9658 -0.7741 0.3405 0 1
6.5043 7.4125 -0.7940 0.3261 0 1
6.3789 7.8874 -0.8167 0.3171 0 1
6.3120 8.4799 -0.8511 0.2811 0 2
6.0271 8.8158 -0.8598 0.9794 0 2
5.7729 9.2180 -0.8757 0.2443 0 2
5.6506 9.8845 -0.9167 0.2333 0 2
5.5130 10.6118 -0.9628 0.2222 0 2
5.3575 11.4109 -1.0150 0.2107 0 2
5.1807 12.2954 -1.0742 0.1991 0 2
4.9783 13.2826 -1.1421 0.1873 0 2
4.7450 14.3947 -1.2203 0.1753 0 2
4.4734 15.6609 -1.3113 0.1631 0 2
4.1542 17.1198 -1.4184 0.1508 0 2
3.7742 18.8243 -1.5458 0.1384 0 2
2.1324 13.4104 -1.0933 0.8558 0 20
2.2149 18.7623 -1.5211 0.1252 0 20
1.7361 22.4069 -1.8095 0.8397 0 6
1.1758 31.6416 -2.5493 0.1253 0 1
-0.1125 37.0336 -2.9817 0.0731 0 1
-1.9096 44.1567 -3.5586 0.0697 0 1
-35.3840 -33.1148 -4.4429 0.8824 0 20
-33.1735 -33.6457 -4.3317 0.8147 0 20
-32.9632 -36.2351 -4.4908 0.5328 0 20
-19.4774 -27.4213 -3.0836 0.9927 0 6
-4.6737 -48.9219 -4.5055 0.0454 0 1
-2.1718 -39.4021 -3.6178 0.0717 0 1
-0.4984 -33.4889 -3.0705 0.0827 0 1
0.7407 -29.2710 -2.6844 0.0949 0 1
1.6190 -24.6889 -2.2683 0.1073 0 2
2.3338 -22.0047 -2.0286 0.1199 0 2
