ply
format ascii 1.0
element vertex 1379
property float32 x
property float32 y
property float32 z
property float32 CosAngle
property uint32 ObjIdx
property uint32 ObjTag
end_header
1.5136 7.8874 -2.5017 0.3380 0 1
1.2418 8.2496 -2.5987 0.3254 0 1
0.9462 8.6291 -2.7040 0.3127 0 1
0.6225 9.0027 -2.8110 0.3218 0 1
0.2703 9.3665 -2.9188 0.3099 0 1
-0.1105 9.7450 -3.0357 0.2979 0 1
-0.5236 10.1525 -3.1667 0.2718 0 1
-0.9756 10.6073 -3.3181 0.2594 0 1
-1.4690 11.0728 -3.4794 0.2507 0 1
-2.0025 11.5215 -3.6427 0.2355 0 24
-2.6062 12.0928 -3.8534 0.2181 0 1
-3.2644 12.6547 -4.0709 0.2065 0 1
-3.9940 13.2561 -4.3126 0.1946 0 1
-4.8054 13.9009 -4.5815 0.1832 0 1
-5.7117 14.5954 -4.8821 0.1731 0 1
-6.7043 15.2912 -5.2009 0.1672 0 1
-7.8041 16.0170 -5.5499 0.1567 0 1
-9.0801 16.8778 -5.9699 0.1360 0 1
-10.5537 17.8580 -6.4615 0.1195 0 1
-12.3497 19.1009 -7.0851 0.1044 0 1
-14.3673 20.3766 -7.7663 0.1120 0 24
-16.7167 21.7937 -8.5557 0.6495 0 2
-18.5595 22.2819 -9.0330 0.0878 0 2
-21.7196 24.0420 -10.0925 0.0785 0 2
-25.5588 26.1023 -11.3795 0.0697 0 25
-22.5162 21.2184 -9.6373 0.7880 0 5
-22.5761 19.6236 -9.3177 0.8036 0 5
-22.6828 18.1693 -9.0529 0.7570 0 5
-22.7520 16.7698 -8.8043 0.8210 0 5
-32.5410 22.0238 -12.2397 0.8406 0 3
-28.6891 17.7795 -10.5135 0.5087 0 3
-28.3247 16.0157 -10.1358 0.7697 0 3
-37.5890 19.3038 -13.1626 0.8968 0 3
-29.5318 13.6958 -10.1401 0.3698 0 5
-32.9999 13.7215 -11.1325 0.4051 0 5
-25.2156 -17.2019 -9.8806 0.5305 0 20
-33.8065 -25.1106 -13.6314 0.8258 0 20
-32.0932 -25.9019 -13.3497 0.5968 0 9
-28.6116 -25.0555 -12.3106 0.5649 0 9
-25.3055 -24.0237 -11.2946 0.0727 0 2
-21.7619 -22.3893 -10.1067 0.0812 0 2
-18.7898 -20.9538 -9.1103 0.0901 0 2
-16.8785 -20.4164 -8.5746 0.0677 0 1
-14.2037 -18.6596 -7.5908 0.1101 0 1
-12.3645 -17.6741 -6.9820 0.1194 0 1
-10.7411 -16.7480 -6.4404 0.1295 0 1
-9.3243 -15.9114 -5.9697 0.1403 0 1
-8.0736 -15.1405 -5.5542 0.1520 0 1
-6.9634 -14.4265 -5.1853 0.1651 0 1
-5.9810 -13.7793 -4.8623 0.1820 0 1
-5.1060 -13.1907 -4.5785 0.1924 0 1
-4.3179 -12.6416 -4.3241 0.2061 0 1
-3.6042 -12.1241 -4.0942 0.2154 0 1
-2.9444 -11.5907 -3.8710 0.2272 0 24
-2.3648 -11.1728 -3.6967 0.2399 0 1
-1.8221 -10.7175 -3.5190 0.2463 0 1
-1.3258 -10.2838 -3.3564 0.2583 0 1
-0.8709 -9.8679 -3.2066 0.2706 0 1
-0.4533 -9.4685 -3.0684 0.2828 0 1
-0.0693 -9.0548 -2.9311 0.2906 0 24
0.2839 -8.7218 -2.8247 0.3072 0 1
0.6099 -8.3716 -2.7170 0.3194 0 1
0.9111 -8.0352 -2.6176 0.3315 0 1
1.1902 -7.7135 -2.5264 0.3486 0 1
1.4489 -7.4027 -2.4417 0.3607 0 1
1.6890 -7.1027 -2.3632 0.3727 0 1
1.9123 -6.8126 -2.2904 0.3845 0 1
2.1198 -6.5313 -2.2227 0.3952 0 1
2.3128 -6.2576 -2.1595 0.4068 0 1
2.4925 -5.9918 -2.1006 0.4182 0 1
2.6601 -5.7334 -2.0459 0.4294 0 1
2.8163 -5.4819 -1.9949 0.4401 0 1
2.9618 -5.2361 -1.9473 0.4350 0 1
3.0876 -4.9804 -1.8968 0.4465 0 1
3.2039 -4.7323 -1.8499 0.4579 0 1
3.3116 -4.4914 -1.8063 0.4689 0 1
3.4117 -4.2579 -1.7661 0.4725 0 1
3.5059 -4.0322 -1.7296 0.4825 0 1
3.5960 -3.8147 -1.6970 0.5118 0 1
3.6845 -3.6066 -1.6689 0.5203 0 1
3.7669 -3.4019 -1.6430 0.5286 0 1
3.8435 -3.2004 -1.6189 0.5364 0 1
3.9146 -3.0017 -1.5968 0.5439 0 1
3.9805 -2.8057 -1.5764 0.5509 0 1
4.0418 -2.6124 -1.5578 0.5575 0 1
4.0991 -2.4216 -1.5411 0.5636 0 1
4.1517 -2.2328 -1.5259 0.5692 0 1
4.2001 -2.0456 -1.5122 0.5744 0 1
4.2442 -1.8601 -1.5000 0.5791 0 1
4.2842 -1.6758 -1.4891 0.5834 0 1
4.3202 -1.4927 -1.4796 0.5871 0 1
4.3525 -1.3107 -1.4714 0.5935 0 1
4.3817 -1.1296 -1.4647 0.5962 0 1
4.4073 -0.9491 -1.4593 0.5984 0 1
4.4292 -0.7691 -1.4552 0.6001 0 1
4.4475 -0.5893 -1.4522 0.6013 0 1
3.9175 -0.3597 -1.2734 0.7740 25 14
3.9061 -0.2008 -1.2661 0.7785 25 14
3.8957 -0.0436 -1.2611 0.7816 25 14
3.8985 0.1131 -1.2625 0.7807 25 14
3.9045 0.2706 -1.2669 0.7780 25 14
3.9114 0.4295 -1.2737 0.7738 25 14
3.9188 0.5905 -1.2828 0.7321 25 14
3.9282 0.7544 -1.2948 0.7169 25 14
4.4776 1.0481 -1.4886 0.5773 0 1
4.4583 1.2344 -1.4974 0.5739 0 1
4.4350 1.4221 -1.5076 0.5700 0 1
4.4076 1.6114 -1.5191 0.5657 0 1
4.3761 1.8023 -1.5320 0.5610 0 1
4.3403 1.9951 -1.5463 0.5558 0 1
4.3002 2.1900 -1.5621 0.5498 0 1
4.2556 2.3873 -1.5795 0.5437 0 1
4.2062 2.5871 -1.5985 0.5373 0 1
4.1519 2.7896 -1.6191 0.5304 0 1
4.0925 2.9951 -1.6416 0.5232 0 1
4.0280 3.2042 -1.6661 0.5155 0 1
3.9577 3.4167 -1.6925 0.5075 0 1
3.8814 3.6330 -1.7209 0.4991 0 1
3.7987 3.8534 -1.7515 0.4904 0 1
3.7092 4.0781 -1.7844 0.4813 0 1
3.6126 4.3075 -1.8198 0.4720 0 1
3.5042 4.5367 -1.8556 0.4761 0 1
3.3890 4.7722 -1.8946 0.4643 0 1
3.2656 5.0135 -1.9368 0.4542 0 1
3.1320 5.2590 -1.9813 0.4407 0 1
2.9885 5.5102 -2.0291 0.4304 0 1
2.8344 5.7677 -2.0802 0.4198 0 1
2.6690 6.0320 -2.1351 0.4090 0 1
2.4912 6.3031 -2.1939 0.3984 0 1
2.3002 6.5819 -2.2569 0.3872 0 1
2.0909 6.8559 -2.3201 0.3989 0 1
1.8662 7.1345 -2.3871 0.3877 0 1
1.6266 7.4256 -2.4606 0.3559 0 1
1.3753 7.7575 -2.5502 0.3434 0 1
1.1030 8.1037 -2.6473 0.3308 0 1
0.8065 8.4560 -2.7496 0.3179 0 1
0.4842 8.8101 -2.8561 0.3085 0 1
0.1349 9.1660 -2.9673 0.3156 0 1
-0.2426 9.5230 -3.0836 0.3037 0 1
-0.6510 9.9016 -3.2120 0.2775 0 1
-1.0971 10.3270 -3.3616 0.2651 0 1
-1.5814 10.7520 -3.5178 0.2568 0 1
-2.1034 11.1648 -3.6776 0.2415 0 24
-2.6809 11.6384 -3.8659 0.2274 0 24
-3.3301 12.1943 -4.0918 0.2127 0 1
-4.0212 12.6943 -4.3103 0.2004 0 24
-4.8152 13.3170 -4.5838 0.1896 0 1
-5.6808 13.9331 -4.8705 0.1785 0 1
-6.6239 14.5453 -5.1735 0.1714 0 1
-7.6317 15.1168 -5.4814 0.1616 0 24
-8.8344 15.8793 -5.8820 0.1453 0 1
-10.1817 16.6857 -6.3272 0.1328 0 1
-11.7828 17.6714 -6.8751 0.1163 0 1
-13.6420 18.7788 -7.5133 0.1053 0 1
-15.6346 19.7973 -8.1657 0.1112 0 1
-17.3377 20.2269 -8.6235 0.0952 0 2
-20.0456 21.5683 -9.5313 0.0861 0 2
-23.2541 23.0868 -10.6069 0.0774 0 25
-22.4405 20.5562 -9.8508 0.7397 0 5
-22.4961 19.0027 -9.5321 0.7875 0 5
-22.5768 17.5665 -9.2596 0.8327 0 5
-25.2397 18.0586 -10.0458 0.5917 0 21
-27.9333 18.3353 -10.8157 0.8485 0 3
-27.1397 16.2931 -10.2465 0.6553 0 3
-29.8093 16.3036 -10.9980 0.3771 0 3
-37.4593 18.5731 -13.5340 0.9032 0 3
-30.7005 13.7141 -10.8841 0.4221 0 5
-44.3726 13.7043 -15.0326 0.2905 0 5
-34.8892 -27.3536 -14.3506 0.7409 0 9
-29.1668 -24.8224 -12.3974 0.5451 0 9
-26.7159 -24.6544 -11.7674 0.0698 0 2
-22.9355 -22.9391 -10.5001 0.0782 0 2
-19.7780 -21.4384 -9.4415 0.0869 0 2
-17.9282 -21.0726 -8.9557 0.9636 0 2
-15.0091 -19.1500 -7.8758 0.0886 0 1
-12.9816 -18.0090 -7.1861 0.1161 0 1
-11.2860 -17.0622 -6.6219 0.1238 0 1
-9.8012 -16.1961 -6.1278 0.1367 0 1
-8.4974 -15.4069 -5.6954 0.1471 0 1
-7.3380 -14.6693 -5.3093 0.1612 0 1
-6.3109 -13.9946 -4.9693 0.1723 0 1
-5.4039 -13.3949 -4.6754 0.1884 0 1
-4.5858 -12.8302 -4.4104 0.2020 0 1
-3.8325 -12.2555 -4.1565 0.2117 0 24
-3.1763 -11.8020 -3.9562 0.2242 0 1
-2.5664 -11.3324 -3.7611 0.2358 0 1
-2.0074 -10.8753 -3.5797 0.2421 0 1
-1.4953 -10.4339 -3.4119 0.2541 0 1
-1.0264 -10.0129 -3.2581 0.2663 0 1
-0.5941 -9.5750 -3.1053 0.2762 0 24
-0.2008 -9.2192 -2.9849 0.2907 0 1
0.1629 -8.8484 -2.8647 0.3029 0 1
0.4982 -8.4931 -2.7539 0.3151 0 1
0.8079 -8.1520 -2.6517 0.3272 0 1
1.0944 -7.8249 -2.5575 0.3443 0 1
1.3556 -7.4858 -2.4625 0.3562 0 24
1.6066 -7.2071 -2.3901 0.3685 0 1
1.8301 -6.8927 -2.3084 0.3798 0 24
2.0486 -6.6294 -2.2460 0.3921 0 1
2.2465 -6.3529 -2.1812 0.4028 0 1
2.4307 -6.0844 -2.1208 0.4142 0 1
2.6025 -5.8235 -2.0647 0.4255 0 1
2.7626 -5.5696 -2.0124 0.4363 0 1
2.9119 -5.3222 -1.9638 0.4471 0 1
3.0444 -5.0694 -1.9141 0.4425 0 1
3.1640 -4.8187 -1.8660 0.4539 0 1
3.2747 -4.5754 -1.8213 0.4651 0 1
3.3770 -4.3388 -1.7797 0.4759 0 1
3.4736 -4.1109 -1.7421 0.4790 0 1
3.5634 -3.8888 -1.7073 0.5086 0 1
3.6541 -3.6794 -1.6785 0.5174 0 1
3.7386 -3.4735 -1.6519 0.5257 0 1
3.8172 -3.2709 -1.6272 0.5337 0 1
3.8902 -3.0712 -1.6044 0.5413 0 1
3.9579 -2.8743 -1.5834 0.5485 0 1
4.0206 -2.6799 -1.5641 0.5552 0 1
4.0795 -2.4885 -1.5468 0.5615 0 1
4.1337 -2.2990 -1.5311 0.5673 0 1
4.1836 -2.1113 -1.5169 0.5727 0 1
4.2292 -1.9252 -1.5041 0.5775 0 1
4.2706 -1.7404 -1.4928 0.5819 0 1
4.3080 -1.5570 -1.4828 0.5858 0 1
4.3415 -1.3745 -1.4741 0.5893 0 1
4.3719 -1.1932 -1.4669 0.5953 0 1
4.3987 -1.0125 -1.4611 0.5977 0 1
4.4219 -0.8324 -1.4565 0.5996 0 1
4.4415 -0.6525 -1.4531 0.6010 0 1
3.9217 -0.4160 -1.2766 0.7721 25 14
3.9100 -0.2565 -1.2684 0.7771 25 14
3.8993 -0.0987 -1.2626 0.7807 25 14
3.8966 0.0580 -1.2614 0.7814 25 14
3.9023 0.2151 -1.2651 0.7791 25 14
3.9089 0.3734 -1.2710 0.7755 25 14
3.9164 0.5337 -1.2794 0.7704 25 14
3.9238 0.6963 -1.2900 0.7195 25 14
4.4819 0.9825 -1.4852 0.5873 0 1
4.4655 1.1688 -1.4942 0.5752 0 1
4.4436 1.3560 -1.5038 0.5715 0 1
4.4177 1.5446 -1.5149 0.5673 0 1
4.3877 1.7349 -1.5273 0.5627 0 1
4.3534 1.9271 -1.5411 0.5577 0 1
4.3147 2.1212 -1.5563 0.5522 0 1
4.2718 2.3177 -1.5732 0.5459 0 1
4.2241 2.5165 -1.5916 0.5396 0 1
4.1715 2.7181 -1.6117 0.5329 0 1
4.1138 2.9224 -1.6334 0.5258 0 1
4.0513 3.1303 -1.6572 0.5183 0 1
3.9831 3.3416 -1.6829 0.5103 0 1
3.9090 3.5565 -1.7107 0.5021 0 1
3.8286 3.7754 -1.7405 0.4935 0 1
3.7415 3.9986 -1.7726 0.4845 0 1
3.6474 4.2263 -1.8070 0.4753 0 1
3.5436 4.4560 -1.8429 0.4794 0 1
3.4303 4.6886 -1.8805 0.4677 0 1
3.3100 4.9280 -1.9216 0.4577 0 1
3.1801 5.1721 -1.9653 0.4443 0 1
3.0401 5.4212 -2.0119 0.4340 0 1
2.8898 5.6764 -2.0618 0.4235 0 1
2.7285 5.9383 -2.1154 0.4128 0 1
2.5552 6.2069 -2.1727 0.4022 0 1
2.3689 6.4830 -2.2342 0.3912 0 1
2.1664 6.7596 -2.2977 0.4028 0 1
1.9469 7.0357 -2.3630 0.3917 0 1
1.7121 7.3193 -2.4332 0.3804 0 1
1.4659 7.6393 -2.5179 0.3478 0 1
1.2012 7.9803 -2.6123 0.3352 0 1
0.9139 8.3340 -2.7138 0.3221 0 1
0.6005 8.6851 -2.8180 0.3126 0 1
0.2609 9.0435 -2.9285 0.3198 0 1
-0.1066 9.3960 -3.0416 0.3079 0 1
-0.5034 9.7618 -3.1640 0.2960 0 1
-0.9358 10.1750 -3.3075 0.2694 0 1
-1.4068 10.6040 -3.4625 0.2609 0 1
-1.9129 11.0059 -3.6159 0.2473 0 24
-2.4804 11.5091 -3.8110 0.2284 0 1
-3.0984 12.0111 -4.0152 0.2168 0 1
-3.7660 12.4993 -4.2256 0.2042 0 24
-4.5318 13.1095 -4.4899 0.1936 0 1
-5.3660 13.7119 -4.7662 0.1824 0 1
-6.2815 14.3268 -5.0637 0.1752 0 1
-7.2877 14.9570 -5.3856 0.1672 0 1
-8.4019 15.6173 -5.7404 0.1554 0 1
-9.6885 16.3941 -6.1641 0.1363 0 1
-11.1042 17.1745 -6.6201 0.1184 0 24
-12.9556 18.3745 -7.2775 0.1087 0 1
-14.9402 19.4777 -7.9460 0.1143 0 1
-16.7544 20.1148 -8.4739 0.6791 0 2
-19.0422 21.0783 -9.1949 0.0893 0 2
-22.0612 22.5303 -10.2070 0.0804 0 2
-22.4055 21.1140 -9.9654 0.7916 0 5
-22.4589 19.5216 -9.6323 0.7742 0 5
-22.5431 18.0574 -9.3495 0.7783 0 5
-22.6434 16.6898 -9.1054 0.7678 0 5
-27.9073 18.8877 -10.9079 0.7200 0 3
-26.3064 16.3028 -10.0179 0.9000 0 3
-31.6995 17.9239 -11.7877 0.8799 0 3
-32.7237 16.8052 -11.9076 0.6072 0 3
-29.5130 13.6871 -10.5305 0.5429 0 5
-32.9056 13.6822 -11.5354 0.4308 0 5
-42.2868 13.7176 -14.3902 0.4068 0 5
-25.2486 -17.2244 -10.2690 0.5285 0 20
-33.6550 -24.9981 -14.0855 0.8265 0 20
-29.1263 -23.5075 -12.5755 0.0675 0 2
-25.2443 -22.1067 -11.2741 0.0753 0 2
-21.9567 -20.8445 -10.1720 0.0835 0 2
-17.2773 -19.2670 -8.6949 0.0696 0 1
-14.7554 -17.8483 -7.7806 0.0927 0 1
-12.9030 -16.9509 -7.1574 0.1223 0 1
-11.3086 -16.1648 -6.6282 0.1301 0 1
-9.8941 -15.4273 -6.1577 0.1407 0 1
-8.6409 -14.7452 -5.7421 0.1509 0 1
-7.5289 -14.1191 -5.3761 0.1647 0 1
-6.5274 -13.5231 -5.0451 0.1814 0 1
-5.6372 -12.9873 -4.7568 0.1924 0 1
-4.8297 -12.4768 -4.4951 0.2050 0 1
-4.0967 -11.9939 -4.2583 0.2156 0 1
-3.4276 -11.5300 -4.0414 0.2256 0 1
-2.8183 -11.0942 -3.8458 0.2385 0 1
-2.2582 -10.6689 -3.6640 0.2447 0 1
-1.7435 -10.2556 -3.4951 0.2565 0 1
-1.2715 -9.8632 -3.3413 0.2689 0 1
-0.8366 -9.4798 -3.1974 0.2807 0 1
-0.4362 -9.1116 -3.0648 0.2928 0 1
-0.0667 -8.7229 -2.9308 0.3039 0 24
0.2740 -8.4182 -2.8299 0.3171 0 1
0.5894 -8.0909 -2.7256 0.3292 0 1
0.8818 -7.7771 -2.6297 0.3463 0 1
1.1536 -7.4762 -2.5416 0.3584 0 1
1.4058 -7.1825 -2.4590 0.3704 0 1
1.6404 -6.8980 -2.3822 0.3824 0 1
1.8531 -6.6017 -2.3038 0.3937 0 24
2.0621 -6.3535 -2.2443 0.4048 0 1
2.2516 -6.0920 -2.1821 0.4163 0 1
2.4283 -5.8374 -2.1242 0.4277 0 1
2.5932 -5.5894 -2.0702 0.4386 0 1
2.7472 -5.3475 -2.0199 0.4495 0 1
2.8888 -5.1072 -1.9714 0.4443 0 1
3.0134 -4.8608 -1.9215 0.4559 0 1
3.1289 -4.6215 -1.8751 0.4671 0 1
3.2358 -4.3886 -1.8320 0.4781 0 1
3.3347 -4.1618 -1.7918 0.4889 0 1
3.4274 -3.9419 -1.7550 0.4917 0 1
3.5200 -3.7341 -1.7241 0.5209 0 1
3.6078 -3.5316 -1.6963 0.5295 0 1
3.6897 -3.3323 -1.6704 0.5377 0 1
3.7659 -3.1358 -1.6465 0.5455 0 1
3.8367 -2.9419 -1.6244 0.5529 0 1
3.9023 -2.7505 -1.6041 0.5599 0 1
3.9632 -2.5616 -1.5855 0.5665 0 1
4.0202 -2.3750 -1.5688 0.5725 0 1
4.0726 -2.1902 -1.5537 0.5782 0 1
4.1208 -2.0070 -1.5400 0.5834 0 1
4.1647 -1.8252 -1.5277 0.5880 0 1
4.2045 -1.6446 -1.5169 0.5922 0 1
4.2404 -1.4651 -1.5073 0.5960 0 1
4.2730 -1.2867 -1.4993 0.6023 0 1
4.3020 -1.1090 -1.4927 0.6050 0 1
4.3274 -0.9319 -1.4873 0.6072 0 1
4.3491 -0.7552 -1.4831 0.6089 0 1
4.3673 -0.5787 -1.4802 0.6101 0 1
4.3819 -0.4023 -1.4784 0.6108 0 1
4.3931 -0.2259 -1.4779 0.6110 0 1
4.4020 -0.0492 -1.4791 0.6099 0 1
4.4097 0.1279 -1.4822 0.6086 0 1
4.4139 0.3059 -1.4866 0.6069 0 1
4.4146 0.4848 -1.4922 0.6046 0 1
4.4118 0.6648 -1.4990 0.6018 0 1
4.4053 0.8461 -1.5071 0.5986 0 1
4.3931 1.0283 -1.5159 0.5863 0 1
4.3736 1.2110 -1.5247 0.5829 0 1
4.3502 1.3949 -1.5349 0.5790 0 1
4.3227 1.5803 -1.5464 0.5747 0 1
4.2911 1.7673 -1.5592 0.5700 0 1
4.2552 1.9560 -1.5735 0.5648 0 1
4.2150 2.1466 -1.5892 0.5589 0 1
4.1703 2.3395 -1.6066 0.5528 0 1
4.1210 2.5347 -1.6255 0.5464 0 1
4.0667 2.7323 -1.6461 0.5396 0 1
4.0074 2.9329 -1.6685 0.5324 0 1
3.9430 3.1366 -1.6928 0.5247 0 1
3.8730 3.3435 -1.7191 0.5167 0 1
3.7969 3.5539 -1.7473 0.5083 0 1
3.7146 3.7680 -1.7777 0.4996 0 1
3.6256 3.9861 -1.8104 0.4906 0 1
3.5295 4.2084 -1.8454 0.4813 0 1
3.4244 4.4333 -1.8821 0.4855 0 1
3.3100 4.6609 -1.9207 0.4736 0 1
3.1871 4.8931 -1.9620 0.4603 0 1
3.0549 5.1297 -2.0060 0.4502 0 1
2.9132 5.3715 -2.0531 0.4399 0 1
2.7613 5.6189 -2.1035 0.4293 0 1
2.5984 5.8724 -2.1575 0.4186 0 1
2.4236 6.1320 -2.2153 0.4080 0 1
2.2360 6.3982 -2.2772 0.3969 0 1
2.0343 6.6701 -2.3430 0.4085 0 1
1.8142 6.9358 -2.4087 0.3974 0 1
1.5790 7.2082 -2.4792 0.3861 0 1
1.3325 7.5163 -2.5647 0.3531 0 1
1.0674 7.8424 -2.6592 0.3406 0 1
0.7793 8.1706 -2.7576 0.3278 0 1
0.4674 8.5037 -2.8614 0.3159 0 1
0.1302 8.8438 -2.9717 0.3066 0 1
-0.2340 9.1870 -3.0877 0.3137 0 1
-0.6267 9.5310 -3.2092 0.3018 0 1
-1.0532 9.9134 -3.3495 0.2752 0 1
-1.5157 10.3055 -3.4997 0.2669 0 1
-2.0112 10.6751 -3.6497 0.2536 0 24
-2.5649 11.1346 -3.8390 0.2366 0 1
-3.1649 11.5894 -4.0364 0.2230 0 1
-3.8104 12.0289 -4.2394 0.2107 0 24
-4.5486 12.5795 -4.4943 0.1990 0 1
-5.3465 13.1131 -4.7579 0.1880 0 1
-6.2190 13.6562 -5.0416 0.1808 0 1
-7.1736 14.2094 -5.3480 0.1715 0 1
-8.2231 14.7805 -5.6828 0.1623 0 1
-9.4017 15.4074 -6.0643 0.1458 0 1
-10.7535 16.1276 -6.5126 0.1261 0 1
-12.3344 16.9789 -7.0510 0.1165 0 1
-14.1716 17.9447 -7.6825 0.1049 0 1
-16.4027 19.1361 -8.4681 0.1174 0 2
-17.7598 19.1089 -8.7650 0.0968 0 2
-20.3407 20.1944 -9.6302 0.0881 0 2
-23.3491 21.3885 -10.6387 0.0798 0 25
-22.3983 18.9201 -9.8510 0.7707 0 5
-22.5075 17.5125 -9.5815 0.8261 0 5
-25.1490 17.9937 -10.3896 0.7454 0 21
-27.8115 18.2553 -11.1773 0.8491 0 3
-28.0558 16.8431 -10.9945 0.8931 0 3
-30.4721 16.6661 -11.6693 0.3676 0 3
-37.3058 18.4970 -13.9902 0.9036 0 3
-30.6380 13.6862 -11.2742 0.3480 0 5
-44.3503 13.6974 -15.5954 0.2948 0 5
-45.3706 8.2089 -15.4912 0.6781 0 6
-34.9088 -25.1718 -14.4599 0.4443 0 9
-30.6594 -24.0374 -13.0895 0.0648 0 2
-26.5346 -22.5823 -11.7067 0.0725 0 2
-23.0528 -21.2739 -10.5394 0.0805 0 2
-20.0873 -20.0905 -9.5453 0.0889 0 2
-18.5014 -20.0546 -9.1674 0.1144 0 2
-15.5877 -18.3216 -8.0821 0.0893 0 1
-13.5108 -17.2383 -7.3587 0.1174 0 1
-11.8492 -16.4380 -6.8082 0.1269 0 1
-10.3718 -15.6802 -6.3165 0.1366 0 1
-9.0653 -14.9800 -5.8828 0.1473 0 1
-7.9076 -14.3376 -5.5012 0.1626 0 1
-6.8660 -13.7256 -5.1564 0.1717 0 1
-5.9401 -13.1725 -4.8549 0.1885 0 1
-5.1041 -12.6519 -4.5837 0.2010 0 1
-4.3467 -12.1611 -4.3391 0.2116 0 1
-3.6560 -11.6911 -4.1156 0.2216 0 1
-3.0263 -11.2448 -3.9125 0.2344 0 1
-2.4501 -10.8187 -3.7269 0.2405 0 1
-1.9124 -10.3610 -3.5399 0.2537 0 24
-1.4330 -9.9995 -3.3940 0.2684 0 1
-0.9817 -9.5765 -3.2344 0.2751 0 24
-0.5733 -9.2393 -3.1102 0.2885 0 1
-0.1935 -8.8808 -2.9845 0.3007 0 1
0.1571 -8.5362 -2.8685 0.3128 0 1
0.4813 -8.2046 -2.7614 0.3250 0 1
0.7814 -7.8853 -2.6623 0.3421 0 1
1.0566 -7.5548 -2.5630 0.3541 0 24
1.3192 -7.2847 -2.4873 0.3662 0 1
1.5598 -6.9970 -2.4086 0.3782 0 1
1.7782 -6.6974 -2.3282 0.3896 0 24
1.9859 -6.4266 -2.2600 0.3990 0 24
2.1865 -6.1831 -2.2035 0.4123 0 1
2.3675 -5.9261 -2.1441 0.4237 0 1
2.5365 -5.6759 -2.0888 0.4347 0 1
2.6943 -5.4319 -2.0372 0.4457 0 1
2.8416 -5.1937 -1.9891 0.4565 0 1
2.9707 -4.9466 -1.9386 0.4518 0 1
3.0893 -4.7049 -1.8911 0.4632 0 1
3.1991 -4.4698 -1.8468 0.4743 0 1
3.3008 -4.2409 -1.8056 0.4851 0 1
3.3953 -4.0182 -1.7675 0.4883 0 1
3.4876 -3.8061 -1.7345 0.5178 0 1
3.5777 -3.6025 -1.7058 0.5265 0 1
3.6616 -3.4020 -1.6793 0.5348 0 1
3.7397 -3.2045 -1.6547 0.5428 0 1
3.8124 -3.0098 -1.6320 0.5503 0 1
3.8798 -2.8176 -1.6110 0.5575 0 1
3.9422 -2.6277 -1.5918 0.5642 0 1
4.0007 -2.4404 -1.5745 0.5705 0 1
4.0547 -2.2550 -1.5588 0.5762 0 1
4.1043 -2.0713 -1.5446 0.5816 0 1
4.1497 -1.8890 -1.5319 0.5864 0 1
4.1910 -1.7080 -1.5205 0.5908 0 1
4.2282 -1.5281 -1.5105 0.5947 0 1
4.2619 -1.3493 -1.5020 0.6013 0 1
4.2922 -1.1714 -1.4949 0.6041 0 1
4.3189 -0.9942 -1.4890 0.6065 0 1
4.3419 -0.8173 -1.4844 0.6084 0 1
4.3613 -0.6407 -1.4811 0.6098 0 1
4.3772 -0.4643 -1.4789 0.6106 0 1
4.3896 -0.2879 -1.4780 0.6110 0 1
4.3985 -0.1114 -1.4783 0.6103 0 1
4.4074 0.0656 -1.4810 0.6091 0 1
4.4129 0.2432 -1.4849 0.6075 0 1
4.4148 0.4218 -1.4900 0.6054 0 1
4.4132 0.6014 -1.4965 0.6028 0 1
4.4080 0.7822 -1.5041 0.5998 0 1
4.3990 0.9643 -1.5131 0.5874 0 1
4.3809 1.1466 -1.5215 0.5841 0 1
4.3588 1.3301 -1.5312 0.5804 0 1
4.3328 1.5150 -1.5422 0.5763 0 1
4.3027 1.7014 -1.5545 0.5717 0 1
4.2683 1.8894 -1.5683 0.5667 0 1
4.2296 2.0794 -1.5835 0.5612 0 1
4.1866 2.2714 -1.6003 0.5550 0 1
4.1389 2.4658 -1.6187 0.5487 0 1
4.0863 2.6625 -1.6387 0.5420 0 1
4.0287 2.8620 -1.6604 0.5350 0 1
3.9663 3.0646 -1.6840 0.5274 0 1
3.8983 3.2704 -1.7096 0.5196 0 1
3.8244 3.4796 -1.7372 0.5113 0 1
3.7443 3.6923 -1.7668 0.5027 0 1
3.6577 3.9090 -1.7986 0.4938 0 1
3.5641 4.1297 -1.8328 0.4846 0 1
3.4632 4.3550 -1.8695 0.4751 0 1
3.3509 4.5801 -1.9067 0.4771 0 1
3.2315 4.8111 -1.9472 0.4638 0 1
3.1025 5.0459 -1.9902 0.4538 0 1
2.9642 5.2858 -2.0361 0.4435 0 1
2.8159 5.5313 -2.0854 0.4330 0 1
2.6570 5.7826 -2.1381 0.4224 0 1
2.4865 6.0400 -2.1946 0.4118 0 1
2.3035 6.3038 -2.2549 0.4008 0 1
2.1072 6.5747 -2.3197 0.3896 0 1
1.8932 6.8417 -2.3851 0.4013 0 1
1.6635 7.1116 -2.4539 0.3901 0 1
1.4209 7.4046 -2.5332 0.3575 0 1
1.1630 7.7262 -2.6251 0.3450 0 1
0.8834 8.0562 -2.7230 0.3320 0 1
0.5798 8.3852 -2.8240 0.3201 0 1
0.2517 8.7228 -2.9319 0.3108 0 1
-0.1028 9.0688 -3.0472 0.3179 0 1
-0.4852 9.4087 -3.1654 0.3060 0 1
-0.8989 9.7738 -3.2977 0.2795 0 1
-1.3493 10.1702 -3.4470 0.2710 0 1
-1.8353 10.5598 -3.6011 0.2594 0 1
-2.3664 10.9800 -3.7738 0.2407 0 1
-2.9371 11.3858 -3.9506 0.2300 0 24
-3.5851 11.8989 -4.1753 0.2153 0 1
-4.2860 12.3985 -4.4075 0.2030 0 1
-5.0570 12.9223 -4.6623 0.1919 0 1
-5.9047 13.4674 -4.9406 0.1846 0 1
-6.8275 14.0125 -5.2371 0.1752 0 1
-7.8121 14.5210 -5.5400 0.1656 0 24
-8.9666 15.1725 -5.9213 0.1558 0 1
-10.2508 15.8545 -6.3432 0.1394 0 1
-11.7550 16.6717 -6.8537 0.1198 0 1
-13.4953 17.5940 -7.4500 0.1082 0 1
-15.4148 18.5065 -8.0923 0.1145 0 1
-16.9390 18.7502 -8.4898 0.1000 0 2
-19.3889 19.8012 -9.3111 0.0912 0 2
-17.4273 16.4228 -8.0455 0.7737 0 6
-22.3790 19.4522 -9.9624 0.7663 0 5
-22.4583 17.9895 -9.6679 0.8231 0 5
-24.9983 18.4255 -10.4339 0.3637 0 21
-27.7838 18.8041 -11.2718 0.8420 0 3
-28.6863 17.7777 -11.3388 0.5052 0 3
-31.2304 17.6587 -12.0541 0.3060 0 3
-32.7958 16.8423 -12.3869 0.7949 0 3
-29.5518 13.7051 -10.9447 0.5490 0 5
-32.8904 13.6759 -11.9678 0.2886 0 5
-26.3462 8.5465 -9.3059 0.8687 0 6
-37.2179 -23.2554 -15.2882 0.0574 0 2
-25.2498 -17.2252 -10.6479 0.5265 0 20
-23.9332 -17.7770 -10.3857 0.8293 15 6
-25.0049 -20.1811 -11.1938 0.0783 0 2
-21.9942 -19.2606 -10.1845 0.0861 0 2
-19.7877 -18.7854 -9.5048 0.9890 0 2
-17.4813 -17.9852 -8.7373 0.0692 0 1
-15.1487 -16.8933 -7.9045 0.1128 0 1
-13.3784 -16.1826 -7.3144 0.1237 0 1
-11.8207 -15.5289 -6.7986 0.1312 0 1
-10.4180 -14.8918 -6.3312 0.1409 0 1
-9.1763 -14.3081 -5.9214 0.1561 0 1
-8.0636 -13.7601 -5.5559 0.1663 0 1
-7.0524 -13.2255 -5.2214 0.1752 0 1
-6.1497 -12.7406 -4.9283 0.1918 0 1
-5.3287 -12.2765 -4.6621 0.2034 0 1
-4.5799 -11.8315 -4.4197 0.2145 0 1
-3.8798 -11.3589 -4.1815 0.2254 0 24
-3.2667 -10.9887 -3.9936 0.2372 0 1
-2.6915 -10.5950 -3.8081 0.2432 0 1
-2.1599 -10.2044 -3.6336 0.2548 0 1
-1.6718 -9.8337 -3.4748 0.2707 0 1
-1.2210 -9.4713 -3.3267 0.2789 0 1
-0.8047 -9.1185 -3.1889 0.2907 0 1
-0.4203 -8.7782 -3.0615 0.3028 0 1
-0.0644 -8.4163 -2.9320 0.3186 0 24
0.2647 -8.1330 -2.8347 0.3270 0 1
0.5703 -7.8278 -2.7341 0.3441 0 1
0.8516 -7.5100 -2.6330 0.3562 0 24
1.1189 -7.2512 -2.5559 0.3680 0 1
1.3649 -6.9734 -2.4754 0.3801 0 1
1.5941 -6.7033 -2.4003 0.3920 0 1
1.8021 -6.4201 -2.3229 0.4028 0 24
2.0001 -6.1624 -2.2570 0.4117 0 24
2.1931 -5.9337 -2.2037 0.4258 0 1
2.3669 -5.6897 -2.1467 0.4369 0 1
2.5292 -5.4515 -2.0935 0.4480 0 1
2.6810 -5.2186 -2.0438 0.4589 0 1
2.8188 -4.9835 -1.9945 0.4536 0 1
2.9423 -4.7460 -1.9453 0.4651 0 1
3.0567 -4.5149 -1.8994 0.4764 0 1
3.1628 -4.2897 -1.8566 0.4873 0 1
3.2611 -4.0700 -1.8168 0.4980 0 1
3.3535 -3.8568 -1.7804 0.5291 0 1
3.4466 -3.6563 -1.7504 0.5300 0 1
3.5338 -3.4592 -1.7227 0.5385 0 1
3.6151 -3.2649 -1.6969 0.5467 0 1
3.6908 -3.0733 -1.6731 0.5545 0 1
3.7612 -2.8841 -1.6511 0.5618 0 1
3.8265 -2.6971 -1.6308 0.5688 0 1
3.8871 -2.5123 -1.6123 0.5754 0 1
3.9437 -2.3298 -1.5957 0.5814 0 1
3.9959 -2.1490 -1.5806 0.5871 0 1
4.0438 -1.9695 -1.5669 0.5922 0 1
4.0875 -1.7914 -1.5547 0.5969 0 1
4.1272 -1.6144 -1.5438 0.6011 0 1
4.1632 -1.4384 -1.5344 0.6079 0 1
4.1957 -1.2634 -1.5265 0.6111 0 1
4.2246 -1.0891 -1.5198 0.6138 0 1
4.2498 -0.9152 -1.5144 0.6160 0 1
4.2713 -0.7417 -1.5102 0.6177 0 1
4.2893 -0.5684 -1.5073 0.6189 0 1
4.3038 -0.3951 -1.5056 0.6196 0 1
4.3148 -0.2218 -1.5051 0.6198 0 1
4.3234 -0.0484 -1.5062 0.6187 0 1
4.3308 0.1256 -1.5093 0.6174 0 1
4.3347 0.3004 -1.5137 0.6156 0 1
4.3351 0.4761 -1.5193 0.6133 0 1
4.3319 0.6528 -1.5261 0.6106 0 1
4.3252 0.8307 -1.5343 0.6074 0 1
4.3110 1.0091 -1.5424 0.5952 0 1
4.2915 1.1882 -1.5512 0.5918 0 1
4.2679 1.3686 -1.5614 0.5880 0 1
4.2404 1.5502 -1.5728 0.5837 0 1
4.2087 1.7334 -1.5856 0.5790 0 1
4.1728 1.9181 -1.5999 0.5738 0 1
4.1325 2.1046 -1.6156 0.5682 0 1
4.0879 2.2932 -1.6328 0.5619 0 1
4.0385 2.4840 -1.6517 0.5554 0 1
3.9843 2.6770 -1.6722 0.5486 0 1
3.9252 2.8727 -1.6945 0.5415 0 1
3.8610 3.0713 -1.7187 0.5338 0 1
3.7912 3.2729 -1.7448 0.5258 0 1
3.7154 3.4777 -1.7728 0.5175 0 1
3.6335 3.6858 -1.8030 0.5089 0 1
3.5450 3.8975 -1.8354 0.4999 0 1
3.4496 4.1131 -1.8701 0.4906 0 1
3.3468 4.3329 -1.9073 0.4810 0 1
3.2337 4.5535 -1.9455 0.4794 0 1
3.1117 4.7773 -1.9861 0.4696 0 1
2.9811 5.0056 -2.0296 0.4596 0 1
2.8412 5.2386 -2.0760 0.4493 0 1
2.6914 5.4766 -2.1258 0.4388 0 1
2.5309 5.7200 -2.1790 0.4281 0 1
2.3591 5.9687 -2.2358 0.4175 0 1
2.1749 6.2233 -2.2965 0.4065 0 1
1.9776 6.4842 -2.3616 0.3953 0 1
1.7647 6.7465 -2.4293 0.4070 0 1
1.5347 7.0058 -2.4984 0.3957 0 1
1.2920 7.2879 -2.5784 0.3628 0 1
1.0338 7.5956 -2.6704 0.3503 0 1
0.7537 7.9019 -2.7652 0.3376 0 1
0.4514 8.2139 -2.8657 0.3258 0 1
0.1256 8.5334 -2.9730 0.3166 0 1
-0.2257 8.8612 -3.0879 0.3048 0 1
-0.6043 9.1915 -3.2089 0.3118 0 1
-1.0123 9.5289 -3.3382 0.2852 0 1
-1.4548 9.8916 -3.4829 0.2770 0 1
-1.9314 10.2520 -3.6342 0.2655 0 1
-2.4495 10.6337 -3.8014 0.2468 0 1
-3.0045 11.0019 -3.9730 0.2361 0 24
-3.6194 11.4260 -4.1753 0.2216 0 24
-4.3073 11.9122 -4.4127 0.2094 0 1
-5.0290 12.3345 -4.6403 0.1985 0 24
-5.8400 12.8241 -4.9088 0.1865 0 24
-6.7327 13.3362 -5.2043 0.1809 0 1
-7.6676 13.7820 -5.4941 0.1733 0 24
-8.7494 14.3384 -5.8514 0.1628 0 1
-9.9236 14.8830 -6.2315 0.1465 0 1
-11.2621 15.5027 -6.6752 0.1284 0 1
-12.8146 16.2265 -7.2029 0.1159 0 1
-14.6113 17.0462 -7.8212 0.1150 0 1
-16.7043 17.9732 -8.5478 0.7192 0 2
-18.0610 17.9311 -8.8659 0.0989 0 2
-20.4917 18.7710 -9.6808 0.0906 0 2
-23.2768 19.6622 -10.6145 0.0826 0 25
-22.4138 17.4396 -9.8932 0.8031 0 5
-25.0993 17.9581 -10.7511 0.5333 0 21
-27.6899 18.1755 -11.5385 0.8496 0 3
-29.6005 17.7704 -12.0272 0.4919 0 3
-32.4545 17.7504 -12.8864 0.4591 0 3
-35.7532 17.7272 -13.9019 0.4256 0 3
-30.6652 13.6984 -11.7000 0.3721 0 5
-41.9221 16.7406 -15.7254 0.8152 0 3
-45.1906 8.1764 -15.9982 0.9980 0 6
-39.0560 -23.6433 -15.9044 0.0551 0 2
-34.0851 -22.5536 -14.2379 0.0616 0 2
-29.8301 -21.5098 -12.8115 0.0684 0 2
-26.1697 -20.5174 -11.5843 0.0757 0 2
-23.0048 -19.5782 -10.5233 0.0833 0 2
-20.2548 -18.6919 -9.6014 0.0913 0 2
-18.5491 -18.5520 -9.1391 0.0660 0 1
-15.8702 -17.2026 -8.1534 0.0908 0 1
-13.9690 -16.4190 -7.5097 0.1206 0 1
-12.3519 -15.7597 -6.9754 0.1297 0 1
-10.8933 -15.1119 -6.4896 0.1375 0 1
-9.5958 -14.5070 -6.0592 0.1525 0 1
-8.4419 -13.9499 -5.6801 0.1627 0 1
-7.3970 -13.4119 -5.3357 0.1714 0 1
-6.4573 -12.9086 -5.0281 0.1880 0 1
-5.6086 -12.4374 -4.7529 0.1989 0 1
-4.8354 -11.9859 -4.5024 0.2106 0 1
-4.1130 -11.5075 -4.2571 0.2214 0 24
-3.4811 -11.1315 -4.0630 0.2318 0 1
-2.8889 -10.7341 -3.8724 0.2447 0 1
-2.3417 -10.3400 -3.6933 0.2507 0 1
-1.8388 -9.9622 -3.5291 0.2666 0 1
-1.3699 -9.5588 -3.3639 0.2742 0 24
-0.9473 -9.2412 -3.2362 0.2864 0 1
-0.5520 -8.8964 -3.1051 0.2985 0 1
-0.1866 -8.5640 -2.9841 0.3106 0 1
0.1517 -8.2432 -2.8721 0.3227 0 1
0.4653 -7.9332 -2.7684 0.3348 0 1
0.7568 -7.6371 -2.6735 0.3519 0 1
1.0280 -7.3501 -2.5854 0.3638 0 1
1.2804 -7.0702 -2.5031 0.3759 0 1
1.5153 -6.7974 -2.4261 0.3878 0 1
1.7344 -6.5322 -2.3544 0.3996 0 1
1.9322 -6.2526 -2.2798 0.4082 0 24
2.1291 -6.0210 -2.2248 0.4218 0 1
2.3071 -5.7749 -2.1663 0.4332 0 1
2.4734 -5.5346 -2.1118 0.4441 0 1
2.6288 -5.2999 -2.0609 0.4551 0 1
2.7732 -5.0686 -2.0127 0.4495 0 1
2.8999 -4.8288 -1.9622 0.4611 0 1
3.0175 -4.5955 -1.9151 0.4724 0 1
3.1264 -4.3682 -1.8713 0.4835 0 1
3.2274 -4.1466 -1.8305 0.4943 0 1
3.3210 -3.9303 -1.7925 0.5048 0 1
3.4145 -3.7263 -1.7606 0.5269 0 1
3.5038 -3.5281 -1.7322 0.5355 0 1
3.5872 -3.3329 -1.7058 0.5438 0 1
3.6648 -3.1404 -1.6813 0.5518 0 1
3.7371 -2.9503 -1.6587 0.5593 0 1
3.8041 -2.7626 -1.6378 0.5664 0 1
3.8662 -2.5770 -1.6186 0.5731 0 1
3.9243 -2.3938 -1.6014 0.5794 0 1
3.9781 -2.2124 -1.5857 0.5852 0 1
4.0275 -2.0325 -1.5715 0.5905 0 1
4.0726 -1.8539 -1.5588 0.5953 0 1
4.1137 -1.6765 -1.5475 0.5996 0 1
4.1508 -1.5001 -1.5375 0.6067 0 1
4.1847 -1.3249 -1.5291 0.6100 0 1
4.2149 -1.1503 -1.5220 0.6129 0 1
4.2413 -0.9763 -1.5162 0.6153 0 1
4.2642 -0.8027 -1.5116 0.6171 0 1
4.2834 -0.6293 -1.5082 0.6185 0 1
4.2991 -0.4561 -1.5061 0.6194 0 1
4.3113 -0.2828 -1.5051 0.6198 0 1
4.3200 -0.1094 -1.5054 0.6196 0 1
4.3286 0.0644 -1.5081 0.6179 0 1
4.3338 0.2389 -1.5120 0.6163 0 1
4.3354 0.4142 -1.5172 0.6142 0 1
4.3335 0.5905 -1.5236 0.6116 0 1
4.3280 0.7680 -1.5312 0.6085 0 1
4.3170 0.9464 -1.5396 0.5963 0 1
4.2988 1.1251 -1.5480 0.5930 0 1
4.2767 1.3050 -1.5576 0.5894 0 1
4.2505 1.4862 -1.5686 0.5852 0 1
4.2203 1.6688 -1.5810 0.5807 0 1
4.1859 1.8530 -1.5947 0.5757 0 1
4.1472 2.0388 -1.6099 0.5702 0 1
4.1041 2.2267 -1.6266 0.5640 0 1
4.0564 2.4166 -1.6449 0.5577 0 1
4.0039 2.6089 -1.6648 0.5511 0 1
3.9465 2.8035 -1.6864 0.5440 0 1
3.8842 3.0012 -1.7099 0.5366 0 1
3.8164 3.2017 -1.7354 0.5287 0 1
3.7427 3.4053 -1.7627 0.5205 0 1
3.6630 3.6122 -1.7921 0.5119 0 1
3.5769 3.8227 -1.8237 0.5031 0 1
3.4840 4.0369 -1.8576 0.4939 0 1
3.3838 4.2551 -1.8939 0.4844 0 1
3.2745 4.4757 -1.9319 0.4864 0 1
3.1556 4.6981 -1.9715 0.4731 0 1
3.0280 4.9248 -2.0140 0.4632 0 1
2.8915 5.1561 -2.0593 0.4530 0 1
2.7452 5.3923 -2.1079 0.4425 0 1
2.5886 5.6338 -2.1598 0.4319 0 1
2.4209 5.8807 -2.2154 0.4214 0 1
2.2411 6.1331 -2.2747 0.4104 0 1
2.0485 6.3917 -2.3382 0.3993 0 1
1.8420 6.6567 -2.4061 0.4109 0 1
1.6172 6.9140 -2.4736 0.3997 0 1
1.3783 7.1823 -2.5477 0.3672 0 1
1.1269 7.4861 -2.6373 0.3547 0 1
0.8547 7.7945 -2.7316 0.3418 0 1
0.5603 8.1030 -2.8295 0.3300 0 1
0.2430 8.4206 -2.9346 0.3207 0 1
-0.0992 8.7447 -3.0465 0.3089 0 1
-0.4682 9.0780 -3.1666 0.3159 0 1
-0.8649 9.4040 -3.2898 0.3041 0 1
-1.2959 9.7677 -3.4325 0.2811 0 1
-1.7596 10.1239 -3.5797 0.2695 0 1
-2.2617 10.4941 -3.7397 0.2509 0 1
-2.8012 10.8589 -3.9067 0.2402 0 24
-3.4092 11.3152 -4.1168 0.2279 0 1
-4.0489 11.7125 -4.3171 0.2143 0 24
-4.7620 12.1685 -4.5521 0.2028 0 24
-5.5459 12.6489 -4.8113 0.1908 0 24
-6.4155 13.1671 -5.1024 0.1846 0 1
-7.3455 13.6536 -5.4010 0.1743 0 1
-8.3665 14.1570 -5.7286 0.1663 0 1
-9.4910 14.6794 -6.0895 0.1500 0 1
-10.7681 15.2720 -6.5096 0.1393 0 1
-12.2420 15.9601 -7.0071 0.1224 0 1
-13.9555 16.7546 -7.5961 0.1099 0 1
-15.8208 17.5125 -8.2215 0.1094 0 1
-17.2800 17.6475 -8.6041 0.1019 0 2
-17.3543 16.3540 -8.3070 0.9608 0 6
-22.2532 19.3429 -10.2714 0.0854 0 2
-22.3794 17.9262 -9.9888 0.8153 0 5
-24.8042 18.2824 -10.7343 0.7987 0 21
-27.6612 18.7212 -11.6356 0.8425 0 3
-28.6849 17.7769 -11.7560 0.5033 0 3
-31.4056 17.7578 -12.5683 0.4707 0 3
-34.5356 17.7357 -13.5246 0.4375 0 3
-29.5875 13.7217 -11.3616 0.4559 0 5
-32.9084 13.6834 -12.4155 0.3972 0 5
-26.2435 8.5132 -9.6112 0.9995 0 6
-31.1510 -19.4646 -13.2543 0.0683 0 2
-25.1883 -17.1833 -11.0023 0.5131 0 20
-23.7495 -17.6405 -10.6750 0.8276 15 6
-21.8842 -17.6624 -10.1476 0.0891 0 2
-20.5396 -17.9867 -9.8515 0.1129 0 2
-17.5993 -16.7078 -8.7564 0.0893 0 1
-15.5142 -15.9614 -8.0318 0.1145 0 1
-13.7944 -15.3830 -7.4556 0.1254 0 1
-12.2685 -14.8401 -6.9478 0.1343 0 1
-10.8932 -14.3105 -6.4896 0.1420 0 1
-9.6624 -13.8117 -6.0823 0.1558 0 1
-8.5626 -13.3513 -5.7233 0.1666 0 1
-7.5533 -12.8893 -5.3907 0.1750 0 1
-6.6419 -12.4556 -5.0935 0.1915 0 1
-5.7904 -11.9963 -4.8066 0.2031 0 24
-5.0321 -11.5933 -4.5604 0.2136 0 24
-4.3526 -11.2445 -4.3508 0.2234 0 1
-3.7098 -10.8612 -4.1414 0.2346 0 1
-3.1195 -10.4935 -3.9502 0.2475 0 1
-2.5733 -10.1299 -3.7713 0.2574 0 1
-2.0703 -9.7813 -3.6076 0.2691 0 1
-1.6051 -9.4414 -3.4557 0.2770 0 1
-1.1740 -9.1066 -3.3132 0.2890 0 1
-0.7750 -8.7813 -3.1809 0.3007 0 1
-0.4053 -8.4660 -3.0583 0.3127 0 1
-0.0622 -8.1325 -2.9346 0.3310 0 24
0.2560 -7.8654 -2.8396 0.3418 0 1
0.5506 -7.5578 -2.7344 0.3541 0 24
0.8284 -7.3061 -2.6532 0.3657 0 1
1.0859 -7.0377 -2.5695 0.3776 0 1
1.3260 -6.7747 -2.4909 0.3897 0 1
1.5500 -6.5179 -2.4175 0.4015 0 1
1.7592 -6.2674 -2.3489 0.4122 0 1
1.9475 -6.0002 -2.2763 0.4213 0 24
2.1372 -5.7824 -2.2244 0.4353 0 1
2.3080 -5.5482 -2.1683 0.4463 0 1
2.4678 -5.3191 -2.1158 0.4573 0 1
2.6175 -5.0949 -2.0668 0.4682 0 1
2.7517 -4.8648 -2.0167 0.4629 0 1
2.8739 -4.6357 -1.9681 0.4743 0 1
2.9873 -4.4124 -1.9227 0.4855 0 1
3.0926 -4.1944 -1.8804 0.4964 0 1
3.1902 -3.9815 -1.8410 0.5071 0 1
3.2848 -3.7778 -1.8064 0.5381 0 1
3.3757 -3.5810 -1.7758 0.5474 0 1
3.4622 -3.3891 -1.7482 0.5475 0 1
3.5430 -3.1997 -1.7226 0.5556 0 1
3.6182 -3.0128 -1.6989 0.5634 0 1
3.6881 -2.8280 -1.6770 0.5707 0 1
3.7530 -2.6453 -1.6568 0.5777 0 1
3.8132 -2.4646 -1.6383 0.5843 0 1
3.8696 -2.2860 -1.6217 0.5903 0 1
3.9215 -2.1089 -1.6067 0.5959 0 1
3.9691 -1.9332 -1.5930 0.6010 0 1
4.0126 -1.7586 -1.5808 0.6056 0 1
4.0521 -1.5850 -1.5700 0.6130 0 1
4.0883 -1.4126 -1.5608 0.6166 0 1
4.1207 -1.2408 -1.5528 0.6198 0 1
4.1493 -1.0697 -1.5462 0.6225 0 1
4.1743 -0.8990 -1.5408 0.6246 0 1
4.1957 -0.7286 -1.5366 0.6263 0 1
4.2135 -0.5583 -1.5337 0.6275 0 1
4.2278 -0.3882 -1.5320 0.6282 0 1
4.2386 -0.2179 -1.5315 0.6284 0 1
4.2470 -0.0475 -1.5326 0.6273 0 1
4.2541 0.1234 -1.5357 0.6260 0 1
4.2577 0.2951 -1.5400 0.6243 0 1
4.2578 0.4676 -1.5456 0.6220 0 1
4.2544 0.6411 -1.5525 0.6193 0 1
4.2473 0.8157 -1.5606 0.6069 0 1
4.2314 0.9905 -1.5681 0.6040 0 1
4.2118 1.1662 -1.5769 0.6006 0 1
4.1882 1.3430 -1.5870 0.5968 0 1
4.1606 1.5210 -1.5985 0.5925 0 1
4.1289 1.7005 -1.6113 0.5878 0 1
4.0929 1.8814 -1.6254 0.5827 0 1
4.0527 2.0640 -1.6411 0.5772 0 1
4.0080 2.2484 -1.6582 0.5708 0 1
3.9587 2.4349 -1.6770 0.5644 0 1
3.9046 2.6235 -1.6974 0.5576 0 1
3.8457 2.8145 -1.7196 0.5505 0 1
3.7817 3.0083 -1.7437 0.5429 0 1
3.7121 3.2047 -1.7696 0.5349 0 1
3.6368 3.4040 -1.7974 0.5266 0 1
3.5553 3.6065 -1.8274 0.5180 0 1
3.4674 3.8122 -1.8595 0.5091 0 1
3.3726 4.0214 -1.8938 0.4998 0 1
3.2707 4.2344 -1.9307 0.4940 0 1
3.1599 4.4495 -1.9692 0.4887 0 1
3.0392 4.6660 -2.0093 0.4790 0 1
2.9101 4.8865 -2.0522 0.4690 0 1
2.7721 5.1112 -2.0981 0.4587 0 1
2.6244 5.3403 -2.1471 0.4482 0 1
2.4664 5.5741 -2.1994 0.4376 0 1
2.2974 5.8128 -2.2553 0.4271 0 1
2.1165 6.0564 -2.3150 0.4161 0 1
1.9231 6.3055 -2.3787 0.4049 0 1
1.7160 6.5605 -2.4469 0.3936 0 1
1.4924 6.8131 -2.5167 0.4053 0 1
1.2537 7.0714 -2.5914 0.3724 0 1
1.0020 7.3621 -2.6810 0.3600 0 1
0.7295 7.6484 -2.7724 0.3475 0 1
0.4364 7.9412 -2.8698 0.3357 0 1
0.1213 8.2418 -2.9743 0.3265 0 1
-0.2177 8.5471 -3.0851 0.3148 0 1
-0.5826 8.8614 -3.2044 0.3030 0 1
-0.9751 9.1785 -3.3306 0.3099 0 1
-1.3982 9.5069 -3.4673 0.2871 0 1
-1.8532 9.8366 -3.6118 0.2756 0 1
-2.3439 10.1754 -3.7678 0.2642 0 1
-2.8785 10.5405 -3.9427 0.2455 0 1
-3.4594 10.9209 -4.1336 0.2342 0 1
-4.0891 11.3087 -4.3391 0.2208 0 1
-4.7610 11.6772 -4.5503 0.2096 0 24
-5.5295 12.1422 -4.8143 0.1980 0 1
-6.3395 12.5573 -5.0758 0.1915 0 1
-7.2192 12.9760 -5.3581 0.1813 0 1
-8.1832 13.4105 -5.6688 0.1681 0 1
-9.2360 13.8518 -6.0074 0.1644 0 1
-10.3966 14.3113 -6.3828 0.1466 0 1
-11.7076 14.8248 -6.8163 0.1298 0 1
-13.2312 15.4361 -7.3360 0.1169 0 1
-14.9960 16.1351 -7.9484 0.1034 0 1
-16.7231 16.6027 -8.5031 0.7458 0 2
-18.2420 16.7102 -8.9266 0.1013 0 2
-20.5043 17.3202 -9.6850 0.0934 0 2
-23.0510 17.9354 -10.5388 0.0858 0 25
-25.0464 17.9203 -11.1127 0.3819 0 21
-27.5684 18.0957 -11.8992 0.8500 0 3
-29.5990 17.7695 -12.4572 0.4900 0 3
-32.4527 17.7494 -13.3471 0.4573 0 3
-35.7511 17.7261 -14.3989 0.4239 0 3
-30.5969 13.6678 -12.0919 0.3901 0 5
-36.0231 14.3850 -13.9965 0.1983 0 21
-45.0272 8.1468 -16.5112 0.9023 0 6
-32.8321 -4.7104 -11.9683 0.9916 0 20
-41.1880 -20.6114 -16.6192 0.0544 0 2
-36.5701 -20.1769 -15.0710 0.0600 0 2
-32.4761 -19.6600 -13.6985 0.0660 0 2
-28.8520 -19.0909 -12.4836 0.0725 0 2
-24.2045 -17.4533 -10.7676 0.5479 15 6
-22.8043 -17.8789 -10.4561 0.0865 0 2
-20.9842 -17.8586 -9.9428 0.9273 0 2
-18.5283 -17.0985 -9.0975 0.0684 0 1
-16.1726 -16.1752 -8.2535 0.1114 0 1
-14.3721 -15.5787 -7.6481 0.1222 0 1
-12.7850 -15.0274 -7.1194 0.1313 0 1
-11.3605 -14.4948 -6.6453 0.1387 0 1
-10.0747 -13.9764 -6.2169 0.1482 0 1
-8.9389 -13.5138 -5.8465 0.1620 0 1
-7.8708 -13.0062 -5.4856 0.1751 0 24
-6.9522 -12.6053 -5.1944 0.1878 0 1
-6.0952 -12.1849 -4.9161 0.1993 0 1
-5.3109 -11.7771 -4.6617 0.2098 0 1
-4.5916 -11.3814 -4.4284 0.2209 0 1
-3.9297 -10.9945 -4.2130 0.2307 0 1
-3.3210 -10.6196 -4.0149 0.2435 0 1
-2.7603 -10.2565 -3.8326 0.2493 0 1
-2.2426 -9.9026 -3.6637 0.2649 0 1
-1.7573 -9.5206 -3.4934 0.2729 0 24
-1.3218 -9.2231 -3.3620 0.2848 0 1
-0.9118 -8.8946 -3.2263 0.2964 0 1
-0.5321 -8.5757 -3.1004 0.3085 0 1
-0.1801 -8.2669 -2.9837 0.3205 0 1
0.1467 -7.9676 -2.8755 0.3326 0 1
0.4505 -7.6806 -2.7762 0.3496 0 1
0.7336 -7.4022 -2.6841 0.3615 0 1
0.9974 -7.1313 -2.5983 0.3735 0 1
1.2435 -6.8666 -2.5180 0.3855 0 1
1.4729 -6.6074 -2.4427 0.3974 0 1
1.6873 -6.3549 -2.3725 0.4091 0 1
1.8809 -6.0866 -2.2987 0.4174 0 24
2.0743 -5.8660 -2.2451 0.4313 0 1
2.2492 -5.6300 -2.1876 0.4423 0 1
2.4128 -5.3991 -2.1339 0.4535 0 1
2.5660 -5.1732 -2.0837 0.4644 0 1
2.7065 -4.9468 -2.0347 0.4588 0 1
2.8319 -4.7156 -1.9848 0.4703 0 1
2.9484 -4.4902 -1.9383 0.4816 0 1
3.0564 -4.2705 -1.8949 0.4926 0 1
3.1567 -4.0558 -1.8545 0.5034 0 1
3.2513 -3.8478 -1.8177 0.5347 0 1
3.3444 -3.6498 -1.7863 0.5441 0 1
3.4325 -3.4563 -1.7577 0.5445 0 1
3.5152 -3.2660 -1.7314 0.5528 0 1
3.5923 -3.0782 -1.7070 0.5607 0 1
3.6641 -2.8927 -1.6845 0.5682 0 1
3.7307 -2.7093 -1.6637 0.5753 0 1
3.7925 -2.5279 -1.6446 0.5820 0 1
3.8503 -2.3486 -1.6274 0.5882 0 1
3.9037 -2.1710 -1.6118 0.5940 0 1
3.9528 -1.9948 -1.5977 0.5992 0 1
3.9978 -1.8198 -1.5850 0.6040 0 1
4.0386 -1.6459 -1.5736 0.6084 0 1
4.0760 -1.4731 -1.5639 0.6154 0 1
4.1097 -1.3011 -1.5555 0.6187 0 1
4.1397 -1.1298 -1.5484 0.6216 0 1
4.1660 -0.9590 -1.5425 0.6239 0 1
4.1886 -0.7884 -1.5379 0.6258 0 1
4.2077 -0.6182 -1.5346 0.6272 0 1
4.2232 -0.4480 -1.5324 0.6280 0 1
4.2352 -0.2778 -1.5315 0.6284 0 1
4.2438 -0.1075 -1.5318 0.6283 0 1
4.2520 0.0632 -1.5345 0.6266 0 1
4.2569 0.2346 -1.5384 0.6250 0 1
4.2582 0.4068 -1.5435 0.6229 0 1
4.2560 0.5799 -1.5499 0.6203 0 1
4.2502 0.7542 -1.5576 0.6172 0 1
4.2374 0.9289 -1.5653 0.6051 0 1
4.2191 1.1043 -1.5737 0.6019 0 1
4.1969 1.2807 -1.5833 0.5982 0 1
4.1707 1.4583 -1.5943 0.5941 0 1
4.1405 1.6372 -1.6066 0.5895 0 1
4.1061 1.8176 -1.6203 0.5846 0 1
4.0673 1.9996 -1.6354 0.5792 0 1
4.0242 2.1833 -1.6520 0.5730 0 1
3.9766 2.3691 -1.6702 0.5667 0 1
3.9242 2.5569 -1.6900 0.5601 0 1
3.8669 2.7470 -1.7116 0.5531 0 1
3.8048 2.9398 -1.7350 0.5456 0 1
3.7372 3.1353 -1.7602 0.5378 0 1
3.6640 3.3336 -1.7874 0.5296 0 1
3.5847 3.5349 -1.8166 0.5211 0 1
3.4991 3.7395 -1.8479 0.5123 0 1
3.4068 3.9474 -1.8815 0.5031 0 1
3.3074 4.1590 -1.9174 0.4937 0 1
3.2003 4.3743 -1.9557 0.4921 0 1
3.0826 4.5895 -1.9949 0.4824 0 1
2.9565 4.8085 -2.0368 0.4725 0 1
2.8217 5.0317 -2.0816 0.4623 0 1
2.6774 5.2592 -2.1295 0.4519 0 1
2.5232 5.4913 -2.1806 0.4413 0 1
2.3582 5.7284 -2.2353 0.4305 0 1
2.1815 5.9701 -2.2935 0.4200 0 1
1.9926 6.2172 -2.3558 0.4089 0 1
1.7904 6.4701 -2.4224 0.3976 0 1
1.5732 6.7256 -2.4923 0.4093 0 1
1.3387 6.9761 -2.5631 0.3980 0 1
1.0926 7.2588 -2.6488 0.3644 0 1
0.8276 7.5474 -2.7397 0.3516 0 1
0.5419 7.8373 -2.8347 0.3398 0 1
0.2347 8.1355 -2.9368 0.3280 0 1
-0.0957 8.4388 -3.0452 0.3189 0 1
-0.4512 8.7498 -3.1615 0.3071 0 1
-0.8342 9.0701 -3.2866 0.3141 0 1
-1.2462 9.3931 -3.4191 0.2912 0 1
-1.6893 9.7196 -3.5598 0.2796 0 1
-2.1671 10.0552 -3.7116 0.2682 0 1
-2.6853 10.4097 -3.8792 0.2496 0 1
-3.2497 10.7857 -4.0647 0.2382 0 1
-3.8481 11.1318 -4.2500 0.2249 0 24
-4.5286 11.5721 -4.4840 0.2126 0 1
-5.2575 11.9914 -4.7245 0.2018 0 1
-6.0478 12.4124 -4.9822 0.1950 0 1
-6.9011 12.8276 -5.2560 0.1848 0 1
-7.8092 13.2141 -5.5385 0.1739 0 24
-8.8564 13.6979 -5.8858 0.1678 0 1
-9.9693 14.1391 -6.2426 0.1575 0 1
-11.2290 14.6394 -6.6574 0.1405 0 1
-12.6673 15.2079 -7.1418 0.1201 0 1
-14.3343 15.8670 -7.7158 0.1116 0 1
-16.4437 16.7934 -8.4809 0.1250 0 2
-17.3442 16.3445 -8.5995 0.6847 0 6
-19.6784 17.1048 -9.4081 0.0962 0 2
-22.1206 17.7189 -10.2269 0.0885 0 2
-24.6064 18.1366 -11.0301 0.4096 0 21
-27.5388 18.6383 -11.9989 0.8429 0 3
-28.6834 17.7760 -12.1764 0.5013 0 3
-31.4039 17.7568 -13.0177 0.4689 0 3
-28.2512 14.5084 -11.4598 0.4392 0 21
-29.5825 13.7194 -11.7665 0.3720 0 5
-32.9032 13.6812 -12.8581 0.3723 0 5
-38.3568 14.1697 -14.7547 0.1477 0 21
-26.1565 8.4850 -9.9224 0.8269 0 6
-26.7547 -16.7175 -11.7805 0.0791 0 2
-24.3556 -16.6152 -11.0094 0.6382 0 2
-22.8147 -16.9461 -10.6122 0.1057 0 2
-20.0593 -16.1896 -9.6256 0.0732 0 1
-17.7619 -15.5543 -8.8161 0.0946 0 1
-15.7913 -14.9915 -8.1307 0.1165 0 1
-14.1355 -14.5429 -7.5731 0.1263 0 1
-12.6579 -14.1156 -7.0798 0.1351 0 1
-11.3120 -13.6831 -6.6294 0.1434 0 1
-10.0953 -13.2623 -6.2238 0.1526 0 1
-9.0118 -12.8816 -5.8704 0.1663 0 1
-8.0196 -12.5046 -5.5471 0.1760 0 1
-7.1108 -12.1341 -5.2517 0.1923 0 1
-6.2754 -11.7684 -4.9802 0.2028 0 1
-5.5067 -11.4085 -4.7304 0.2131 0 1
-4.7987 -11.0555 -4.5004 0.2240 0 1
-4.1443 -10.7063 -4.2869 0.2336 0 1
-3.5404 -10.3652 -4.0900 0.2449 0 1
-2.9822 -10.0318 -3.9080 0.2560 0 1
-2.4658 -9.7065 -3.7396 0.2675 0 1
-1.9789 -9.3491 -3.5684 0.2758 0 24
-1.5426 -9.0740 -3.4370 0.2871 0 1
-1.1301 -8.7664 -3.3006 0.2990 0 1
-0.7471 -8.4656 -3.1734 0.3106 0 1
-0.3913 -8.1730 -3.0554 0.3226 0 1
-0.0602 -7.8662 -2.9374 0.3408 0 24
0.2471 -7.5929 -2.8368 0.3521 0 24
0.5354 -7.3491 -2.7515 0.3636 0 1
0.8038 -7.0889 -2.6640 0.3754 0 1
1.0546 -6.8348 -2.5824 0.3873 0 1
1.2889 -6.5855 -2.5058 0.3993 0 1
1.5079 -6.3411 -2.4339 0.4111 0 1
1.7127 -6.1017 -2.3665 0.4217 0 1
1.9042 -5.8671 -2.3033 0.4332 0 1
2.0836 -5.6374 -2.2442 0.4444 0 1
2.2515 -5.4125 -2.1890 0.4556 0 1
2.4089 -5.1921 -2.1373 0.4666 0 1
2.5564 -4.9759 -2.0889 0.4774 0 1
2.6872 -4.7507 -2.0381 0.4721 0 1
2.8081 -4.5295 -1.9900 0.4835 0 1
2.9204 -4.3136 -1.9452 0.4946 0 1
3.0248 -4.1025 -1.9033 0.5055 0 1
3.1218 -3.8961 -1.8642 0.5161 0 1
3.2183 -3.7013 -1.8315 0.5470 0 1
3.3085 -3.5097 -1.8011 0.5562 0 1
3.3929 -3.3212 -1.7729 0.5564 0 1
3.4731 -3.1366 -1.7475 0.5645 0 1
3.5478 -2.9541 -1.7239 0.5722 0 1
3.6172 -2.7737 -1.7021 0.5795 0 1
3.6817 -2.5951 -1.6820 0.5865 0 1
3.7416 -2.4183 -1.6636 0.5930 0 1
3.7976 -2.2435 -1.6470 0.5990 0 1
3.8492 -2.0701 -1.6320 0.6046 0 1
3.8966 -1.8978 -1.6184 0.6097 0 1
3.9398 -1.7266 -1.6062 0.6143 0 1
3.9795 -1.5566 -1.5956 0.6217 0 1
4.0155 -1.3874 -1.5864 0.6253 0 1
4.0477 -1.2189 -1.5785 0.6284 0 1
4.0761 -1.0508 -1.5718 0.6311 0 1
4.1009 -0.8832 -1.5664 0.6332 0 1
4.1222 -0.7158 -1.5623 0.6349 0 1
4.1398 -0.5486 -1.5594 0.6361 0 1
4.1539 -0.3814 -1.5577 0.6368 0 1
4.1646 -0.2141 -1.5571 0.6370 0 1
4.1727 -0.0467 -1.5582 0.6359 0 1
4.1795 0.1212 -1.5613 0.6346 0 1
4.1828 0.2899 -1.5657 0.6329 0 1
4.1827 0.4593 -1.5712 0.6306 0 1
4.1789 0.6297 -1.5781 0.6279 0 1
4.1700 0.8009 -1.5856 0.6157 0 1
4.1541 0.9724 -1.5931 0.6128 0 1
4.1344 1.1448 -1.6019 0.6094 0 1
4.1107 1.3182 -1.6120 0.6056 0 1
4.0831 1.4927 -1.6234 0.6013 0 1
4.0514 1.6686 -1.6361 0.5966 0 1
4.0155 1.8458 -1.6502 0.5915 0 1
3.9752 2.0245 -1.6658 0.5860 0 1
3.9306 2.2050 -1.6829 0.5797 0 1
3.8814 2.3873 -1.7016 0.5733 0 1
3.8274 2.5716 -1.7218 0.5666 0 1
3.7687 2.7582 -1.7439 0.5594 0 1
3.7050 2.9473 -1.7678 0.5519 0 1
3.6357 3.1388 -1.7936 0.5440 0 1
3.5608 3.3329 -1.8212 0.5357 0 1
3.4798 3.5299 -1.8509 0.5271 0 1
3.3925 3.7298 -1.8827 0.5182 0 1
3.2985 3.9330 -1.9167 0.5090 0 1
3.1982 4.1405 -1.9536 0.5032 0 1
3.0888 4.3494 -1.9920 0.4974 0 1
2.9695 4.5590 -2.0317 0.4882 0 1
2.8420 4.7721 -2.0740 0.4782 0 1
2.7057 4.9889 -2.1192 0.4680 0 1
2.5601 5.2096 -2.1675 0.4576 0 1
2.4046 5.4344 -2.2191 0.4470 0 1
2.2385 5.6636 -2.2740 0.4365 0 1
2.0608 5.8969 -2.3326 0.4256 0 1
1.8711 6.1351 -2.3951 0.4145 0 1
1.6683 6.3782 -2.4618 0.4032 0 1
1.4516 6.6266 -2.5331 0.3919 0 1
1.2178 6.8694 -2.6051 0.4036 0 1
0.9719 7.1405 -2.6909 0.3690 0 1
0.7066 7.4089 -2.7791 0.3572 0 1
0.4223 7.6840 -2.8736 0.3455 0 1
0.1172 7.9661 -2.9750 0.3337 0 1
-0.2102 8.2523 -3.0825 0.3247 0 1
-0.5618 8.5443 -3.1974 0.3130 0 1
-0.9396 8.8437 -3.3209 0.3014 0 1
-1.3455 9.1482 -3.4528 0.2971 0 1
-1.7805 9.4506 -3.5910 0.2857 0 1
-2.2481 9.7596 -3.7398 0.2743 0 1
-2.7525 10.0793 -3.9015 0.2557 0 1
-3.3011 10.4209 -4.0819 0.2444 0 1
-3.8783 10.7259 -4.2590 0.2317 0 24
-4.5343 11.1211 -4.4846 0.2201 0 1
-5.2326 11.4901 -4.7145 0.2094 0 1
-5.9713 11.8280 -4.9476 0.1973 0 24
-6.7968 12.2167 -5.2203 0.1919 0 1
-7.6481 12.5337 -5.4828 0.1775 0 24
-8.6059 12.9068 -5.7926 0.1721 0 24
-9.6804 13.3255 -6.1503 0.1655 0 1
-10.8239 13.7058 -6.5214 0.1534 0 1
-12.0897 14.1043 -6.9367 0.1390 0 1
-13.5627 14.5930 -7.4392 0.1187 0 1
-15.7134 15.6004 -8.2682 0.1024 0 1
-16.7823 15.3732 -8.4985 0.8218 0 2
-18.3062 15.4635 -8.9481 0.1042 0 2
-20.3873 15.8629 -9.6458 0.0967 0 2
-22.6880 16.2329 -10.4171 0.0895 0 25
-25.2289 16.5601 -11.2689 0.0827 0 25
-24.9203 14.9607 -10.8536 0.7223 0 21
-31.1073 17.0135 -13.2396 0.0704 0 25
-32.1927 15.9618 -13.4176 0.8534 0 3
-30.6751 13.7028 -12.5453 0.4062 0 5
-42.0584 16.7950 -16.9110 0.0551 0 25
-44.8818 8.1205 -17.0315 0.4015 0 6
-32.7081 -4.6926 -12.3386 0.9913 0 20
-41.6869 -16.8252 -16.7864 0.0555 0 2
-37.7800 -17.0440 -15.4766 0.0602 0 2
-34.1516 -17.0902 -14.2602 0.0654 0 2
-30.8130 -17.0005 -13.1410 0.0710 0 2
-27.7614 -16.8059 -12.1180 0.0769 0 2
-25.0165 -16.5530 -11.2013 0.4614 0 2
-23.3188 -16.8146 -10.7351 0.7342 0 2
-20.9934 -16.4591 -9.9612 0.0717 0 1
-18.4801 -15.7275 -9.0614 0.0920 0 1
-16.4175 -15.1506 -8.3420 0.1136 0 1
-14.6948 -14.6971 -7.7607 0.1221 0 1
-13.1611 -14.2660 -7.2478 0.1320 0 1
-11.7711 -13.8356 -6.7832 0.1402 0 1
-10.5099 -13.4095 -6.3619 0.1493 0 1
-9.3816 -13.0148 -5.9909 0.1630 0 1
-8.3588 -12.6368 -5.6576 0.1726 0 1
-7.4218 -12.2642 -5.3529 0.1887 0 1
-6.5611 -11.8962 -5.0730 0.1991 0 1
-5.7492 -11.4932 -4.7987 0.2094 0 24
-5.0411 -11.1788 -4.5791 0.2202 0 1
-4.3684 -10.8282 -4.3600 0.2297 0 1
-3.7473 -10.4842 -4.1575 0.2409 0 1
-3.1736 -10.1482 -3.9704 0.2520 0 1
-2.6428 -9.8199 -3.7973 0.2634 0 1
-2.1515 -9.5001 -3.6373 0.2750 0 1
-1.6952 -9.1843 -3.4874 0.2829 0 1
-1.2717 -8.8736 -3.3473 0.2948 0 1
-0.8786 -8.5705 -3.2171 0.3064 0 1
-0.5134 -8.2750 -3.0959 0.3184 0 1
-0.1740 -7.9875 -2.9833 0.3304 0 1
0.1419 -7.7110 -2.8799 0.3474 0 1
0.4365 -7.4421 -2.7837 0.3594 0 1
0.7115 -7.1796 -2.6941 0.3712 0 1
0.9683 -6.9235 -2.6105 0.3831 0 1
1.2084 -6.6728 -2.5322 0.3951 0 1
1.4326 -6.4264 -2.4586 0.4069 0 1
1.6423 -6.1855 -2.3898 0.4176 0 1
1.8318 -5.9278 -2.3168 0.4274 0 24
2.0133 -5.6935 -2.2550 0.4373 0 24
2.1937 -5.4910 -2.2080 0.4517 0 1
2.3547 -5.2691 -2.1551 0.4628 0 1
2.5056 -5.0515 -2.1056 0.4736 0 1
2.6425 -4.8298 -2.0558 0.4680 0 1
2.7666 -4.6067 -2.0066 0.4795 0 1
2.8819 -4.3890 -1.9606 0.4907 0 1
2.9890 -4.1762 -1.9177 0.5017 0 1
3.0885 -3.9682 -1.8777 0.5124 0 1
3.1851 -3.7694 -1.8427 0.5436 0 1
3.2775 -3.5768 -1.8115 0.5530 0 1
3.3637 -3.3871 -1.7825 0.5620 0 1
3.4455 -3.2013 -1.7562 0.5617 0 1
3.5221 -3.0181 -1.7320 0.5695 0 1
3.5934 -2.8369 -1.7096 0.5770 0 1
3.6596 -2.6577 -1.6889 0.5841 0 1
3.7210 -2.4802 -1.6698 0.5907 0 1
3.7784 -2.3048 -1.6527 0.5970 0 1
3.8315 -2.1309 -1.6371 0.6027 0 1
3.8804 -1.9583 -1.6230 0.6080 0 1
3.9251 -1.7867 -1.6104 0.6127 0 1
3.9660 -1.6163 -1.5992 0.6203 0 1
4.0033 -1.4468 -1.5895 0.6241 0 1
4.0368 -1.2781 -1.5811 0.6274 0 1
4.0666 -1.1098 -1.5740 0.6302 0 1
4.0926 -0.9421 -1.5682 0.6325 0 1
4.1151 -0.7746 -1.5636 0.6344 0 1
4.1340 -0.6074 -1.5603 0.6358 0 1
4.1494 -0.4402 -1.5581 0.6366 0 1
4.1612 -0.2730 -1.5572 0.6370 0 1
4.1696 -0.1056 -1.5575 0.6369 0 1
4.1775 0.0621 -1.5601 0.6351 0 1
4.1821 0.2305 -1.5640 0.6336 0 1
4.1831 0.3996 -1.5691 0.6315 0 1
4.1807 0.5697 -1.5755 0.6289 0 1
4.1746 0.7408 -1.5832 0.6259 0 1
4.1601 0.9120 -1.5903 0.6138 0 1
4.1417 1.0840 -1.5987 0.6106 0 1
4.1195 1.2571 -1.6083 0.6070 0 1
4.0933 1.4312 -1.6192 0.6029 0 1
4.0630 1.6066 -1.6315 0.5983 0 1
4.0286 1.7833 -1.6451 0.5934 0 1
3.9899 1.9615 -1.6602 0.5880 0 1
3.9467 2.1413 -1.6767 0.5818 0 1
3.8992 2.3230 -1.6948 0.5756 0 1
3.8470 2.5066 -1.7145 0.5690 0 1
3.7899 2.6923 -1.7359 0.5620 0 1
3.7280 2.8805 -1.7592 0.5546 0 1
3.6607 3.0711 -1.7843 0.5468 0 1
3.5878 3.2643 -1.8113 0.5386 0 1
3.5090 3.4603 -1.8402 0.5302 0 1
3.4239 3.6592 -1.8713 0.5214 0 1
3.3323 3.8612 -1.9045 0.5123 0 1
3.2342 4.0670 -1.9403 0.5066 0 1
3.1288 4.2764 -1.9786 0.5008 0 1
3.0124 4.4849 -2.0174 0.4917 0 1
2.8878 4.6967 -2.0588 0.4818 0 1
2.7547 4.9122 -2.1030 0.4717 0 1
2.6124 5.1315 -2.1502 0.4613 0 1
2.4605 5.3549 -2.2006 0.4507 0 1
2.2981 5.5825 -2.2543 0.4400 0 1
2.1246 5.8144 -2.3116 0.4295 0 1
1.9288 6.0181 -2.3598 0.4184 0 24
1.7412 6.2921 -2.4378 0.4072 0 1
1.5294 6.5387 -2.5075 0.3959 0 1
1.3019 6.7845 -2.5796 0.4076 0 1
1.0602 7.0432 -2.6596 0.3740 0 1
0.8020 7.3137 -2.7474 0.3614 0 1
0.5246 7.5864 -2.8396 0.3496 0 1
0.2270 7.8661 -2.9385 0.3379 0 1
-0.0924 8.1513 -3.0440 0.3288 0 1
-0.4353 8.4408 -3.1561 0.3171 0 1
-0.8036 8.7376 -3.2765 0.3054 0 1
-1.1996 9.0419 -3.4059 0.2938 0 1
-1.6239 9.3435 -3.5413 0.2897 0 1
-2.0798 9.6502 -3.6862 0.2783 0 1
-2.5702 9.9635 -3.8423 0.2670 0 1
-3.1033 10.2998 -4.0168 0.2484 0 1
-3.6793 10.6435 -4.2052 0.2389 0 1
-4.3021 10.9934 -4.4082 0.2240 0 1
-4.9631 11.3199 -4.6154 0.2129 0 24
-5.6977 11.6938 -4.8573 0.2014 0 24
-6.5046 12.0906 -5.1267 0.1954 0 1
-7.3578 12.4503 -5.4002 0.1854 0 1
-8.2897 12.8214 -5.7012 0.1722 0 1
-9.3061 13.1984 -6.0303 0.1688 0 1
-10.4062 13.5667 -6.3846 0.1542 0 1
-11.6292 13.9617 -6.7851 0.1421 0 1
-13.0224 14.4148 -7.2539 0.1218 0 1
-14.6129 14.9236 -7.7993 0.1132 0 1
-16.6685 15.7077 -8.5524 0.1286 0 2
-17.6229 15.3181 -8.7191 0.1069 0 2
-19.6316 15.7252 -9.3925 0.0993 0 2
-21.8526 16.1069 -10.1371 0.0920 0 2
-24.3068 16.4509 -10.9598 0.0851 0 25
