ply
format ascii 1.0
element vertex 1374
property float32 x
property float32 y
property float32 z
property float32 CosAngle
property uint32 ObjIdx
property uint32 ObjTag
end_header
-29.5406 36.5051 -6.4142 0.6288 0 3
-29.6158 33.7290 -6.1309 0.6578 0 3
-31.0974 32.6679 -6.1605 0.7223 0 3
-28.8023 27.9178 -5.4788 0.9786 0 3
-18.4981 16.5405 -3.3894 0.6884 0 22
-20.0544 16.5303 -3.5498 0.7650 0 22
-29.8729 22.6694 -5.1221 0.7873 0 3
-29.6569 20.6806 -4.9384 0.7688 0 3
-29.7905 19.0407 -4.8292 0.4982 0 3
-28.2359 16.4869 -4.4660 0.8626 0 3
-30.1599 16.0202 -4.6646 0.7610 0 3
-36.9025 17.7376 -5.5925 0.4352 0 3
-40.9902 17.7104 -6.0990 0.3991 0 3
-45.8946 17.6753 -6.7175 0.3623 0 3
-35.2339 -33.3871 -6.6300 0.6766 0 20
-32.5502 -33.4286 -6.3729 0.8153 0 20
-32.0566 -35.6864 -6.5522 0.7920 0 20
-9.0263 -42.5512 -5.9413 0.0597 0 1
-6.0460 -35.4746 -4.9153 0.0750 0 1
-3.9534 -30.5739 -4.2108 0.0788 0 1
-2.3533 -26.5596 -3.6419 0.0913 0 1
-1.1374 -23.6017 -3.2274 0.1076 0 1
-0.1704 -21.4632 -2.9317 0.1116 0 1
0.6303 -19.5192 -2.6675 0.1227 0 1
5.5023 -4.4103 -1.0429 0.3899 0 1
5.5566 -4.0981 -1.0211 0.3982 0 1
5.6129 -3.8009 -1.0025 0.4078 0 1
5.6715 -3.5166 -0.9869 0.4093 0 1
5.7250 -3.2386 -0.9728 0.4153 0 1
5.7740 -2.9664 -0.9600 0.4208 0 1
5.8188 -2.6994 -0.9487 0.4258 0 1
5.8595 -2.4371 -0.9385 0.4304 0 1
5.8976 -2.1791 -0.9299 0.4356 0 1
5.9328 -1.9248 -0.9224 0.4391 0 1
5.9644 -1.6732 -0.9161 0.4421 0 1
4.0923 -0.9724 -0.6221 0.3426 25 14
3.8356 -0.7498 -0.5780 0.8508 25 14
3.8261 -0.5894 -0.5725 0.9655 25 14
3.8175 -0.4318 -0.5682 0.9729 25 14
3.8087 -0.2763 -0.5648 0.9788 25 14
3.7997 -0.1223 -0.5622 0.9832 25 14
3.7953 0.0305 -0.5613 0.9799 25 14
3.8050 0.1837 -0.5634 0.9812 25 14
3.8152 0.3384 -0.5665 0.9759 25 14
3.8253 0.4950 -0.5705 0.9690 25 14
3.8353 0.6540 -0.5754 0.9607 25 14
3.9511 0.8385 -0.5974 0.3427 25 14
6.1424 1.5641 -0.9374 0.4401 0 1
6.1361 1.8281 -0.9469 0.4357 0 1
6.1264 2.0969 -0.9577 0.4310 0 1
6.1129 2.3709 -0.9697 0.4256 0 1
6.0941 2.6502 -0.9828 0.4157 0 1
6.0651 2.9330 -0.9964 0.4100 0 1
6.0319 3.2224 -1.0114 0.4039 0 1
5.9943 3.5192 -1.0280 0.3974 0 1
5.9519 3.8241 -1.0463 0.3905 0 1
5.9044 4.1382 -1.0663 0.3831 0 1
5.8411 4.4545 -1.0864 0.3909 0 1
5.7708 4.7798 -1.1082 0.3829 0 1
5.6956 5.1173 -1.1324 0.3747 0 1
5.6135 5.4671 -1.1589 0.3662 0 1
5.5239 5.8306 -1.1878 0.3572 0 1
5.4257 6.2090 -1.2195 0.3442 0 1
5.3076 6.5909 -1.2515 0.3693 0 1
5.1648 6.9697 -1.2829 0.3603 0 1
5.0112 7.3639 -1.3173 0.3508 0 1
4.8457 7.7755 -1.3550 0.3411 0 1
4.6739 8.2185 -1.3983 0.3221 0 1
4.4967 8.7037 -1.4489 0.3165 0 1
4.2988 9.2111 -1.5033 0.3051 0 1
4.1284 9.8626 -1.5813 0.2754 0 2
3.8184 10.2620 -1.6193 0.8940 0 2
3.4692 10.6108 -1.6510 0.8767 0 2
3.2003 11.3088 -1.7382 0.2243 0 2
2.9012 12.0875 -1.8384 0.2121 0 2
2.5621 12.9485 -1.9521 0.1997 0 2
2.1103 13.4944 -2.0200 0.8499 0 20
1.7297 14.9869 -2.2312 0.1748 0 2
1.2166 16.2592 -2.4114 0.1023 0 2
0.6388 18.5260 -2.7415 0.1541 0 1
-0.1169 20.3253 -3.0060 0.1364 0 1
-1.0379 22.5624 -3.3404 0.1238 0 1
-2.1624 25.0280 -3.7153 0.1158 0 1
-3.5267 27.7510 -4.1372 0.1072 0 1
-5.2597 31.2736 -4.6901 0.0918 0 1
-7.5564 36.0099 -5.4416 0.0766 0 1
-10.7996 42.8195 -6.5310 0.0628 0 1
-15.7600 46.3898 -7.2459 0.9333 0 15
-28.1084 37.0329 -6.8759 0.6923 0 3
-29.3938 35.6535 -6.8338 0.6380 0 3
-29.4736 32.9556 -6.5388 0.6668 0 3
-31.6659 32.6630 -6.7281 0.7149 0 3
-29.6054 28.1768 -6.0445 0.7213 0 3
-29.8884 26.2386 -5.8820 0.7470 0 3
-20.4149 16.5169 -3.8837 0.5936 0 22
-29.7475 22.1495 -5.4851 0.7948 0 3
-29.6443 20.2723 -5.3113 0.9831 0 3
-29.8173 18.6768 -5.2034 0.8378 0 3
-34.6497 19.8101 -5.9029 0.8574 0 3
-34.1745 17.7548 -5.6956 0.4620 0 3
-37.9957 17.8381 -6.2078 0.1459 0 3
-42.0208 17.7025 -6.7436 0.3902 0 3
-43.3033 16.2252 -6.8391 0.1557 0 3
-15.1307 -4.4329 -2.3318 0.2413 16 6
-34.6644 -33.4531 -7.1246 0.5446 0 20
-32.4442 -33.9338 -6.9433 0.9010 0 20
-31.6390 -35.8746 -7.0742 0.8838 0 20
-18.8490 -27.4285 -4.9220 0.9617 0 6
-10.1941 -41.6347 -6.3394 0.0626 0 1
-7.0541 -34.8159 -5.2537 0.0759 0 1
-4.8426 -30.0676 -4.5041 0.0812 0 1
-3.1364 -26.1286 -3.8920 0.0942 0 1
-1.8505 -23.3015 -3.4570 0.1122 0 1
-0.8182 -20.9519 -3.1010 0.1189 0 24
0.0229 -19.2942 -2.8535 0.1387 0 1
0.7326 -17.6836 -2.6175 0.1347 0 1
1.3296 -16.2528 -2.4117 0.1716 0 1
1.8534 -15.1364 -2.2553 0.1616 0 1
2.2925 -14.0220 -2.1013 0.2043 0 1
2.6868 -13.1009 -1.9779 0.2114 0 1
3.0309 -12.2529 -1.8667 0.2240 0 1
3.3339 -11.4765 -1.7675 0.2337 0 1
3.6076 -10.7803 -1.6812 0.2431 0 1
3.8530 -10.1392 -1.6041 0.2543 0 1
4.0741 -9.5463 -1.5350 0.2675 0 1
4.2744 -8.9955 -1.4729 0.2788 0 1
4.4557 -8.4795 -1.4167 0.2894 0 1
4.6197 -7.9937 -1.3654 0.3002 0 1
4.7696 -7.5363 -1.3190 0.3136 0 1
4.9083 -7.1062 -1.2773 0.3239 0 1
5.0231 -6.6811 -1.2362 0.3259 0 1
5.1194 -6.2676 -1.1969 0.3366 0 1
5.2065 -5.8753 -1.1610 0.3470 0 1
5.2856 -5.5021 -1.1284 0.3603 0 1
5.3601 -5.1483 -1.0992 0.3699 0 1
5.4278 -4.8090 -1.0725 0.3791 0 1
5.4892 -4.4827 -1.0481 0.3879 0 1
5.5448 -4.1680 -1.0259 0.3963 0 1
5.5987 -3.8663 -1.0063 0.4063 0 1
5.6587 -3.5805 -0.9903 0.4079 0 1
5.7133 -3.3011 -0.9759 0.4140 0 1
5.7633 -3.0277 -0.9628 0.4196 0 1
5.8090 -2.7596 -0.9511 0.4247 0 1
5.8506 -2.4962 -0.9407 0.4294 0 1
5.8891 -2.2373 -0.9317 0.4347 0 1
5.9251 -1.9822 -0.9240 0.4383 0 1
5.9575 -1.7300 -0.9175 0.4415 0 1
5.9865 -1.4803 -0.9120 0.4441 0 1
3.8437 -0.7879 -0.5803 0.5644 25 14
3.8281 -0.6255 -0.5737 0.9636 25 14
3.8195 -0.4673 -0.5691 0.9714 25 14
3.8107 -0.3114 -0.5655 0.9776 25 14
3.8017 -0.1571 -0.5627 0.9823 25 14
3.7936 -0.0042 -0.5611 0.9803 25 14
3.8026 0.1488 -0.5628 0.9822 25 14
3.8129 0.3032 -0.5657 0.9772 25 14
3.8231 0.4593 -0.5695 0.9707 25 14
3.8331 0.6177 -0.5742 0.9627 25 14
3.8681 0.7841 -0.5837 0.2900 25 14
6.1434 1.5048 -0.9354 0.4410 0 1
6.1378 1.7678 -0.9446 0.4367 0 1
6.1289 2.0355 -0.9551 0.4319 0 1
6.1163 2.3083 -0.9668 0.4269 0 1
6.1000 2.5869 -0.9799 0.4212 0 1
6.0721 2.8683 -0.9932 0.4114 0 1
6.0398 3.1561 -1.0079 0.4054 0 1
6.0032 3.4511 -1.0241 0.3989 0 1
5.9619 3.7541 -1.0420 0.3921 0 1
5.9156 4.0661 -1.0616 0.3848 0 1
5.8573 4.3829 -1.0819 0.3925 0 1
5.7869 4.7048 -1.1030 0.3847 0 1
5.7133 5.0397 -1.1267 0.3766 0 1
5.6328 5.3865 -1.1527 0.3682 0 1
5.5449 5.7468 -1.1810 0.3593 0 1
5.4489 6.1219 -1.2121 0.3463 0 1
5.3386 6.5070 -1.2448 0.3713 0 1
5.1982 6.8825 -1.2756 0.3623 0 1
5.0471 7.2730 -1.3093 0.3530 0 1
4.8844 7.6805 -1.3461 0.3433 0 1
4.7118 8.1120 -1.3874 0.3246 0 1
4.5386 8.5917 -1.4371 0.3134 0 1
4.3453 9.0933 -1.4905 0.3077 0 1
4.1776 9.7298 -1.5660 0.2781 0 2
3.8973 10.1887 -1.6133 0.9274 0 2
3.5496 10.5304 -1.6435 0.8808 0 2
3.2632 11.1421 -1.7171 0.2271 0 2
2.9723 11.9041 -1.8146 0.2149 0 2
2.6429 12.7452 -1.9250 0.2026 0 2
2.2291 13.4494 -2.0162 0.9610 0 20
1.8364 14.7304 -2.1954 0.1776 0 2
1.3374 15.9196 -2.3627 0.1650 0 2
0.8000 18.3402 -2.7150 0.1556 0 1
0.0670 19.8601 -2.9372 0.1360 0 1
-0.8116 22.0189 -3.2587 0.1269 0 1
-1.8878 24.4485 -3.6265 0.1186 0 1
-3.1903 27.0772 -4.0322 0.1085 0 1
-4.8264 30.3901 -4.5508 0.0947 0 1
-6.9741 34.8122 -5.2508 0.0778 0 1
-9.9596 41.0655 -6.2494 0.0638 0 1
-15.2959 46.4100 -7.2269 0.9776 0 15
-27.6344 37.1067 -6.8425 0.6014 0 3
-29.3742 36.2995 -6.9060 0.6313 0 3
-29.4564 33.5475 -6.6026 0.6603 0 3
-29.5285 31.0198 -6.3339 0.6884 0 3
-29.5920 28.6833 -6.0950 0.7153 0 3
-18.4889 16.5323 -3.6681 0.6039 0 22
-20.0604 16.5352 -3.8448 0.6949 0 22
-29.7384 22.5674 -5.5211 0.7896 0 3
-32.4981 22.6619 -5.8594 0.5713 0 3
-29.6984 18.9819 -5.2127 0.9868 0 3
-30.4499 17.7796 -5.2148 0.5046 0 3
-33.7562 17.9304 -5.6529 0.8717 0 3
-35.0201 16.8328 -5.7465 0.9567 0 3
-40.9877 17.7094 -6.6034 0.3985 0 3
-43.3307 16.6879 -6.8672 0.3617 0 3
-28.0501 7.0718 -4.2782 0.8204 0 6
-25.9789 -17.6824 -4.6477 0.5509 15 6
-35.4548 -33.5964 -7.2238 0.5372 0 20
-32.6239 -33.5043 -6.9161 0.9045 0 20
-31.8232 -35.4266 -7.0428 0.8878 0 20
-11.0616 -43.4571 -6.6320 0.0644 0 1
-7.6563 -36.0930 -5.4567 0.0711 0 1
-5.3019 -31.1087 -4.6671 0.0833 0 1
-3.4812 -26.9220 -4.0147 0.0877 0 1
-2.1150 -23.8694 -3.5440 0.1094 0 1
-1.0357 -21.4900 -3.1819 0.1112 0 1
-0.1561 -19.6692 -2.9090 0.1360 0 1
0.5836 -18.0720 -2.6741 0.1318 0 1
5.3569 -4.2938 -1.0932 0.3998 0 1
5.4128 -3.9920 -1.0710 0.4081 0 1
5.4706 -3.7046 -1.0521 0.4216 0 1
5.5296 -3.4286 -1.0360 0.4281 0 1
5.5838 -3.1587 -1.0215 0.4341 0 1
5.6335 -2.8942 -1.0085 0.4398 0 1
5.6789 -2.6346 -0.9969 0.4449 0 1
5.7204 -2.3792 -0.9865 0.4496 0 1
5.7581 -2.1276 -0.9775 0.4538 0 1
5.7923 -1.8792 -0.9697 0.4490 0 1
5.8241 -1.6338 -0.9632 0.4520 0 1
4.0230 -0.9559 -0.6584 0.3479 25 14
3.8380 -0.7503 -0.6227 0.9617 25 14
3.8353 -0.5908 -0.6179 0.9692 25 14
3.8234 -0.4324 -0.6127 0.8627 25 14
3.8098 -0.2763 -0.6083 0.8690 25 14
3.7967 -0.1222 -0.6049 0.8739 25 14
3.7886 0.0304 -0.6033 0.8762 25 14
3.7971 0.1834 -0.6053 0.8732 25 14
3.8062 0.3376 -0.6085 0.8687 25 14
3.8156 0.4937 -0.6127 0.8628 25 14
3.8257 0.6524 -0.6180 0.8554 25 14
3.8926 0.8261 -0.6336 0.3616 25 14
5.9964 1.5269 -0.9853 0.4450 0 1
5.9900 1.7846 -0.9953 0.4455 0 1
5.9790 2.0465 -1.0063 0.4407 0 1
5.9641 2.3132 -1.0186 0.4355 0 1
5.9417 2.5840 -1.0317 0.4256 0 1
5.9114 2.8587 -1.0456 0.4200 0 1
5.8768 3.1395 -1.0610 0.4139 0 1
5.8376 3.4272 -1.0779 0.4074 0 1
5.7936 3.7224 -1.0966 0.4005 0 1
5.7445 4.0261 -1.1170 0.3931 0 1
5.6861 4.3363 -1.1387 0.4009 0 1
5.6148 4.6506 -1.1609 0.3929 0 1
5.5384 4.9760 -1.1856 0.3847 0 1
5.4548 5.3124 -1.2125 0.3721 0 1
5.3629 5.6606 -1.2417 0.3633 0 1
5.2627 6.0224 -1.2736 0.3542 0 1
5.1562 6.4029 -1.3091 0.3431 0 1
5.0169 6.7701 -1.3418 0.3702 0 1
4.8640 7.1476 -1.3767 0.3609 0 1
4.6994 7.5407 -1.4148 0.3511 0 1
4.5254 7.9574 -1.4577 0.3321 0 1
4.3492 8.4183 -1.5088 0.3208 0 1
4.1549 8.9029 -1.5644 0.3151 0 1
3.9401 9.4127 -1.6249 0.3034 0 1
3.7469 10.0699 -1.7109 0.2736 0 2
3.4710 10.6163 -1.7786 0.8748 0 2
3.1210 11.0286 -1.8251 0.8053 0 2
2.7626 11.5102 -1.8849 0.2224 0 2
2.0580 13.1605 -2.1211 0.1976 0 2
1.6304 14.1269 -2.2645 0.1851 0 2
1.2005 16.0441 -2.5619 0.1737 0 2
0.5945 17.2406 -2.7470 0.1533 0 1
-0.1083 18.8420 -3.0004 0.1453 0 1
-0.9565 20.7922 -3.3144 0.1330 0 1
-1.9804 22.9208 -3.6634 0.1265 0 1
-3.2153 25.3010 -4.0612 0.1213 0 1
-4.7183 28.0545 -4.5300 0.1043 0 1
-6.6289 31.5897 -5.1398 0.0908 0 1
-9.2222 36.5654 -6.0049 0.0737 0 1
-12.8463 43.4803 -7.2195 0.0632 0 1
-15.7579 46.3836 -7.8006 0.8773 0 15
-29.1319 38.3814 -7.6728 0.6108 0 3
-27.5873 33.4622 -6.9058 0.6405 0 3
-28.4349 31.7942 -6.7922 0.7967 0 3
-29.3927 30.3183 -6.7241 0.6969 0 3
-29.3146 27.9001 -6.4442 0.8137 0 3
-31.5150 27.6665 -6.6777 0.6566 0 3
-34.1739 27.6488 -6.9997 0.6264 0 3
-29.6146 22.0505 -5.8794 0.7970 0 3
-33.1309 22.6567 -6.3913 0.5630 0 3
-29.6909 18.5976 -5.5788 0.8400 0 3
-30.8987 17.6656 -5.6676 0.6242 0 3
-33.2037 17.2504 -5.9582 0.1295 0 3
-39.6580 18.6185 -6.9763 0.8947 0 3
-39.9091 16.8128 -6.8959 0.5405 0 3
-27.9518 7.9790 -4.6287 0.8476 0 6
-31.7694 -13.6440 -5.5057 0.6380 0 6
-31.7576 -15.1792 -5.6049 0.8258 0 6
-34.7793 -33.5640 -7.6965 0.3889 0 20
-32.3231 -33.8072 -7.4480 0.9023 0 20
-31.3602 -35.5586 -7.5497 0.9518 0 20
-17.2730 -45.7816 -7.7917 0.9664 0 20
-12.2002 -42.3728 -7.0214 0.0592 0 1
-8.6534 -35.3423 -5.7940 0.0722 0 1
-6.1860 -30.5314 -4.9605 0.0792 0 1
-4.2719 -26.5239 -4.2780 0.0896 0 1
-2.8219 -23.5082 -3.7702 0.1106 0 1
-1.6782 -21.1318 -3.3756 0.1241 0 24
-0.7580 -19.4114 -3.0934 0.1375 0 1
0.0213 -17.9536 -2.8589 0.1326 0 1
0.6813 -16.4457 -2.6210 0.1717 0 1
1.2515 -15.2981 -2.4442 0.1820 0 1
1.7433 -14.2372 -2.2840 0.2020 0 1
2.1792 -13.3286 -2.1506 0.2145 0 1
2.5584 -12.4751 -2.0278 0.2217 0 1
2.8917 -11.6899 -1.9176 0.2315 0 1
3.1891 -10.9779 -1.8204 0.2439 0 1
3.4561 -10.3276 -1.7342 0.2533 0 1
3.6985 -9.7327 -1.6579 0.2662 0 1
3.9181 -9.1807 -1.5895 0.2777 0 1
4.1171 -8.6645 -1.5275 0.2890 0 1
4.2975 -8.1785 -1.4712 0.2995 0 1
4.4615 -7.7199 -1.4198 0.3103 0 1
4.6130 -7.2889 -1.3736 0.3237 0 1
4.7521 -6.8800 -1.3315 0.3340 0 1
4.8651 -6.4709 -1.2892 0.3359 0 1
4.9634 -6.0766 -1.2494 0.3466 0 1
5.0524 -5.7015 -1.2131 0.3569 0 1
5.1349 -5.3451 -1.1803 0.3703 0 1
5.2111 -5.0051 -1.1505 0.3799 0 1
5.2804 -4.6784 -1.1234 0.3890 0 1
5.3434 -4.3636 -1.0985 0.3978 0 1
5.4006 -4.0596 -1.0758 0.4062 0 1
5.4565 -3.7681 -1.0559 0.4200 0 1
5.5166 -3.4906 -1.0395 0.4266 0 1
5.5719 -3.2194 -1.0247 0.4328 0 1
5.6226 -2.9538 -1.0113 0.4385 0 1
5.6690 -2.6931 -0.9994 0.4438 0 1
5.7113 -2.4368 -0.9888 0.4485 0 1
5.7498 -2.1844 -0.9794 0.4529 0 1
5.7847 -1.9352 -0.9713 0.4567 0 1
5.8172 -1.6893 -0.9646 0.4514 0 1
4.2739 -1.0568 -0.7011 0.6167 25 14
3.8386 -0.7869 -0.6240 0.9598 25 14
3.8359 -0.6268 -0.6189 0.9676 25 14
3.8265 -0.4682 -0.6139 0.8611 25 14
3.8128 -0.3116 -0.6092 0.8677 25 14
3.7997 -0.1571 -0.6056 0.8729 25 14
3.7870 -0.0041 -0.6030 0.8766 25 14
3.7952 0.1486 -0.6048 0.8740 25 14
3.8041 0.3025 -0.6077 0.8699 25 14
3.8134 0.4581 -0.6116 0.8643 25 14
3.8233 0.6161 -0.6167 0.8572 25 14
3.8317 0.7767 -0.6226 0.9620 25 14
5.9971 1.4690 -0.9832 0.4459 0 1
5.9921 1.7259 -0.9929 0.4466 0 1
5.9818 1.9866 -1.0037 0.4418 0 1
5.9678 2.2522 -1.0157 0.4368 0 1
5.9480 2.5224 -1.0288 0.4268 0 1
5.9186 2.7958 -1.0423 0.4213 0 1
5.8850 3.0752 -1.0573 0.4153 0 1
5.8469 3.3613 -1.0739 0.4089 0 1
5.8041 3.6547 -1.0922 0.4021 0 1
5.7561 3.9564 -1.1122 0.3948 0 1
5.7024 4.2670 -1.1341 0.4025 0 1
5.6312 4.5782 -1.1556 0.3947 0 1
5.5563 4.9012 -1.1798 0.3866 0 1
5.4745 5.2352 -1.2062 0.3740 0 1
5.3844 5.5804 -1.2348 0.3654 0 1
5.2862 5.9391 -1.2661 0.3563 0 1
5.1806 6.3144 -1.3006 0.3453 0 1
5.0501 6.6865 -1.3343 0.3723 0 1
4.8997 7.0606 -1.3685 0.3630 0 1
4.7378 7.4500 -1.4059 0.3534 0 1
4.5634 7.8565 -1.4468 0.3434 0 1
4.3905 8.3114 -1.4968 0.3234 0 1
4.2011 8.7914 -1.5515 0.3177 0 1
3.9906 9.2942 -1.6106 0.3061 0 1
3.8008 9.9363 -1.6940 0.2764 0 2
3.5515 10.5359 -1.7705 0.8789 0 2
3.2015 10.9315 -1.8138 0.8104 0 2
2.8415 11.3801 -1.8678 0.7280 0 2
2.5110 12.1092 -1.9692 0.2128 0 2
2.1473 12.9557 -2.0912 0.2004 0 2
1.7326 13.8979 -2.2302 0.1879 0 2
1.2921 15.3811 -2.4579 0.1998 0 2
0.7453 17.0861 -2.7233 0.1595 0 1
0.0623 18.4496 -2.9379 0.1484 0 1
-0.7492 20.3243 -3.2386 0.1326 0 1
-1.7319 22.4302 -3.5823 0.1268 0 1
-2.9140 24.7323 -3.9655 0.1166 0 1
-4.3453 27.3608 -4.4114 0.1115 0 1
-6.1532 30.7148 -4.9881 0.0936 0 1
-8.5495 35.2512 -5.7760 0.0735 0 1
-11.9218 41.7494 -6.9138 0.0652 0 1
-28.2298 37.9062 -7.5260 0.3264 0 3
-28.9812 35.8138 -7.3362 0.6338 0 3
-28.1068 32.0105 -6.7833 0.8699 0 3
-29.3763 30.8599 -6.7845 0.6907 0 3
-28.5112 27.6356 -6.3227 0.8389 0 3
-18.4861 16.5298 -3.9488 0.6030 0 22
-20.0639 16.5382 -4.1404 0.7241 0 22
-29.6047 22.4659 -5.9178 0.7918 0 3
-32.4967 22.6609 -6.3086 0.5704 0 3
-34.4610 22.0259 -6.5126 0.8353 0 3
-27.9312 16.3089 -5.1503 0.9909 0 3
-30.6798 16.2963 -5.5318 0.4969 0 3
-39.6514 19.0589 -7.0055 0.8910 0 3
-40.9853 17.7083 -7.1095 0.3978 0 3
-45.8885 17.6730 -7.8303 0.3611 0 3
-20.3964 -4.8975 -3.3402 0.1638 16 6
-15.9437 -4.5135 -2.6386 0.0350 16 6
-25.9450 -17.6594 -4.9976 0.6913 15 6
-35.7263 -33.8537 -7.8374 0.0776 0 20
-32.5014 -33.3784 -7.4185 0.9064 0 20
-31.6004 -35.1786 -7.5299 0.9545 0 20
-13.2115 -44.3592 -7.3702 0.0587 0 1
-9.3400 -36.6934 -6.0292 0.0683 0 1
-6.6900 -31.5376 -5.1337 0.0854 0 1
-4.6613 -27.3500 -4.4179 0.0867 0 1
-3.1137 -24.0799 -3.8663 0.1052 0 1
-1.9236 -21.7097 -3.4705 0.1163 0 1
-0.9534 -19.7836 -3.1539 0.1349 0 1
-0.1451 -18.2746 -2.9101 0.1539 0 1
0.5402 -16.7287 -2.6652 0.1689 0 1
5.2185 -4.1828 -1.1411 0.4096 0 1
5.2724 -3.8885 -1.1178 0.4243 0 1
5.3360 -3.6134 -1.0995 0.4314 0 1
5.3955 -3.3454 -1.0832 0.4379 0 1
5.4503 -3.0831 -1.0684 0.4440 0 1
5.5005 -2.8259 -1.0551 0.4496 0 1
5.5464 -2.5731 -1.0432 0.4547 0 1
5.5882 -2.3242 -1.0326 0.4594 0 1
5.6262 -2.0789 -1.0234 0.4636 0 1
5.6605 -1.8364 -1.0154 0.4672 0 1
5.6912 -1.5965 -1.0085 0.4704 0 1
3.9860 -0.9471 -0.6990 0.5419 25 14
3.8391 -0.7505 -0.6674 0.9597 25 14
3.8365 -0.5910 -0.6623 0.9671 25 14
3.8339 -0.4336 -0.6583 0.9730 25 14
3.8262 -0.2775 -0.6545 0.8637 25 14
3.8130 -0.1228 -0.6509 0.8685 25 14
3.8049 0.0306 -0.6492 0.8708 25 14
3.8136 0.1841 -0.6514 0.8679 25 14
3.8227 0.3391 -0.6548 0.8634 25 14
3.8307 0.4957 -0.6590 0.9719 25 14
3.8319 0.6534 -0.6632 0.9658 25 14
3.8704 0.8214 -0.6751 0.5578 25 14
5.8562 1.4912 -1.0311 0.4548 0 1
5.8498 1.7429 -1.0415 0.4502 0 1
5.8380 1.9982 -1.0528 0.4505 0 1
5.8218 2.2580 -1.0654 0.4453 0 1
5.7962 2.5207 -1.0784 0.4355 0 1
5.7648 2.7878 -1.0926 0.4299 0 1
5.7289 3.0605 -1.1082 0.4238 0 1
5.6885 3.3396 -1.1255 0.4173 0 1
5.6431 3.6257 -1.1444 0.4104 0 1
5.5925 3.9196 -1.1652 0.4031 0 1
5.5364 4.2221 -1.1879 0.3954 0 1
5.4660 4.5273 -1.2110 0.3985 0 1
5.3878 4.8407 -1.2358 0.3905 0 1
5.3026 5.1642 -1.2629 0.3821 0 1
5.2098 5.4990 -1.2924 0.3733 0 1
5.1087 5.8462 -1.3247 0.3643 0 1
5.0008 6.2099 -1.3604 0.3531 0 1
4.8768 6.5810 -1.3975 0.3802 0 1
4.7247 6.9428 -1.4329 0.3708 0 1
4.5612 7.3189 -1.4714 0.3611 0 1
4.3855 7.7115 -1.5136 0.3420 0 1
4.2103 8.1493 -1.5650 0.3308 0 1
4.0191 8.6119 -1.6215 0.3193 0 1
3.8073 9.0954 -1.6823 0.3134 0 1
3.5771 9.6135 -1.7501 0.2973 0 1
3.3581 10.2710 -1.8437 0.2711 0 2
3.0834 10.8958 -1.9320 0.2578 0 2
2.7636 11.5142 -2.0203 0.7198 0 2
2.3921 12.0896 -2.1027 0.6239 0 2
2.0072 12.8356 -2.2166 0.5170 0 2
1.6055 13.9113 -2.3893 0.4012 0 2
1.1318 15.1258 -2.5880 0.1855 0 2
0.5570 16.1543 -2.7579 0.1703 0 1
-0.1009 17.5529 -2.9949 0.1512 0 1
-0.8849 19.2366 -3.2856 0.1398 0 1
-1.8241 21.1127 -3.6157 0.1350 0 1
-2.9419 23.1493 -3.9815 0.1245 0 1
-4.2921 25.5205 -4.4155 0.1180 0 1
-5.9372 28.2935 -4.9326 0.1034 0 1
-7.9817 31.6469 -5.5687 0.0827 0 24
-10.9548 37.0781 -6.5966 0.0722 0 1
-14.9313 43.9506 -7.9198 0.0617 0 1
-22.9943 43.2796 -8.3619 0.4515 0 5
-23.1947 39.7154 -7.8472 0.5177 0 5
-28.7966 37.9397 -8.1267 0.0713 0 3
-29.0682 35.2585 -7.7966 0.6429 0 3
-29.1611 32.6062 -7.4636 0.6716 0 3
-29.2428 30.1637 -7.1680 0.6992 0 3
-27.6216 26.2887 -6.5061 0.7251 0 3
-18.7990 16.5033 -4.2681 0.9942 0 6
-29.4351 23.8148 -6.4601 0.7759 0 3
-29.4824 21.9521 -6.2715 0.7991 0 3
-33.1295 22.6557 -6.8479 0.5620 0 3
-29.5651 18.5189 -5.9523 0.8420 0 3
-34.3633 19.6464 -6.7536 0.8615 0 3
-31.0134 16.1125 -5.9630 0.6076 0 3
-34.1509 16.0331 -6.4370 0.3926 0 3
-44.5063 18.7496 -8.2400 0.9122 0 3
-44.7216 16.7566 -8.1484 0.9772 0 3
-34.8953 -33.6759 -8.2742 0.3873 0 20
-32.3096 -33.7930 -7.9770 0.9636 0 20
-31.2634 -35.4487 -8.0644 0.9530 0 20
-17.2509 -45.7231 -8.3380 0.9626 0 20
-14.2770 -43.0017 -7.7307 0.0603 0 1
-10.3041 -35.7874 -6.3541 0.0698 0 1
-7.5680 -30.9091 -5.4295 0.0794 0 1
-5.4454 -26.8761 -4.6788 0.0876 0 1
-3.8224 -23.7329 -4.1015 0.1063 0 1
-2.5598 -21.3246 -3.6645 0.1224 0 24
-1.5525 -19.5489 -3.3459 0.1337 0 1
-0.7052 -18.0591 -3.0836 0.1553 0 1
0.0198 -16.6441 -2.8398 0.1695 0 1
0.6413 -15.4782 -2.6432 0.1807 0 1
1.1810 -14.4367 -2.4714 0.1996 0 1
1.6560 -13.5244 -2.3248 0.2122 0 1
2.0740 -12.6857 -2.1932 0.2192 0 1
2.4403 -11.8989 -2.0724 0.2272 0 1
2.7647 -11.1765 -1.9644 0.2417 0 1
3.0558 -10.5193 -1.8690 0.2541 0 1
3.3172 -9.9124 -1.7834 0.2659 0 1
3.5560 -9.3577 -1.7080 0.2764 0 1
3.7731 -8.8410 -1.6401 0.2879 0 1
3.9705 -8.3559 -1.5785 0.2991 0 1
4.1497 -7.8972 -1.5221 0.3096 0 1
4.3142 -7.4650 -1.4711 0.3233 0 1
4.4658 -7.0563 -1.4248 0.3338 0 1
4.6050 -6.6670 -1.3825 0.3440 0 1
4.7163 -6.2730 -1.3390 0.3458 0 1
4.8160 -5.8963 -1.2990 0.3565 0 1
4.9068 -5.5371 -1.2623 0.3703 0 1
4.9919 -5.1964 -1.2294 0.3802 0 1
5.0696 -4.8692 -1.1993 0.3897 0 1
5.1403 -4.5543 -1.1718 0.3989 0 1
5.2047 -4.2504 -1.1465 0.4077 0 1
5.2606 -3.9544 -1.1229 0.4059 0 1
5.3218 -3.6751 -1.1035 0.4299 0 1
5.3824 -3.4057 -1.0868 0.4365 0 1
5.4383 -3.1422 -1.0716 0.4426 0 1
5.4895 -2.8838 -1.0580 0.4483 0 1
5.5363 -2.6301 -1.0458 0.4536 0 1
5.5791 -2.3804 -1.0349 0.4583 0 1
5.6179 -2.1342 -1.0254 0.4627 0 1
5.6531 -1.8912 -1.0171 0.4664 0 1
5.6846 -1.6508 -1.0100 0.4697 0 1
4.2199 -1.0434 -0.7417 0.8624 25 14
3.8397 -0.7871 -0.6688 0.9578 25 14
3.8371 -0.6270 -0.6634 0.9656 25 14
3.8345 -0.4692 -0.6591 0.9718 25 14
3.8293 -0.3129 -0.6555 0.8624 25 14
3.8160 -0.1577 -0.6516 0.8676 25 14
3.8032 -0.0042 -0.6489 0.8712 25 14
3.8116 0.1492 -0.6508 0.8687 25 14
3.8206 0.3038 -0.6539 0.8645 25 14
3.8301 0.4601 -0.6582 0.8589 25 14
3.8316 0.6175 -0.6622 0.9673 25 14
3.8329 0.7770 -0.6673 0.9599 25 14
4.2744 1.0470 -0.7509 0.6158 25 14
5.8516 1.6854 -1.0390 0.4513 0 1
5.8411 1.9399 -1.0501 0.4516 0 1
5.8258 2.1987 -1.0624 0.4466 0 1
5.8027 2.4608 -1.0754 0.4367 0 1
5.7723 2.7267 -1.0892 0.4312 0 1
5.7375 2.9981 -1.1045 0.4252 0 1
5.6981 3.2757 -1.1214 0.4188 0 1
5.6538 3.5602 -1.1400 0.4120 0 1
5.6045 3.8522 -1.1603 0.4048 0 1
5.5496 4.1527 -1.1826 0.3971 0 1
5.4829 4.4576 -1.2056 0.4002 0 1
5.4061 4.7687 -1.2300 0.3923 0 1
5.3225 5.0899 -1.2565 0.3840 0 1
5.2315 5.4220 -1.2855 0.3754 0 1
5.1324 5.7662 -1.3171 0.3663 0 1
5.0255 6.1253 -1.3518 0.3554 0 1
4.9098 6.5007 -1.3899 0.3823 0 1
4.7601 6.8595 -1.4246 0.3730 0 1
4.5993 7.2322 -1.4623 0.3633 0 1
4.4262 7.6203 -1.5036 0.3534 0 1
4.2514 8.0479 -1.5530 0.3334 0 1
4.0640 8.5046 -1.6082 0.3219 0 1
3.8572 8.9836 -1.6681 0.3161 0 1
3.6305 9.4913 -1.7338 0.3001 0 1
3.3858 10.0443 -1.8085 0.2877 0 1
3.1482 10.7494 -1.9111 0.2607 0 2
2.8451 11.3946 -2.0038 0.7258 0 2
2.4755 11.9380 -2.0802 0.6306 0 2
2.0941 12.6344 -2.1851 0.5245 0 2
1.6984 13.6232 -2.3424 0.4092 0 2
1.2496 14.8750 -2.5469 0.1885 0 2
0.6954 15.9416 -2.7225 0.1654 0 1
0.0581 17.2098 -2.9363 0.1599 0 1
-0.6939 18.8263 -3.2143 0.1451 0 1
-1.5980 20.6961 -3.5417 0.1378 0 1
-2.6700 22.6614 -3.8932 0.1248 0 1
-3.9643 24.9618 -4.3124 0.1152 0 1
-5.5290 27.5990 -4.8025 0.1052 0 1
-7.4987 30.9185 -5.4282 0.0916 0 1
-10.2168 35.7787 -6.3486 0.0745 0 1
-13.9134 42.2151 -7.5838 0.0648 0 1
-23.1549 40.4913 -7.9584 0.5116 0 5
-28.0198 37.6242 -8.0040 0.7497 0 3
-29.0455 35.8932 -7.8780 0.6362 0 3
-29.1411 33.1883 -7.5356 0.6651 0 3
-27.5823 28.9753 -6.8255 0.6931 0 3
-29.2994 28.3996 -6.9620 0.7199 0 3
-18.4889 16.5323 -4.2318 0.6877 0 22
-20.0504 16.5270 -4.4334 0.6473 0 22
-29.4717 22.3650 -6.3124 0.7940 0 3
-29.3765 20.4851 -6.1105 0.6462 0 3
-29.5604 18.8936 -5.9858 0.3982 0 3
-30.4470 17.7779 -6.0156 0.5028 0 3
-31.1672 16.5553 -6.0214 0.5008 0 3
-35.4833 17.0554 -6.7172 0.1326 0 3
-44.4994 19.2266 -8.2708 0.9088 0 3
-45.8855 17.6718 -8.3895 0.3605 0 3
-32.5461 -33.4244 -7.9598 0.9657 0 20
-31.5022 -35.0692 -8.0431 0.9556 0 20
-15.3353 -44.8173 -8.0820 0.0605 0 1
-11.0676 -37.1608 -6.6156 0.0665 0 1
-8.1177 -31.8916 -5.6148 0.0833 0 1
-5.8803 -27.7207 -4.8349 0.0844 0 1
-4.1533 -24.3694 -4.2179 0.0977 0 1
-2.8314 -21.8970 -3.7672 0.1146 0 1
-1.7677 -19.9499 -3.4172 0.1309 0 1
-0.8850 -18.3643 -3.1369 0.1527 0 1
-0.1346 -16.9524 -2.8925 0.1401 0 1
0.5080 -15.7319 -2.6856 0.1779 0 1
5.0837 -4.0748 -1.1861 0.4092 0 1
5.1433 -3.7933 -1.1634 0.4341 0 1
5.2074 -3.5263 -1.1449 0.4412 0 1
5.2674 -3.2660 -1.1283 0.4477 0 1
5.3225 -3.0109 -1.1132 0.4537 0 1
5.3731 -2.7605 -1.0997 0.4593 0 1
5.4194 -2.5142 -1.0876 0.4644 0 1
5.4615 -2.2715 -1.0768 0.4692 0 1
5.4998 -2.0321 -1.0674 0.4733 0 1
5.5343 -1.7955 -1.0592 0.4770 0 1
5.5652 -1.5612 -1.0522 0.4801 0 1
3.9709 -0.9435 -0.7430 0.5429 25 14
3.8382 -0.7504 -0.7120 0.9702 25 14
3.8365 -0.5910 -0.7067 0.9775 25 14
3.8348 -0.4337 -0.7026 0.9832 25 14
3.8325 -0.2780 -0.6995 0.9751 25 14
3.8295 -0.1233 -0.6975 0.8631 25 14
3.8215 0.0307 -0.6957 0.8653 25 14
3.8295 0.1849 -0.6980 0.9773 25 14
3.8306 0.3398 -0.7001 0.9743 25 14
3.8318 0.4958 -0.7034 0.9697 25 14
3.8331 0.6536 -0.7079 0.9636 25 14
3.8672 0.8207 -0.7197 0.5571 25 14
5.7219 1.4570 -1.0749 0.4645 0 1
5.7143 1.7025 -1.0855 0.4600 0 1
5.7030 1.9520 -1.0973 0.4602 0 1
5.6854 2.2051 -1.1101 0.4505 0 1
5.6572 2.4602 -1.1230 0.4453 0 1
5.6247 2.7200 -1.1374 0.4397 0 1
5.5878 2.9851 -1.1533 0.4337 0 1
5.5462 3.2561 -1.1708 0.4272 0 1
5.4996 3.5335 -1.1900 0.4197 0 1
5.4477 3.8181 -1.2111 0.4124 0 1
5.3902 4.1107 -1.2340 0.4047 0 1
5.3231 4.4089 -1.2583 0.4084 0 1
5.2441 4.7116 -1.2834 0.4004 0 1
5.1581 5.0235 -1.3108 0.3920 0 1
5.0646 5.3457 -1.3406 0.3833 0 1
4.9629 5.6794 -1.3730 0.3742 0 1
4.8540 6.0276 -1.4089 0.3631 0 1
4.7384 6.3942 -1.4488 0.3531 0 1
4.5926 6.7488 -1.4861 0.3807 0 1
4.4304 7.1090 -1.5249 0.3710 0 1
4.2559 7.4835 -1.5672 0.3610 0 1
4.0794 7.8961 -1.6180 0.3407 0 1
3.8899 8.3349 -1.6744 0.3292 0 1
3.6827 8.7977 -1.7362 0.3234 0 1
3.4541 9.2829 -1.8031 0.3073 0 1
3.2076 9.8106 -1.8790 0.2948 0 1
2.9362 10.3756 -1.9630 0.2822 0 1
2.6626 11.0935 -2.0769 0.2544 0 2
2.3309 11.7800 -2.1861 0.2417 0 2
1.9602 12.5347 -2.3096 0.2263 0 2
1.5433 13.3722 -2.4505 0.2119 0 2
1.0645 14.2258 -2.5970 0.1337 0 1
0.5245 15.2097 -2.7705 0.1830 0 1
-0.0945 16.4324 -2.9915 0.1672 0 1
-0.8230 17.8900 -3.2602 0.1479 0 1
-1.6884 19.5411 -3.5706 0.1408 0 1
-2.7059 21.2924 -3.9074 0.1330 0 1
-3.9228 23.3244 -4.3057 0.1229 0 1
-5.3876 25.6743 -4.7757 0.1162 0 1
-7.1644 28.4064 -5.3332 0.1010 0 1
-9.5211 32.2257 -6.1172 0.0766 0 1
-12.7200 37.4414 -7.1987 0.0714 0 1
-16.8311 43.6902 -8.5234 0.3926 0 2
-16.0713 30.2493 -6.2357 0.3618 0 15
-16.2989 27.9080 -5.8835 0.5430 0 15
-28.7944 37.9367 -8.6702 0.6156 0 3
-27.1678 32.9534 -7.7749 0.1123 0 3
-29.0064 32.4333 -7.9212 0.6738 0 3
-29.0939 30.0100 -7.6091 0.7015 0 3
-17.3661 16.5281 -4.3644 0.7645 0 22
-29.2394 25.6688 -7.0830 0.7535 0 3
-29.2999 23.7055 -6.8610 0.7779 0 3
-29.3509 21.8542 -6.6617 0.8011 0 3
-29.3982 20.1041 -6.4836 0.8232 0 3
-29.4399 18.4404 -6.3240 0.8439 0 3
-28.5431 16.3188 -5.9854 0.9432 0 3
-31.6265 16.4310 -6.4881 0.4949 0 3
-37.2288 17.4781 -7.4871 0.3939 0 3
-44.3323 18.6763 -8.7574 0.9140 0 3
-27.7578 9.1456 -5.3204 0.9355 0 22
-27.7309 7.9159 -5.2499 0.8428 0 22
-18.0267 -4.5028 -3.3825 0.1951 16 6
-31.4602 -16.6228 -6.4775 0.2456 0 22
-31.4017 -18.2433 -6.6113 0.8450 0 22
-35.3630 -34.1272 -8.9466 0.2208 0 20
-32.2808 -33.7629 -8.5037 0.9947 0 20
-31.0113 -35.1630 -8.5351 0.9915 0 20
-16.4236 -43.5303 -8.4698 0.0662 0 2
-11.9745 -36.0668 -6.9182 0.0685 0 1
-8.9686 -31.1493 -5.9010 0.0828 0 1
-6.6556 -27.1827 -5.0947 0.0872 0 1
-4.8565 -23.9699 -4.4523 0.1043 0 1
-3.4575 -21.4672 -3.9584 0.1210 0 24
-2.3650 -19.7017 -3.6124 0.1319 0 1
-1.4425 -18.1638 -3.3170 0.1513 0 1
-0.6567 -16.8173 -3.0638 0.1673 0 1
0.0186 -15.6570 -2.8503 0.1785 0 1
0.6055 -14.6147 -2.6628 0.1910 0 1
1.1211 -13.7045 -2.5032 0.2099 0 1
1.5768 -12.8772 -2.3617 0.2225 0 1
1.9724 -12.0640 -2.2254 0.2281 0 24
2.3310 -11.3662 -2.1122 0.2374 0 1
2.6480 -10.7047 -2.0075 0.2519 0 1
2.9328 -10.0959 -1.9139 0.2642 0 1
3.1897 -9.5316 -1.8298 0.2771 0 1
3.4235 -9.0092 -1.7545 0.2865 0 1
3.6380 -8.5244 -1.6872 0.2980 0 1
3.8334 -8.0673 -1.6260 0.3086 0 1
4.0114 -7.6341 -1.5699 0.3226 0 1
4.1761 -7.2261 -1.5194 0.3333 0 1
4.3272 -6.8374 -1.4731 0.3438 0 1
4.4649 -6.4642 -1.4302 0.3448 0 1
4.5758 -6.0860 -1.3861 0.3558 0 1
4.6767 -5.7257 -1.3458 0.3664 0 1
4.7699 -5.3827 -1.3093 0.3802 0 1
4.8563 -5.0551 -1.2761 0.3901 0 1
4.9351 -4.7401 -1.2457 0.3996 0 1
5.0070 -4.4362 -1.2178 0.4087 0 1
5.0706 -4.1408 -1.1918 0.4072 0 1
5.1282 -3.8549 -1.1679 0.4324 0 1
5.1930 -3.5862 -1.1489 0.4397 0 1
5.2542 -3.3246 -1.1319 0.4463 0 1
5.3104 -3.0683 -1.1165 0.4524 0 1
5.3620 -2.8169 -1.1026 0.4581 0 1
5.4093 -2.5697 -1.0902 0.4633 0 1
5.4523 -2.3263 -1.0791 0.4681 0 1
5.4915 -2.0862 -1.0694 0.4724 0 1
5.5268 -1.8490 -1.0609 0.4762 0 1
5.5585 -1.6142 -1.0537 0.4794 0 1
4.1864 -1.0352 -0.7851 0.8676 25 14
3.8386 -0.7869 -0.7133 0.9684 25 14
3.8369 -0.6269 -0.7078 0.9760 25 14
3.8352 -0.4693 -0.7034 0.9821 25 14
3.8331 -0.3132 -0.7001 0.9742 25 14
3.8306 -0.1583 -0.6979 0.9773 25 14
3.8196 -0.0042 -0.6953 0.8658 25 14
3.8282 0.1499 -0.6974 0.8632 25 14
3.8304 0.3046 -0.6995 0.9751 25 14
3.8316 0.4603 -0.7025 0.9709 25 14
3.8328 0.6177 -0.7067 0.9651 25 14
3.8340 0.7772 -0.7122 0.9578 25 14
4.2163 1.0328 -0.7903 0.8619 25 14
5.7164 1.6465 -1.0829 0.4611 0 1
5.7060 1.8951 -1.0945 0.4562 0 1
5.6900 2.1474 -1.1072 0.4563 0 1
5.6639 2.4019 -1.1200 0.4466 0 1
5.6324 2.6607 -1.1340 0.4410 0 1
5.5966 2.9245 -1.1495 0.4351 0 1
5.5561 3.1941 -1.1667 0.4287 0 1
5.5106 3.4700 -1.1855 0.4213 0 1
5.4600 3.7529 -1.2061 0.4141 0 1
5.4038 4.0435 -1.2287 0.4065 0 1
5.3401 4.3415 -1.2529 0.4101 0 1
5.2626 4.6421 -1.2775 0.4022 0 1
5.1783 4.9519 -1.3043 0.3939 0 1
5.0865 5.2717 -1.3336 0.3853 0 1
4.9867 5.6026 -1.3654 0.3763 0 1
4.8788 5.9465 -1.4003 0.3653 0 1
4.7655 6.3096 -1.4394 0.3554 0 1
4.6279 6.6689 -1.4777 0.3829 0 1
4.4682 7.0261 -1.5158 0.3733 0 1
4.2966 7.3972 -1.5573 0.3633 0 1
4.1203 7.7998 -1.6059 0.3433 0 1
3.9343 8.2333 -1.6612 0.3319 0 1
3.7316 8.6911 -1.7219 0.3202 0 1
3.5071 9.1687 -1.7871 0.3142 0 1
3.2656 9.6878 -1.8611 0.2977 0 1
3.0001 10.2439 -1.9432 0.2851 0 1
2.7332 10.9463 -2.0539 0.2583 0 2
2.4094 11.6191 -2.1602 0.2446 0 2
2.0481 12.3572 -2.2803 0.2305 0 2
1.6424 13.1740 -2.4168 0.2163 0 2
1.1835 14.0874 -2.5736 0.2003 0 2
0.6527 14.9623 -2.7264 0.1860 0 1
0.0545 16.1399 -2.9382 0.1702 0 1
-0.6462 17.5325 -3.1939 0.1510 0 1
-1.4803 19.1713 -3.5004 0.1436 0 1
-2.4596 20.8760 -3.8267 0.1358 0 1
-3.6276 22.8416 -4.2103 0.1257 0 1
-5.0328 25.1221 -4.6642 0.1190 0 1
-6.7243 27.7256 -5.1937 0.1037 0 1
-8.8981 31.1607 -5.8994 0.0854 0 1
-11.9118 36.1422 -6.9277 0.0726 0 1
-15.9086 42.4461 -8.2520 0.0612 0 1
-16.2397 28.3986 -5.9555 0.5359 0 15
-28.7666 38.6270 -8.7677 0.6088 0 3
-28.8829 35.6924 -8.3586 0.6386 0 3
-28.9850 33.0106 -7.9972 0.6674 0 3
-29.0750 30.5434 -7.6767 0.6953 0 3
-28.8699 27.9833 -7.3194 0.6038 0 3
-29.2246 26.1318 -7.1369 0.7479 0 3
-20.0128 16.4961 -4.7214 0.6078 0 22
-29.3394 22.2646 -6.7049 0.7960 0 3
-29.3880 20.4931 -6.5223 0.8183 0 3
-29.4309 18.8109 -6.3587 0.8393 0 3
-30.4455 17.7770 -6.4181 0.5019 0 3
-31.5700 16.7692 -6.5077 0.4674 0 3
-39.3353 18.9070 -7.9451 0.8948 0 3
-44.3247 19.1512 -8.7901 0.9106 0 3
-27.7509 9.4249 -5.3353 0.9624 0 22
-27.7315 8.1905 -5.2640 0.9223 0 22
-31.4108 -17.8673 -6.5786 0.8290 0 22
-32.4398 -33.3153 -8.4651 0.9668 0 20
-31.2986 -34.8425 -8.5263 0.9925 0 20
-16.7022 -43.0745 -8.4104 0.0568 0 2
-12.8284 -37.4912 -7.2136 0.0601 0 1
-9.5691 -32.1294 -6.1029 0.0801 0 1
-7.1337 -28.0259 -5.2647 0.0843 0 1
-5.2234 -24.6239 -4.5824 0.0957 0 1
-3.7394 -21.9406 -4.0518 0.1163 0 24
-2.5991 -20.1005 -3.6897 0.1313 0 1
-1.6388 -18.4954 -3.3802 0.1485 0 1
-0.8266 -17.1525 -3.1262 0.1381 0 1
-0.1263 -15.9083 -2.8961 0.1770 0 1
0.4792 -14.8409 -2.7031 0.1882 0 1
4.9545 -3.9712 -1.2288 0.4190 0 1
5.0200 -3.7023 -1.2071 0.4438 0 1
5.0843 -3.4430 -1.1883 0.4509 0 1
5.1447 -3.1899 -1.1714 0.4574 0 1
5.2002 -2.9417 -1.1562 0.4634 0 1
5.2511 -2.6977 -1.1424 0.4690 0 1
5.2976 -2.4577 -1.1301 0.4741 0 1
5.3400 -2.2210 -1.1192 0.4788 0 1
5.3785 -1.9873 -1.1096 0.4830 0 1
5.4131 -1.7562 -1.1013 0.4866 0 1
5.4441 -1.5272 -1.0942 0.4898 0 1
3.9558 -0.9399 -0.7868 0.5438 25 14
3.8362 -0.7500 -0.7564 0.9687 25 14
3.8346 -0.5907 -0.7508 0.9760 25 14
3.8328 -0.4335 -0.7465 0.9817 25 14
3.8311 -0.2779 -0.7433 0.9858 25 14
3.8293 -0.1233 -0.7414 0.9883 25 14
3.8274 0.0307 -0.7407 0.9976 25 14
3.8292 0.1849 -0.7419 0.9877 25 14
3.8302 0.3397 -0.7441 0.9848 25 14
3.8312 0.4958 -0.7476 0.9802 25 14
3.8321 0.6535 -0.7523 0.9741 25 14
3.8579 0.8188 -0.7632 0.6464 25 14
5.5931 1.4242 -1.1169 0.4743 0 1
5.5845 1.6638 -1.1276 0.4697 0 1
5.5722 1.9072 -1.1397 0.4648 0 1
5.5532 2.1538 -1.1526 0.4597 0 1
5.5241 2.4023 -1.1657 0.4545 0 1
5.4907 2.6552 -1.1803 0.4489 0 1
5.4528 2.9130 -1.1963 0.4429 0 1
5.4102 3.1762 -1.2141 0.4364 0 1
5.3625 3.4455 -1.2335 0.4295 0 1
5.3096 3.7213 -1.2547 0.4223 0 1
5.2510 4.0045 -1.2779 0.4146 0 1
5.1869 4.2961 -1.3033 0.4182 0 1
5.1073 4.5887 -1.3287 0.4102 0 1
5.0208 4.8898 -1.3563 0.4019 0 1
4.9268 5.2003 -1.3863 0.3932 0 1
4.8247 5.5212 -1.4189 0.3842 0 1
4.7150 5.8550 -1.4548 0.3730 0 1
4.5990 6.2061 -1.4948 0.3630 0 1
4.4673 6.5646 -1.5366 0.3906 0 1
4.3064 6.9100 -1.5756 0.3809 0 1
4.1335 7.2684 -1.6181 0.3709 0 1
3.9560 7.6572 -1.6679 0.3506 0 1
3.7682 8.0742 -1.7243 0.3392 0 1
3.5638 8.5136 -1.7861 0.3274 0 1
3.3394 8.9747 -1.8531 0.3214 0 1
3.0962 9.4699 -1.9281 0.3048 0 1
2.8298 9.9997 -2.0111 0.2922 0 1
2.5355 10.5640 -2.1024 0.2772 0 1
2.2124 11.1816 -2.2058 0.2536 0 1
1.8560 11.8684 -2.3247 0.2406 0 1
1.4564 12.6187 -2.4582 0.2276 0 1
1.0069 13.4565 -2.6114 0.2135 0 1
0.4956 14.3731 -2.7831 0.1933 0 1
-0.0888 15.4375 -2.9875 0.1715 0 1
-0.7679 16.6937 -3.2339 0.1582 0 1
-1.5690 18.1598 -3.5273 0.1512 0 1
-2.5024 19.6909 -3.8412 0.1405 0 1
-3.6040 21.4288 -4.2051 0.1305 0 1
-4.9164 23.4290 -4.6327 0.1203 0 1
-6.4918 25.7396 -5.1371 0.1142 0 1
-8.4141 28.4788 -5.7467 0.0943 0 1
-11.0339 32.4784 -6.6380 0.0808 0 1
-14.4177 37.4255 -7.7614 0.0726 0 24
-18.4262 42.6358 -8.9883 0.0563 0 2
-15.9433 30.0083 -6.5759 0.5160 0 15
-16.1475 27.6487 -6.1962 0.5589 0 15
-16.7193 26.1531 -6.0069 0.8087 0 15
-26.9307 38.6121 -9.1101 0.5875 0 3
-28.6276 37.7169 -9.1632 0.6179 0 3
-31.0471 37.6588 -9.4450 0.7619 0 3
-28.8528 32.2615 -8.3758 0.6760 0 3
-28.9458 29.8573 -8.0475 0.7036 0 3
-17.3753 16.5369 -4.6419 0.6902 0 22
-29.1009 25.5472 -7.4937 0.7556 0 3
-27.9971 22.6514 -6.9691 0.0588 0 3
-29.2201 21.7568 -7.0499 0.8031 0 3
-29.2707 20.0168 -6.8622 0.8250 0 3
-29.3153 18.3624 -6.6941 0.8458 0 3
-29.5275 16.8816 -6.5821 0.4454 0 3
-32.1409 16.6982 -7.0092 0.4860 0 3
-38.1855 17.9272 -8.1634 0.9002 0 3
-44.1590 18.6032 -9.2729 0.9157 0 3
-27.6406 9.1070 -5.6318 0.8678 0 22
-27.6652 7.8972 -5.5676 0.9597 0 22
-31.3377 -16.5581 -6.8589 0.8638 0 22
-31.2544 -18.1578 -6.9949 0.8165 0 22
-25.5164 -17.7105 -6.0107 0.9208 15 6
-32.1885 -33.6663 -9.0137 0.9955 0 20
-30.7574 -34.8750 -8.9986 0.9987 0 20
-23.6338 -41.1198 -9.1781 0.9776 0 20
-17.5114 -41.3035 -8.6817 0.0583 0 2
-13.6790 -36.2558 -7.4989 0.0604 0 1
-10.3769 -31.2547 -6.3730 0.0806 0 1
-7.8922 -27.4107 -5.5200 0.0868 0 1
-5.9176 -24.1687 -4.8152 0.0958 0 1
-4.3830 -21.6327 -4.2714 0.1163 0 24
-3.1897 -19.8044 -3.8819 0.1324 0 1
-2.1961 -18.2952 -3.5659 0.1539 0 1
-1.3471 -16.9628 -3.2929 0.1617 0 1
-0.6172 -15.8060 -3.0611 0.1777 0 1
0.0175 -14.7713 -2.8585 0.1888 0 1
0.5743 -13.8610 -2.6846 0.2076 0 1
1.0667 -13.0400 -2.5319 0.2201 0 1
1.5035 -12.2783 -2.3938 0.2269 0 1
1.8830 -11.5172 -2.2584 0.2353 0 24
2.2311 -10.8792 -2.1491 0.2496 0 1
2.5403 -10.2694 -2.0472 0.2620 0 1
2.8188 -9.7034 -1.9554 0.2739 0 1
3.0714 -9.1779 -1.8729 0.2872 0 1
3.3011 -8.6870 -1.7984 0.2991 0 1
3.5117 -8.2285 -1.7313 0.3080 0 1
3.7048 -7.7967 -1.6705 0.3187 0 1
3.8825 -7.3888 -1.6152 0.3326 0 1
4.0461 -7.0011 -1.5648 0.3433 0 1
4.1965 -6.6308 -1.5186 0.3538 0 1
4.3312 -6.2706 -1.4748 0.3547 0 1
4.4428 -5.9093 -1.4307 0.3657 0 1
4.5447 -5.5641 -1.3903 0.3763 0 1
4.6400 -5.2361 -1.3539 0.3900 0 1
4.7273 -4.9209 -1.3205 0.3999 0 1
4.8070 -4.6171 -1.2898 0.4094 0 1
4.8784 -4.3223 -1.2613 0.4082 0 1
4.9411 -4.0351 -1.2345 0.4170 0 1
5.0047 -3.7620 -1.2116 0.4422 0 1
5.0699 -3.5011 -1.1923 0.4494 0 1
5.1314 -3.2469 -1.1751 0.4560 0 1
5.1880 -2.9976 -1.1595 0.4621 0 1
5.2399 -2.7527 -1.1454 0.4678 0 1
5.2874 -2.5118 -1.1328 0.4730 0 1
5.3307 -2.2744 -1.1216 0.4778 0 1
5.3701 -2.0401 -1.1117 0.4821 0 1
5.4056 -1.8084 -1.1031 0.4858 0 1
5.4374 -1.5790 -1.0957 0.4891 0 1
4.1533 -1.0270 -0.8279 0.8727 25 14
3.8366 -0.7864 -0.7579 0.9669 25 14
3.8349 -0.6266 -0.7520 0.9745 25 14
3.8332 -0.4690 -0.7473 0.9805 25 14
3.8315 -0.3131 -0.7439 0.9850 25 14
3.8297 -0.1583 -0.7418 0.9879 25 14
3.8261 -0.0042 -0.7404 0.9980 25 14
3.8290 0.1499 -0.7415 0.9882 25 14
3.8300 0.3045 -0.7435 0.9856 25 14
3.8309 0.4602 -0.7467 0.9814 25 14
3.8319 0.6175 -0.7511 0.9756 25 14
3.8327 0.7769 -0.7568 0.9683 25 14
4.1828 1.0246 -0.8334 0.8670 25 14
5.5867 1.6091 -1.1251 0.4708 0 1
5.5753 1.8516 -1.1369 0.4659 0 1
5.5592 2.0980 -1.1499 0.4608 0 1
5.5310 2.3456 -1.1626 0.4557 0 1
5.4986 2.5974 -1.1768 0.4502 0 1
5.4618 2.8541 -1.1926 0.4443 0 1
5.4203 3.1160 -1.2099 0.4379 0 1
5.3738 3.3838 -1.2289 0.4311 0 1
5.3221 3.6581 -1.2497 0.4240 0 1
5.2648 3.9396 -1.2725 0.4164 0 1
5.2023 4.2295 -1.2975 0.4084 0 1
5.1259 4.5216 -1.3227 0.4121 0 1
5.0410 4.8207 -1.3498 0.4038 0 1
4.9488 5.1289 -1.3792 0.3952 0 1
4.8486 5.4474 -1.4113 0.3862 0 1
4.7400 5.7773 -1.4461 0.3752 0 1
4.6262 6.1252 -1.4854 0.3653 0 1
4.5021 6.4877 -1.5282 0.3551 0 1
4.3439 6.8306 -1.5665 0.3832 0 1
4.1738 7.1859 -1.6082 0.3732 0 1
3.9965 7.5655 -1.6558 0.3532 0 1
3.8122 7.9778 -1.7110 0.3418 0 1
3.6117 8.4118 -1.7715 0.3301 0 1
3.3924 8.8688 -1.8375 0.3241 0 1
3.1532 9.3544 -1.9103 0.3076 0 1
2.8925 9.8764 -1.9915 0.2951 0 1
2.6049 10.4326 -2.0809 0.2801 0 1
2.2880 11.0336 -2.1806 0.2565 0 1
1.9404 11.7074 -2.2965 0.2436 0 1
1.5512 12.4424 -2.4265 0.2305 0 1
1.1139 13.2590 -2.5749 0.2158 0 1
0.6173 14.1517 -2.7412 0.1962 0 1
0.0512 15.1722 -2.9361 0.1832 0 1
-0.6042 16.3926 -3.1744 0.1671 0 1
-1.3773 17.8368 -3.4620 0.1512 0 1
-2.2771 19.3270 -3.7660 0.1416 0 1
-3.3370 21.0122 -4.1172 0.1333 0 1
-4.5974 22.9486 -4.5292 0.1230 0 1
-6.1125 25.2029 -5.0186 0.1169 0 1
-7.8908 27.6332 -5.5613 0.1009 0 24
-10.3759 31.4820 -6.4147 0.0802 0 1
-13.5973 36.2794 -7.4976 0.0728 0 1
-17.2351 40.9007 -8.5890 0.0590 0 2
-15.8851 30.5687 -6.6666 0.5051 0 15
-16.0968 28.1487 -6.2751 0.5443 0 15
-16.4024 26.1808 -5.9787 0.8943 0 15
-28.5981 38.4007 -9.2656 0.6111 0 3
-30.4772 37.6626 -9.3758 0.7675 0 3
-28.6631 32.6440 -8.4068 0.1443 0 3
-28.9257 30.3866 -8.1186 0.6974 0 3
-29.0103 28.1193 -7.8184 0.7242 0 3
-29.0851 26.0071 -7.5505 0.7499 0 3
-20.0278 16.5084 -5.0227 0.5863 0 22
-29.2077 22.1647 -7.0954 0.7979 0 3
-29.2597 20.4036 -6.9030 0.8201 0 3
-29.3057 18.7308 -6.7306 0.8412 0 3
-30.4440 17.7762 -6.8222 0.5009 0 3
-33.4279 17.7561 -7.3249 0.4665 0 3
-39.1782 18.8315 -8.4120 0.8965 0 3
-44.1508 19.0760 -9.3074 0.9123 0 3
-27.6673 9.3965 -5.6545 0.9125 0 22
-27.6483 8.1659 -5.5789 0.9657 0 22
-31.3453 -16.1979 -6.8279 0.8961 0 22
-31.2822 -17.7941 -6.9645 0.9407 0 22
-32.4755 -33.3519 -9.0085 0.9961 0 20
-31.0920 -34.6126 -9.0038 0.9972 0 20
-18.7275 -43.0741 -9.0894 0.0557 0 2
-14.6514 -37.7856 -7.8426 0.0658 0 1
-11.0279 -32.2292 -6.5919 0.0788 0 1
-8.4074 -28.2289 -5.6999 0.0840 0 1
-6.3234 -24.8423 -4.9607 0.0930 0 1
-4.6944 -22.1301 -4.3779 0.1137 0 24
-3.4431 -20.2022 -3.9659 0.1268 0 1
-2.4065 -18.6107 -3.6315 0.1511 0 1
-1.5285 -17.2508 -3.3514 0.1588 0 1
-0.7738 -16.0561 -3.1107 0.1748 0 1
-0.1190 -14.9971 -2.9023 0.1859 0 1
0.4540 -14.0578 -2.7219 0.2054 0 1
4.8322 -3.8732 -1.2698 0.4461 0 1
4.9019 -3.6152 -1.2489 0.4535 0 1
4.9665 -3.3632 -1.2298 0.4606 0 1
5.0271 -3.1170 -1.2128 0.4671 0 1
5.0828 -2.8753 -1.1974 0.4731 0 1
5.1339 -2.6376 -1.1835 0.4787 0 1
5.1807 -2.4034 -1.1710 0.4838 0 1
5.2233 -2.1724 -1.1599 0.4885 0 1
5.2619 -1.9442 -1.1502 0.4926 0 1
5.2967 -1.7184 -1.1418 0.4962 0 1
5.3277 -1.4946 -1.1346 0.4994 0 1
3.9408 -0.9363 -0.8305 0.5447 25 14
3.8342 -0.7496 -0.8011 0.9671 25 14
3.8326 -0.5904 -0.7951 0.9743 25 14
3.8309 -0.4333 -0.7905 0.9800 25 14
3.8291 -0.2777 -0.7872 0.9841 25 14
3.8243 -0.1231 -0.7845 0.9958 25 14
3.8214 0.0307 -0.7836 0.9970 25 14
3.8270 0.1848 -0.7856 0.9944 25 14
3.8283 0.3396 -0.7880 0.9831 25 14
3.8292 0.4955 -0.7917 0.9785 25 14
3.8301 0.6531 -0.7967 0.9724 25 14
3.8574 0.8186 -0.8085 0.6451 25 14
5.4714 1.3932 -1.1576 0.4915 0 1
5.4619 1.6273 -1.1685 0.4869 0 1
5.4487 1.8650 -1.1808 0.4818 0 1
5.4262 2.1046 -1.1933 0.4694 0 1
5.3964 2.3468 -1.2066 0.4642 0 1
5.3622 2.5931 -1.2213 0.4587 0 1
5.3235 2.8440 -1.2375 0.4526 0 1
5.2801 3.0999 -1.2554 0.4462 0 1
5.2316 3.3613 -1.2750 0.4393 0 1
5.1778 3.6289 -1.2964 0.4321 0 1
5.1183 3.9033 -1.3198 0.4244 0 1
5.0537 4.1858 -1.3455 0.4163 0 1
4.9769 4.4715 -1.3718 0.4201 0 1
4.8900 4.7624 -1.3996 0.4117 0 1
4.7957 5.0619 -1.4297 0.4031 0 1
4.6934 5.3709 -1.4625 0.3940 0 1
4.5832 5.6913 -1.4983 0.3829 0 1
4.4670 6.0279 -1.5383 0.3729 0 1
4.3405 6.3782 -1.5819 0.3627 0 1
4.1886 6.7211 -1.6238 0.3908 0 1
4.0176 7.0644 -1.6663 0.3808 0 1
3.8394 7.4315 -1.7151 0.3605 0 1
3.6535 7.8283 -1.7713 0.3490 0 1
3.4515 8.2454 -1.8328 0.3373 0 1
3.2316 8.6850 -1.9000 0.3254 0 1
2.9918 9.1507 -1.9740 0.3147 0 1
2.7296 9.6456 -2.0554 0.2998 0 1
2.4417 10.1729 -2.1451 0.2872 0 1
2.1252 10.7407 -2.2450 0.2724 0 1
1.7773 11.3652 -2.3586 0.2507 0 1
1.3912 12.0543 -2.4880 0.2377 0 1
0.9528 12.7341 -2.6183 0.2238 0 24
0.4701 13.6338 -2.7971 0.2107 0 1
-0.0837 14.5585 -2.9851 0.1905 0 1
-0.7206 15.6649 -3.2153 0.1684 0 1
-1.4635 16.9385 -3.4860 0.1587 0 1
-2.3233 18.2819 -3.7787 0.1492 0 1
-3.3285 19.7908 -4.1149 0.1387 0 1
-4.5084 21.4845 -4.5011 0.1298 0 1
-5.9180 23.4642 -4.9617 0.1201 0 1
-7.5915 25.6945 -5.4935 0.1129 0 1
-9.7096 28.5805 -6.1891 0.0900 0 1
-12.5276 32.5192 -7.1454 0.0821 0 1
-16.0746 37.1945 -8.3081 0.0717 0 1
-17.4896 36.3778 -8.2762 0.9744 0 6
-15.8007 29.7399 -6.9051 0.4848 0 15
-16.0195 27.4296 -6.5131 0.5593 0 15
-16.6833 26.0968 -6.3509 0.8479 0 15
-26.9038 35.4458 -9.1242 0.6078 0 3
-26.8878 32.6137 -8.6667 0.8724 0 3
-28.7002 32.0908 -8.8275 0.6781 0 3
-27.0688 27.9212 -7.9737 0.9801 0 3
-17.3713 16.5331 -4.9171 0.2954 0 22
-28.9630 25.4262 -7.9023 0.7575 0 3
-29.0315 23.4883 -7.6569 0.7818 0 3
-29.0899 21.6598 -7.4364 0.8049 0 3
-27.6211 18.8888 -6.8611 0.0670 0 3
-29.1912 18.2847 -7.0626 0.8475 0 3
-31.0831 17.7710 -7.3414 0.4921 0 3
-34.1656 17.7501 -7.8943 0.4576 0 3
-38.0336 17.8559 -8.6150 0.9018 0 3
-43.9863 18.5305 -9.7866 0.9172 0 3
-43.9057 16.4509 -9.6136 0.9280 0 3
-27.5158 9.0659 -5.9402 0.9614 0 22
-27.5548 7.8657 -5.8755 0.9572 0 22
-25.6184 -13.5361 -5.9410 0.8891 15 6
-25.5900 -14.8670 -6.0682 0.7455 15 6
-25.4393 -17.6570 -6.3494 0.8770 15 6
-32.1593 -33.6358 -9.5417 0.9948 0 20
-30.6906 -34.7993 -9.5137 0.9987 0 20
-23.6395 -41.1297 -9.7269 0.2068 0 20
-19.4002 -41.0790 -9.3149 0.0575 0 2
-15.4371 -36.4109 -8.1089 0.0629 0 1
-11.7690 -31.1934 -6.8360 0.0769 0 1
-9.1290 -27.4962 -5.9404 0.0871 0 1
-7.0036 -24.3245 -5.1901 0.0939 0 1
-5.3286 -21.7629 -4.5941 0.1148 0 24
-4.0359 -19.9197 -4.1673 0.1276 0 1
-2.9586 -18.3700 -3.8151 0.1521 0 1
-2.0494 -17.0725 -3.5257 0.1596 0 1
-1.2648 -15.9259 -3.2757 0.1757 0 1
-0.5820 -14.9044 -3.0583 0.1865 0 1
0.0166 -13.9954 -2.8696 0.2060 0 1
0.5460 -13.1802 -2.7048 0.2178 0 1
1.0172 -12.4342 -2.5580 0.2303 0 1
1.4346 -11.7157 -2.4201 0.2324 0 1
1.8010 -11.0159 -2.2887 0.2453 0 24
2.1394 -10.4319 -2.1835 0.2597 0 1
2.4406 -9.8663 -2.0840 0.2717 0 1
2.7128 -9.3385 -1.9939 0.2840 0 1
2.9610 -8.8481 -1.9131 0.2973 0 1
3.1871 -8.3868 -1.8396 0.3092 0 1
3.3935 -7.9515 -1.7726 0.3208 0 1
3.5848 -7.5442 -1.7126 0.3316 0 1
3.7611 -7.1578 -1.6579 0.3426 0 1
3.9234 -6.7888 -1.6077 0.3533 0 1
4.0729 -6.4355 -1.5616 0.3637 0 1
4.2047 -6.0876 -1.5170 0.3646 0 1
4.3169 -5.7417 -1.4729 0.3755 0 1
4.4205 -5.4120 -1.4328 0.3896 0 1
4.5165 -5.0967 -1.3963 0.3998 0 1
4.6044 -4.7930 -1.3628 0.4096 0 1
4.6838 -4.4987 -1.3316 0.4087 0 1
4.7539 -4.2119 -1.3023 0.4179 0 1
4.8176 -3.9343 -1.2753 0.4268 0 1
4.8866 -3.6732 -1.2534 0.4519 0 1
4.9520 -3.4197 -1.2339 0.4591 0 1
5.0138 -3.1724 -1.2165 0.4657 0 1
5.0706 -2.9298 -1.2007 0.4718 0 1
5.1227 -2.6912 -1.1865 0.4774 0 1
5.1704 -2.4563 -1.1737 0.4826 0 1
5.2140 -2.2246 -1.1623 0.4874 0 1
5.2535 -1.9958 -1.1523 0.4917 0 1
5.2891 -1.7694 -1.1436 0.4954 0 1
5.3210 -1.5452 -1.1361 0.4987 0 1
4.1352 -1.0225 -0.8734 0.9711 25 14
3.8346 -0.7860 -0.8026 0.9652 25 14
3.8329 -0.6263 -0.7963 0.9728 25 14
3.8313 -0.4688 -0.7914 0.9789 25 14
3.8295 -0.3129 -0.7878 0.9833 25 14
3.8255 -0.1581 -0.7851 0.9951 25 14
3.8201 -0.0042 -0.7833 0.9974 25 14
3.8257 0.1498 -0.7850 0.9951 25 14
3.8280 0.3044 -0.7874 0.9839 25 14
3.8290 0.4600 -0.7907 0.9797 25 14
3.8299 0.6172 -0.7954 0.9740 25 14
3.8308 0.7765 -0.8014 0.9666 25 14
4.1496 1.0164 -0.8760 0.8720 25 14
5.4643 1.5739 -1.1660 0.4880 0 1
5.4520 1.8107 -1.1779 0.4830 0 1
5.4325 2.0502 -1.1906 0.4708 0 1
5.4035 2.2915 -1.2034 0.4654 0 1
5.3704 2.5369 -1.2178 0.4600 0 1
5.3327 2.7866 -1.2337 0.4540 0 1
5.2904 3.0413 -1.2512 0.4477 0 1
5.2430 3.3015 -1.2704 0.4409 0 1
5.1904 3.5676 -1.2914 0.4337 0 1
5.1323 3.8404 -1.3143 0.4262 0 1
5.0689 4.1210 -1.3395 0.4182 0 1
4.9957 4.4067 -1.3659 0.4219 0 1
4.9104 4.6957 -1.3931 0.4137 0 1
4.8178 4.9932 -1.4227 0.4051 0 1
4.7173 5.2999 -1.4548 0.3961 0 1
4.6084 5.6169 -1.4897 0.3868 0 1
4.4942 5.9504 -1.5290 0.3752 0 1
4.3701 6.2975 -1.5717 0.3650 0 1
4.2258 6.6449 -1.6146 0.3930 0 1
4.0574 6.9855 -1.6564 0.3831 0 1
3.8795 7.3440 -1.7030 0.3631 0 1
3.6970 7.7366 -1.7581 0.3517 0 1
3.4988 8.1489 -1.8183 0.3400 0 1
3.2831 8.5831 -1.8842 0.3281 0 1
3.0479 9.0419 -1.9564 0.3176 0 1
2.7912 9.5306 -2.0362 0.3026 0 1
2.5094 10.0502 -2.1240 0.2901 0 1
2.1995 10.6072 -2.2212 0.2753 0 1
1.8591 11.2167 -2.3312 0.2537 0 1
1.4827 11.8927 -2.4574 0.2407 0 1
1.0549 12.5571 -2.5838 0.2259 0 24
0.5863 13.4411 -2.7586 0.2136 0 1
0.0484 14.3367 -2.9396 0.1935 0 1
-0.5675 15.3955 -3.1588 0.1714 0 1
-1.2850 16.6420 -3.4224 0.1581 0 1
-2.1166 17.9647 -3.7089 0.1513 0 1
-3.0861 19.4319 -4.0343 0.1415 0 1
-4.2234 21.0817 -4.4085 0.1325 0 1
-5.5766 22.9934 -4.8512 0.1214 0 1
-7.1871 25.1689 -5.3669 0.1156 0 1
-9.1708 27.8254 -6.0072 0.0927 0 1
-11.8251 31.5508 -6.9086 0.0793 0 1
-15.2003 36.0718 -8.0260 0.0746 0 1
-19.1054 40.6850 -9.2160 0.0581 0 2
-15.7592 30.3265 -7.0076 0.5000 0 15
-15.9680 27.9235 -6.5955 0.5543 0 15
-16.3636 26.1188 -6.3196 0.8967 0 15
-28.2007 37.8671 -9.6808 0.7898 0 3
-30.4763 37.6614 -9.9337 0.7659 0 3
-28.6761 32.6588 -8.9114 0.6717 0 3
-31.0911 32.6613 -9.2459 0.7143 0 3
-28.8669 27.9804 -8.2430 0.7262 0 3
-18.5176 16.5579 -5.0934 0.1775 0 6
-29.0167 23.9177 -7.7102 0.7764 0 3
-29.0767 22.0653 -7.4842 0.7997 0 3
-28.1228 19.6108 -7.0298 0.0654 0 3
-29.1809 18.6511 -7.1010 0.8429 0 3
-30.4426 17.7753 -7.2281 0.4998 0 3
-33.4262 17.7551 -7.7606 0.4655 0 3
-39.0217 18.7563 -8.8773 0.8981 0 3
-43.9775 19.0011 -9.8228 0.9138 0 3
-44.2218 17.0311 -9.7164 0.9282 0 3
-27.5190 9.3462 -5.9590 0.8575 0 22
-27.5449 8.1354 -5.8890 0.9550 0 22
-25.6371 -13.2482 -5.9170 0.7212 15 6
-31.1994 -17.7471 -7.3596 0.8144 0 22
-32.4955 -33.3725 -9.5507 0.9939 0 20
-31.0222 -34.5348 -9.5184 0.9982 0 20
-20.6975 -42.8099 -9.7498 0.0549 0 2
-16.5018 -37.9548 -8.4860 0.4439 0 2
-12.4660 -32.1494 -7.0701 0.0761 0 1
-9.6833 -28.2995 -6.1328 0.0844 0 1
-7.4447 -24.9964 -5.3477 0.0912 0 1
-5.6649 -22.2552 -4.7087 0.1122 0 24
-4.3127 -20.3308 -4.2614 0.1248 0 1
-3.1839 -18.6816 -3.8857 0.1493 0 1
-2.2445 -17.3580 -3.5887 0.1568 0 1
-1.4330 -16.1725 -3.3290 0.1729 0 1
-0.7290 -15.1277 -3.1054 0.1851 0 1
-0.1126 -14.1909 -2.9098 0.2031 0 1
0.4314 -13.3589 -2.7405 0.2149 0 1
4.7188 -3.7823 -1.3100 0.4557 0 1
4.7887 -3.5317 -1.2889 0.4632 0 1
4.8534 -3.2866 -1.2697 0.4702 0 1
4.9142 -3.0470 -1.2525 0.4767 0 1
4.9701 -2.8115 -1.2369 0.4827 0 1
5.0214 -2.5798 -1.2229 0.4882 0 1
5.0683 -2.3513 -1.2103 0.4933 0 1
5.1110 -2.1258 -1.1991 0.4980 0 1
5.1498 -1.9028 -1.1892 0.5021 0 1
5.1846 -1.6820 -1.1807 0.5058 0 1
5.2157 -1.4631 -1.1734 0.5089 0 1
3.9383 -0.9357 -0.8768 0.5913 25 14
3.8322 -0.7492 -0.8458 0.9653 25 14
3.8306 -0.5901 -0.8395 0.9726 25 14
3.8289 -0.4331 -0.8347 0.9782 25 14
3.8236 -0.2773 -0.8304 0.9915 25 14
3.8181 -0.1229 -0.8275 0.9950 25 14
3.8154 0.0306 -0.8265 0.9963 25 14
3.8209 0.1845 -0.8286 0.9937 25 14
3.8263 0.3394 -0.8321 0.9813 25 14
3.8272 0.4952 -0.8359 0.9768 25 14
3.8281 0.6528 -0.8412 0.9707 25 14
3.8568 0.8185 -0.8540 0.6437 25 14
5.3546 1.3635 -1.1969 0.5010 0 1
5.3443 1.5922 -1.2079 0.4964 0 1
5.3302 1.8244 -1.2203 0.4914 0 1
5.3045 2.0574 -1.2324 0.4794 0 1
5.2740 2.2936 -1.2458 0.4739 0 1
5.2391 2.5336 -1.2606 0.4683 0 1
5.1997 2.7778 -1.2770 0.4623 0 1
5.1555 3.0267 -1.2950 0.4559 0 1
5.1063 3.2808 -1.3147 0.4491 0 1
5.0517 3.5406 -1.3363 0.4418 0 1
4.9916 3.8067 -1.3598 0.4342 0 1
4.9262 4.0802 -1.3856 0.4261 0 1
4.8525 4.3597 -1.4130 0.4298 0 1
4.7653 4.6410 -1.4409 0.4215 0 1
4.6709 4.9302 -1.4711 0.4129 0 1
4.5685 5.2280 -1.5039 0.4039 0 1
4.4580 5.5359 -1.5396 0.3927 0 1
4.3418 5.8590 -1.5796 0.3828 0 1
4.2155 6.1946 -1.6231 0.3725 0 1
4.0767 6.5415 -1.6696 0.4006 0 1
3.9074 6.8708 -1.7122 0.3906 0 1
3.7289 7.2177 -1.7598 0.3703 0 1
3.5450 7.5960 -1.8158 0.3589 0 1
3.3456 7.9924 -1.8768 0.3472 0 1
3.1289 8.4090 -1.9435 0.3353 0 1
2.8929 8.8481 -2.0165 0.3221 0 1
2.6357 9.3137 -2.0967 0.3097 0 1
2.3541 9.8082 -2.1849 0.2972 0 1
2.0451 10.3358 -2.2823 0.2824 0 1
