ply
format ascii 1.0
element vertex 1383
property float32 x
property float32 y
property float32 z
property float32 CosAngle
property uint32 ObjIdx
property uint32 ObjTag
end_header
4.1402 -24.0792 -1.4230 0.1089 0 2
4.5776 -21.4315 -1.2764 0.1214 0 2
4.9305 -19.2625 -1.1581 0.1338 0 2
5.2208 -17.4483 -1.0608 0.1461 0 2
5.7653 -16.7827 -1.0336 0.1748 0 2
5.8612 -15.0648 -0.9415 0.1448 0 1
5.9702 -13.6913 -0.8699 0.1784 0 24
6.1754 -12.7399 -0.8246 0.1941 0 1
6.3214 -11.8085 -0.7801 0.2067 0 1
6.4538 -10.9730 -0.7414 0.2174 0 1
6.5680 -10.2062 -0.7069 0.2270 0 1
6.6617 -9.4915 -0.6754 0.2311 0 1
6.7383 -8.8249 -0.6467 0.2414 0 1
6.8198 -8.2248 -0.6223 0.2659 0 1
6.8947 -7.6667 -0.6005 0.2756 0 1
6.9789 -7.1601 -0.5824 0.2942 0 1
7.0572 -6.6815 -0.5660 0.3027 0 1
7.0975 -6.1987 -0.5488 0.2685 0 1
6.8794 -5.5375 -0.5144 0.3010 0 2
6.9141 -5.1220 -0.5012 0.3101 0 25
6.3001 -4.2865 -0.4438 0.7951 14 6
6.4818 -4.0393 -0.4448 0.5333 14 6
7.0082 -3.9860 -0.4696 0.3310 0 25
7.0335 -3.6347 -0.4611 0.3370 0 25
7.0560 -3.2945 -0.4536 0.3427 0 25
7.0761 -2.9640 -0.4468 0.3478 0 25
7.0938 -2.6420 -0.4409 0.3525 0 25
7.1110 -2.3279 -0.4358 0.3564 0 2
7.3663 -2.0880 -0.4459 0.3598 0 1
7.3906 -1.7777 -0.4427 0.3636 0 1
4.4663 -0.8863 -0.2652 0.0153 25 14
3.9189 -0.6153 -0.2310 0.9697 25 14
3.9104 -0.4540 -0.2293 0.9771 25 14
3.9019 -0.2949 -0.2279 0.9830 25 14
3.8914 -0.1374 -0.2268 0.9806 25 14
3.8696 0.0188 -0.2254 0.9867 25 14
3.8944 0.1754 -0.2271 0.9795 25 14
3.9039 0.3333 -0.2282 0.9818 25 14
3.9128 0.4930 -0.2297 0.9754 25 14
3.9217 0.6550 -0.2316 0.9674 25 14
7.5773 1.5805 -0.4508 0.3637 0 1
7.5893 1.9039 -0.4557 0.3598 0 1
7.5995 2.2343 -0.4614 0.3555 0 1
7.6078 2.5727 -0.4678 0.3507 0 1
7.6144 2.9205 -0.4750 0.3453 0 1
7.6192 3.2790 -0.4831 0.3395 0 1
7.6221 3.6496 -0.4922 0.3332 0 1
7.6231 4.0340 -0.5023 0.3265 0 1
7.5934 4.4172 -0.5117 0.3299 0 1
7.5502 4.8078 -0.5213 0.3237 0 1
7.5031 5.2126 -0.5321 0.3172 0 1
7.4518 5.6335 -0.5441 0.3102 0 1
7.3994 6.0758 -0.5576 0.3024 0 1
7.3054 6.5067 -0.5698 0.3352 0 1
7.1905 6.9416 -0.5821 0.3281 0 1
7.0684 7.3945 -0.5958 0.3205 0 1
6.9570 7.8891 -0.6126 0.3062 0 1
6.9085 8.4989 -0.6379 0.9159 0 2
6.5003 8.6872 -0.6319 0.2435 0 2
6.4170 9.3348 -0.6598 0.2349 0 2
6.3236 10.0398 -0.6911 0.2242 0 2
6.2181 10.8118 -0.7264 0.2133 0 2
6.0984 11.6634 -0.7666 0.2022 0 2
5.9617 12.6103 -0.8124 0.1908 0 2
5.8044 13.6727 -0.8651 0.1791 0 2
5.6220 14.8768 -0.9263 0.1673 0 2
5.4084 16.2572 -0.9979 0.1553 0 2
5.1553 17.8606 -1.0827 0.1431 0 2
4.8514 19.7519 -1.1846 0.1308 0 2
4.4804 22.0236 -1.3090 0.1184 0 2
4.0181 24.8126 -1.4640 0.1059 0 2
2.5008 20.6724 -1.2128 0.8210 0 20
2.6471 32.9207 -1.9236 0.0806 0 2
1.6501 41.1455 -2.3984 0.0722 0 1
-0.0036 49.4216 -2.8785 0.0609 0 1
-30.5788 37.6069 -2.8231 0.9866 0 3
-30.7711 34.8835 -2.7092 0.6396 0 3
-30.5501 31.9505 -2.5747 0.6678 0 3
-28.9487 27.9388 -2.3432 0.8177 0 3
-18.5486 16.5159 -1.4465 0.7600 0 6
-29.3395 24.0840 -2.2108 0.6384 0 3
-29.3090 22.1509 -2.1397 0.1915 0 3
-29.1604 20.2522 -2.0678 0.7921 0 3
-30.8544 19.6410 -2.1303 0.8133 0 3
-30.8595 17.9455 -2.0792 0.8333 0 3
-35.8311 18.9542 -2.3609 0.8520 0 3
-37.0703 17.7434 -2.3937 0.4369 0 3
-40.0755 17.2402 -2.5410 0.7021 0 3
-46.1265 17.6845 -2.8772 0.3634 0 3
-0.4998 -44.1842 -3.0653 0.0637 0 1
1.0836 -37.5600 -2.6066 0.0747 0 2
1.8064 -26.1399 -1.8177 0.9809 0 20
2.8918 -26.3889 -1.8416 0.1002 0 2
3.5068 -23.3128 -1.6354 0.1128 0 2
3.9952 -20.8348 -1.4716 0.1253 0 2
4.3099 -18.4393 -1.3136 0.8703 0 6
4.8392 -17.5013 -1.2596 0.9348 0 2
5.2034 -16.2485 -1.1835 0.1282 0 1
5.3834 -14.7447 -1.0889 0.1482 0 1
5.5744 -13.5524 -1.0165 0.1888 0 1
5.7661 -12.5600 -0.9587 0.1987 0 1
5.9338 -11.6661 -0.9079 0.2113 0 1
6.0836 -10.8584 -0.8634 0.2222 0 1
6.2151 -10.1179 -0.8237 0.2318 0 1
6.3223 -9.4221 -0.7871 0.2360 0 1
6.4206 -8.7847 -0.7548 0.2610 0 1
6.5149 -8.2013 -0.7266 0.2711 0 1
6.6001 -7.6562 -0.7012 0.2809 0 1
6.6924 -7.1606 -0.6799 0.2999 0 1
6.7704 -6.6847 -0.6600 0.2657 0 1
6.8095 -6.2036 -0.6390 0.2744 0 1
6.8424 -5.7483 -0.6199 0.2764 0 1
6.6651 -5.1576 -0.5846 0.3164 0 25
6.2794 -4.4679 -0.5346 0.8003 14 6
6.3021 -4.1133 -0.5221 0.3312 14 6
6.6898 -3.9929 -0.5404 0.5166 14 6
6.8060 -3.7001 -0.5374 0.3442 0 25
6.8328 -3.3666 -0.5284 0.3501 0 25
6.8567 -3.0427 -0.5204 0.3555 0 25
6.8780 -2.7272 -0.5133 0.3604 0 25
6.8981 -2.4195 -0.5071 0.3629 0 2
7.1431 -2.1876 -0.5182 0.3684 0 1
7.1691 -1.8844 -0.5142 0.3726 0 1
7.1938 -1.5851 -0.5110 0.3749 0 1
3.9566 -0.7066 -0.2788 0.3092 25 14
3.9064 -0.5368 -0.2735 0.9748 25 14
3.8980 -0.3770 -0.2717 0.9815 25 14
3.8896 -0.2191 -0.2702 0.9867 25 14
3.8757 -0.0624 -0.2689 0.9843 25 14
3.8781 0.0933 -0.2691 0.9836 25 14
3.8911 0.2502 -0.2705 0.9858 25 14
3.8999 0.4085 -0.2720 0.9803 25 14
3.9087 0.5688 -0.2740 0.9732 25 14
4.0456 0.7557 -0.2855 0.3020 25 14
7.3691 1.6852 -0.5244 0.3721 0 1
7.3777 2.0019 -0.5303 0.3680 0 1
7.3839 2.3256 -0.5370 0.3635 0 1
7.3880 2.6574 -0.5447 0.3584 0 1
7.3901 2.9983 -0.5532 0.3529 0 1
7.3899 3.3498 -0.5628 0.3468 0 1
7.3875 3.7131 -0.5736 0.3404 0 1
7.3739 4.0850 -0.5848 0.3305 0 1
7.3365 4.4582 -0.5955 0.3373 0 1
7.2883 4.8399 -0.6069 0.3310 0 1
7.2359 5.2355 -0.6196 0.3242 0 1
7.1787 5.6466 -0.6336 0.3170 0 1
7.1246 6.0826 -0.6499 0.3089 0 1
7.0292 6.5067 -0.6645 0.3421 0 1
6.9098 6.9315 -0.6789 0.3348 0 1
6.7876 7.3791 -0.6955 0.3210 0 1
6.6698 7.8623 -0.7152 0.3122 0 1
6.6209 8.4719 -0.7459 0.2763 0 2
6.2693 8.7222 -0.7451 0.9745 0 2
6.0945 9.2404 -0.7679 0.2402 0 2
5.9870 9.9224 -0.8039 0.2294 0 2
5.8659 10.6677 -0.8445 0.2184 0 2
5.7287 11.4877 -0.8905 0.2071 0 2
5.5725 12.3970 -0.9429 0.1956 0 2
5.3934 13.4141 -1.0029 0.1839 0 2
5.1863 14.5625 -1.0724 0.1720 0 2
4.9447 15.8736 -1.1533 0.1599 0 2
4.6599 17.3890 -1.2488 0.1477 0 2
4.3196 19.1662 -1.3629 0.1353 0 2
3.9068 21.2862 -1.5013 0.1229 0 2
2.2292 15.6642 -1.0976 0.9841 0 9
2.1294 20.9673 -1.4620 0.2772 0 20
1.4184 23.2017 -1.6125 0.9955 0 20
0.8085 38.6769 -2.6836 0.0700 0 1
-0.8884 46.1416 -3.2014 0.0667 0 1
-30.5538 39.2292 -3.4493 0.5979 0 3
-30.5868 36.1766 -3.2863 0.6275 0 3
-30.6152 33.3934 -3.1427 0.6562 0 3
-30.6397 30.8378 -3.0156 0.6839 0 3
-29.7297 27.6111 -2.8146 0.5319 0 3
-30.6789 26.2795 -2.8022 0.7360 0 3
-30.6943 24.2259 -2.7126 0.7603 0 3
-30.7049 22.2937 -2.6322 0.7834 0 3
-30.3406 20.2205 -2.5293 0.1983 0 3
-30.0942 18.3557 -2.4453 0.2055 0 3
-29.9504 16.6566 -2.3774 0.2194 0 3
-35.1797 17.7547 -2.7336 0.4553 0 3
-40.9506 18.6440 -3.1213 0.8800 0 3
-41.1851 16.7890 -3.0853 0.9528 0 3
-46.3147 16.7451 -3.4164 0.9478 0 3
-34.2230 -33.6786 -3.3308 0.9528 0 20
-33.0540 -35.2498 -3.3522 0.3866 0 20
-18.4814 -27.4451 -2.2953 0.8030 0 22
-1.5043 -49.3204 -3.4229 0.0504 0 1
0.3889 -40.2532 -2.7925 0.0692 0 1
1.6264 -32.6217 -2.2658 0.0814 0 2
2.5386 -28.1397 -1.9600 0.0941 0 2
3.2316 -24.6944 -1.7277 0.1068 0 2
3.7751 -21.9558 -1.5454 0.1193 0 2
4.2122 -19.7208 -1.3989 0.1319 0 2
4.5708 -17.8571 -1.2787 0.1442 0 2
5.1377 -17.1702 -1.2433 0.1726 0 2
5.3044 -15.4411 -1.1326 0.1425 0 1
5.4739 -14.0693 -1.0473 0.1833 0 1
5.6776 -13.0203 -0.9854 0.1934 0 1
5.8559 -12.0808 -0.9313 0.2034 0 1
6.0143 -11.2347 -0.8840 0.2171 0 1
6.1550 -10.4650 -0.8422 0.2278 0 1
6.2750 -9.7509 -0.8044 0.2309 0 1
6.3719 -9.0786 -0.7694 0.2560 0 1
6.4711 -8.4749 -0.7397 0.2663 0 1
6.5605 -7.9121 -0.7130 0.2763 0 1
6.6487 -7.3932 -0.6898 0.2956 0 1
6.7381 -6.9131 -0.6697 0.3045 0 1
6.7915 -6.4299 -0.6488 0.2703 0 1
6.8279 -5.9632 -0.6289 0.2789 0 1
6.6452 -5.3491 -0.5918 0.3127 0 2
6.6870 -4.9538 -0.5773 0.3204 0 25
6.2860 -4.2769 -0.5274 0.3278 14 6
6.4101 -3.9946 -0.5239 0.5329 14 6
6.7921 -3.8631 -0.5420 0.3412 0 25
6.8204 -3.5246 -0.5326 0.3473 0 25
6.8456 -3.1963 -0.5241 0.3529 0 25
6.8681 -2.8769 -0.5166 0.3581 0 25
6.8880 -2.5653 -0.5099 0.3628 0 25
7.0594 -2.3110 -0.5153 0.5764 0 2
7.1565 -2.0285 -0.5160 0.3700 0 1
7.1823 -1.7276 -0.5124 0.3739 0 1
4.1667 -0.8269 -0.2947 0.2717 25 14
3.9104 -0.6140 -0.2746 0.9711 25 14
3.9020 -0.4531 -0.2725 0.9785 25 14
3.8936 -0.2943 -0.2709 0.9844 25 14
3.8852 -0.1372 -0.2697 0.9887 25 14
3.8663 0.0188 -0.2682 0.9868 25 14
3.8869 0.1751 -0.2699 0.9879 25 14
3.8957 0.3326 -0.2712 0.9831 25 14
3.9045 0.4919 -0.2730 0.9767 25 14
3.9134 0.6536 -0.2752 0.9688 25 14
7.3644 1.5361 -0.5219 0.3739 0 1
7.3738 1.8498 -0.5274 0.3700 0 1
7.3812 2.1701 -0.5337 0.3658 0 1
7.3863 2.4978 -0.5409 0.3609 0 1
7.3894 2.8342 -0.5490 0.3556 0 1
7.3903 3.1805 -0.5581 0.3498 0 1
7.3890 3.5380 -0.5683 0.3435 0 1
7.3824 3.9066 -0.5794 0.3335 0 1
7.3580 4.2803 -0.5905 0.3402 0 1
7.3118 4.6560 -0.6013 0.3341 0 1
7.2615 5.0447 -0.6134 0.3275 0 1
7.2066 5.4482 -0.6267 0.3205 0 1
7.1504 5.8713 -0.6418 0.3127 0 1
7.0837 6.3092 -0.6580 0.3454 0 1
6.9677 6.7266 -0.6718 0.3383 0 1
6.8444 7.1602 -0.6871 0.3308 0 1
6.7272 7.6284 -0.7056 0.3165 0 1
6.6704 8.2059 -0.7336 0.2809 0 2
6.4651 8.6401 -0.7486 0.9700 0 2
6.0399 9.5894 -0.7862 0.2346 0 2
5.9256 10.3031 -0.8245 0.2237 0 2
5.7964 11.0858 -0.8678 0.2125 0 2
5.6497 11.9505 -0.9170 0.2011 0 2
5.4821 12.9135 -0.9732 0.1895 0 2
5.2890 13.9958 -1.0379 0.1777 0 2
5.0649 15.2247 -1.1130 0.1657 0 2
4.8020 16.6364 -1.2012 0.1536 0 2
4.4900 18.2802 -1.3058 0.1413 0 2
4.1144 20.2244 -1.4317 0.1288 0 2
3.6545 22.5673 -1.5859 0.1163 0 2
2.4858 20.5482 -1.4358 0.8794 0 20
1.8027 22.4191 -1.5602 0.9904 0 6
1.4281 35.6095 -2.4722 0.0785 0 1
-0.0031 42.3285 -2.9363 0.0733 0 1
-30.5717 37.5981 -3.3616 0.6135 0 3
-28.7719 32.6171 -3.0172 0.9827 0 3
-30.6285 32.0324 -3.0744 0.6708 0 3
-30.6511 29.5817 -2.9550 0.6979 0 3
-30.6706 27.3094 -2.8488 0.7239 0 3
-30.6873 25.1903 -2.7541 0.7488 0 3
-30.5358 23.0781 -2.6552 0.8772 0 3
-30.4915 21.1766 -2.5753 0.1875 0 3
-30.2077 19.2294 -2.4841 0.2023 0 3
-30.0011 17.4463 -2.4075 0.2163 0 3
-33.5831 17.7651 -2.6355 0.4722 0 3
-40.9480 19.5994 -3.1492 0.8722 0 3
-40.2438 17.3126 -3.0391 0.2161 0 3
-46.1235 17.6834 -3.4267 0.3632 0 3
-0.4287 -37.8940 -3.0512 0.0724 0 1
0.9448 -32.7505 -2.6380 0.0833 0 1
1.8045 -26.1127 -2.1074 0.9941 0 20
2.6165 -23.8762 -1.9339 0.1106 0 2
3.2070 -21.3202 -1.7359 0.1232 0 2
3.6853 -19.2186 -1.5756 0.1358 0 2
4.2045 -17.9886 -1.4874 0.8879 0 2
4.5920 -16.6074 -1.3873 0.1268 0 1
4.8341 -15.0952 -1.2762 0.1467 0 1
5.0541 -13.8425 -1.1865 0.1901 0 1
5.2792 -12.8348 -1.1174 0.1992 0 1
5.4763 -11.9287 -1.0568 0.2121 0 1
5.6513 -11.1107 -1.0036 0.2217 0 1
5.8075 -10.3657 -0.9566 0.2326 0 1
5.9418 -9.6731 -0.9140 0.2357 0 1
6.0612 -9.0331 -0.8758 0.2608 0 1
6.1718 -8.4443 -0.8421 0.2713 0 1
6.2715 -7.8949 -0.8118 0.2814 0 1
6.3685 -7.3875 -0.7853 0.3011 0 1
6.4588 -6.9107 -0.7616 0.2670 0 1
6.5104 -6.4281 -0.7366 0.2761 0 1
6.5560 -5.9727 -0.7141 0.2848 0 1
6.5898 -5.5362 -0.6930 0.2867 0 1
6.4502 -4.9913 -0.6567 0.3267 0 25
6.2991 -4.4819 -0.6224 0.7406 14 6
6.2905 -4.1058 -0.6048 0.7622 14 6
6.5711 -3.9220 -0.6161 0.3482 0 25
6.6038 -3.5901 -0.6052 0.3545 0 25
6.6331 -3.2682 -0.5954 0.3603 0 25
6.6593 -2.9551 -0.5866 0.3657 0 25
6.6825 -2.6497 -0.5788 0.3706 0 25
6.8119 -2.3892 -0.5812 0.6572 0 2
6.9442 -2.1267 -0.5847 0.3787 0 1
6.9717 -1.8325 -0.5804 0.3828 0 1
6.9969 -1.5417 -0.5769 0.3852 0 1
3.9064 -0.6976 -0.3195 0.9679 25 14
3.8980 -0.5357 -0.3168 0.9761 25 14
3.8897 -0.3762 -0.3146 0.9828 25 14
3.8813 -0.2186 -0.3130 0.9880 25 14
3.8721 -0.0624 -0.3118 0.9844 25 14
3.8742 0.0932 -0.3120 0.9911 25 14
3.8829 0.2496 -0.3133 0.9871 25 14
3.8917 0.4076 -0.3150 0.9815 25 14
3.9004 0.5676 -0.3173 0.9744 25 14
3.9893 0.7452 -0.3268 0.3060 25 14
7.1664 1.6388 -0.5919 0.3823 0 1
7.1725 1.9463 -0.5984 0.3782 0 1
7.1761 2.2602 -0.6058 0.3737 0 1
7.1773 2.5816 -0.6141 0.3687 0 1
7.1761 2.9115 -0.6235 0.3631 0 1
7.1723 3.2511 -0.6340 0.3571 0 1
7.1660 3.6017 -0.6457 0.3506 0 1
7.1454 3.9584 -0.6577 0.3408 0 1
7.1137 4.3228 -0.6702 0.3476 0 1
7.0629 4.6903 -0.6826 0.3413 0 1
7.0076 5.0703 -0.6964 0.3345 0 1
6.9472 5.4646 -0.7117 0.3273 0 1
6.8895 5.8819 -0.7294 0.3192 0 1
6.8199 6.3129 -0.7482 0.3523 0 1
6.6997 6.7208 -0.7641 0.3450 0 1
6.5732 7.1460 -0.7817 0.3312 0 1
6.4533 7.6071 -0.8032 0.3224 0 1
6.3239 8.0919 -0.8269 0.3132 0 1
6.2629 8.7134 -0.8640 0.2770 0 2
5.8609 8.8863 -0.8571 0.9933 0 2
5.7240 9.4866 -0.8921 0.2398 0 2
5.5958 10.1765 -0.9351 0.2288 0 2
5.4513 10.9314 -0.9835 0.2175 0 2
5.2876 11.7632 -1.0384 0.2060 0 2
5.1010 12.6869 -1.1009 0.1943 0 2
4.8868 13.7216 -1.1728 0.1824 0 2
4.6390 14.8920 -1.2558 0.1703 0 2
4.3494 16.2306 -1.3529 0.1581 0 2
4.0075 17.7813 -1.4675 0.1458 0 2
3.5981 19.6042 -1.6048 0.1333 0 2
1.9766 13.8894 -1.1296 0.5622 0 20
2.4830 24.4492 -1.9786 0.1081 0 2
1.4183 23.2011 -1.8715 0.9947 0 20
0.7049 33.7166 -2.7153 0.0792 0 1
-0.7650 39.7320 -3.1996 0.0746 0 1
-2.8344 47.6569 -3.8438 0.0674 0 1
-30.2203 38.8009 -3.9598 0.7797 0 3
-31.8456 37.6654 -3.9712 0.7654 0 3
-30.4512 33.2146 -3.6280 0.6592 0 3
-30.4822 30.6793 -3.4821 0.6869 0 3
-30.5090 28.3349 -3.3524 0.7134 0 3
-30.5323 26.1539 -3.2369 0.7389 0 3
-28.7156 22.6641 -2.9454 0.9805 0 3
-30.5671 22.1936 -3.0414 0.7863 0 3
-30.5818 20.3812 -2.9590 0.8082 0 3
-30.5943 18.6607 -2.8853 0.8288 0 3
-31.5477 17.5449 -2.9064 0.4902 0 3
-35.1779 17.7538 -3.1726 0.4549 0 3
-40.7868 18.5694 -3.6082 0.8828 0 3
-45.9298 18.7232 -3.9934 0.8981 0 3
-34.1431 -33.6000 -3.8569 0.8930 0 20
-32.7611 -34.9374 -3.8562 0.3897 0 20
-20.1412 -27.4623 -2.7420 0.7824 0 22
-18.4863 -27.4524 -2.6647 0.8021 0 22
-1.2528 -41.0728 -3.3085 0.0677 0 1
0.3372 -34.8977 -2.8099 0.0794 0 1
1.4400 -28.8820 -2.3283 0.0919 0 2
2.2829 -25.3053 -2.0457 0.1046 0 2
2.9412 -22.4754 -1.8250 0.1172 0 2
3.4688 -20.1741 -1.6481 0.1298 0 2
3.9007 -18.2624 -1.5035 0.6891 0 2
4.4949 -17.5605 -1.4594 0.1701 0 2
4.7250 -15.7910 -1.3271 0.1472 0 1
4.9381 -14.3747 -1.2238 0.1529 0 1
5.1758 -13.3031 -1.1493 0.1937 0 1
5.3851 -12.3494 -1.0847 0.2052 0 1
5.5702 -11.4914 -1.0282 0.2176 0 1
5.7352 -10.7134 -0.9784 0.2274 0 1
5.8818 -10.0005 -0.9341 0.2371 0 1
6.0042 -9.3300 -0.8933 0.2557 0 1
6.1204 -8.7203 -0.8578 0.2663 0 1
6.2251 -8.1528 -0.8259 0.2766 0 1
6.3198 -7.6218 -0.7972 0.2865 0 1
6.4202 -7.1391 -0.7730 0.3059 0 1
6.4866 -6.6550 -0.7482 0.2718 0 1
6.5350 -6.1870 -0.7246 0.2807 0 1
6.5776 -5.7447 -0.7031 0.2892 0 1
6.4286 -5.1747 -0.6644 0.3223 0 2
6.4740 -4.7960 -0.6487 0.3307 0 25
6.2945 -4.2827 -0.6130 0.7521 14 6
6.4104 -3.9948 -0.6081 0.5324 14 6
6.5886 -3.7473 -0.6103 0.3515 0 25
6.6195 -3.4208 -0.5999 0.3576 0 25
6.6471 -3.1036 -0.5906 0.3632 0 25
6.6718 -2.7946 -0.5824 0.3683 0 25
6.6945 -2.4932 -0.5752 0.3707 0 2
6.9309 -2.2689 -0.5872 0.3771 0 1
6.9587 -1.9725 -0.5823 0.3815 0 1
6.9851 -1.6802 -0.5784 0.3841 0 1
4.1073 -0.8151 -0.3371 0.2754 25 14
3.9020 -0.6127 -0.3180 0.9724 25 14
3.8936 -0.4521 -0.3156 0.9798 25 14
3.8853 -0.2937 -0.3137 0.9857 25 14
3.8769 -0.1369 -0.3123 0.9900 25 14
3.8631 0.0188 -0.3110 0.9869 25 14
3.8787 0.1747 -0.3126 0.9892 25 14
3.8875 0.3319 -0.3141 0.9844 25 14
3.8963 0.4909 -0.3162 0.9780 25 14
3.9050 0.6522 -0.3188 0.9701 25 14
4.2268 0.8817 -0.3476 0.3230 25 14
7.1699 1.7987 -0.5952 0.3802 0 1
7.1748 2.1094 -0.6021 0.3760 0 1
7.1770 2.4271 -0.6100 0.3711 0 1
7.1770 2.7528 -0.6189 0.3658 0 1
7.1744 3.0876 -0.6289 0.3600 0 1
7.1693 3.4328 -0.6400 0.3537 0 1
7.1558 3.7867 -0.6518 0.3438 0 1
7.1333 4.1495 -0.6644 0.3373 0 1
7.0877 4.5133 -0.6765 0.3443 0 1
7.0346 4.8871 -0.6896 0.3378 0 1
6.9767 5.2744 -0.7042 0.3308 0 1
6.9173 5.6799 -0.7206 0.3230 0 1
6.8576 6.1078 -0.7394 0.3148 0 1
6.7580 6.5241 -0.7563 0.3485 0 1
6.6339 6.9400 -0.7730 0.3410 0 1
6.5116 7.3841 -0.7927 0.3267 0 1
6.3869 7.8572 -0.8153 0.3176 0 1
6.3192 8.4451 -0.8492 0.2818 0 2
6.0528 8.8050 -0.8603 0.9788 0 2
5.7802 9.1771 -0.8732 0.2449 0 2
5.6589 9.8395 -0.9139 0.2341 0 2
5.5226 10.5620 -0.9596 0.2229 0 2
5.3684 11.3554 -1.0113 0.2115 0 2
5.1932 12.2332 -1.0700 0.1999 0 2
4.9929 13.2122 -1.1372 0.1881 0 2
4.7620 14.3142 -1.2146 0.1761 0 2
4.4935 15.5678 -1.3046 0.1640 0 2
4.1782 17.0108 -1.4103 0.1517 0 2
3.8032 18.6948 -1.5360 0.1393 0 2
2.1742 13.4261 -1.0951 0.5098 0 20
2.1336 17.6370 -1.4304 0.1717 0 20
1.8019 22.4092 -1.8101 0.9984 0 6
1.2633 31.5000 -2.5382 0.1259 0 1
-0.0026 36.5815 -2.9453 0.0766 0 1
-1.7528 43.5500 -3.5092 0.0690 0 1
-30.3966 37.3828 -3.8793 0.6165 0 3
-30.5810 34.6681 -3.7220 0.1335 0 3
-30.4680 31.8646 -3.5496 0.6738 0 3
-28.6637 27.6637 -3.2073 0.1955 0 3
-30.5216 27.1768 -3.2904 0.7269 0 3
-30.5431 25.0720 -3.1816 0.7517 0 3
-30.5617 23.0976 -3.0843 0.7754 0 3
-30.5751 21.2347 -2.9972 0.7979 0 3
-30.5886 19.4718 -2.9195 0.8191 0 3
-30.6123 17.8018 -2.8512 0.9742 0 3
-31.4530 16.6383 -2.8649 0.2106 0 3
-40.7828 19.5203 -3.6403 0.8751 0 3
-41.1782 17.7146 -3.6092 0.3999 0 3
-41.9667 16.0897 -3.6187 0.3629 0 3
-0.3741 -33.0683 -3.0318 0.0841 0 1
0.8351 -28.9474 -2.6549 0.0959 0 1
1.6883 -24.4303 -2.2450 0.1084 0 2
2.3886 -21.7970 -2.0103 0.1210 0 2
2.9541 -19.6387 -1.8207 0.1336 0 2
3.5652 -18.5924 -1.7356 0.8049 0 2
3.9622 -16.9518 -1.5960 0.1311 0 1
4.2642 -15.4219 -1.4669 0.1515 0 1
4.5196 -14.1131 -1.3586 0.1889 0 1
4.7853 -13.1064 -1.2791 0.1980 0 1
5.0133 -12.1883 -1.2082 0.2096 0 1
5.2160 -11.3618 -1.1461 0.2221 0 1
5.3954 -10.6075 -1.0910 0.2333 0 1
5.5554 -9.9157 -1.0420 0.2443 0 1
5.6984 -9.2767 -0.9981 0.2603 0 1
5.8260 -8.6825 -0.9586 0.2711 0 1
5.9411 -8.1288 -0.9231 0.2815 0 1
6.0453 -7.6101 -0.8910 0.2916 0 1
6.1471 -7.1307 -0.8631 0.2680 0 1
6.2118 -6.6464 -0.8340 0.2774 0 1
6.2693 -6.1900 -0.8077 0.2864 0 1
6.3204 -5.7581 -0.7838 0.2951 0 1
6.3549 -5.3388 -0.7609 0.2971 0 1
6.2484 -4.8351 -0.7243 0.3369 0 25
6.2959 -4.4797 -0.7084 0.3445 0 25
6.3199 -4.1249 -0.6919 0.7580 14 6
6.3778 -3.8067 -0.6809 0.3584 0 25
6.4129 -3.4863 -0.6692 0.3647 0 25
6.4444 -3.1752 -0.6586 0.3705 0 25
6.4725 -2.8722 -0.6492 0.3759 0 25
6.4987 -2.5768 -0.6409 0.3785 0 2
6.7262 -2.3592 -0.6535 0.3855 0 1
6.7560 -2.0691 -0.6478 0.3902 0 1
6.7844 -1.7833 -0.6431 0.3930 0 1
6.8101 -1.5006 -0.6393 0.3954 0 1
3.8979 -0.6961 -0.3630 0.9690 25 14
3.8896 -0.5345 -0.3599 0.9773 25 14
3.8814 -0.3754 -0.3575 0.9840 25 14
3.8731 -0.2181 -0.3556 0.9891 25 14
3.8647 -0.0623 -0.3544 0.9927 25 14
3.8661 0.0930 -0.3545 0.9922 25 14
3.8748 0.2491 -0.3560 0.9882 25 14
3.8835 0.4067 -0.3580 0.9827 25 14
3.8922 0.5664 -0.3606 0.9755 25 14
3.9345 0.7349 -0.3669 0.3100 25 14
6.9743 1.5949 -0.6559 0.3925 0 1
6.9782 1.8935 -0.6629 0.3884 0 1
6.9794 2.1982 -0.6708 0.3839 0 1
6.9779 2.5099 -0.6798 0.3788 0 1
6.9737 2.8294 -0.6900 0.3733 0 1
6.9668 3.1580 -0.7013 0.3673 0 1
6.9543 3.4953 -0.7136 0.3573 0 1
6.9304 3.8393 -0.7263 0.3510 0 1
6.9027 4.1946 -0.7405 0.3443 0 1
6.8507 4.5493 -0.7539 0.3515 0 1
6.7929 4.9150 -0.7687 0.3447 0 1
6.7299 5.2936 -0.7850 0.3376 0 1
6.6691 5.6937 -0.8039 0.3294 0 1
6.6028 6.1120 -0.8249 0.3210 0 1
6.5017 6.5221 -0.8443 0.3552 0 1
6.3732 6.9285 -0.8630 0.3474 0 1
6.2500 7.3675 -0.8857 0.3326 0 1
6.1190 7.8298 -0.9110 0.3233 0 1
6.0335 8.3943 -0.9477 0.2872 0 2
5.8584 8.8824 -0.9755 0.9928 0 2
5.4828 9.0868 -0.9729 0.2501 0 2
5.3491 9.7279 -1.0178 0.2391 0 2
5.1991 10.4256 -1.0681 0.2278 0 2
5.0300 11.1901 -1.1248 0.2163 0 2
4.8383 12.0334 -1.1890 0.2046 0 2
4.6196 12.9713 -1.2623 0.1928 0 2
4.3684 14.0233 -1.3466 0.1807 0 2
4.0773 15.2153 -1.4441 0.1685 0 2
3.7369 16.5810 -1.5582 0.1562 0 2
3.3342 18.1663 -1.6933 0.1437 0 2
1.9161 13.4640 -1.2468 0.9702 0 20
2.2622 22.2752 -2.0526 0.1185 0 2
1.4477 23.6813 -2.1751 0.9938 0 20
0.6235 29.8246 -2.7348 0.0923 0 1
-0.6641 34.4906 -3.1626 0.0803 0 1
-2.4251 40.7750 -3.7448 0.0708 0 1
-4.9086 49.1404 -4.5275 0.0654 0 1
-28.8211 37.0044 -4.3000 0.9382 0 3
-31.8446 37.6642 -4.5217 0.7647 0 3
-30.2887 33.0373 -4.1090 0.6621 0 3
-32.4535 32.6634 -4.2213 0.7111 0 3
-30.3585 28.1951 -3.7984 0.7163 0 3
-30.4390 26.0740 -3.6744 0.1538 0 3
-30.4114 24.0026 -3.5518 0.7660 0 3
-30.4302 22.0943 -3.4476 0.7891 0 3
-30.4486 20.2924 -3.3546 0.8110 0 3
-30.4643 18.5814 -3.2714 0.8316 0 3
-31.9596 17.7739 -3.3526 0.4897 0 3
-32.9813 16.6452 -3.3869 0.1960 0 3
-40.6241 18.4953 -4.0921 0.8855 0 3
-45.7496 18.6497 -4.5293 0.9008 0 3
-45.2940 16.3761 -4.4155 0.5893 0 3
-36.1715 -32.8444 -4.4792 0.8753 0 20
-34.0984 -33.5560 -4.3859 0.8939 0 20
-32.7705 -34.9475 -4.3921 0.5448 0 20
-20.1435 -27.4655 -3.1226 0.6854 0 22
-18.4964 -27.4674 -3.0359 0.8099 0 22
-2.9954 -42.3301 -3.8904 0.0639 0 1
-1.0828 -35.5016 -3.2562 0.0759 0 1
0.2975 -30.7853 -2.8225 0.0902 0 1
1.3620 -27.3170 -2.5075 0.1025 0 2
2.0736 -22.9859 -2.1159 0.1150 0 2
2.6983 -20.6192 -1.9064 0.1276 0 2
3.2572 -18.9433 -1.7622 0.7592 0 2
3.8345 -17.9524 -1.6830 0.1667 0 2
4.1216 -16.1024 -1.5238 0.1459 0 1
4.3994 -14.7030 -1.4070 0.1513 0 1
4.6640 -13.5770 -1.3161 0.1950 0 1
4.9080 -12.6149 -1.2409 0.2040 0 1
5.1223 -11.7468 -1.1748 0.2171 0 1
5.3123 -10.9594 -1.1165 0.2279 0 1
5.4812 -10.2389 -1.0647 0.2390 0 1
5.6325 -9.5766 -1.0186 0.2551 0 1
5.7667 -8.9610 -0.9769 0.2660 0 1
5.8876 -8.3886 -0.9396 0.2766 0 1
5.9968 -7.8538 -0.9059 0.2868 0 1
6.1024 -7.3597 -0.8765 0.3069 0 1
6.1818 -6.8740 -0.8475 0.2730 0 1
6.2427 -6.4047 -0.8199 0.2821 0 1
6.2967 -5.9615 -0.7949 0.2910 0 1
6.3413 -5.5383 -0.7719 0.2928 0 1
6.2252 -5.0110 -0.7326 0.3364 0 2
6.2738 -4.6477 -0.7158 0.3409 0 25
6.3189 -4.2993 -0.7007 0.3483 0 25
6.3597 -3.9632 -0.6870 0.3552 0 25
6.3966 -3.6381 -0.6746 0.3617 0 25
6.4297 -3.3228 -0.6635 0.3678 0 25
6.4595 -3.0160 -0.6536 0.3734 0 25
6.4876 -2.7175 -0.6448 0.3757 0 2
6.6302 -2.4693 -0.6486 0.7361 0 2
6.7420 -2.2070 -0.6504 0.3873 0 1
6.7712 -1.9193 -0.6452 0.3917 0 1
6.7982 -1.6352 -0.6410 0.3943 0 1
4.0495 -0.8036 -0.3785 0.2790 25 14
3.8936 -0.6114 -0.3613 0.9735 25 14
3.8853 -0.4511 -0.3586 0.9810 25 14
3.8770 -0.2930 -0.3565 0.9869 25 14
3.8687 -0.1366 -0.3549 0.9912 25 14
3.8598 0.0188 -0.3539 0.9867 25 14
3.8707 0.1744 -0.3552 0.9903 25 14
3.8793 0.3312 -0.3569 0.9855 25 14
3.8880 0.4898 -0.3593 0.9791 25 14
3.8967 0.6508 -0.3622 0.9712 25 14
4.1726 0.8703 -0.3908 0.3269 25 14
6.9766 1.7502 -0.6594 0.3904 0 1
6.9792 2.0519 -0.6669 0.3860 0 1
6.9790 2.3601 -0.6754 0.3813 0 1
6.9761 2.6757 -0.6850 0.3760 0 1
6.9705 2.9998 -0.6957 0.3702 0 1
6.9620 3.3336 -0.7077 0.3639 0 1
6.9422 3.6737 -0.7201 0.3540 0 1
6.9164 4.0234 -0.7336 0.3475 0 1
6.8766 4.3788 -0.7474 0.3546 0 1
6.8211 4.7388 -0.7614 0.3480 0 1
6.7606 5.1110 -0.7770 0.3411 0 1
6.6986 5.5003 -0.7946 0.3332 0 1
6.6353 5.9098 -0.8146 0.3251 0 1
6.5602 6.3332 -0.8360 0.3587 0 1
6.4356 6.7325 -0.8538 0.3512 0 1
6.3092 7.1544 -0.8745 0.3368 0 1
6.1828 7.6061 -0.8986 0.3278 0 1
6.0465 8.0807 -0.9253 0.3184 0 1
5.9670 8.6803 -0.9657 0.2819 0 2
5.6592 8.9849 -0.9735 0.9948 0 2
5.4149 9.4151 -0.9957 0.2444 0 2
5.2730 10.0847 -1.0433 0.2332 0 2
5.1133 10.8159 -1.0968 0.2218 0 2
4.9329 11.6199 -1.1573 0.2103 0 2
4.7277 12.5104 -1.2261 0.1985 0 2
4.4928 13.5051 -1.3048 0.1865 0 2
4.2219 14.6266 -1.3957 0.1743 0 2
3.9064 15.9044 -1.5014 0.1621 0 2
3.5353 17.3782 -1.6258 0.1497 0 2
2.1822 13.4755 -1.2515 0.8582 0 20
1.6544 13.6754 -1.2629 0.2455 0 20
1.7990 22.3733 -2.0578 0.8400 0 6
1.1302 28.1832 -2.5858 0.0987 0 2
-0.0023 32.1703 -2.9493 0.0830 0 1
-1.5099 37.5156 -3.4421 0.0714 0 1
-3.6114 44.8321 -4.1234 0.0642 0 1
-19.0993 36.5150 -3.7779 0.8467 0 6
-28.3730 37.9070 -4.3409 0.9008 0 3
-30.2232 37.1696 -4.3919 0.6195 0 3
-30.3089 31.6982 -4.0207 0.6767 0 3
-33.8348 32.6544 -4.3109 0.6963 0 3
-18.5684 16.5336 -2.2793 0.6523 0 22
-30.4001 24.9546 -3.6057 0.7545 0 3
-30.4229 22.9928 -3.4961 0.7782 0 3
-30.4401 21.1409 -3.3977 0.8007 0 3
-30.4571 19.3881 -3.3100 0.8219 0 3
-30.5800 17.7830 -3.2431 0.5063 0 3
-33.1454 17.5336 -3.4377 0.4714 0 3
-37.0642 17.7405 -3.7671 0.4358 0 3
-40.8563 17.5761 -4.0775 0.7985 0 3
-43.7595 16.7771 -4.2965 0.2090 0 3
-0.3316 -29.3090 -3.0150 0.0900 0 1
0.7514 -26.0461 -2.6803 0.1074 0 1
1.5509 -22.4420 -2.3140 0.2803 0 2
2.2451 -20.4871 -2.1200 0.5208 0 2
2.8886 -19.2035 -1.9976 0.1554 0 2
3.3089 -17.2556 -1.8073 0.1297 0 1
3.6722 -15.7111 -1.6597 0.1501 0 1
3.9781 -14.3871 -1.5354 0.1554 0 1
4.2796 -13.3639 -1.4434 0.1993 0 1
4.5426 -12.4416 -1.3624 0.2083 0 1
4.7737 -11.6058 -1.2909 0.2214 0 1
4.9789 -10.8453 -1.2275 0.2324 0 1
5.1614 -10.1475 -1.1711 0.2436 0 1
5.3260 -9.5062 -1.1209 0.2558 0 1
5.4738 -8.9112 -1.0758 0.2665 0 1
5.6073 -8.3566 -1.0352 0.2770 0 1
5.7267 -7.8354 -0.9983 0.2917 0 1
5.8343 -7.3445 -0.9648 0.2687 0 1
5.9126 -6.8586 -0.9315 0.2784 0 1
5.9825 -6.4011 -0.9012 0.2877 0 1
6.0450 -5.9685 -0.8738 0.2967 0 1
6.1005 -5.5577 -0.8489 0.2984 0 1
6.1460 -5.1633 -0.8257 0.3394 0 1
6.0590 -4.6886 -0.7881 0.3474 0 2
6.1086 -4.3464 -0.7712 0.3546 0 25
6.1541 -4.0167 -0.7559 0.3618 0 25
6.1952 -3.6977 -0.7421 0.3685 0 25
6.2324 -3.3882 -0.7297 0.3748 0 25
6.2657 -3.0872 -0.7185 0.3806 0 25
6.2976 -2.7946 -0.7087 0.3870 0 2
6.4706 -2.5656 -0.7160 0.8119 0 2
6.5466 -2.2962 -0.7136 0.3956 0 1
6.5778 -2.0145 -0.7076 0.4003 0 1
6.6067 -1.7365 -0.7027 0.4032 0 1
4.2055 -0.9266 -0.4430 0.3232 25 14
3.8853 -0.6939 -0.4060 0.9523 25 14
3.8772 -0.5328 -0.4026 0.9556 25 14
3.8699 -0.3743 -0.3999 0.9619 25 14
3.8624 -0.2175 -0.3979 0.9667 25 14
3.8547 -0.0621 -0.3966 0.9701 25 14
3.8568 0.0928 -0.3968 0.9694 25 14
3.8661 0.2485 -0.3985 0.9653 25 14
3.8752 0.4059 -0.4008 0.9598 25 14
3.8839 0.5652 -0.4037 0.9766 25 14
3.8926 0.7271 -0.4073 0.9679 25 14
6.7918 1.5532 -0.7167 0.4026 0 1
6.7937 1.8435 -0.7241 0.3985 0 1
6.7928 2.1395 -0.7326 0.3940 0 1
6.7889 2.4419 -0.7421 0.3889 0 1
6.7821 2.7517 -0.7529 0.3834 0 1
6.7723 3.0698 -0.7649 0.3774 0 1
6.7542 3.3948 -0.7776 0.3675 0 1
6.7275 3.7269 -0.7911 0.3612 0 1
6.6968 4.0695 -0.8061 0.3545 0 1
6.6504 4.4163 -0.8212 0.3617 0 1
6.5906 4.7686 -0.8368 0.3549 0 1
6.5253 5.1327 -0.8540 0.3478 0 1
6.4619 5.5168 -0.8740 0.3396 0 1
6.3925 5.9174 -0.8960 0.3312 0 1
6.3146 6.3345 -0.9200 0.3653 0 1
6.1859 6.7249 -0.9399 0.3576 0 1
6.0588 7.1421 -0.9634 0.3427 0 1
5.9267 7.5836 -0.9900 0.3335 0 1
5.7840 8.0471 -1.0194 0.3239 0 1
5.6871 8.6228 -1.0625 0.2873 0 2
5.4753 9.0743 -1.0902 0.9957 0 2
5.1228 9.3163 -1.0936 0.2494 0 2
4.9688 9.9637 -1.1453 0.2381 0 2
4.7958 10.6692 -1.2033 0.2267 0 2
4.6008 11.4428 -1.2686 0.2150 0 2
4.3796 12.2974 -1.3428 0.2031 0 2
4.1271 13.2489 -1.4274 0.1911 0 2
3.8368 14.3178 -1.5247 0.1789 0 2
3.5002 15.5306 -1.6376 0.1665 0 2
3.1059 16.9225 -1.7698 0.1541 0 2
1.9216 13.5025 -1.4029 0.8557 0 20
2.0771 20.4529 -2.1147 0.1290 0 2
1.3909 22.7521 -2.3447 0.1163 0 2
0.5620 26.8838 -2.7660 0.1109 0 1
-0.5898 30.6328 -3.1516 0.0953 0 1
-2.0978 35.2711 -3.6345 0.0791 0 1
-4.1770 41.8159 -4.3228 0.0687 0 1
-29.7657 38.2173 -4.9829 0.5761 0 3
-28.3463 33.5266 -4.5161 0.5886 0 3
-28.4780 31.0623 -4.3348 0.6649 0 3
-32.4524 32.6623 -4.7362 0.7103 0 3
-30.0462 27.9050 -4.2180 0.9664 0 3
-32.2980 27.6664 -4.3745 0.6522 0 3
-30.1459 23.7930 -3.9504 0.6351 0 3
-30.2942 21.9956 -3.8509 0.7918 0 3
-30.1731 20.1088 -3.7298 0.6927 0 3
-30.3351 18.5026 -3.6550 0.8342 0 3
-31.9580 17.7731 -3.7615 0.4892 0 3
-34.7192 17.5223 -4.0004 0.4541 0 3
-38.9369 17.7272 -4.4008 0.4182 0 3
-43.1134 17.5751 -4.7891 0.8417 0 3
-46.2519 16.7224 -5.0591 0.2003 0 3
-34.0186 -33.4775 -4.9095 0.8056 0 20
-32.5587 -34.7216 -4.8962 0.5463 0 20
-20.1276 -27.4438 -3.5008 0.8145 0 22
-18.4795 -27.4423 -3.4032 0.8474 0 22
-4.8637 -43.7167 -4.5246 0.0597 0 1
-2.5795 -36.4530 -3.7591 0.0783 0 1
-0.9487 -31.1028 -3.2008 0.0887 0 24
0.2657 -27.5034 -2.8292 0.1007 0 1
1.2354 -24.7797 -2.5521 0.1129 0 2
1.9144 -21.2202 -2.1917 0.4452 0 2
2.5991 -19.8610 -2.0604 0.6061 0 2
3.5032 -16.4011 -1.7251 0.1444 0 1
3.8420 -15.0100 -1.5938 0.1563 0 1
4.1390 -13.8328 -1.4852 0.1936 0 1
4.4222 -12.8731 -1.4001 0.2027 0 1
4.6664 -11.9937 -1.3238 0.2159 0 1
4.8841 -11.2005 -1.2569 0.2270 0 1
5.0768 -10.4734 -1.1972 0.2383 0 1
5.2491 -9.8054 -1.1441 0.2511 0 1
5.4051 -9.1900 -1.0967 0.2614 0 1
5.5452 -8.6168 -1.0540 0.2720 0 1
5.6714 -8.0806 -1.0155 0.2868 0 1
5.7843 -7.5754 -0.9804 0.2971 0 1
5.8763 -7.0869 -0.9470 0.2738 0 1
5.9501 -6.6163 -0.9153 0.2833 0 1
6.0160 -6.1722 -0.8866 0.2925 0 1
6.0748 -5.7514 -0.8605 0.3013 0 1
6.1195 -5.3446 -0.8358 0.3031 0 1
6.0350 -4.8578 -0.7969 0.3425 0 2
6.0853 -4.5080 -0.7790 0.3511 0 25
6.1329 -4.1728 -0.7630 0.3584 0 25
6.1761 -3.8488 -0.7486 0.3654 0 25
6.2151 -3.5349 -0.7355 0.3719 0 25
6.2502 -3.2300 -0.7237 0.3779 0 25
6.2828 -2.9335 -0.7132 0.3815 0 2
6.3498 -2.6598 -0.7082 0.8744 0 2
6.5310 -2.4324 -0.7169 0.3938 0 1
6.5629 -2.1484 -0.7103 0.3988 0 1
6.5932 -1.8689 -0.7049 0.4019 0 1
6.6206 -1.5925 -0.7004 0.4044 0 1
3.9931 -0.7924 -0.4188 0.2827 25 14
3.8807 -0.6094 -0.4041 0.9520 25 14
3.8734 -0.4498 -0.4011 0.9590 25 14
3.8660 -0.2922 -0.3988 0.9646 25 14
3.8584 -0.1362 -0.3971 0.9686 25 14
3.8523 0.0188 -0.3963 0.9708 25 14
3.8616 0.1740 -0.3976 0.9675 25 14
3.8708 0.3305 -0.3996 0.9626 25 14
3.8798 0.4888 -0.4022 0.9801 25 14
3.8884 0.6494 -0.4055 0.9722 25 14
4.1196 0.8593 -0.4329 0.3308 25 14
6.7931 1.7041 -0.7204 0.4005 0 1
6.7936 1.9973 -0.7284 0.3961 0 1
6.7912 2.2966 -0.7374 0.3914 0 1
6.7858 2.6027 -0.7476 0.3861 0 1
6.7774 2.9168 -0.7590 0.3803 0 1
6.7656 3.2395 -0.7716 0.3703 0 1
6.7407 3.5670 -0.7845 0.3642 0 1
6.7119 3.9044 -0.7987 0.3577 0 1
6.6773 4.2519 -0.8143 0.3648 0 1
6.6198 4.5989 -0.8291 0.3582 0 1
6.5572 4.9572 -0.8456 0.3513 0 1
6.4928 5.3313 -0.8642 0.3434 0 1
6.4265 5.7239 -0.8852 0.3353 0 1
6.3537 6.1338 -0.9084 0.3267 0 1
6.2484 6.5367 -0.9302 0.3613 0 1
6.1185 6.9383 -0.9516 0.3470 0 1
5.9910 7.3702 -0.9770 0.3379 0 1
5.8535 7.8228 -1.0050 0.3285 0 1
5.7049 8.2989 -1.0359 0.3187 0 1
5.6129 8.9114 -1.0833 0.2818 0 2
5.2794 9.1796 -1.0893 0.9957 0 2
5.0445 9.6478 -1.1199 0.2435 0 2
4.8810 10.3244 -1.1747 0.2322 0 2
4.6969 11.0641 -1.2364 0.2206 0 2
4.4888 11.8782 -1.3062 0.2088 0 2
4.2520 12.7812 -1.3856 0.1968 0 2
3.9807 13.7911 -1.4765 0.1847 0 2
3.6674 14.9313 -1.5815 0.1724 0 2
3.1942 15.7013 -1.6482 0.3486 0 9
2.1810 13.4683 -1.4035 0.8666 0 20
2.3588 19.4980 -2.0203 0.1350 0 2
1.7367 21.5980 -2.2288 0.1224 0 2
1.0222 25.4898 -2.6241 0.1098 0 2
-0.0021 28.6933 -2.9515 0.0960 0 1
-1.3247 32.9139 -3.3884 0.0904 0 1
-3.0989 38.4706 -3.9701 0.0700 0 1
-5.5957 46.1995 -4.7870 0.0613 0 1
-30.0515 36.9583 -4.8998 0.6223 0 3
-28.8462 32.7014 -4.4855 0.1077 0 3
-30.2747 31.6625 -4.5062 0.7236 0 3
-33.8336 32.6532 -4.8367 0.6956 0 3
-18.5565 16.5230 -2.5558 0.6762 0 22
-20.1074 16.5056 -2.6759 0.5308 0 22
-30.2851 22.8886 -3.9049 0.7809 0 3
-32.6342 22.6648 -4.0871 0.5729 0 3
-30.2121 19.2322 -3.6840 0.8409 0 3
-30.5785 17.7821 -3.6386 0.5058 0 3
-33.5780 17.7624 -3.9075 0.4710 0 3
-34.7168 16.6169 -3.9591 0.1814 0 3
-41.1733 17.7124 -4.6105 0.3991 0 3
-45.4974 17.4434 -5.0122 0.3661 0 3
-0.2968 -26.2322 -2.9927 0.1066 0 1
0.6829 -23.6709 -2.7014 0.1110 0 1
1.4920 -21.5903 -2.4688 0.1353 0 2
2.1208 -19.3531 -2.2209 0.1197 0 1
2.6379 -17.5369 -2.0230 0.1278 0 1
3.0700 -16.0099 -1.8596 0.1519 0 1
3.4294 -14.6722 -1.7189 0.1606 0 1
3.7620 -13.6054 -1.6103 0.1978 0 1
4.0628 -12.6868 -1.5197 0.2069 0 1
4.3234 -11.8414 -1.4380 0.2202 0 1
4.5558 -11.0760 -1.3662 0.2317 0 1
4.7619 -10.3727 -1.3020 0.2427 0 1
4.9468 -9.7256 -1.2447 0.2556 0 1
5.1143 -9.1285 -1.1936 0.2661 0 1
5.2647 -8.5708 -1.1474 0.2768 0 1
5.4009 -8.0490 -1.1057 0.2872 0 1
5.5244 -7.5586 -1.0680 0.3001 0 1
5.6204 -7.0752 -1.0308 0.3028 0 1
5.7015 -6.6138 -0.9961 0.3133 0 1
5.7745 -6.1785 -0.9647 0.3235 0 1
5.8400 -5.7661 -0.9362 0.3333 0 1
5.9005 -5.3755 -0.9106 0.3409 0 1
5.9606 -5.0076 -0.8881 0.3495 0 1
5.9414 -4.5975 -0.8570 0.5410 0 2
5.9327 -4.2212 -0.8306 0.3662 0 2
5.9799 -3.9030 -0.8146 0.3693 0 2
6.0228 -3.5948 -0.8001 0.3757 0 2
6.0620 -3.2956 -0.7871 0.3881 0 2
6.0963 -3.0037 -0.7753 0.3898 0 2
6.2419 -2.7698 -0.7790 0.9266 0 2
6.3417 -2.5145 -0.7782 0.4018 0 1
6.3759 -2.2363 -0.7708 0.4057 0 1
6.4083 -1.9626 -0.7645 0.4104 0 1
6.4376 -1.6921 -0.7593 0.4132 0 1
4.1456 -0.9135 -0.4843 0.3274 25 14
3.8717 -0.6914 -0.4487 0.9545 25 14
3.8627 -0.5308 -0.4448 0.9628 25 14
3.8550 -0.3728 -0.4418 0.9644 25 14
3.8476 -0.2167 -0.4396 0.9693 25 14
3.8400 -0.0619 -0.4381 0.9726 25 14
3.8422 0.0924 -0.4384 0.9719 25 14
3.8514 0.2476 -0.4403 0.9678 25 14
3.8604 0.4043 -0.4428 0.9623 25 14
3.8693 0.5631 -0.4460 0.9553 25 14
3.8795 0.7246 -0.4502 0.9512 25 14
4.2648 0.9753 -0.4991 0.3178 25 14
6.6184 1.7959 -0.7823 0.4085 0 1
6.6156 2.0836 -0.7912 0.4041 0 1
6.6095 2.3774 -0.8013 0.3990 0 1
6.6004 2.6779 -0.8126 0.3935 0 1
6.5880 2.9863 -0.8251 0.3875 0 1
6.5648 3.2996 -0.8382 0.3776 0 1
6.5357 3.6206 -0.8523 0.3713 0 1
6.5024 3.9514 -0.8680 0.3646 0 1
6.4611 4.2906 -0.8848 0.3718 0 1
6.3995 4.6303 -0.9011 0.3651 0 1
6.3324 4.9810 -0.9191 0.3577 0 1
6.2668 5.3502 -0.9400 0.3497 0 1
6.1948 5.7343 -0.9630 0.3414 0 1
6.1159 6.1352 -0.9882 0.3327 0 1
6.0089 6.5325 -1.0125 0.3677 0 1
5.8786 6.9296 -1.0366 0.3528 0 1
5.7456 7.3520 -1.0644 0.3436 0 1
5.6022 7.7943 -1.0950 0.3340 0 1
5.4472 8.2591 -1.1286 0.3240 0 1
5.3381 8.8470 -1.1787 0.2869 0 2
5.1055 9.2849 -1.2088 0.9939 0 2
4.7575 9.5401 -1.2161 0.2484 0 2
4.5820 10.1936 -1.2749 0.2369 0 2
4.3851 10.9064 -1.3410 0.2253 0 2
4.1628 11.6888 -1.4155 0.2134 0 2
3.9107 12.5541 -1.5000 0.2014 0 2
3.6227 13.5185 -1.5966 0.1892 0 2
3.2912 14.6033 -1.7077 0.1769 0 2
2.8080 15.2994 -1.7744 0.2256 0 9
1.9241 13.5199 -1.5578 0.8427 0 20
1.9197 18.9029 -2.1675 0.1394 0 2
1.2750 20.8558 -2.3836 0.1267 0 2
0.5100 24.3939 -2.7834 0.1143 0 1
-0.5302 27.5352 -3.1417 0.1052 0 1
-1.8598 31.2695 -3.5734 0.0961 0 1
-3.5998 36.0378 -4.1315 0.0757 0 1
-6.0309 42.8851 -4.9403 0.0661 0 1
-29.8462 38.3206 -5.5409 0.6096 0 3
-31.8426 37.6619 -5.6261 0.7630 0 3
-29.9679 32.6873 -5.0588 0.6677 0 3
-29.8199 30.0128 -4.8264 0.6952 0 3
-29.2240 27.1414 -4.5497 0.7217 0 3
-19.2656 16.5029 -2.8938 0.9882 0 6
-30.1325 23.7824 -4.3790 0.7713 0 3
-30.1592 21.8975 -4.2517 0.7944 0 3
-33.9935 22.6549 -4.6601 0.5565 0 3
-30.2068 18.4244 -4.0363 0.8368 0 3
-29.2958 16.2925 -3.8240 0.6463 0 3
-35.1723 17.7510 -4.4943 0.4535 0 3
-36.5796 16.6540 -4.5850 0.1800 0 3
-45.3923 18.5041 -5.5919 0.9058 0 3
-33.9164 -33.3768 -5.4283 0.6925 0 20
-32.5307 -34.6917 -5.4252 0.6858 0 20
-20.1252 -27.4405 -3.8819 0.6841 0 22
-18.4755 -27.4364 -3.7733 0.7799 0 22
-6.8660 -45.1384 -5.2084 0.0572 0 1
-4.1476 -37.2801 -4.2790 0.0758 0 1
-2.2570 -31.8944 -3.6475 0.0854 0 1
-0.8459 -27.7338 -3.1652 0.0940 0 1
0.2401 -24.8443 -2.8343 0.1125 0 1
1.1312 -22.6892 -2.5915 0.1264 0 2
1.8507 -20.5146 -2.3497 0.1441 0 2
2.4055 -18.3819 -2.1148 0.1283 0 1
2.8666 -16.6721 -1.9298 0.1340 0 1
3.2298 -15.1212 -1.7639 0.1661 0 24
3.6037 -14.0788 -1.6578 0.1922 0 1
3.9242 -13.1148 -1.5616 0.2040 0 1
4.2026 -12.2339 -1.4756 0.2130 0 1
4.4482 -11.4329 -1.3995 0.2262 0 1
4.6664 -10.7012 -1.3318 0.2373 0 1
4.8608 -10.0278 -1.2712 0.2486 0 1
5.0367 -9.4086 -1.2174 0.2613 0 1
5.1948 -8.8324 -1.1689 0.2717 0 1
5.3375 -8.2940 -1.1251 0.2823 0 1
5.4669 -7.7892 -1.0856 0.2926 0 1
5.5784 -7.3058 -1.0486 0.2976 0 1
5.6639 -6.8307 -1.0122 0.3083 0 1
5.7406 -6.3834 -0.9793 0.3187 0 1
5.8096 -5.9604 -0.9495 0.3287 0 1
5.8716 -5.5590 -0.9224 0.3383 0 1
5.9326 -5.1814 -0.8985 0.3454 0 1
5.9897 -4.8214 -0.8771 0.3538 0 1
5.9073 -4.3762 -0.8387 0.3603 0 2
5.9576 -4.0535 -0.8220 0.3668 0 2
6.0029 -3.7408 -0.8069 0.3729 0 2
6.0435 -3.4373 -0.7931 0.3790 0 2
6.0810 -3.1425 -0.7808 0.3845 0 2
6.1569 -2.8747 -0.7751 0.9603 0 2
6.3242 -2.6491 -0.7822 0.3998 0 1
6.3600 -2.3687 -0.7742 0.4039 0 1
6.3931 -2.0929 -0.7674 0.4089 0 1
6.4240 -1.8209 -0.7617 0.4120 0 1
6.4517 -1.5519 -0.7570 0.4145 0 1
3.9382 -0.7815 -0.4580 0.2863 25 14
3.8670 -0.6072 -0.4465 0.9590 25 14
3.8585 -0.4480 -0.4431 0.9616 25 14
3.8512 -0.2911 -0.4406 0.9671 25 14
3.8437 -0.1357 -0.4387 0.9712 25 14
3.8378 0.0187 -0.4378 0.9733 25 14
3.8470 0.1733 -0.4393 0.9700 25 14
3.8561 0.3292 -0.4415 0.9651 25 14
3.8651 0.4870 -0.4444 0.9588 25 14
3.8745 0.6471 -0.4481 0.9557 25 14
4.0679 0.8485 -0.4740 0.3346 25 14
6.6187 1.6604 -0.7784 0.4106 0 1
6.6173 1.9455 -0.7868 0.4062 0 1
6.6128 2.2363 -0.7963 0.4015 0 1
6.6051 2.5335 -0.8070 0.3962 0 1
6.5944 2.8380 -0.8190 0.3904 0 1
6.5773 3.1494 -0.8319 0.3805 0 1
6.5501 3.4661 -0.8454 0.3744 0 1
6.5188 3.7921 -0.8603 0.3679 0 1
6.4832 4.1283 -0.8768 0.3610 0 1
6.4296 4.4668 -0.8931 0.3684 0 1
6.3652 4.8120 -0.9103 0.3614 0 1
6.2989 5.1721 -0.9297 0.3536 0 1
6.2300 5.5489 -0.9517 0.3454 0 1
6.1545 5.9415 -0.9759 0.3369 0 1
6.0714 6.3516 -1.0023 0.3714 0 1
5.9387 6.7343 -1.0243 0.3570 0 1
5.8104 7.1479 -1.0508 0.3480 0 1
5.6721 7.5803 -1.0800 0.3386 0 1
5.5228 8.0341 -1.1122 0.3288 0 1
5.3612 8.5118 -1.1475 0.3187 0 1
5.2554 9.1379 -1.2025 0.2812 0 2
4.9160 9.4020 -1.2103 0.9927 0 2
4.6683 9.8746 -1.2460 0.2424 0 2
4.4821 10.5579 -1.3084 0.2309 0 2
4.2724 11.3056 -1.3787 0.2191 0 2
4.0352 12.1295 -1.4582 0.2072 0 2
3.7651 13.0443 -1.5488 0.1950 0 2
3.4555 14.0686 -1.6526 0.1828 0 2
3.0976 15.2266 -1.7726 0.1704 0 2
2.1775 13.4465 -1.5539 0.9558 0 20
2.1874 18.0816 -2.0777 0.1454 0 2
1.5985 19.8799 -2.2751 0.1328 0 2
0.9329 23.2630 -2.6559 0.1202 0 2
-0.0019 25.9015 -2.9547 0.1069 0 1
-1.1827 29.3859 -3.3549 0.1003 0 24
-2.6996 33.5128 -3.8354 0.0846 0 1
-4.7696 39.3786 -4.5250 0.0727 0 1
-7.6573 47.2422 -5.4595 0.0652 0 1
-15.6778 47.1038 -5.6632 0.3517 0 15
-29.8812 36.7490 -5.4031 0.6251 0 3
-29.0245 32.9034 -5.0051 0.6075 0 3
-31.2372 32.6691 -5.1562 0.7227 0 3
-28.3060 27.3185 -4.4876 0.7189 0 3
-18.5526 16.5195 -2.8338 0.6755 0 22
-20.0858 16.4879 -2.9644 0.6821 0 22
-29.9761 22.6551 -4.2863 0.9872 0 3
-32.6329 22.6638 -4.5324 0.5722 0 3
-35.0571 22.3164 -4.7407 0.8271 0 3
-30.5771 17.7813 -4.0350 0.5052 0 3
-33.5763 17.7615 -4.3331 0.4704 0 3
-35.1977 16.8471 -4.4514 0.4924 0 3
-41.1708 17.7114 -5.1127 0.3987 0 3
-46.1050 17.6763 -5.6328 0.3618 0 3
-0.2687 -23.7519 -2.9767 0.1098 0 1
0.6224 -21.5744 -2.7047 0.1112 0 1
1.3520 -19.5642 -2.4576 0.1187 0 1
1.9489 -17.7847 -2.2420 0.1328 0 1
2.4477 -16.2719 -2.0621 0.1706 0 1
2.8700 -14.9670 -1.9098 0.1622 0 1
3.2358 -13.8438 -1.7816 0.1995 0 1
3.5704 -12.9125 -1.6789 0.2082 0 1
3.8648 -12.0684 -1.5880 0.2187 0 1
4.1247 -11.2972 -1.5071 0.2305 0 1
4.3561 -10.5906 -1.4351 0.2416 0 1
4.5626 -9.9385 -1.3704 0.2529 0 1
4.7498 -9.3383 -1.3129 0.2658 0 1
4.9184 -8.7788 -1.2610 0.2763 0 1
5.0706 -8.2547 -1.2140 0.2870 0 1
5.2086 -7.7625 -1.1715 0.2974 0 1
5.3360 -7.3008 -1.1332 0.3103 0 1
5.4314 -6.8373 -1.0943 0.3129 0 1
5.5161 -6.3987 -1.0587 0.3234 0 1
5.5924 -5.9837 -1.0264 0.3336 0 1
5.6612 -5.5895 -0.9970 0.3434 0 1
5.7259 -5.2165 -0.9707 0.3560 0 1
5.7856 -4.8605 -0.9469 0.3596 0 1
5.8424 -4.5209 -0.9257 0.3678 0 1
5.8749 -4.1801 -0.9036 0.7557 0 2
5.8671 -3.8294 -0.8780 0.8200 0 2
5.8994 -3.5211 -0.8610 0.9112 0 2
5.9691 -3.2451 -0.8514 0.9486 0 2
6.0845 -2.9979 -0.8500 0.9731 0 2
6.1405 -2.7248 -0.8419 0.4078 0 1
6.1787 -2.4499 -0.8329 0.4119 0 1
6.2139 -2.1795 -0.8252 0.4172 0 1
6.2469 -1.9131 -0.8187 0.4205 0 1
6.2766 -1.6498 -0.8133 0.4233 0 1
4.0873 -0.9006 -0.5245 0.3317 25 14
3.8582 -0.6890 -0.4911 0.9566 25 14
3.8493 -0.5290 -0.4869 0.9649 25 14
3.8404 -0.3714 -0.4835 0.9717 25 14
3.8329 -0.2159 -0.4811 0.9717 25 14
3.8254 -0.0616 -0.4795 0.9750 25 14
3.8277 0.0921 -0.4798 0.9743 25 14
3.8368 0.2467 -0.4818 0.9702 25 14
3.8457 0.4028 -0.4846 0.9647 25 14
3.8557 0.5611 -0.4883 0.9622 25 14
3.8660 0.7221 -0.4929 0.9533 25 14
4.2090 0.9625 -0.5411 0.3216 25 14
6.4514 1.7506 -0.8377 0.4186 0 1
6.4469 2.0305 -0.8470 0.4139 0 1
6.4389 2.3160 -0.8575 0.4091 0 1
6.4277 2.6079 -0.8693 0.4035 0 1
6.4126 2.9067 -0.8823 0.3935 0 1
6.3853 3.2094 -0.8956 0.3877 0 1
6.3541 3.5200 -0.9103 0.3814 0 1
6.3185 3.8396 -0.9265 0.3748 0 1
6.2783 4.1692 -0.9444 0.3677 0 1
6.2188 4.4996 -0.9619 0.3752 0 1
6.1504 4.8378 -0.9806 0.3678 0 1
6.0826 5.1930 -1.0023 0.3598 0 1
6.0085 5.5618 -1.0260 0.3515 0 1
5.9273 5.9459 -1.0521 0.3428 0 1
5.8384 6.3471 -1.0807 0.3337 0 1
5.7083 6.7289 -1.1058 0.3628 0 1
5.5749 7.1335 -1.1346 0.3536 0 1
5.4311 7.5562 -1.1661 0.3440 0 1
5.2741 7.9965 -1.2004 0.3272 0 1
5.1056 8.4616 -1.2385 0.3091 0 1
4.9856 9.0667 -1.2966 0.2861 0 2
4.7440 9.5131 -1.3322 0.9771 0 2
4.3932 9.7735 -1.3428 0.8400 0 2
4.1882 10.4167 -1.4069 0.2356 0 2
3.9661 11.1363 -1.4814 0.2237 0 2
3.7153 11.9270 -1.5655 0.2117 0 2
3.4307 12.8021 -1.6609 0.1995 0 2
3.1053 13.7785 -1.7700 0.1872 0 2
2.4961 13.6000 -1.7328 0.3665 0 20
1.9309 13.5677 -1.7174 0.6767 0 20
1.7842 17.5681 -2.2129 0.1498 0 2
1.2042 19.6984 -2.4731 0.0464 0 2
0.4653 22.2561 -2.7897 0.1249 0 1
-0.4810 24.9827 -3.1313 0.1141 0 1
-1.6740 28.1453 -3.5333 0.1064 0 1
-3.1705 31.7404 -3.9974 0.0928 0 1
-5.1753 36.8010 -4.6571 0.0739 0 1
-7.9196 43.5543 -5.5476 0.0632 0 24
-16.4605 46.4617 -6.1770 0.9061 0 15
-29.5166 37.8975 -6.0197 0.9945 0 3
-31.8416 37.6607 -6.1803 0.7620 0 3
-29.8094 32.5145 -5.5278 0.6703 0 3
-32.4503 32.6601 -5.7696 0.7086 0 3
-17.8069 16.5379 -3.0454 0.7035 0 22
-32.2956 27.6644 -5.3290 0.6506 0 3
-29.0459 22.9249 -4.6371 0.9879 0 3
-28.3947 20.6164 -4.3973 0.7969 0 3
-33.9920 22.6539 -5.1191 0.5558 0 3
-30.0792 18.3465 -4.4152 0.8392 0 3
-30.2858 16.8431 -4.3427 0.8827 0 3
-35.1705 17.7501 -4.9369 0.4530 0 3
-35.0690 15.9662 -4.8288 0.9742 0 3
-43.4087 17.6955 -5.8744 0.3807 0 3
-33.9153 -33.3758 -5.9630 0.6916 0 20
-32.4638 -34.6204 -5.9475 0.8027 0 20
-31.9562 -36.9459 -6.1215 0.7789 0 20
-20.1281 -27.4444 -4.2651 0.8628 0 22
-18.4676 -27.4246 -4.1433 0.7355 0 22
-8.9981 -46.5096 -5.9365 0.0522 0 1
-5.7953 -38.0992 -4.8294 0.0685 0 1
-3.6273 -32.6033 -4.1109 0.0803 0 1
-1.9934 -28.1699 -3.5390 0.0899 0 1
-0.7605 -24.9323 -3.1259 0.1055 0 1
0.2181 -22.5700 -2.8285 0.1163 0 1
1.0216 -20.4899 -2.5709 0.1171 0 1
1.6772 -18.5919 -2.3393 0.1273 0 1
2.2143 -16.9208 -2.1385 0.1326 0 1
2.6822 -15.5995 -1.9836 0.1562 0 1
3.0607 -14.3294 -1.8362 0.1987 0 1
3.4150 -13.3417 -1.7258 0.2025 0 1
3.7300 -12.4657 -1.6306 0.2115 0 1
4.0044 -11.6568 -1.5446 0.2249 0 1
4.2490 -10.9210 -1.4685 0.2365 0 1
4.4668 -10.2435 -1.4004 0.2475 0 1
4.6627 -9.6193 -1.3396 0.2606 0 1
4.8403 -9.0417 -1.2852 0.2711 0 1
4.9997 -8.5008 -1.2359 0.2819 0 1
5.1443 -7.9939 -1.1913 0.2925 0 1
5.2761 -7.5174 -1.1509 0.3055 0 1
5.3877 -7.0561 -1.1125 0.3077 0 1
5.4768 -6.6051 -1.0753 0.3184 0 1
5.5569 -6.1791 -1.0414 0.3288 0 1
5.6292 -5.7753 -1.0107 0.3388 0 1
5.6955 -5.3923 -0.9829 0.3516 0 1
5.7576 -5.0285 -0.9580 0.3607 0 1
5.8160 -4.6815 -0.9356 0.3639 0 1
5.8706 -4.3490 -0.9156 0.3701 0 1
5.8647 -3.9903 -0.8889 0.7722 0 2
5.8796 -3.6640 -0.8682 0.8698 0 2
5.9306 -3.3731 -0.8550 0.9448 0 2
6.0242 -3.1132 -0.8498 0.9700 0 2
6.1211 -2.8580 -0.8466 0.4056 0 1
6.1608 -2.5806 -0.8370 0.4099 0 1
6.1973 -2.3081 -0.8287 0.4140 0 1
6.2316 -2.0400 -0.8217 0.4189 0 1
6.2628 -1.7752 -0.8158 0.4220 0 1
6.2908 -1.5132 -0.8108 0.4246 0 1
3.8847 -0.7709 -0.4963 0.2898 25 14
3.8535 -0.6051 -0.4888 0.9611 25 14
3.8446 -0.4464 -0.4850 0.9686 25 14
3.8365 -0.2900 -0.4821 0.9696 25 14
3.8290 -0.1352 -0.4801 0.9736 25 14
3.8233 0.0186 -0.4791 0.9757 25 14
3.8325 0.1727 -0.4808 0.9724 25 14
3.8415 0.3280 -0.4832 0.9675 25 14
3.8508 0.4852 -0.4864 0.9660 25 14
3.8611 0.6448 -0.4906 0.9577 25 14
4.0173 0.8379 -0.5143 0.3383 25 14
6.4525 1.6187 -0.8337 0.4206 0 1
6.4494 1.8961 -0.8424 0.4162 0 1
6.4431 2.1789 -0.8524 0.4115 0 1
6.4335 2.4676 -0.8635 0.4062 0 1
6.4205 2.7632 -0.8759 0.4005 0 1
6.3988 3.0639 -0.8891 0.3906 0 1
6.3695 3.3706 -0.9031 0.3845 0 1
6.3360 3.6858 -0.9186 0.3780 0 1
6.2981 4.0104 -0.9357 0.3711 0 1
6.2496 4.3417 -0.9536 0.3785 0 1
6.1836 4.6748 -0.9714 0.3715 0 1
6.1157 5.0217 -0.9917 0.3637 0 1
6.0447 5.3838 -1.0144 0.3555 0 1
5.9670 5.7604 -1.0393 0.3470 0 1
5.8818 6.1532 -1.0667 0.3381 0 1
5.7708 6.5440 -1.0934 0.3735 0 1
5.6398 6.9381 -1.1205 0.3581 0 1
5.5012 7.3519 -1.1507 0.3487 0 1
5.3512 7.7844 -1.1838 0.3318 0 1
5.1863 8.2342 -1.2195 0.3221 0 1
5.0193 8.7274 -1.2617 0.3089 0 1
4.8941 9.3601 -1.3236 0.2803 0 2
4.5609 9.6474 -1.3373 0.9734 0 2
4.2855 10.0949 -1.3743 0.2411 0 2
4.0755 10.7845 -1.4447 0.2294 0 2
3.8390 11.5397 -1.5240 0.2175 0 2
3.5713 12.3726 -1.6138 0.2054 0 2
3.2663 13.2982 -1.7160 0.1931 0 2
2.9164 14.3358 -1.8333 0.1808 0 2
2.1757 13.4353 -1.7056 0.8479 0 20
2.0389 16.8541 -2.1275 0.1558 0 2
1.4804 18.4116 -2.3147 0.1432 0 2
0.8578 21.3896 -2.6826 0.1305 0 2
-0.0017 23.6209 -2.9601 0.1170 0 1
-1.0707 26.6031 -3.3365 0.1081 0 1
-2.4092 29.9086 -3.7602 0.0986 0 1
-4.1345 34.1353 -4.3090 0.0804 0 1
-6.5085 40.1548 -5.0977 0.0694 0 1
-9.8334 48.3006 -6.1770 0.0647 0 1
-15.4733 46.4893 -6.1401 0.9904 0 15
-29.8089 36.6600 -5.9212 0.7741 0 3
-29.7801 33.7601 -5.6415 0.6568 0 3
-31.2362 32.6680 -5.6641 0.7218 0 3
-28.9429 27.9331 -5.0407 0.8335 0 3
-18.5622 16.5280 -3.1146 0.6883 0 22
-20.0949 16.4954 -3.2580 0.7017 0 22
-29.0359 21.9445 -4.5610 0.1337 0 3
-28.4094 19.7306 -4.3346 0.8084 0 3
-34.9073 22.2210 -5.1856 0.8295 0 3
-30.2818 17.6096 -4.3898 0.8914 0 3
-30.2843 16.0200 -4.2934 0.7597 0 3
-37.0581 17.7376 -5.1485 0.4344 0 3
-38.6177 16.6131 -5.2682 0.1718 0 3
-46.1019 17.6751 -6.1874 0.3614 0 3
-0.2448 -21.6412 -2.9561 0.1211 0 1
0.5676 -19.6728 -2.6882 0.1217 0 1
1.2415 -17.9654 -2.4597 0.1318 0 1
1.8038 -16.4602 -2.2617 0.1693 0 1
2.2959 -15.2631 -2.1082 0.1599 0 1
2.7036 -14.0988 -1.9608 0.2025 0 1
3.0729 -13.1471 -1.8441 0.2098 0 1
3.3969 -12.2851 -1.7410 0.2185 0 1
3.6858 -11.5096 -1.6507 0.2290 0 1
3.9430 -10.7996 -1.5703 0.2407 0 1
4.1727 -10.1447 -1.4983 0.2518 0 1
4.3798 -9.5404 -1.4339 0.2649 0 1
4.5674 -8.9797 -1.3761 0.2761 0 1
4.7365 -8.4540 -1.3236 0.2865 0 1
4.8897 -7.9603 -1.2760 0.2972 0 1
5.0298 -7.4959 -1.2330 0.3103 0 1
5.1573 -7.0563 -1.1938 0.3121 0 1
5.2543 -6.6144 -1.1538 0.3230 0 1
5.3419 -6.1966 -1.1175 0.3335 0 1
5.4210 -5.8003 -1.0844 0.3436 0 1
5.4934 -5.4239 -1.0544 0.3567 0 1
5.5612 -5.0664 -1.0275 0.3660 0 1
5.6226 -4.7236 -1.0030 0.3750 0 1
5.6789 -4.3944 -0.9808 0.3778 0 1
5.7334 -4.0794 -0.9611 0.3837 0 1
5.7881 -3.7778 -0.9441 0.4006 0 1
5.8448 -3.4885 -0.9297 0.4068 0 1
5.8959 -3.2053 -0.9166 0.4077 0 1
5.9423 -2.9279 -0.9048 0.4130 0 1
5.9847 -2.6557 -0.8943 0.4178 0 1
6.0234 -2.3883 -0.8850 0.4219 0 1
6.0597 -2.1254 -0.8771 0.4272 0 1
6.0931 -1.8660 -0.8704 0.4305 0 1
6.1230 -1.6094 -0.8647 0.4333 0 1
4.0235 -0.8865 -0.5627 0.3503 25 14
3.8447 -0.6866 -0.5334 0.9586 25 14
3.8360 -0.5272 -0.5289 0.9669 25 14
3.8271 -0.3701 -0.5252 0.9737 25 14
3.8183 -0.2151 -0.5224 0.9740 25 14
3.8109 -0.0614 -0.5206 0.9773 25 14
3.8133 0.0917 -0.5210 0.9765 25 14
3.8223 0.2457 -0.5232 0.9725 25 14
3.8323 0.4014 -0.5263 0.9716 25 14
3.8425 0.5592 -0.5304 0.9641 25 14
3.8526 0.7196 -0.5353 0.9552 25 14
4.1514 0.9494 -0.5817 0.3390 25 14
6.2923 1.7074 -0.8905 0.4285 0 1
6.2861 1.9799 -0.9002 0.4239 0 1
6.2765 2.2576 -0.9111 0.4190 0 1
6.2634 2.5412 -0.9232 0.4135 0 1
6.2439 2.8303 -0.9364 0.4036 0 1
6.2150 3.1238 -0.9501 0.3978 0 1
6.1818 3.4246 -0.9653 0.3915 0 1
6.1442 3.7337 -0.9820 0.3848 0 1
6.1019 4.0520 -1.0005 0.3777 0 1
6.0475 4.3757 -1.0196 0.3853 0 1
5.9780 4.7022 -1.0389 0.3778 0 1
5.9085 5.0444 -1.0611 0.3699 0 1
5.8325 5.3990 -1.0856 0.3616 0 1
5.7494 5.7675 -1.1123 0.3529 0 1
5.6586 6.1517 -1.1417 0.3438 0 1
5.5472 6.5390 -1.1712 0.3728 0 1
5.4135 6.9270 -1.2008 0.3560 0 1
5.2668 7.3276 -1.2326 0.3469 0 1
5.1088 7.7459 -1.2674 0.3373 0 1
4.9381 8.1841 -1.3056 0.3275 0 1
4.7702 8.6750 -1.3522 0.3137 0 1
4.6283 9.2811 -1.4166 0.2848 0 2
4.3925 9.7718 -1.4634 0.9681 0 2
4.0441 10.0584 -1.4807 0.9347 0 2
3.7866 10.6323 -1.5416 0.2340 0 2
3.5381 11.3580 -1.6249 0.2220 0 2
3.2575 12.1561 -1.7190 0.2098 0 2
2.9389 13.0400 -1.8258 0.1976 0 2
2.4835 13.5311 -1.8790 0.5182 0 20
1.9416 13.6430 -1.8822 0.4637 0 20
1.6662 16.4065 -2.2524 0.1601 0 2
1.1519 18.8436 -2.5786 0.1478 0 2
0.4292 20.5309 -2.8049 0.1352 0 1
-0.4399 22.8442 -3.1208 0.1207 0 1
-1.5208 25.5696 -3.4987 0.1157 0 1
-2.8461 28.4927 -3.9111 0.1049 0 1
-4.5309 32.2183 -4.4439 0.0870 0 1
-6.8039 37.4188 -5.1948 0.0728 0 1
-10.0005 44.7164 -6.2586 0.0612 0 1
-16.4463 46.4218 -6.7268 0.8959 0 15
-29.5021 37.8788 -6.5579 0.6150 0 3
-27.8239 32.9088 -5.8862 0.8721 0 3
-29.6521 32.3429 -5.9933 0.6729 0 3
-32.4492 32.6590 -6.2883 0.7076 0 3
-17.7995 16.5311 -3.3180 0.7329 0 22
-32.2944 27.6634 -5.8081 0.6496 0 3
-29.8573 23.5652 -5.1953 0.7763 0 3
-29.8917 21.7033 -5.0455 0.7993 0 3
-33.9905 22.6529 -5.5793 0.5550 0 3
-29.9523 18.2691 -4.7921 0.8415 0 3
-34.8019 19.3547 -5.4392 0.8607 0 3
-34.9051 17.6161 -5.3404 0.7735 0 3
-38.9302 17.7241 -5.8425 0.4166 0 3
