ply
format ascii 1.0
element vertex 1407
property float32 x
property float32 y
property float32 z
property float32 CosAngle
property uint32 ObjIdx
property uint32 ObjTag
end_header
16.9417 13.8878 2.8686 0.1206 0 2
16.4059 14.5887 2.8749 0.6539 0 3
15.2541 14.7031 2.7743 0.6780 0 0
14.0605 14.6867 2.6625 0.7065 0 0
12.8438 14.5427 2.5407 0.7387 0 3
11.9703 14.7039 2.4828 0.7647 0 3
11.0140 14.6976 2.4051 0.7894 0 3
10.1144 14.6917 2.3357 0.8128 0 3
5.9977 9.5082 1.4721 0.5485 0 8
8.4562 14.6809 2.2185 0.8557 0 3
7.6855 14.6759 2.1693 0.8751 0 3
7.5285 15.8990 2.3035 0.4496 0 3
7.4531 17.5270 2.4940 0.4153 0 3
7.2324 19.1045 2.6750 0.9248 0 3
8.0355 24.1087 3.3277 0.9384 0 3
6.9751 24.1158 3.2874 0.3089 0 3
6.9445 28.2094 3.8042 0.2725 0 3
2.5859 12.6780 1.6943 0.4599 0 9
2.2003 13.5454 1.7970 0.5214 0 9
2.1349 17.5775 2.3186 0.1176 0 9
1.2802 15.8314 2.0799 0.5528 0 9
0.9673 23.8606 3.1271 0.8541 0 9
0.0056 16.1952 2.1207 0.5339 0 9
-0.5691 14.2829 1.8718 0.1086 0 9
2.8253 -18.4211 2.4404 0.6642 0 22
3.7272 -19.1368 2.5530 0.6870 0 22
7.3835 -31.1785 4.1957 0.4758 0 3
7.7210 -27.6078 3.7539 0.9569 0 3
9.5900 -29.6446 4.0800 0.9456 0 3
10.9316 -29.6665 4.1401 0.9328 0 3
12.2806 -29.6045 4.1970 0.9185 0 3
12.7599 -27.5752 3.9788 0.9028 0 3
14.6780 -28.6424 4.2145 0.8856 0 3
16.1567 -28.6328 4.3051 0.8669 0 3
17.7030 -28.6227 4.4070 0.8469 0 3
19.9952 -29.6016 4.6777 0.8255 0 3
20.4358 -27.7794 4.5159 0.0634 0 3
21.1839 -26.4972 4.4423 0.7794 0 3
20.7578 -23.9269 4.1479 0.0834 0 2
19.5056 -20.7387 3.7281 0.0928 0 2
18.5181 -18.1680 3.3971 0.1019 0 2
17.7788 -16.0935 3.1403 0.6813 0 2
17.9167 -14.9541 3.0560 0.1375 0 1
5.4959 0.1102 0.6579 0.1563 25 14
5.6641 0.3415 0.6792 0.1751 25 14
5.8204 0.5863 0.7002 0.1698 25 14
14.2188 2.0120 1.7188 0.1854 0 1
14.3841 2.6285 1.7502 0.1825 0 1
14.5660 3.2712 1.7869 0.1863 0 1
14.7645 3.9448 1.8292 0.1820 0 1
14.8788 4.6231 1.8649 0.1907 0 1
14.9413 5.3093 1.8979 0.1874 0 1
15.0180 6.0263 1.9369 0.1859 0 1
12.8219 5.7532 1.6821 0.4822 0 14
11.4613 5.7063 1.5325 0.3975 0 14
10.3946 5.7072 1.4193 0.5345 0 14
9.8674 5.9456 1.3789 0.3048 0 14
9.7622 6.4303 1.3992 0.7632 0 14
9.7722 7.0154 1.4399 0.4940 0 14
15.3270 11.9645 2.3273 0.1361 0 2
15.7606 13.3554 2.4726 0.1281 0 2
15.8721 14.5847 2.5800 0.6669 0 3
14.7563 14.6952 2.4926 0.6907 0 0
13.6014 14.6794 2.3953 0.7188 0 0
12.4225 14.5369 2.2887 0.7505 0 3
11.5741 14.7008 2.2395 0.7759 0 3
10.6354 14.6857 2.1703 0.8002 0 3
6.0551 9.1101 1.3093 0.5645 0 8
8.9308 14.6836 2.0571 0.8448 0 3
8.1387 14.6784 2.0089 0.8650 0 3
7.6252 15.1575 2.0309 0.4668 0 3
7.5610 16.6653 2.1904 0.4328 0 3
7.4846 18.4305 2.3810 0.3982 0 3
7.7199 21.4428 2.7278 0.7867 0 3
7.5996 24.1052 3.0252 0.9448 0 3
3.9158 14.4158 1.7880 0.1459 0 9
1.5926 15.1781 1.8267 0.6842 0 9
1.4953 23.1971 2.7823 0.1406 0 9
0.3636 15.0203 1.7983 0.7862 0 9
-0.2620 16.4005 1.9633 0.3148 0 9
-0.8478 15.0854 1.8085 0.8440 0 9
0.3038 -38.8875 4.6547 0.6628 0 6
1.8667 -38.8712 4.6579 0.9545 0 22
2.3096 -17.8986 2.1601 0.7489 0 22
3.1669 -18.6163 2.2602 0.9870 0 6
4.1093 -19.4059 2.3742 0.5930 0 22
7.6884 -30.2555 3.7365 0.2632 0 3
8.8255 -29.6809 3.7063 0.9538 0 3
10.1367 -29.6724 3.7531 0.9419 0 3
11.4619 -29.6074 3.8001 0.9285 0 3
12.6721 -29.1930 3.8092 0.4065 0 3
13.4170 -27.7961 3.6943 0.6324 0 3
9.8366 -18.4471 2.5023 0.9992 0 9
16.7766 -28.6296 3.9717 0.8601 0 3
18.2002 -28.3808 4.0355 0.8338 0 3
19.2526 -27.5230 4.0203 0.7867 0 3
20.1859 -26.5219 3.9893 0.7618 0 3
19.0736 -23.0753 3.5833 0.0884 0 2
18.0258 -20.1054 3.2320 0.0980 0 2
17.1929 -17.6922 2.9528 0.1073 0 2
16.9453 -16.0908 2.7970 0.7001 0 2
16.7922 -14.7091 2.6719 0.1373 0 1
16.5034 -13.3237 2.5387 0.1409 0 1
16.2298 -12.0592 2.4201 0.1408 0 1
15.8030 -10.7848 2.2900 0.1325 0 1
15.3599 -9.6016 2.1681 0.1338 0 24
14.9985 -8.5578 2.0669 0.1395 0 1
14.6295 -7.5853 1.9724 0.1545 0 1
8.6169 -4.0373 1.1390 0.9677 0 9
14.1999 -5.9700 1.8437 0.1756 0 1
13.5885 -5.0809 1.7364 0.1829 0 25
13.4722 -4.4293 1.6974 0.1871 0 25
13.3736 -3.8091 1.6644 0.1909 0 25
13.2911 -3.2145 1.6367 0.1941 0 25
13.2233 -2.6410 1.6140 0.1968 0 25
13.6903 -2.1666 1.6590 0.1979 0 2
13.6751 -1.6043 1.6480 0.2024 0 1
5.6460 -0.4334 0.6778 0.1754 25 14
5.5607 -0.2027 0.6660 0.1785 25 14
5.4438 0.0203 0.6516 0.1578 25 14
5.6049 0.2462 0.6715 0.1771 25 14
5.7550 0.4850 0.6913 0.1720 25 14
14.1483 1.7670 1.7066 0.1867 0 1
14.3156 2.3753 1.7369 0.1839 0 1
14.4906 3.0068 1.7714 0.1803 0 1
14.6810 3.6670 1.8112 0.1838 0 1
14.8581 4.3521 1.8531 0.1919 0 1
14.9139 5.0271 1.8838 0.1888 0 1
14.9865 5.7315 1.9205 0.1852 0 1
13.5470 5.8149 1.7645 0.8911 0 14
12.0075 5.7357 1.5928 0.3096 0 14
10.7713 5.6873 1.4579 0.4883 0 14
10.0029 5.8069 1.3844 0.3003 0 14
9.7904 6.2222 1.3885 0.9165 0 14
9.7543 6.7641 1.4208 0.8002 0 14
14.5417 10.9743 2.1806 0.1163 0 9
15.5755 12.7678 2.4106 0.1314 0 2
16.0561 14.2776 2.5717 0.1232 0 2
15.1262 14.5798 2.5146 0.6842 0 3
14.0595 14.6857 2.4334 0.7075 0 0
12.8434 14.5422 2.3222 0.7398 0 3
11.9699 14.7034 2.2693 0.7657 0 3
11.0137 14.6972 2.1983 0.7905 0 3
10.1142 14.6913 2.1349 0.8140 0 3
9.2637 14.6857 2.0783 0.8361 0 3
8.4559 14.6805 2.0278 0.8570 0 3
7.6853 14.6755 1.9828 0.8764 0 3
7.5883 16.0254 2.1223 0.4467 0 3
7.5173 17.6780 2.2993 0.4123 0 3
7.2860 19.2462 2.4632 0.3773 0 3
8.0353 24.1081 3.0416 0.9397 0 3
7.0562 24.3960 3.0397 0.3058 0 3
7.0361 28.5815 3.5231 0.2693 0 3
7.3890 36.2263 4.4253 0.9977 0 6
1.2151 15.0259 1.8044 0.7987 0 9
0.0052 15.0051 1.7960 0.2505 0 9
-0.6090 15.2833 1.8307 0.2128 0 9
-2.0038 24.9942 3.0012 0.5441 0 9
-1.8946 -38.8912 4.6605 0.9779 0 6
2.8121 -18.3356 2.2203 0.5906 0 22
3.7160 -19.0796 2.3266 0.6182 0 22
7.6378 -32.2526 3.9672 0.9679 0 3
7.7663 -27.7696 3.4513 0.2849 0 3
9.5743 -29.5961 3.7232 0.9469 0 3
10.9319 -29.6673 3.7844 0.9341 0 3
12.3029 -29.6584 3.8432 0.9198 0 3
12.7602 -27.5759 3.6369 0.9040 0 3
10.2128 -19.9291 2.6803 0.5205 0 9
16.1571 -28.6336 3.9352 0.8681 0 3
17.7035 -28.6235 4.0284 0.8480 0 3
19.2333 -28.4736 4.1127 0.0640 0 3
19.8885 -27.0354 4.0172 0.8034 0 3
19.5797 -24.4906 3.7530 0.0844 0 2
18.4213 -21.2337 3.3646 0.0941 0 2
17.5095 -18.6164 3.0590 0.1035 0 2
16.7755 -16.4584 2.8129 0.1126 0 2
16.9111 -15.3080 2.7302 0.1409 0 1
16.6233 -13.8745 2.5917 0.1380 0 1
5.1597 0.1035 0.5598 0.2406 25 14
5.3172 0.3206 0.5778 0.1615 25 14
5.4792 0.5519 0.5973 0.1806 25 14
13.4506 1.9033 1.4735 0.1962 0 1
13.5968 2.4846 1.4992 0.1942 0 1
13.7527 3.0885 1.5289 0.1896 0 1
13.9295 3.7217 1.5639 0.1853 0 1
14.0859 4.3767 1.5999 0.1936 0 1
14.1377 5.0238 1.6274 0.1957 0 1
14.1984 5.6974 1.6594 0.1919 0 1
12.8709 5.7752 1.5302 0.3436 0 14
11.4648 5.7080 1.3891 0.3882 0 14
10.3809 5.6997 1.2845 0.5614 0 14
9.9230 5.9791 1.2566 0.9466 0 14
9.8114 6.4627 1.2743 0.8691 0 14
9.8420 7.0655 1.3141 0.6243 0 14
14.2226 11.1024 1.9571 0.1469 0 2
14.5594 12.3376 2.0700 0.1388 0 2
14.9570 13.7438 2.2032 0.1304 0 2
14.6366 14.5761 2.2405 0.6968 0 3
13.6005 14.6784 2.1705 0.7197 0 0
12.4221 14.5365 2.0740 0.7514 0 3
11.5738 14.7004 2.0294 0.7770 0 3
10.6350 14.6852 1.9667 0.8012 0 3
6.0934 9.1677 1.1940 0.5616 0 8
8.9305 14.6832 1.8641 0.8459 0 3
8.1385 14.6780 1.8204 0.8661 0 3
7.6835 15.2734 1.8545 0.4639 0 3
7.6204 16.7963 2.0006 0.4298 0 3
7.5518 18.5960 2.1770 0.3951 0 3
8.1250 22.5679 2.6017 0.9142 0 3
7.5995 24.1046 2.7414 0.9460 0 3
7.2285 26.6112 2.9910 0.2878 0 3
1.5055 14.3478 1.5648 0.2686 0 9
1.7521 27.1799 2.9542 0.1881 0 9
0.3300 13.6326 1.4791 0.2407 0 9
-0.3666 22.9509 2.4897 0.1430 0 9
-2.4749 25.6156 2.7914 0.1426 0 9
-2.3212 16.9010 1.8504 0.4599 0 9
-2.8194 -38.8027 4.2199 0.8754 0 6
1.8668 -38.8741 4.2214 0.9802 0 22
2.3068 -17.8768 1.9551 0.6695 0 22
8.2859 -48.7076 5.3590 0.9930 0 3
7.5047 -35.4400 3.9293 0.2231 0 3
7.7933 -30.6684 3.4322 0.2599 0 3
8.8257 -29.6816 3.3588 0.9550 0 3
10.1370 -29.6732 3.4012 0.9430 0 3
11.4622 -29.6081 3.4437 0.9296 0 3
12.7835 -29.4497 3.4823 0.4035 0 3
13.3865 -27.7328 3.3402 0.7000 0 3
9.8667 -18.5035 2.2745 0.7568 0 9
16.7770 -28.6304 3.5993 0.8612 0 3
17.6497 -27.5224 3.5464 0.8074 0 3
18.5515 -26.5208 3.5106 0.7855 0 3
18.0020 -23.6525 3.2241 0.0891 0 2
17.0368 -20.6111 2.9005 0.0991 0 2
16.2712 -18.1484 2.6438 0.1087 0 2
15.6651 -16.1200 2.4381 0.5922 0 2
15.8448 -15.0458 2.3700 0.1371 0 1
15.5799 -13.6472 2.2465 0.1445 0 1
15.3234 -12.3710 2.1361 0.1447 0 1
14.9887 -11.1370 2.0254 0.1392 0 1
6.1232 -4.1787 0.8041 0.3972 14 6
14.2921 -8.9341 1.8282 0.1470 0 1
13.9551 -7.9625 1.7427 0.1542 0 1
13.7237 -7.1156 1.6768 0.1710 0 1
8.6793 -4.0666 1.0396 0.9324 0 9
12.9563 -5.4471 1.5245 0.1891 0 25
12.8464 -4.8034 1.4876 0.1937 0 25
12.7521 -4.1926 1.4560 0.1980 0 25
12.6719 -3.6092 1.4291 0.2017 0 25
12.6047 -3.0485 1.4066 0.2049 0 25
12.5494 -2.5064 1.3881 0.2076 0 25
13.0019 -2.0576 1.4278 0.2104 0 1
12.9965 -1.5247 1.4194 0.2132 0 1
5.3168 -0.4081 0.5784 0.1613 25 14
5.2026 -0.1897 0.5647 0.1652 25 14
5.1249 0.0191 0.5559 0.2351 25 14
5.2457 0.2305 0.5695 0.1638 25 14
5.4217 0.4569 0.5902 0.1828 25 14
13.3891 1.6722 1.4635 0.1976 0 1
13.5389 2.2464 1.4886 0.1956 0 1
13.6865 2.8399 1.5162 0.1920 0 1
13.8553 3.4607 1.5490 0.1871 0 1
14.0446 4.1138 1.5874 0.1826 0 1
14.1171 4.7585 1.6159 0.1971 0 1
14.1720 5.4200 1.6458 0.1935 0 1
13.6674 5.8666 1.6133 0.3599 0 14
12.0209 5.7421 1.4450 0.3732 0 14
10.7623 5.6825 1.3201 0.4170 0 14
10.0181 5.8157 1.2565 0.9500 0 14
9.8403 6.2539 1.2647 0.9044 0 14
9.8067 6.8005 1.2944 0.7715 0 14
14.1005 10.6413 1.9161 0.1500 0 2
14.4160 11.8174 2.0219 0.1421 0 2
14.7873 13.1493 2.1463 0.1339 0 2
15.1256 14.5793 2.2787 0.6851 0 3
13.9529 14.5743 2.1885 0.6885 0 3
12.8430 14.5417 2.1044 0.7407 0 3
11.9695 14.7030 2.0564 0.7667 0 3
11.0134 14.6967 1.9920 0.7915 0 3
10.1139 14.6909 1.9346 0.8150 0 3
9.2635 14.6853 1.8833 0.8372 0 3
8.4557 14.6801 1.8376 0.8581 0 3
7.7052 14.7135 1.8015 0.4775 0 3
7.6490 16.1535 1.9386 0.4437 0 3
7.5824 17.8312 2.1017 0.4093 0 3
7.3551 19.4286 2.2533 0.3743 0 3
8.0351 24.1074 2.7563 0.9409 0 3
7.1366 24.6741 2.7860 0.3026 0 3
7.1299 28.9625 3.2353 0.2661 0 3
2.8927 14.1821 1.5700 0.2994 0 9
2.2697 13.9724 1.5354 0.2058 0 9
0.5580 13.7631 1.4941 0.1643 0 9
0.0053 15.2240 1.6513 0.2960 0 9
-0.6129 15.3814 1.6697 0.2488 0 9
-2.0277 16.7920 1.8346 0.2997 0 9
1.2314 -38.8718 4.2184 0.9983 0 22
2.8012 -18.2642 2.0042 0.6402 0 22
6.3526 -32.6168 3.6043 0.9774 0 3
8.6534 -36.5411 4.0731 0.2450 0 3
7.8641 -28.1193 3.1670 0.2817 0 3
9.6004 -29.6766 3.3832 0.9481 0 3
10.9322 -29.6680 3.4295 0.9353 0 3
12.2799 -29.6029 3.4762 0.9209 0 3
12.8279 -27.7222 3.3132 0.4240 0 3
14.5005 -28.2962 3.4487 0.7656 0 3
16.1576 -28.6344 3.5662 0.8692 0 3
17.6613 -28.5554 3.6418 0.8491 0 3
18.2563 -27.0272 3.5377 0.8019 0 3
18.4690 -25.1058 3.3806 0.0850 0 2
17.4009 -21.7652 3.0225 0.0951 0 2
16.5621 -19.0906 2.7413 0.1048 0 2
15.8880 -16.8924 2.5154 0.1143 0 2
16.1879 -15.8819 2.4598 0.1352 0 2
15.6793 -14.1930 2.2940 0.1451 0 1
15.4290 -12.8778 2.1799 0.1418 0 1
4.9423 0.0991 0.4808 0.2441 25 14
5.0565 0.3049 0.4927 0.2454 25 14
5.1746 0.5213 0.5059 0.2391 25 14
12.7627 1.8059 1.2538 0.2071 0 1
12.8942 2.3562 1.2750 0.2050 0 1
13.0277 2.9257 1.2987 0.2013 0 1
13.1770 3.5207 1.3267 0.1961 0 1
13.3459 4.1468 1.3593 0.1914 0 1
13.4035 4.7629 1.3836 0.2009 0 1
13.4568 5.3998 1.4104 0.2027 0 1
13.5126 6.0631 1.4406 0.1984 0 1
11.4842 5.7177 1.2478 0.3868 0 14
10.3745 5.6962 1.1512 0.6068 0 14
9.9468 5.9934 1.1296 0.8791 0 14
9.8465 6.4858 1.1468 0.8781 0 14
9.8857 7.0969 1.1837 0.5978 0 14
13.2689 10.3578 1.6373 0.1576 0 2
13.5307 11.4659 1.7251 0.1496 0 2
13.8372 12.7148 1.8278 0.1412 0 2
14.1991 14.1403 1.9491 0.1324 0 2
13.4983 14.5681 1.9318 0.7255 0 3
12.4217 14.5360 1.8598 0.7523 0 3
11.5734 14.6999 1.8198 0.7779 0 3
10.6347 14.6848 1.7636 0.8022 0 3
6.1320 9.2258 1.0775 0.5587 0 8
8.9303 14.6827 1.6716 0.8468 0 3
8.1383 14.6776 1.6324 0.8671 0 3
7.7425 15.3908 1.6758 0.4608 0 3
7.6836 16.9357 1.8089 0.4268 0 3
7.6200 18.7640 1.9699 0.3920 0 3
8.1472 22.6294 2.3394 0.9127 0 3
7.5993 24.1040 2.4583 0.9471 0 3
7.3185 26.9425 2.7156 0.2846 0 3
2.5811 24.5992 2.4058 0.5725 0 9
1.0638 16.5034 1.6086 0.0738 0 9
0.3400 14.0484 1.3669 0.8135 0 9
-0.2477 15.5076 1.5086 0.3933 0 9
-0.9426 16.7707 1.6338 0.3287 0 9
-2.5191 26.0739 2.5480 0.3469 0 9
-35.2833 -34.5685 4.8046 0.9277 0 20
0.3040 -38.9036 3.7842 0.9921 0 22
1.8676 -38.8899 3.7871 0.9986 0 22
2.2994 -17.8196 1.7476 0.6724 0 22
5.7585 -33.8504 3.3399 0.0387 0 3
8.9688 -42.3540 4.2110 0.9751 0 3
8.0506 -31.6811 3.1795 0.2567 0 3
8.2087 -27.6067 2.8014 0.9560 0 3
10.1373 -29.6739 3.0501 0.9441 0 3
11.4843 -29.6652 3.0941 0.9307 0 3
12.8385 -29.5765 3.1362 0.9157 0 3
13.4301 -27.8231 3.0051 0.6660 0 3
9.9275 -18.6175 2.0522 0.3541 0 9
16.3462 -27.8952 3.1448 0.0682 0 3
17.1210 -26.6979 3.0849 0.0883 0 3
16.9798 -24.2739 2.8814 0.0895 0 2
16.0959 -21.1482 2.5851 0.0998 0 2
15.3966 -18.6268 2.3506 0.1098 0 2
14.8310 -16.5421 2.1610 0.1194 0 2
14.7162 -13.9741 1.9739 0.1514 0 1
14.4841 -12.6873 1.8729 0.1530 0 1
14.2276 -11.4864 1.7786 0.1410 0 1
13.9226 -10.3448 1.6871 0.1498 0 1
6.1254 -4.1803 0.7213 0.7130 14 6
13.3325 -8.3343 1.5293 0.1577 0 1
13.0809 -7.4637 1.4649 0.1757 0 1
12.9239 -6.7010 1.4160 0.1818 0 1
8.7050 -4.0786 0.9350 0.9575 0 9
12.2712 -5.1591 1.2948 0.1998 0 25
12.1826 -4.5552 1.2651 0.2045 0 25
12.1065 -3.9803 1.2396 0.2087 0 25
12.0416 -3.4297 1.2178 0.2125 0 25
11.9872 -2.8992 1.1996 0.2157 0 25
11.9423 -2.3851 1.1845 0.2184 0 25
12.3807 -1.9593 1.2192 0.2212 0 1
12.3807 -1.4525 1.2125 0.2225 0 1
5.0587 -0.3883 0.4935 0.2450 25 14
4.9843 -0.1817 0.4851 0.2493 25 14
4.9073 0.0183 0.4773 0.2458 25 14
5.0110 0.2202 0.4879 0.2479 25 14
5.1255 0.4320 0.5003 0.2417 25 14
12.7114 1.5876 1.2460 0.2165 0 1
12.8440 2.1311 1.2664 0.2064 0 1
12.9717 2.6916 1.2886 0.2028 0 1
13.1140 3.2756 1.3148 0.1988 0 1
13.2751 3.8884 1.3455 0.1934 0 1
13.3825 4.5109 1.3736 0.2024 0 1
13.4375 5.1391 1.3994 0.2043 0 1
13.4884 5.7898 1.4277 0.2002 0 1
12.0296 5.7462 1.2967 0.3616 0 14
10.7856 5.6948 1.1863 0.4308 0 14
10.0307 5.8230 1.1281 0.8990 0 14
9.8710 6.2734 1.1376 0.8861 0 14
9.8420 6.8250 1.1650 0.7943 0 14
13.1734 9.9417 1.6053 0.1607 0 2
13.4195 11.0005 1.6878 0.1529 0 2
13.7067 12.1885 1.7841 0.1446 0 2
14.0446 13.5373 1.8974 0.1360 0 2
13.9498 14.5711 1.9621 0.7143 0 3
12.8426 14.5413 1.8870 0.7416 0 3
11.9692 14.7025 1.8440 0.7676 0 3
11.0130 14.6963 1.7863 0.7924 0 3
6.2771 9.1177 1.0767 0.6888 22 6
9.2632 14.6849 1.6888 0.8382 0 3
8.4555 14.6797 1.6478 0.8591 0 3
7.7627 14.8234 1.6276 0.4745 0 3
7.7105 16.2834 1.7524 0.4407 0 3
7.6486 17.9868 1.9011 0.4062 0 3
7.4253 19.6141 2.0400 0.3711 0 3
8.0349 24.1068 2.4716 0.9420 0 3
7.0903 24.5141 2.4822 0.4060 0 3
3.4085 13.8456 1.3869 0.1128 0 9
1.9574 16.1160 1.5791 0.8540 0 9
1.2875 15.9220 1.5538 0.8620 0 9
0.0055 15.8199 1.5388 0.1179 0 9
-0.6249 15.6829 1.5267 0.0167 0 9
-0.3308 -38.9037 3.7842 0.9945 0 22
1.2327 -38.9126 3.7868 0.9902 0 22
4.3537 -38.7053 3.7885 0.9743 0 6
8.1188 -41.6850 4.1308 0.0313 0 3
8.7992 -37.1569 3.7141 0.2417 0 3
7.9641 -28.4770 2.8762 0.2785 0 3
9.5824 -29.6210 3.0282 0.9491 0 3
10.9325 -29.6688 3.0755 0.9363 0 3
12.3036 -29.6600 3.1233 0.9220 0 3
12.9358 -27.9555 2.9962 0.4210 0 3
14.4253 -28.1493 3.0766 0.6259 0 3
16.1251 -28.5769 3.1916 0.8701 0 3
16.7161 -27.0271 3.0910 0.8532 0 3
17.4085 -25.7721 3.0251 0.0853 0 2
16.4290 -22.3328 2.6967 0.0957 0 2
15.6621 -19.5904 2.4396 0.1058 0 2
15.0470 -17.3443 2.2334 0.1155 0 2
15.1441 -16.1014 2.1500 0.7419 0 2
14.8235 -14.5433 2.0199 0.1444 0 1
14.5509 -13.1716 1.9091 0.1471 0 24
14.3590 -11.9846 1.8192 0.1487 0 1
4.7413 0.0951 0.4083 0.2547 25 14
4.8516 0.2925 0.4184 0.2485 25 14
4.9602 0.4997 0.4292 0.2496 25 14
12.1565 1.7202 1.0570 0.2192 0 1
12.2620 2.2407 1.0732 0.2144 0 1
12.3776 2.7797 1.0922 0.2120 0 1
12.5054 3.3412 1.1144 0.2078 0 1
12.6474 3.9297 1.1402 0.2022 0 1
12.7331 4.5247 1.1634 0.2117 0 1
12.7776 5.1273 1.1853 0.2078 0 1
12.8296 5.7567 1.2106 0.2092 0 1
11.5221 5.7366 1.1081 0.3868 0 14
10.3761 5.6971 1.0191 0.6415 0 14
9.9083 5.9702 0.9959 0.9615 0 14
9.7995 6.4549 1.0103 0.7718 0 14
9.8171 7.0476 1.0404 0.7001 0 14
12.4367 9.7082 1.3583 0.1683 0 2
12.6396 10.7107 1.4263 0.1603 0 2
12.8754 11.8310 1.5054 0.1519 0 2
13.1514 13.0970 1.5979 0.1431 0 2
13.4773 14.5454 1.7072 0.1339 0 2
12.4437 14.5617 1.6491 0.6460 0 3
11.5731 14.6995 1.6107 0.7787 0 3
10.6344 14.6844 1.5609 0.8030 0 3
6.1710 9.2845 0.9598 0.5557 0 8
8.9300 14.6823 1.4795 0.8477 0 3
8.1380 14.6772 1.4448 0.8681 0 3
7.8024 15.5098 1.4947 0.4578 0 3
7.7509 17.0839 1.6151 0.4237 0 3
7.6893 18.9348 1.7594 0.3889 0 3
8.1672 22.6850 2.0757 0.9112 0 3
7.5991 24.1034 2.1758 0.9481 0 3
7.4105 27.2814 2.4338 0.2814 0 3
2.8566 15.2741 1.3378 0.8984 0 9
1.5002 14.2973 1.2377 0.1938 0 9
0.9325 14.4653 1.2479 0.4488 0 9
0.3656 15.1025 1.3006 0.5032 0 9
-0.2541 15.9107 1.3700 0.9020 0 9
-0.9338 16.6151 1.4327 0.7733 0 9
-35.2214 -34.5078 4.2451 0.9303 0 20
0.3040 -38.9055 3.3496 0.9978 0 22
1.8689 -38.9169 3.3543 0.9954 0 22
7.9100 -46.4981 4.0607 0.0283 0 3
8.9691 -42.3557 3.7274 0.9761 0 3
8.1630 -32.1235 2.8535 0.2534 0 3
8.2089 -27.6074 2.4797 0.9570 0 3
10.1375 -29.6747 2.6997 0.9450 0 3
11.4846 -29.6660 2.7387 0.9316 0 3
12.8504 -29.6039 2.7785 0.9166 0 3
13.4833 -27.9334 2.6704 0.2555 0 3
15.2416 -28.5834 2.7888 0.8823 0 3
9.7295 -16.6037 1.6568 0.9785 0 20
15.9934 -24.9397 2.5507 0.0896 0 2
15.1909 -21.7166 2.2817 0.1002 0 2
14.5579 -19.1274 2.0694 0.1105 0 2
14.0471 -16.9942 1.8982 0.1204 0 2
14.3729 -16.0311 1.8537 0.1427 0 2
13.9440 -14.3489 1.7226 0.1374 0 1
13.7174 -13.0257 1.6286 0.1559 0 1
13.5090 -11.8331 1.5461 0.1437 0 1
13.2354 -10.6853 1.4645 0.1529 0 1
12.9955 -9.6560 1.3939 0.1523 0 1
6.1315 -4.1844 0.6391 0.7130 14 6
12.4953 -7.8109 1.2687 0.1685 0 1
12.3387 -7.0402 1.2230 0.1864 0 1
12.2126 -6.3322 1.1843 0.1888 0 1
8.7439 -4.0968 0.8313 0.7505 0 9
11.6561 -4.9005 1.0886 0.2106 0 25
11.5853 -4.3319 1.0649 0.2153 0 25
11.5243 -3.7889 1.0444 0.2195 0 25
11.4723 -3.2675 1.0270 0.2232 0 25
11.4285 -2.7640 1.0123 0.2265 0 25
11.3924 -2.2753 1.0002 0.2292 0 2
11.8150 -1.8698 1.0299 0.2310 0 1
4.9259 -0.5779 0.4270 0.2509 25 14
4.8529 -0.3725 0.4190 0.2557 25 14
4.7799 -0.1743 0.4118 0.2525 25 14
4.7078 0.0176 0.4053 0.2565 25 14
4.8058 0.2111 0.4141 0.2511 25 14
4.9153 0.4142 0.4247 0.2523 25 14
5.0282 0.6280 0.4363 0.2456 25 14
12.2181 2.0272 1.0663 0.2173 0 1
12.3292 2.5583 1.0841 0.2136 0 1
12.4519 3.1102 1.1050 0.2096 0 1
12.5877 3.6871 1.1292 0.2051 0 1
12.7177 4.2868 1.1554 0.2132 0 1
12.7584 4.8794 1.1760 0.2095 0 1
12.8088 5.4981 1.2000 0.2053 0 1
12.8554 6.1407 1.2265 0.2339 0 1
10.9496 5.7815 1.0660 0.4357 0 14
10.0207 5.8172 0.9975 0.9591 0 14
9.8257 6.2447 1.0023 0.8072 0 14
9.7831 6.7841 1.0250 0.8028 0 14
12.3623 9.3296 1.3334 0.1715 0 2
12.5535 10.2906 1.3975 0.1636 0 2
12.7752 11.3601 1.4718 0.1553 0 2
13.0339 12.5631 1.5585 0.1467 0 2
13.3382 13.9322 1.6605 0.1377 0 2
12.8400 14.5383 1.6699 0.7424 0 3
11.9688 14.7020 1.6321 0.7684 0 3
11.0127 14.6958 1.5810 0.7933 0 3
6.2729 9.1117 0.9524 0.9121 22 6
9.2629 14.6845 1.4947 0.8391 0 3
8.4552 14.6793 1.4584 0.8600 0 3
7.8210 14.9347 1.4514 0.4714 0 3
7.7729 16.4151 1.5637 0.4376 0 3
7.7157 18.1447 1.6975 0.4031 0 3
7.4967 19.8027 1.8230 0.3680 0 3
8.0347 24.1062 2.1876 0.9430 0 3
7.4619 25.7986 2.3121 0.2962 0 3
1.9999 24.7313 2.1361 0.1436 0 9
0.6148 15.1661 1.3068 0.1064 0 9
0.0093 26.8230 2.3093 0.2421 0 9
-2.0512 25.5858 2.2098 0.0932 0 9
-35.9657 -34.1048 4.2672 0.9255 0 20
-0.3309 -38.9052 3.3496 0.9957 0 22
1.2323 -38.8998 3.3507 0.9848 0 22
6.5353 -42.6111 3.7114 0.9860 0 3
4.8059 -24.6753 2.1643 0.7588 0 6
8.9039 -37.5989 3.3265 0.9711 0 3
8.0665 -28.8432 2.5785 0.2752 0 3
9.6008 -29.6781 2.6855 0.9501 0 3
10.9132 -29.6164 2.7174 0.9372 0 3
12.3039 -29.6607 2.7646 0.9229 0 3
13.0454 -28.1922 2.6744 0.4179 0 3
14.4016 -28.1032 2.7187 0.6643 0 3
15.5515 -27.5604 2.7244 0.8708 0 3
16.3837 -26.4897 2.6815 0.0853 0 2
15.4930 -22.9364 2.3829 0.0959 0 2
14.7981 -20.1157 2.1500 0.1063 0 2
14.2421 -17.8142 1.9636 0.1164 0 2
13.9901 -16.1259 1.8380 0.7690 0 2
14.0427 -14.9304 1.7646 0.1463 0 1
13.7944 -13.5337 1.6637 0.1526 0 1
13.5978 -12.3088 1.5791 0.1518 0 1
13.3405 -11.1346 1.4960 0.1485 0 1
4.5563 0.0914 0.3415 0.2652 25 14
4.6578 0.2808 0.3497 0.2590 25 14
4.7632 0.4798 0.3588 0.2602 25 14
11.5977 1.6411 0.8778 0.2299 0 1
11.6900 2.1362 0.8905 0.2271 0 1
11.7871 2.6471 0.9053 0.2214 0 1
11.8981 3.1790 0.9229 0.2172 0 1
12.0202 3.7348 0.9433 0.2125 0 1
12.1292 4.3101 0.9646 0.2247 0 1
12.1603 4.8796 0.9819 0.2208 0 1
12.1991 5.4738 1.0020 0.2163 0 1
12.2462 6.0971 1.0252 0.2115 0 1
10.4023 5.7114 0.8893 0.5664 0 14
9.9443 5.9919 0.8700 0.9589 0 14
9.8600 6.4947 0.8848 0.8807 0 14
9.8760 7.0899 0.9111 0.6368 0 14
11.7040 9.1363 1.1127 0.1790 0 2
11.8600 10.0501 1.1650 0.1710 0 2
12.0401 11.0635 1.2254 0.1625 0 2
12.2493 12.1986 1.2955 0.1537 0 2
12.4943 13.4845 1.3776 0.1446 0 2
12.5121 14.6418 1.4433 0.6431 0 3
11.5727 14.6990 1.4020 0.7794 0 3
10.6407 14.6930 1.3595 0.8037 0 3
9.1649 13.7889 1.2408 0.8328 0 21
8.4477 13.8894 1.2183 0.5206 0 21
8.1378 14.6768 1.2576 0.8688 0 3
7.8631 15.6304 1.3112 0.4546 0 3
7.8160 17.2275 1.4177 0.4205 0 3
7.7587 19.1055 1.5453 0.9214 0 3
8.1846 22.7334 1.8107 0.9095 0 3
7.5989 24.1028 1.8939 0.9490 0 3
7.5047 27.6282 2.1455 0.2781 0 3
2.7248 14.5692 1.1107 0.6824 0 9
1.6456 15.6830 1.1817 0.7202 0 9
1.4765 22.9049 1.7200 0.5054 0 9
0.3836 15.8469 1.1879 0.9739 0 9
-0.2628 16.4497 1.2329 0.8173 0 9
-30.6522 18.8149 2.6953 0.7785 0 3
-30.6183 17.1406 2.6296 0.7980 0 3
-35.0868 -34.3760 3.6810 0.3806 0 20
0.3040 -38.9118 2.9161 0.9968 0 22
1.8673 -38.8849 2.9174 0.9731 0 22
5.5090 -42.6925 3.2259 0.9906 0 3
8.9689 -42.3547 3.2444 0.9739 0 3
8.1864 -32.2155 2.4909 0.2501 0 3
8.2091 -27.6081 2.1585 0.9578 0 3
10.1105 -29.5956 2.3437 0.9459 0 3
11.4849 -29.6668 2.3840 0.9324 0 3
12.8508 -29.6047 2.4186 0.9174 0 3
13.3104 -27.5753 2.2946 0.9010 0 3
14.4223 -27.0468 2.2970 0.8490 0 3
9.7516 -16.6413 1.4454 0.9870 0 20
14.3111 -22.3163 1.9867 0.1003 0 2
13.7455 -19.6503 1.7971 0.1108 0 2
13.2903 -17.4620 1.6445 0.1211 0 2
13.3280 -16.1242 1.5677 0.7855 0 2
13.2059 -14.7294 1.4825 0.1391 0 1
12.9885 -13.3657 1.3967 0.1584 0 1
12.8066 -12.1608 1.3235 0.1578 0 1
12.5854 -11.0242 1.2538 0.1556 0 1
12.3791 -9.9940 1.1923 0.1637 0 1
12.1506 -9.0282 1.1344 0.1621 0 1
6.1441 -4.1930 0.5574 0.8009 14 7
11.7794 -7.3634 1.0410 0.1871 0 1
11.6652 -6.6559 1.0065 0.1936 0 1
11.5746 -6.0014 0.9771 0.2051 0 1
8.7715 -4.1097 0.7259 0.8965 0 9
11.1008 -4.6670 0.9024 0.2213 0 25
11.0448 -4.1298 0.8837 0.2260 0 25
10.9965 -3.6154 0.8675 0.2303 0 25
10.9552 -3.1203 0.8536 0.2340 0 25
10.9205 -2.6412 0.8420 0.2372 0 25
11.0434 -2.2056 0.8439 0.2446 0 2
6.0643 -0.9597 0.4601 0.9636 25 14
4.7301 -0.5549 0.3569 0.2615 25 14
4.6614 -0.3578 0.3504 0.2585 25 14
4.5907 -0.1674 0.3443 0.2631 25 14
4.5243 0.0169 0.3391 0.2672 25 14
4.6158 0.2028 0.3462 0.2616 25 14
4.7214 0.3979 0.3551 0.2551 25 14
4.8254 0.6027 0.3644 0.2562 25 14
11.6518 1.9333 0.8851 0.2280 0 1
11.7460 2.4373 0.8990 0.2249 0 1
11.8518 2.9603 0.9155 0.2190 0 1
11.9692 3.5059 0.9347 0.2145 0 1
12.0985 4.0781 0.9568 0.2095 0 1
12.1468 4.6455 0.9746 0.2224 0 1
12.1824 5.2292 0.9935 0.2182 0 1
12.2260 5.8401 1.0154 0.2135 0 1
10.8786 5.7439 0.9219 0.3262 0 14
10.0559 5.8376 0.8714 0.9566 0 14
9.8681 6.2716 0.8762 0.8989 0 14
9.8508 6.8310 0.8983 0.8229 0 14
11.6466 8.7895 1.0934 0.1822 0 2
11.7939 9.6680 1.1428 0.1743 0 2
10.3075 9.1658 1.0337 0.9434 0 20
12.1604 11.7212 1.2657 0.1574 0 2
12.3900 12.9418 1.3427 0.1483 0 2
12.6601 14.3346 1.4332 0.1390 0 2
11.9684 14.7016 1.4207 0.7691 0 3
11.0064 14.6874 1.3754 0.5961 0 3
6.2786 9.1199 0.8297 0.9940 22 6
8.7199 13.8236 1.2248 0.8446 0 21
8.4550 14.6788 1.2695 0.8608 0 3
7.8800 15.0474 1.2729 0.4683 0 3
7.8361 16.5486 1.3722 0.4344 0 3
7.7839 18.3051 1.4906 0.3999 0 3
8.5043 22.4644 1.8001 0.9157 0 3
8.0345 24.1056 1.9042 0.9438 0 3
7.5519 26.1100 2.0369 0.2929 0 3
1.6425 13.5233 1.0209 0.7734 0 9
1.9384 23.9709 1.8022 0.7204 0 9
0.5863 14.4619 1.0847 0.1757 0 9
0.0052 14.9784 1.1225 0.8689 0 9
-1.0149 25.4696 1.9102 0.1899 0 9
-1.2801 15.9678 1.2005 0.1211 0 9
-30.6317 17.8107 2.6554 0.7902 0 3
-35.7517 -33.9019 3.6923 0.8733 0 20
-0.3309 -38.9090 2.9159 0.9965 0 22
4.8035 -24.6630 1.8830 0.9481 0 6
8.9111 -37.6292 2.8979 0.2034 0 3
8.1714 -29.2182 2.2736 0.2719 0 3
9.6011 -29.6789 2.3376 0.9509 0 3
10.1027 -27.4169 2.1897 0.4777 0 3
12.3042 -29.6615 2.4065 0.9237 0 3
13.1566 -28.4325 2.3478 0.4147 0 3
14.1206 -27.5549 2.3203 0.8637 0 3
14.9821 -26.5511 2.2846 0.8365 0 3
14.5816 -23.5761 2.0774 0.0959 0 2
13.9599 -20.6667 1.8690 0.1066 0 2
13.4640 -18.3023 1.7027 0.1170 0 2
13.0602 -16.3359 1.5674 0.1271 0 2
13.2941 -15.3237 1.5203 0.1479 0 1
13.0528 -13.8780 1.4277 0.1550 0 1
12.8770 -12.6336 1.3519 0.1544 0 1
12.6782 -11.4764 1.2815 0.1523 0 1
12.4594 -10.3991 1.2162 0.1604 0 1
4.3748 0.0877 0.2792 0.2018 25 14
4.4792 0.2701 0.2863 0.2696 25 14
4.5791 0.4613 0.2936 0.2629 25 14
7.0661 0.9999 0.4553 0.2710 25 14
11.1704 2.0412 0.7245 0.2374 0 1
11.2545 2.5275 0.7360 0.2341 0 1
11.3466 3.0316 0.7494 0.2279 0 1
11.4513 3.5581 0.7651 0.2232 0 1
11.5658 4.1099 0.7832 0.2181 0 1
11.6043 4.6565 0.7978 0.2276 0 1
11.6317 5.2192 0.8134 0.2271 0 1
11.6641 5.8072 0.8314 0.2222 0 1
10.4477 5.7364 0.7605 0.5644 0 14
9.9870 6.0176 0.7440 0.7674 0 14
9.8855 6.5115 0.7553 0.7657 0 14
9.9470 7.1409 0.7813 0.3887 0 14
11.0539 8.6288 0.8947 0.1897 0 2
11.1720 9.4671 0.9343 0.1816 0 2
11.3077 10.3905 0.9798 0.1732 0 2
11.4643 11.4168 1.0323 0.1644 0 2
11.6462 12.5692 1.0933 0.1552 0 2
11.8593 13.8778 1.1647 0.1457 0 2
11.5724 14.6986 1.1936 0.7800 0 3
10.6403 14.6926 1.1575 0.8044 0 3
9.1567 13.7766 1.0555 0.8352 0 21
8.9295 14.6815 1.0964 0.8492 0 3
8.1376 14.6764 1.0707 0.8695 0 3
7.9246 15.7527 1.1251 0.4515 0 3
7.8822 17.3733 1.2173 0.4173 0 3
7.7585 19.1050 1.3157 0.9221 0 3
8.6799 24.1092 1.6349 0.9367 0 3
7.5987 24.1022 1.6125 0.9497 0 3
7.6012 27.9834 1.8502 0.2748 0 3
1.5737 14.9983 0.9622 0.2140 0 9
1.7685 27.4353 1.7541 0.2514 0 9
0.4167 17.2150 1.0987 0.2538 0 9
-1.5417 15.9574 1.0229 0.2413 0 9
-30.7205 26.4698 2.5874 0.7517 0 3
-31.0804 24.6760 2.5321 0.3088 0 3
-31.2764 20.9726 2.4027 0.8252 0 3
-31.4229 19.2880 2.3525 0.8471 0 3
-31.7250 17.7601 2.3198 0.3372 0 3
-36.9819 -33.4298 3.1808 0.8548 0 20
-35.2292 -34.5155 3.1468 0.5290 0 20
0.3041 -38.9235 2.4836 0.9976 0 22
5.5091 -42.6936 2.7466 0.9913 0 3
8.9893 -42.4510 2.7686 0.2198 0 3
8.2407 -32.4292 2.1349 0.2468 0 3
8.2913 -27.8846 1.8562 0.2835 0 3
10.1130 -29.6029 1.9960 0.3198 0 3
10.2158 -26.3884 1.8055 0.6199 0 3
12.8511 -29.6054 2.0593 0.9181 0 3
13.2297 -27.4080 1.9418 0.0775 0 3
14.0804 -26.4057 1.9094 0.0889 0 2
9.7898 -16.7065 1.2355 0.4928 0 20
12.9511 -20.1955 1.5308 0.1109 0 2
12.5531 -17.9456 1.3973 0.1215 0 2
12.2899 -16.1474 1.2947 0.8103 0 2
12.4948 -15.1163 1.2513 0.1404 0 1
12.2829 -13.7000 1.1740 0.1556 0 1
12.1365 -12.4890 1.1111 0.1644 0 1
11.9653 -11.3619 1.0528 0.1578 0 1
11.7846 -10.3227 0.9996 0.1662 0 1
11.5981 -9.3635 0.9511 0.1648 0 1
11.4071 -8.4758 0.9067 0.1762 0 1
6.1577 -4.2023 0.4757 0.9156 14 6
11.1499 -6.9699 0.8390 0.1978 0 1
11.0713 -6.3170 0.8133 0.2085 0 1
10.7036 -5.5498 0.7693 0.2214 0 2
8.7991 -4.1227 0.6200 0.8869 0 9
9.0500 -3.8048 0.6264 0.5030 0 9
10.5533 -3.9460 0.7189 0.2368 0 25
10.5157 -3.4573 0.7063 0.2410 0 25
10.4836 -2.9859 0.6955 0.2447 0 25
10.4564 -2.5290 0.6864 0.2480 0 25
10.8285 -2.1627 0.7046 0.2493 0 1
6.0861 -0.9632 0.3932 0.9609 25 14
4.5496 -0.5337 0.2923 0.2721 25 14
4.4812 -0.3440 0.2868 0.2692 25 14
4.4132 -0.1609 0.2818 0.2000 25 14
4.3605 0.0163 0.2782 0.3185 25 14
4.4404 0.1951 0.2836 0.2722 25 14
4.5377 0.3824 0.2906 0.2656 25 14
4.6386 0.5793 0.2983 0.2667 25 14
6.0683 1.0069 0.3925 0.9625 25 14
11.2196 2.3281 0.7311 0.2357 0 1
11.3078 2.8244 0.7437 0.2317 0 1
11.4076 3.3414 0.7584 0.2252 0 1
11.5180 3.8824 0.7755 0.2202 0 1
11.5920 4.4333 0.7919 0.2293 0 1
11.6203 4.9879 0.8069 0.2289 0 1
11.6501 5.5650 0.8238 0.2242 0 1
10.9919 5.8038 0.7931 0.2937 0 14
10.0990 5.8627 0.7451 0.8321 0 14
9.9075 6.2967 0.7490 0.7566 0 14
9.8851 6.8548 0.7675 0.5022 0 14
11.0102 8.3092 0.8801 0.1928 0 2
11.1221 9.1172 0.9176 0.1849 0 2
11.2503 10.0041 0.9606 0.1767 0 2
11.3979 10.9862 1.0101 0.1680 0 2
11.5689 12.0842 1.0674 0.1590 0 2
11.7685 13.3251 1.1343 0.1496 0 2
11.9273 14.6510 1.2054 0.7698 0 3
11.0120 14.6950 1.1717 0.7946 0 3
6.2908 9.1377 0.7078 0.9928 22 6
8.7020 13.7952 1.0407 0.8470 0 21
8.4548 14.6784 1.0808 0.8614 0 3
7.9399 15.1617 1.0920 0.4651 0 3
7.9003 16.6842 1.1778 0.4312 0 3
7.8532 18.4681 1.2805 0.3967 0 3
8.5274 22.5254 1.5368 0.9139 0 3
8.0343 24.1050 1.6212 0.9446 0 3
7.6131 26.3216 1.7483 0.9567 0 3
0.6080 14.9977 0.9577 0.3930 0 9
0.0093 26.8679 1.7143 0.0478 0 9
-0.5915 14.8440 0.9479 0.4446 0 9
-30.7397 27.3727 2.6262 0.6819 0 3
-31.0001 25.4478 2.5590 0.3056 0 3
-31.1921 23.5739 2.4947 0.3134 0 3
-31.2901 21.7302 2.4307 0.7531 0 3
-31.4350 20.0088 2.3775 0.7744 0 3
-31.6719 18.4155 2.3376 0.3346 0 3
-31.7984 16.8179 2.2952 0.3408 0 3
-35.7081 -33.8605 3.1398 0.8750 0 20
-0.3309 -38.9128 2.4829 0.9959 0 22
5.3474 -47.5397 3.0524 0.9928 0 3
4.8260 -24.7786 1.6107 0.9512 0 6
10.0292 -42.3507 2.7769 0.9727 0 3
8.2789 -29.6024 1.9612 0.2686 0 3
9.6013 -29.6796 1.9903 0.9516 0 3
10.2185 -27.7311 1.8857 0.9805 0 3
12.2825 -29.6091 2.0453 0.9244 0 3
12.7542 -27.5630 1.9378 0.6240 0 3
13.6067 -26.5519 1.9036 0.8924 0 3
10.3770 -18.3901 1.3473 0.8747 0 9
10.2687 -16.6028 1.2456 0.5277 0 20
12.7048 -18.8086 1.4482 0.1172 0 2
12.3523 -16.7911 1.3300 0.1276 0 2
12.7303 -15.9232 1.3008 0.1510 0 2
12.3597 -14.2467 1.2034 0.1460 0 1
12.1932 -12.9640 1.1355 0.1608 0 1
12.0465 -11.8188 1.0768 0.1543 0 1
11.8549 -10.7311 1.0203 0.1629 0 1
11.6834 -9.7515 0.9710 0.1614 0 1
4.2376 0.0850 0.2233 0.3279 25 14
4.2755 0.2578 0.2257 0.3244 25 14
4.3915 0.4424 0.2325 0.2002 25 14
4.5030 0.6372 0.2396 0.2743 25 14
10.6953 1.9544 0.5728 0.2481 0 1
10.7694 2.4186 0.5815 0.2448 0 1
10.8483 2.8985 0.5916 0.2407 0 1
10.9345 3.3975 0.6033 0.2339 0 1
11.0321 3.9202 0.6168 0.2288 0 1
11.0899 4.4500 0.6296 0.2383 0 1
11.1131 4.9865 0.6417 0.2338 0 1
11.1354 5.5441 0.6554 0.2329 0 1
10.7860 5.9221 0.6483 0.2079 0 14
10.0880 6.0785 0.6205 0.3496 0 14
10.0356 6.6104 0.6331 0.5530 0 14
10.9851 7.8862 0.7125 0.2177 0 2
10.6077 8.2805 0.7090 0.6335 0 2
10.5603 8.9488 0.7293 0.1923 0 2
10.6602 9.7955 0.7627 0.1838 0 2
10.7747 10.7301 0.8011 0.1750 0 2
10.9069 11.7714 0.8455 0.1659 0 2
11.0606 12.9432 0.8970 0.1563 0 2
11.2407 14.2773 0.9574 0.1465 0 2
10.6400 14.6921 0.9557 0.8049 0 3
9.1377 13.7480 0.8697 0.8374 0 21
8.9293 14.6811 0.9053 0.8498 0 3
8.1374 14.6760 0.8841 0.8701 0 3
7.9870 15.8767 0.9364 0.4482 0 3
7.9494 17.5214 1.0137 0.4140 0 3
7.7583 19.1045 1.0864 0.9227 0 3
8.6797 24.1086 1.3500 0.9373 0 3
7.6285 24.1969 1.3367 0.3078 0 3
7.7001 28.3473 1.5476 0.2714 0 3
2.6008 13.9064 0.7454 0.1854 0 9
1.4753 14.0601 0.7448 0.4997 0 9
1.0126 15.7081 0.8293 0.9439 0 9
0.6082 25.1280 1.3243 0.7991 0 9
-0.4328 27.0979 1.4279 0.4123 0 9
-31.0491 36.9452 2.5426 0.2541 0 3
-31.3251 34.3707 2.4501 0.2637 0 3
-31.3947 31.7836 2.3537 0.2729 0 3
-31.7954 29.7026 2.2924 0.2818 0 3
-31.9537 27.5323 2.2222 0.5873 0 3
-32.3059 23.5974 2.1078 0.7439 0 3
-32.2690 21.6382 2.0470 0.7659 0 3
-32.2377 19.7881 1.9929 0.7867 0 3
-32.2091 18.0311 1.9448 0.8062 0 3
-32.8532 16.6955 1.9416 0.3329 0 3
-36.9329 -33.3855 2.6230 0.8654 0 20
-35.0020 -34.2929 2.5817 0.5362 0 20
5.0008 -38.7541 2.0587 0.3393 0 6
9.3825 -44.3080 2.3862 0.2063 0 3
9.3969 -36.9789 2.0102 0.5163 0 3
8.4060 -28.2701 1.5539 0.2801 0 3
10.1383 -29.6769 1.6523 0.9471 0 3
11.4649 -29.6151 1.6731 0.9337 0 3
11.9685 -27.5722 1.5836 0.8913 0 3
12.8236 -26.5667 1.5542 0.8731 0 3
12.5901 -23.6109 1.4098 0.0995 0 2
12.1670 -20.7633 1.2679 0.1106 0 2
11.8286 -18.4451 1.1544 0.1215 0 2
11.5523 -16.5149 1.0618 0.1321 0 2
11.9666 -15.7227 1.0410 0.1559 0 2
11.6284 -14.0680 0.9616 0.1428 0 1
11.5033 -12.8304 0.9079 0.1662 0 1
11.3689 -11.6990 0.8595 0.1597 0 1
11.2136 -10.6482 0.8147 0.1669 0 1
11.0689 -9.6957 0.7753 0.1670 0 1
10.9014 -8.8010 0.7382 0.1788 0 1
10.7622 -7.9966 0.7064 0.1869 0 1
6.1742 -4.2136 0.3938 0.9768 14 6
10.5952 -6.6231 0.6583 0.2128 0 1
10.5384 -6.0130 0.6392 0.2207 0 1
10.2177 -5.2978 0.6064 0.2319 0 25
8.8430 -4.1432 0.5145 0.5921 0 9
9.0964 -3.8244 0.5199 0.3081 0 9
10.1043 -3.7781 0.5683 0.2474 0 25
10.0758 -3.3127 0.5588 0.2517 0 25
10.0514 -2.8628 0.5506 0.2554 0 25
10.0308 -2.4260 0.5437 0.2586 0 25
10.3910 -2.0753 0.5583 0.2609 0 1
10.3530 -1.6384 0.5522 0.2652 0 24
4.3468 -0.5100 0.2306 0.2019 25 14
4.2659 -0.3275 0.2254 0.2065 25 14
4.2377 -0.1545 0.2234 0.3277 25 14
4.2242 0.0158 0.2226 0.3290 25 14
4.2599 0.1872 0.2247 0.3259 25 14
4.3409 0.3658 0.2295 0.2028 25 14
4.4636 0.5575 0.2370 0.2691 25 14
6.0892 1.0103 0.3252 0.9598 25 14
10.7391 2.2283 0.5778 0.2464 0 1
10.8155 2.7014 0.5873 0.2424 0 1
10.8982 3.1922 0.5983 0.2380 0 1
10.9915 3.7049 0.6111 0.2309 0 1
11.0817 4.2382 0.6251 0.2400 0 1
11.1031 4.7659 0.6366 0.2357 0 1
11.1267 5.3150 0.6497 0.2349 0 1
10.8615 5.7350 0.6471 0.4635 0 14
10.1787 5.9089 0.6201 0.8139 0 14
10.0593 6.3931 0.6280 0.4682 0 14
10.8879 7.5502 0.6981 0.2583 0 1
10.9527 8.2658 0.7229 0.6213 0 2
10.5234 8.6265 0.7169 0.1956 0 2
10.6180 9.4418 0.7486 0.1873 0 2
10.7262 10.3388 0.7849 0.1787 0 2
10.8509 11.3342 0.8267 0.1696 0 2
10.9953 12.4497 0.8751 0.1602 0 2
11.1640 13.7134 0.9316 0.1505 0 2
11.0049 14.6854 0.9668 0.7952 0 3
6.3035 9.1562 0.5857 0.8188 22 7
8.6842 13.7670 0.8576 0.8493 0 21
8.4545 14.6780 0.8924 0.8620 0 3
8.0005 15.2775 0.9086 0.4619 0 3
7.9623 16.8152 0.9802 0.4280 0 3
7.9237 18.6337 1.0668 0.3934 0 3
8.5506 22.5866 1.2724 0.9120 0 3
8.0341 24.1044 1.3386 0.9452 0 3
7.7383 26.7543 1.4673 0.2862 0 3
1.7908 14.7442 0.7825 0.2372 0 9
1.1299 13.9732 0.7386 0.3186 0 9
0.7008 17.2855 0.9114 0.2748 0 9
0.0060 17.3689 0.9151 0.2575 0 9
-30.8758 37.9803 2.5788 0.7150 0 3
-31.2166 35.3949 2.4864 0.2598 0 3
-31.4696 32.9166 2.3993 0.9295 0 3
-31.7078 30.6047 2.3218 0.2783 0 3
-31.3748 27.9383 2.2134 0.5423 0 3
-30.3733 22.9551 2.0058 0.6020 0 3
-32.2825 22.4194 2.0707 0.7571 0 3
-32.2501 20.5276 2.0141 0.7784 0 3
-32.2204 18.7344 1.9636 0.7984 0 3
-32.6169 17.2507 1.9440 0.3305 0 3
-35.4783 -33.6427 2.5760 0.7936 0 20
5.3475 -47.5407 2.5205 0.9934 0 3
3.6234 -18.6039 0.9986 0.9659 0 6
10.0293 -42.3511 2.2930 0.9733 0 3
8.1770 -29.2381 1.5995 0.9634 0 20
9.6016 -29.6804 1.6435 0.9522 0 3
10.9336 -29.6718 1.6660 0.9393 0 3
11.8127 -28.4767 1.6243 0.2675 0 3
12.5287 -27.0757 1.5718 0.8256 0 3
12.7936 -24.9652 1.4780 0.0949 0 2
10.3897 -18.4126 1.1139 0.9974 0 9
10.2526 -16.5767 1.0269 0.6987 0 20
11.6581 -17.2591 1.0973 0.1278 0 2
11.8695 -16.1348 1.0553 0.8215 0 2
11.7120 -14.6495 0.9882 0.1513 0 1
11.5479 -13.3110 0.9284 0.1625 0 1
11.4281 -12.1505 0.8788 0.1632 0 1
11.2746 -11.0615 0.8322 0.1650 0 1
11.1285 -10.0736 0.7908 0.1720 0 1
10.9654 -9.1522 0.7525 0.1721 0 1
4.1048 0.0823 0.1707 0.3111 25 14
4.1447 0.2499 0.1726 0.3348 25 14
4.1818 0.4212 0.1748 0.3308 25 14
4.2887 0.6069 0.1801 0.2041 25 14
10.2594 1.8747 0.4336 0.2587 0 1
10.3249 2.3187 0.4400 0.2555 0 1
10.3931 2.7769 0.4473 0.2513 0 1
10.4664 3.2521 0.4557 0.2467 0 1
10.5460 3.7475 0.4654 0.2395 0 1
10.6196 4.2613 0.4758 0.2490 0 1
10.6331 4.7711 0.4846 0.2444 0 1
10.6500 5.3024 0.4947 0.2395 0 1
10.6662 5.8563 0.5059 0.2382 0 1
10.6180 6.3978 0.5154 0.2623 0 1
10.5200 6.9294 0.5238 0.2581 0 1
10.4152 7.4770 0.5331 0.2670 0 1
10.4946 8.1922 0.5536 0.2212 0 2
10.0127 8.4847 0.5457 0.2029 0 2
10.0834 9.2655 0.5694 0.1945 0 2
10.1641 10.1220 0.5964 0.1856 0 2
10.2566 11.0695 0.6275 0.1765 0 2
10.3635 12.1275 0.6633 0.1669 0 2
10.4877 13.3210 0.7049 0.1571 0 2
10.6035 14.6416 0.7517 0.8054 0 3
9.1188 13.7196 0.6850 0.8396 0 21
8.9290 14.6807 0.7145 0.8502 0 3
8.1371 14.6756 0.6977 0.8706 0 3
8.0503 16.0026 0.7448 0.4449 0 3
8.0176 17.6719 0.8069 0.4107 0 3
7.8219 19.2612 0.8644 0.3759 0 3
8.6795 24.1079 1.0654 0.9378 0 3
7.7169 24.4772 1.0671 0.3045 0 3
7.8014 28.7204 1.2374 0.2680 0 3
2.5680 13.7308 0.5808 0.6178 0 9
1.9772 13.5671 0.5701 0.7783 0 9
1.4945 14.2432 0.5955 0.0581 0 9
0.9009 13.9752 0.5823 0.4537 0 9
-32.3533 35.4989 1.9971 0.6199 0 3
-32.3047 32.7048 1.9114 0.6477 0 3
-32.2611 30.1376 1.8356 0.6744 0 3
-32.0453 27.6112 1.7588 0.9351 0 3
-32.1860 25.5538 1.7088 0.7245 0 3
-31.8684 23.2779 1.6409 0.6612 0 3
-32.1211 21.5390 1.6081 0.7698 0 3
-32.0939 19.6998 1.5658 0.7906 0 3
-32.0689 17.9526 1.5281 0.8101 0 3
-33.9150 17.2351 1.5818 0.3225 0 3
-36.9255 -33.3788 2.0696 0.7799 0 20
-35.0445 -34.3345 2.0399 0.6712 0 20
4.9979 -38.7320 1.6238 0.8048 0 6
8.4724 -40.0100 1.7005 0.7386 0 3
9.3524 -36.8038 1.5789 0.5414 0 3
8.3561 -28.1024 1.2190 0.5498 0 3
10.1385 -29.6777 1.3040 0.9476 0 3
10.6731 -27.5697 1.2292 0.8748 0 3
11.5317 -26.5659 1.2042 0.8251 0 3
11.7324 -24.3060 1.1222 0.0987 0 2
11.3864 -21.3534 1.0062 0.1100 0 2
10.6546 -18.1823 0.8762 0.2911 0 9
10.8861 -16.9755 0.8385 0.1320 0 2
11.2812 -16.1273 0.8183 0.1566 0 2
11.0088 -14.4643 0.7558 0.1435 0 1
10.8869 -13.1709 0.7105 0.1594 0 1
10.7865 -12.0310 0.6719 0.1686 0 1
10.6621 -10.9717 0.6361 0.1688 0 1
10.5464 -10.0146 0.6047 0.1776 0 1
10.4143 -9.1224 0.5757 0.1811 0 1
10.2939 -8.3106 0.5501 0.1895 0 1
10.1934 -7.5740 0.5280 0.2095 0 1
6.1929 -4.2263 0.3117 0.9743 14 6
10.0950 -6.3105 0.4950 0.2235 0 1
9.8096 -5.5972 0.4696 0.2366 0 2
9.7745 -5.0680 0.4578 0.2426 0 25
8.9017 -4.1708 0.4087 0.5391 0 9
9.1503 -3.8470 0.4127 0.4397 0 9
9.3474 -3.4951 0.4149 0.2521 0 9
9.6717 -3.1798 0.4233 0.2623 0 25
9.6539 -2.7496 0.4174 0.2660 0 25
9.6389 -2.3312 0.4123 0.2693 0 2
9.9881 -1.9948 0.4235 0.2716 0 1
9.9946 -1.5817 0.4207 0.2739 0 1
4.1369 -0.4853 0.1732 0.3338 25 14
4.1225 -0.3164 0.1719 0.3363 25 14
4.1039 -0.1496 0.1708 0.2625 25 14
4.0931 0.0153 0.1702 0.3120 25 14
4.1302 0.1815 0.1719 0.3363 25 14
4.1665 0.3511 0.1739 0.3325 25 14
4.2398 0.5295 0.1777 0.2069 25 14
10.2367 1.6985 0.4315 0.2664 0 1
10.2985 2.1369 0.4373 0.2571 0 1
10.3648 2.5889 0.4442 0.2531 0 1
10.4360 3.0568 0.4522 0.2486 0 1
10.5126 3.5435 0.4613 0.2437 0 1
10.5985 4.0534 0.4718 0.2362 0 1
10.6272 4.5616 0.4809 0.2463 0 1
10.6427 5.0838 0.4904 0.2415 0 1
10.6605 5.6288 0.5013 0.2404 0 1
10.6577 6.1870 0.5124 0.2638 0 1
10.5598 6.7112 0.5202 0.2599 0 1
10.4614 7.2545 0.5293 0.2554 0 1
10.4878 7.9149 0.5463 0.2242 0 2
10.0963 8.2763 0.5428 0.6534 0 2
10.0536 8.9400 0.5594 0.1979 0 2
10.1300 9.7641 0.5850 0.1893 0 2
10.2175 10.6725 0.6143 0.1802 0 2
10.3182 11.6830 0.6481 0.1708 0 2
10.4349 12.8179 0.6872 0.1611 0 2
10.5714 14.1069 0.7330 0.1511 0 2
6.3217 9.1826 0.4635 0.6771 22 7
8.6561 13.7225 0.6746 0.8515 0 21
8.4543 14.6776 0.7043 0.8625 0 3
8.0621 15.3950 0.7226 0.4586 0 3
8.0316 16.9615 0.7803 0.4247 0 3
7.9953 18.8022 0.8495 0.3901 0 3
8.5739 22.6481 1.0069 0.9100 0 3
8.0339 24.1038 1.0564 0.9457 0 3
7.8348 27.0879 1.1725 0.2829 0 3
1.6715 13.7621 0.5764 0.4963 0 9
1.1136 13.7709 0.5745 0.0424 0 9
0.7059 17.4126 0.7246 0.3491 0 9
0.0060 17.4586 0.7259 0.2442 0 9
-32.3746 36.7079 2.0351 0.6083 0 3
-32.3238 33.8101 1.9449 0.6366 0 3
-32.2783 31.1553 1.8653 0.6637 0 3
-32.2372 28.7063 1.7948 0.6898 0 3
-32.2001 26.4330 1.7322 0.7147 0 3
-32.1664 24.3102 1.6765 0.7385 0 3
-32.1329 22.3155 1.6267 0.7610 0 3
-32.1047 20.4350 1.5824 0.7823 0 3
-32.0788 18.6521 1.5429 0.8023 0 3
-33.6062 17.7740 1.5807 0.4727 0 3
-33.9735 16.2571 1.5660 0.3259 0 3
-35.1810 -33.3608 2.0159 0.6878 0 20
5.3476 -47.5417 1.9892 0.9939 0 3
3.6307 -18.6412 0.7897 0.6037 0 6
8.1204 -34.2904 1.4652 0.8850 0 3
8.1772 -29.2388 1.2624 0.9640 0 20
9.6018 -29.6811 1.2971 0.9527 0 3
10.8618 -29.4769 1.3062 0.0704 0 3
11.2296 -27.0708 1.2186 0.8969 0 3
11.8993 -25.7153 1.1782 0.0940 0 2
11.5171 -22.4743 1.0500 0.1054 0 2
10.3753 -18.3870 0.8778 0.9584 0 9
10.2475 -16.5685 0.8100 0.8514 0 20
10.9138 -16.1571 0.8107 0.8443 0 2
11.0773 -15.0580 0.7773 0.1518 0 1
10.9205 -13.6595 0.7271 0.1639 0 1
10.8254 -12.4782 0.6869 0.1649 0 1
10.7135 -11.3907 0.6502 0.1667 0 1
10.5915 -10.3913 0.6169 0.1741 0 1
10.4682 -9.4759 0.5871 0.1741 0 1
10.3411 -8.6311 0.5601 0.1861 0 1
3.9725 0.0797 0.1211 0.3216 25 14
4.0022 0.2413 0.1222 0.3187 25 14
4.0365 0.4066 0.1237 0.2658 25 14
4.0882 0.5785 0.1259 0.2641 25 14
9.8672 1.8031 0.3058 0.2762 0 1
9.9181 2.2274 0.3099 0.2718 0 1
9.9758 2.6654 0.3148 0.2676 0 1
10.0377 3.1189 0.3204 0.2573 0 1
10.1048 3.5907 0.3269 0.2522 0 1
10.1772 4.0838 0.3343 0.2445 0 1
10.1933 4.5737 0.3406 0.2551 0 1
10.2007 5.0787 0.3474 0.2501 0 1
10.2104 5.6061 0.3551 0.2447 0 1
10.2088 6.1513 0.3633 0.2729 0 1
10.1082 6.6582 0.3690 0.2687 0 1
10.0061 7.1833 0.3755 0.2641 0 1
10.0186 7.8206 0.3874 0.2318 0 2
9.7546 8.2660 0.3898 0.6674 0 2
9.5663 8.7903 0.3960 0.2051 0 2
9.6194 9.5796 0.4138 0.1962 0 2
9.6800 10.4472 0.4342 0.1870 0 2
9.7496 11.4091 0.4575 0.1775 0 2
9.8299 12.4854 0.4844 0.1676 0 2
9.9233 13.7025 0.5157 0.1575 0 2
9.1000 13.6913 0.5011 0.8417 0 21
8.9288 14.6803 0.5238 0.8506 0 3
8.1381 14.6774 0.5116 0.6362 0 3
8.1146 16.1303 0.5504 0.4416 0 3
8.0870 17.8248 0.5967 0.4074 0 3
7.8959 19.4435 0.6397 0.3725 0 3
8.6793 24.1073 0.7811 0.9382 0 3
7.8048 24.7559 0.7913 0.3010 0 3
7.9053 29.1030 0.9193 0.2646 0 3
3.3842 14.7819 0.4623 0.8171 0 9
2.2434 15.3936 0.4742 0.2495 0 9
2.7201 25.9233 0.7946 0.2587 0 9
0.8677 13.4604 0.4112 0.2975 0 9
-0.4020 25.1674 0.7673 0.2341 0 9
-32.1704 35.2982 1.4559 0.6237 0 3
-32.1299 32.5278 1.3937 0.6515 0 3
-32.0934 29.9809 1.3388 0.6782 0 3
-32.0603 27.6242 1.2901 0.7039 0 3
-32.0302 25.4301 1.2467 0.7283 0 3
-31.0066 22.6484 1.1705 0.7298 0 3
-31.9748 21.4409 1.1736 0.7737 0 3
-31.9515 19.6124 1.1428 0.7945 0 3
-31.9300 17.8748 1.1155 0.8139 0 3
-34.9568 17.7645 1.1953 0.4584 0 3
-35.0471 16.0734 1.1754 0.4224 0 3
-36.9194 -33.3733 1.5171 0.6603 0 20
-34.8689 -34.1625 1.4881 0.2558 0 20
5.5096 -42.6968 1.3123 0.9928 0 3
5.2211 -24.6560 0.7683 0.9937 0 6
9.2773 -36.5084 1.1483 0.7400 0 3
8.3516 -28.0874 0.8932 0.9981 0 3
9.9787 -29.2098 0.9409 0.2194 0 3
10.4934 -27.1054 0.8860 0.9690 0 3
10.8664 -25.0333 0.8319 0.0976 0 2
10.6028 -21.9659 0.7435 0.1092 0 2
10.0147 -18.7811 0.6488 0.3895 0 9
10.2237 -17.4470 0.6164 0.1317 0 2
10.3605 -16.1558 0.5851 0.8581 0 2
10.3986 -14.8656 0.5530 0.1438 0 1
10.2806 -13.5076 0.5175 0.1605 0 1
10.2109 -12.3531 0.4886 0.1700 0 1
10.1257 -11.2939 0.4624 0.1704 0 1
10.0363 -10.3278 0.4390 0.1867 0 1
9.9460 -9.4445 0.4181 0.1888 0 1
9.8479 -8.6262 0.3991 0.1978 0 1
9.7635 -7.8823 0.3825 0.2209 0 1
9.7225 -7.2240 0.3692 0.2320 0 1
6.2124 -4.2397 0.2293 0.8845 14 6
9.6730 -6.0467 0.3477 0.2251 0 1
9.3922 -5.3590 0.3296 0.2471 0 25
9.3685 -4.8575 0.3217 0.2532 0 25
8.9065 -4.1730 0.2998 0.5252 0 9
8.9864 -3.7781 0.2972 0.3872 0 9
9.2379 -3.4541 0.3006 0.9198 0 9
9.2990 -3.0573 0.2984 0.2729 0 25
9.2870 -2.6451 0.2944 0.2767 0 25
9.2754 -2.2433 0.2909 0.2762 0 2
9.6158 -1.9205 0.2989 0.2828 0 1
9.6255 -1.5233 0.2971 0.2850 0 1
3.9821 -0.4672 0.1222 0.3187 25 14
3.9745 -0.3051 0.1215 0.3205 25 14
3.9676 -0.1446 0.1210 0.3218 25 14
3.9613 0.0148 0.1208 0.3225 25 14
3.9900 0.1753 0.1217 0.3199 25 14
4.0204 0.3388 0.1230 0.3167 25 14
4.0651 0.5077 0.1249 0.2633 25 14
9.8482 1.6340 0.3043 0.2775 0 1
9.8959 2.0534 0.3081 0.2741 0 1
9.9519 2.4858 0.3127 0.2693 0 1
10.0118 2.9325 0.3180 0.2648 0 1
10.0770 3.3967 0.3242 0.2544 0 1
10.1468 3.8806 0.3312 0.2490 0 1
10.1909 4.3743 0.3381 0.2570 0 1
10.1974 4.8710 0.3445 0.2522 0 1
10.2062 5.3889 0.3518 0.2469 0 1
10.2170 5.9311 0.3601 0.2454 0 1
10.1492 6.4503 0.3666 0.2705 0 1
10.0478 6.9677 0.3727 0.2660 0 1
9.9446 7.5050 0.3798 0.2617 0 1
10.0201 8.2139 0.3950 0.2274 0 2
9.5466 8.4892 0.3894 0.2085 0 2
9.5970 9.2503 0.4063 0.1999 0 2
9.6544 10.0844 0.4256 0.1908 0 2
9.7201 11.0058 0.4476 0.1814 0 2
9.7958 12.0329 0.4730 0.1717 0 2
9.8836 13.1891 0.5024 0.1616 0 2
9.4050 13.6612 0.5056 0.8333 0 21
8.8280 13.9950 0.5044 0.8078 0 21
8.4541 14.6772 0.5163 0.8629 0 3
8.1245 15.5142 0.5339 0.4553 0 3
8.0988 17.1034 0.5769 0.4213 0 3
8.0682 18.9736 0.6285 0.3867 0 3
8.6074 22.7367 0.7411 0.4108 0 3
8.0337 24.1032 0.7745 0.9461 0 3
7.9336 27.4296 0.8704 0.2795 0 3
2.9406 14.4169 0.4485 0.7194 0 9
2.3255 14.3158 0.4421 0.8817 0 9
1.6508 13.5915 0.4174 0.0673 0 9
1.1153 13.7917 0.4218 0.8590 0 9
0.7148 17.6327 0.5379 0.5873 0 9
-32.1882 36.4965 1.4834 0.6121 0 3
-31.9998 33.4712 1.4116 0.8570 0 3
-32.1078 30.9908 1.3603 0.6675 0 3
-32.0734 28.5604 1.3092 0.6936 0 3
-32.0421 26.3033 1.2637 0.7185 0 3
-32.0136 24.1947 1.2232 0.7423 0 3
-31.9848 22.2127 1.1871 0.7649 0 3
-31.9607 20.3434 1.1549 0.7862 0 3
-31.9385 18.5705 1.1262 0.8062 0 3
-33.6045 17.7731 1.1588 0.4729 0 3
-34.9891 16.7431 1.1824 0.4371 0 3
-35.1882 -33.3676 1.4782 0.6879 0 20
-34.7628 -35.7230 1.5195 0.7675 0 20
8.7408 -36.9101 1.1563 0.9750 0 3
8.1774 -29.2395 0.9255 0.9644 0 20
9.5928 -29.6532 0.9501 0.9530 0 3
10.3956 -28.2119 0.9165 0.2253 0 3
10.9940 -26.5029 0.8747 0.0928 0 2
10.7023 -23.1285 0.7769 0.1045 0 2
10.4731 -20.4371 0.7000 0.1160 0 2
10.1106 -17.9180 0.6272 0.9901 0 9
10.1374 -16.3904 0.5875 0.1382 0 2
10.3111 -14.0164 0.5304 0.1500 0 1
10.2379 -12.8057 0.4998 0.1662 0 1
10.1664 -11.7185 0.4729 0.1666 0 1
10.0705 -10.7071 0.4481 0.1829 0 1
9.9893 -9.8005 0.4266 0.1850 0 1
9.8864 -8.9492 0.4065 0.1942 0 1
9.7948 -8.1751 0.3889 0.2030 0 1
3.9019 0.0782 0.0757 0.9798 25 14
3.9272 0.2368 0.0763 0.9720 25 14
3.9529 0.3982 0.0771 0.9625 25 14
4.0190 0.5687 0.0787 0.2687 25 14
9.5054 1.7370 0.1874 0.2868 0 1
9.5488 2.1444 0.1898 0.2824 0 1
9.5986 2.5646 0.1927 0.2782 0 1
9.6512 2.9988 0.1960 0.2734 0 1
9.7067 3.4492 0.1998 0.2683 0 1
9.7656 3.9187 0.2041 0.2626 0 1
9.7918 4.3936 0.2082 0.2691 0 1
9.7910 4.8747 0.2121 0.2641 0 1
9.7914 5.3760 0.2166 0.2586 0 1
9.7930 5.9007 0.2217 0.2526 0 1
9.7284 6.4081 0.2259 0.2800 0 1
9.6240 6.9090 0.2298 0.2753 0 1
9.5199 7.4313 0.2342 0.2683 0 1
9.5731 8.1122 0.2434 0.2349 0 2
9.1010 8.3628 0.2397 0.2161 0 2
9.1305 9.0927 0.2499 0.2068 0 2
9.1651 9.8915 0.2615 0.1976 0 2
9.2047 10.7714 0.2748 0.1881 0 2
9.2501 11.7490 0.2900 0.1782 0 2
9.3025 12.8453 0.3076 0.1680 0 2
9.3636 14.0878 0.3281 0.1575 0 2
8.9285 14.6799 0.3332 0.8508 0 3
8.1987 14.7866 0.3279 0.4717 0 3
8.1798 16.2601 0.3530 0.4382 0 3
8.1576 17.9803 0.3829 0.4039 0 3
7.9713 19.6291 0.4109 0.3691 0 3
8.6790 24.1067 0.4969 0.9385 0 3
8.0642 25.5787 0.5202 0.2976 0 3
11.4444 42.1317 0.8468 0.0657 0 1
2.8373 27.0408 0.5273 0.3191 0 9
1.6845 26.1318 0.5079 0.5943 0 9
0.5748 23.7491 0.4607 0.4100 0 9
-0.2591 16.2193 0.3146 0.1432 0 9
-31.8519 37.9005 0.9602 0.9723 0 3
-31.9571 32.3529 0.8820 0.6552 0 3
-34.9595 32.6584 0.9279 0.6871 0 3
-31.9007 27.4866 0.8167 0.7076 0 3
-34.8406 27.6614 0.8628 0.6266 0 3
-31.8534 23.2669 0.7651 0.7553 0 3
-33.8043 22.6677 0.7894 0.5621 0 3
-35.9585 22.0720 0.8183 0.2892 0 3
-31.8033 17.8039 0.7069 0.9494 0 3
-34.9550 17.7636 0.7605 0.4586 0 3
-36.3323 16.6628 0.7752 0.3073 0 3
-36.9208 -33.3745 0.9653 0.6704 0 20
-34.8711 -34.1647 0.9468 0.7894 0 20
6.1343 -47.5381 0.9296 0.9922 0 3
5.2301 -24.6984 0.4896 0.6145 0 6
8.5900 -33.8039 0.6765 0.2342 0 3
8.3757 -28.1682 0.5700 0.5205 0 3
9.5280 -27.8906 0.5716 0.2299 0 3
9.9851 -25.7925 0.5364 0.0963 0 2
9.8104 -22.6004 0.4778 0.1082 0 2
9.6722 -20.0380 0.4315 0.1198 0 2
9.5605 -17.9293 0.3941 0.1311 0 2
9.4817 -16.1808 0.3637 0.7200 0 2
9.7961 -15.2758 0.3520 0.1373 0 1
9.6909 -13.8539 0.3279 0.1615 0 1
9.6504 -12.6795 0.3090 0.1725 0 1
9.6156 -11.6330 0.2927 0.1800 0 1
9.5570 -10.6596 0.2777 0.1879 0 1
9.4577 -9.7324 0.2632 0.1895 0 24
9.4212 -8.9461 0.2520 0.1994 0 1
9.3570 -8.1962 0.2413 0.2229 0 1
9.3241 -7.5276 0.2324 0.2345 0 1
9.3021 -6.9117 0.2248 0.2425 0 1
6.2368 -4.2563 0.1464 0.8813 14 6
9.0245 -5.6413 0.2064 0.2509 0 2
9.0090 -5.1404 0.2012 0.2576 0 25
8.8083 -4.5671 0.1924 0.0406 0 9
8.6986 -4.0756 0.1863 0.5860 0 9
8.7143 -3.6637 0.1833 0.9235 0 9
8.9625 -3.3512 0.1856 0.2793 0 25
8.9543 -2.9440 0.1828 0.2835 0 25
8.9472 -2.5483 0.1804 0.2873 0 25
9.1729 -2.2185 0.1830 0.2927 0 2
9.2710 -1.8516 0.1834 0.2934 0 1
