ply
format ascii 1.0
element vertex 1374
property float32 x
property float32 y
property float32 z
property float32 CosAngle
property uint32 ObjIdx
property uint32 ObjTag
end_header
4.5251 4.4360 -1.5204 0.4402 0 1
4.4301 4.7067 -1.5508 0.4316 0 1
4.3274 4.9848 -1.5838 0.4226 0 1
4.2165 5.2709 -1.6195 0.4115 0 1
4.1000 5.5704 -1.6595 0.4016 0 1
3.9738 5.8802 -1.7028 0.3913 0 1
3.8370 6.2014 -1.7497 0.3809 0 1
3.6887 6.5350 -1.8005 0.3701 0 1
3.5112 6.8502 -1.8469 0.3991 0 1
3.3300 7.1954 -1.9023 0.3775 0 1
3.1346 7.5563 -1.9628 0.3572 0 1
2.9181 7.9199 -2.0251 0.3462 0 1
2.6842 8.2991 -2.0928 0.3350 0 1
2.4419 8.7347 -2.1761 0.3049 0 1
2.1733 9.1830 -2.2642 0.3161 0 1
1.8772 9.6478 -2.3582 0.3035 0 1
1.5537 10.1451 -2.4625 0.2884 0 1
1.1985 10.6798 -2.5785 0.2755 0 1
0.8041 11.2198 -2.6989 0.2659 0 24
0.3720 11.8705 -2.8495 0.2349 0 1
-0.1110 12.5011 -2.9995 0.2331 0 24
-0.6531 13.2934 -3.1934 0.2096 0 1
-1.2636 14.1112 -3.3993 0.1862 0 1
-1.9600 15.0484 -3.6411 0.1739 0 1
-2.7454 16.0197 -3.8997 0.1635 0 24
-3.6671 17.2100 -4.2219 0.1559 0 1
-4.7095 18.4324 -4.5646 0.1465 0 1
-5.9229 19.8218 -4.9637 0.1344 0 1
-7.3303 21.3610 -5.4186 0.1245 0 1
-9.0315 23.2311 -5.9803 0.1106 0 1
-11.1296 25.5375 -6.6839 0.0997 0 1
-13.7088 28.2920 -7.5431 0.0893 0 1
-16.7737 31.3402 -8.5288 0.5111 0 2
-15.7199 26.7294 -7.4401 0.5929 0 15
-16.8192 26.1342 -7.4568 0.8019 0 15
-27.8185 39.6286 -11.6170 0.5985 0 3
-27.9835 36.6379 -11.0614 0.6286 0 3
-22.9401 25.4955 -8.2289 0.7540 0 5
-23.0811 23.6653 -7.9315 0.6857 0 5
-23.1416 21.8932 -7.6434 0.6794 0 5
-27.7197 24.1884 -8.8270 0.8571 0 3
-28.4859 22.9067 -8.7704 0.9492 0 3
-30.6320 22.6667 -9.1430 0.5839 0 3
-28.7700 19.5494 -8.3457 0.8330 0 3
-28.8256 17.9370 -8.1459 0.8535 0 3
-28.7106 16.3022 -7.9216 0.9956 0 3
-34.4044 17.7456 -9.2881 0.4518 0 3
-34.4967 16.0718 -9.1311 0.3767 0 3
-42.3411 17.6913 -11.0101 0.3811 0 3
-27.2324 8.8844 -6.8729 0.8855 0 22
-27.2224 7.6851 -6.7868 0.9440 0 22
-30.8477 -16.4091 -8.3834 0.9403 0 22
-30.7417 -17.9742 -8.5442 0.9011 0 22
-31.8882 -33.5350 -11.1031 0.9008 0 20
-30.1893 -34.4192 -10.9848 0.3988 0 20
-28.0983 -37.7706 -11.2950 0.6291 0 20
-27.4040 -40.1092 -11.6552 0.5771 0 9
-23.0293 -36.7998 -10.4159 0.6892 0 9
-18.9286 -33.1391 -9.1568 0.0679 0 2
-15.8018 -30.4450 -8.2300 0.0710 0 1
-12.5285 -26.7132 -7.0793 0.0846 0 1
-10.1217 -24.0520 -6.2610 0.0985 0 1
-8.1403 -21.7506 -5.5722 0.1063 0 1
-6.5443 -19.8873 -5.0233 0.1223 0 1
-5.2321 -18.3545 -4.5793 0.1404 0 1
-4.1392 -17.1005 -4.2215 0.1581 0 1
-3.2004 -16.0125 -3.9179 0.1700 0 1
-2.3833 -15.0494 -3.6558 0.1829 0 1
-1.6652 -14.1861 -3.4271 0.1966 0 1
-1.0308 -13.4242 -3.2304 0.2125 0 1
-0.4632 -12.7095 -3.0514 0.2242 0 1
0.0456 -12.0379 -2.8883 0.2268 0 1
0.5019 -11.4001 -2.7379 0.2384 0 1
0.9122 -10.8067 -2.6021 0.2508 0 1
1.2820 -10.2504 -2.4786 0.2635 0 1
1.6168 -9.7317 -2.3669 0.2779 0 1
1.9147 -9.2162 -2.2585 0.2887 0 24
2.1980 -8.7890 -2.1737 0.3039 0 1
2.4519 -8.3606 -2.0905 0.3160 0 1
2.6845 -7.9546 -2.0143 0.3280 0 1
2.8988 -7.5704 -1.9450 0.3431 0 1
3.0963 -7.2046 -1.8815 0.3537 0 1
3.2780 -6.8538 -1.8229 0.3651 0 1
3.4460 -6.5182 -1.7690 0.3729 0 1
3.6029 -6.1983 -1.7202 0.3835 0 1
3.7481 -5.8897 -1.6750 0.3938 0 1
3.8705 -5.5738 -1.6281 0.3982 0 1
3.9842 -5.2719 -1.5855 0.4090 0 1
4.0878 -4.9794 -1.5458 0.4090 0 1
4.1813 -4.6949 -1.5084 0.4191 0 1
4.2669 -4.4197 -1.4740 0.4289 0 1
4.3453 -4.1530 -1.4422 0.4384 0 1
4.4170 -3.8941 -1.4128 0.4475 0 1
4.4937 -3.6514 -1.3892 0.4736 0 1
4.5646 -3.4138 -1.3676 0.4811 0 1
4.6301 -3.1808 -1.3478 0.4881 0 1
4.6918 -2.9528 -1.3301 0.4947 0 1
4.7486 -2.7284 -1.3140 0.5007 0 1
4.8008 -2.5073 -1.2995 0.5063 0 1
4.8485 -2.2890 -1.2864 0.5115 0 1
4.8921 -2.0734 -1.2748 0.5162 0 1
4.9315 -1.8600 -1.2646 0.5204 0 1
4.9671 -1.6485 -1.2557 0.5241 0 1
4.9987 -1.4387 -1.2480 0.5273 0 1
4.1111 -1.0062 -1.0155 0.9062 25 14
3.8287 -0.7754 -0.9373 0.8949 25 14
3.8225 -0.6153 -0.9289 0.9768 25 14
3.8174 -0.4580 -0.9225 0.9837 25 14
3.8122 -0.3025 -0.9175 0.9890 25 14
3.8068 -0.1484 -0.9141 0.9927 25 14
3.8023 0.0047 -0.9123 0.9947 25 14
3.8078 0.1579 -0.9144 0.9924 25 14
3.8132 0.3121 -0.9180 0.9885 25 14
3.8184 0.4677 -0.9230 0.9831 25 14
3.8235 0.6252 -0.9296 0.9762 25 14
3.8314 0.7858 -0.9384 0.6456 25 14
4.1037 1.0152 -1.0143 0.9713 25 14
5.1243 1.4886 -1.2803 0.5162 0 1
5.1070 1.7090 -1.2921 0.5039 0 1
5.0801 1.9304 -1.3039 0.4993 0 1
5.0491 2.1547 -1.3171 0.4940 0 1
5.0139 2.3823 -1.3319 0.4885 0 1
4.9742 2.6136 -1.3482 0.4826 0 1
4.9298 2.8488 -1.3661 0.4763 0 1
4.8803 3.0883 -1.3857 0.4695 0 1
4.8255 3.3327 -1.4071 0.4624 0 1
4.7653 3.5823 -1.4304 0.4549 0 1
4.6998 3.8383 -1.4559 0.4469 0 1
4.6281 4.1007 -1.4836 0.4386 0 1
4.5480 4.3684 -1.5131 0.4424 0 1
4.4549 4.6374 -1.5429 0.4338 0 1
4.3542 4.9136 -1.5752 0.4249 0 1
4.2453 5.1975 -1.6102 0.4157 0 1
4.1304 5.4936 -1.6491 0.4041 0 1
4.0067 5.8007 -1.6915 0.3940 0 1
3.8727 6.1189 -1.7375 0.3835 0 1
3.7274 6.4492 -1.7872 0.3729 0 1
3.5575 6.7696 -1.8349 0.4017 0 1
3.3772 7.1064 -1.8878 0.3804 0 1
3.1856 7.4634 -1.9470 0.3689 0 1
2.9746 7.8263 -2.0088 0.3490 0 1
2.7452 8.2014 -2.0751 0.3379 0 1
2.5046 8.6194 -2.1536 0.3081 0 1
2.2442 9.0694 -2.2417 0.3193 0 1
1.9548 9.5275 -2.3336 0.3067 0 1
1.6384 10.0152 -2.4349 0.2917 0 1
1.2918 10.5408 -2.5480 0.2788 0 1
0.9069 11.0708 -2.6651 0.2703 0 24
0.4863 11.7065 -2.8112 0.2381 0 1
0.0161 12.3282 -2.9579 0.2372 0 24
-0.5098 13.0991 -3.1453 0.2128 0 1
-1.1014 13.8928 -3.3438 0.2047 0 1
-1.7746 14.8013 -3.5767 0.1770 0 1
-2.5433 15.8060 -3.8411 0.1671 0 1
-3.4241 16.9136 -4.1404 0.1574 0 1
-4.4314 18.1114 -4.4737 0.1482 0 1
-5.5968 19.4509 -4.8563 0.1355 0 1
-6.9523 20.9522 -5.2966 0.1274 0 1
-8.5651 22.7142 -5.8244 0.1105 0 1
-10.5546 24.9080 -6.4906 0.1002 0 1
-13.0038 27.5490 -7.3093 0.0921 0 1
-15.9466 30.5389 -8.2661 0.0824 0 1
-15.6965 27.3232 -7.5605 0.6777 0 15
-16.3830 26.0356 -7.3806 0.8400 0 15
-23.5520 34.2886 -9.9807 0.9292 0 21
-27.9437 37.3692 -11.1956 0.6210 0 3
-30.5944 37.6570 -11.6412 0.7591 0 3
-22.9325 26.0154 -8.3208 0.6972 0 5
-23.0420 24.1120 -8.0021 0.7164 0 5
-23.1381 22.3411 -7.7171 0.6038 0 5
-31.0563 27.6624 -9.9787 0.6519 0 3
-28.6199 23.4987 -8.8849 0.7825 0 3
-28.6805 21.6784 -8.6260 0.8060 0 3
-32.6178 22.6532 -9.5283 0.5603 0 3
-28.8121 18.3386 -8.1945 0.8484 0 3
-29.0304 16.8773 -8.0569 0.7548 0 3
-33.5713 17.7513 -9.1116 0.4605 0 3
-34.0008 16.2645 -9.0432 0.5496 0 3
-37.2358 16.0058 -9.7245 0.3705 0 3
-43.7048 16.7386 -11.2290 0.8127 0 3
-27.2493 9.1982 -6.9004 0.9831 0 22
-27.2416 7.9911 -6.8115 0.9674 0 22
-30.8690 -16.0191 -8.3444 0.8498 0 22
-30.7788 -17.5776 -8.5042 0.8965 0 22
-32.3101 -33.2926 -11.1312 0.9611 0 20
-30.4674 -34.0305 -10.9593 0.9146 0 20
-30.7833 -37.2980 -11.6033 0.5258 0 20
-28.5210 -37.5340 -11.3106 0.6378 0 20
-23.7739 -37.1425 -10.5809 0.6365 0 9
-20.0712 -34.3227 -9.5398 0.0652 0 2
-16.5423 -31.0929 -8.4503 0.5159 0 2
-13.2526 -27.5242 -7.3296 0.0817 0 1
-10.6789 -24.6698 -6.4498 0.0956 0 1
-8.5645 -22.1926 -5.7075 0.1058 0 24
-6.9197 -20.3281 -5.1522 0.1188 0 1
-5.5404 -18.7105 -4.6819 0.1373 0 1
-4.3989 -17.3965 -4.3053 0.1550 0 1
-3.4255 -16.2739 -3.9902 0.1669 0 1
-2.5802 -15.2830 -3.7188 0.1798 0 1
-1.8388 -14.3962 -3.4822 0.1934 0 1
-1.1849 -13.6125 -3.2784 0.2105 0 1
-0.6011 -12.8855 -3.0950 0.2218 0 1
-0.0781 -12.1995 -2.9271 0.2267 0 24
0.3901 -11.5340 -2.7690 0.2331 0 24
0.8122 -10.9529 -2.6352 0.2477 0 1
1.1920 -10.3893 -2.5091 0.2603 0 1
1.5350 -9.8598 -2.3942 0.2747 0 1
1.8405 -9.3358 -2.2831 0.2856 0 24
2.1301 -8.9020 -2.1962 0.2995 0 1
2.3896 -8.4670 -2.1109 0.3130 0 1
2.6275 -8.0555 -2.0330 0.3249 0 1
2.8460 -7.6656 -1.9619 0.3401 0 1
3.0479 -7.2959 -1.8971 0.3508 0 1
3.2333 -6.9413 -1.8373 0.3622 0 1
3.4044 -6.6015 -1.7821 0.3734 0 1
3.5643 -6.2782 -1.7322 0.3809 0 1
3.7124 -5.9668 -1.6861 0.3913 0 1
3.8405 -5.6528 -1.6397 0.3918 0 1
3.9563 -5.3474 -1.5960 0.4063 0 1
4.0628 -5.0531 -1.5557 0.4064 0 1
4.1584 -4.7661 -1.5176 0.4166 0 1
4.2459 -4.4886 -1.4825 0.4265 0 1
4.3261 -4.2199 -1.4500 0.4360 0 1
4.3994 -3.9590 -1.4200 0.4452 0 1
4.4748 -3.7124 -1.3950 0.4716 0 1
4.5472 -3.4736 -1.3729 0.4792 0 1
4.6140 -3.2394 -1.3527 0.4864 0 1
4.6766 -3.0102 -1.3344 0.4931 0 1
4.7347 -2.7849 -1.3179 0.4993 0 1
4.7880 -2.5630 -1.3030 0.5050 0 1
4.8368 -2.3441 -1.2896 0.5102 0 1
4.8814 -2.1278 -1.2776 0.5151 0 1
4.9219 -1.9139 -1.2671 0.5194 0 1
4.9584 -1.7019 -1.2578 0.5232 0 1
4.9911 -1.4917 -1.2499 0.5265 0 1
4.1117 -1.0509 -1.0182 0.9037 25 14
3.8482 -0.8202 -0.9440 0.6053 25 14
3.8237 -0.6556 -0.9308 0.9749 25 14
3.8187 -0.4976 -0.9240 0.9821 25 14
3.8135 -0.3417 -0.9186 0.9878 25 14
3.8082 -0.1874 -0.9148 0.9919 25 14
3.8027 -0.0340 -0.9124 0.9945 25 14
3.8065 0.1190 -0.9137 0.9931 25 14
3.8119 0.2729 -0.9169 0.9896 25 14
3.8171 0.4281 -0.9216 0.9846 25 14
3.8222 0.5851 -0.9278 0.9781 25 14
3.8246 0.7439 -0.9348 0.9626 25 14
4.1042 0.9710 -1.0119 0.9736 25 14
5.1275 1.4331 -1.2774 0.5173 0 1
5.1132 1.6534 -1.2894 0.5049 0 1
5.0873 1.8741 -1.3008 0.5005 0 1
5.0573 2.0976 -1.3136 0.4953 0 1
5.0233 2.3243 -1.3280 0.4899 0 1
4.9847 2.5546 -1.3439 0.4841 0 1
4.9415 2.7888 -1.3614 0.4779 0 1
4.8933 3.0272 -1.3806 0.4713 0 1
4.8399 3.2703 -1.4015 0.4642 0 1
4.7811 3.5185 -1.4243 0.4568 0 1
4.7170 3.7729 -1.4493 0.4490 0 1
4.6469 4.0335 -1.4764 0.4407 0 1
4.5702 4.3010 -1.5058 0.4321 0 1
4.4792 4.5686 -1.5351 0.4360 0 1
4.3805 4.8429 -1.5668 0.4272 0 1
4.2737 5.1248 -1.6011 0.4181 0 1
4.1602 5.4174 -1.6388 0.4066 0 1
4.0390 5.7219 -1.6804 0.3966 0 1
3.9077 6.0371 -1.7255 0.3862 0 1
3.7653 6.3643 -1.7742 0.3756 0 1
3.6030 6.6897 -1.8231 0.4043 0 1
3.4234 7.0182 -1.8735 0.3833 0 1
3.2356 7.3715 -1.9315 0.3718 0 1
3.0299 7.7337 -1.9929 0.3518 0 1
2.8050 8.1048 -2.0578 0.3407 0 1
2.5659 8.5059 -2.1317 0.3112 0 1
2.3136 8.9574 -2.2197 0.3224 0 1
2.0306 9.4089 -2.3095 0.3099 0 1
1.7211 9.8874 -2.4080 0.2972 0 1
1.3828 10.4043 -2.5183 0.2821 0 1
1.0070 10.9245 -2.6323 0.2760 0 24
0.5976 11.5458 -2.7739 0.2413 0 1
0.1398 12.1582 -2.9173 0.2405 0 24
-0.3708 12.9092 -3.0986 0.2160 0 1
-0.9447 13.6847 -3.2912 0.2034 0 1
-1.5955 14.5609 -3.5145 0.1801 0 1
-2.3387 15.5429 -3.7712 0.1702 0 1
-3.1895 16.6240 -4.0614 0.1605 0 1
4.7596 -2.1880 -1.3184 0.5222 0 1
4.8021 -1.9778 -1.3071 0.5267 0 1
4.8406 -1.7695 -1.2971 0.5307 0 1
4.8751 -1.5630 -1.2885 0.5343 0 1
4.9058 -1.3580 -1.2811 0.5374 0 1
3.9981 -0.9355 -1.0334 0.0798 25 14
3.8338 -0.7358 -0.9825 0.8931 25 14
3.8244 -0.5757 -0.9734 0.9015 25 14
3.8153 -0.4183 -0.9660 0.9083 25 14
3.8067 -0.2631 -0.9604 0.9137 25 14
3.7992 -0.1094 -0.9566 0.9923 25 14
3.7977 0.0434 -0.9559 0.9931 25 14
3.8031 0.1966 -0.9585 0.9904 25 14
3.8084 0.3508 -0.9626 0.9862 25 14
3.8136 0.5066 -0.9682 0.9804 25 14
3.8198 0.6647 -0.9758 0.8992 25 14
3.8727 0.8355 -0.9971 0.5995 25 14
5.0286 1.2985 -1.3071 0.5289 0 1
5.0157 1.5127 -1.3185 0.5243 0 1
4.9927 1.7276 -1.3297 0.5122 0 1
4.9644 1.9446 -1.3419 0.5076 0 1
4.9319 2.1644 -1.3555 0.5021 0 1
4.8951 2.3873 -1.3707 0.4966 0 1
4.8538 2.6138 -1.3875 0.4906 0 1
4.8077 2.8439 -1.4059 0.4841 0 1
4.7565 3.0783 -1.4260 0.4773 0 1
4.6999 3.3172 -1.4478 0.4701 0 1
4.6381 3.5613 -1.4717 0.4625 0 1
4.5707 3.8111 -1.4978 0.4545 0 1
4.4970 4.0671 -1.5260 0.4461 0 1
4.4162 4.3292 -1.5565 0.4499 0 1
4.3214 4.5912 -1.5869 0.4413 0 1
4.2190 4.8599 -1.6198 0.4323 0 1
4.1085 5.1359 -1.6553 0.4230 0 1
3.9923 5.4240 -1.6950 0.4113 0 1
3.8667 5.7218 -1.7381 0.4011 0 1
3.7308 6.0298 -1.7846 0.3906 0 1
3.5837 6.3491 -1.8349 0.3799 0 1
3.4186 6.6694 -1.8862 0.4088 0 1
3.2377 6.9960 -1.9402 0.3872 0 1
3.0422 7.3334 -1.9982 0.3671 0 1
2.8294 7.6790 -2.0597 0.3561 0 1
2.5999 8.0385 -2.1264 0.3450 0 1
2.3585 8.4365 -2.2047 0.3148 0 1
2.1015 8.8799 -2.2967 0.3022 0 1
1.8129 9.3174 -2.3890 0.3134 0 1
1.4978 9.7804 -2.4903 0.2984 0 1
1.1535 10.2785 -2.6032 0.2854 0 1
0.7738 10.7970 -2.7244 0.2725 0 1
0.3557 11.3484 -2.8576 0.2472 0 1
-0.1061 11.9500 -3.0077 0.2449 0 24
-0.6211 12.6413 -3.1854 0.2198 0 1
-1.1974 13.3723 -3.3791 0.2072 0 1
-1.8451 14.1661 -3.5955 0.1842 0 1
-2.5845 15.0806 -3.8509 0.1744 0 1
-3.4140 16.0224 -4.1231 0.1623 0 24
-4.3817 17.1495 -4.4549 0.1545 0 1
-5.4760 18.3262 -4.8139 0.1453 0 1
-6.7384 19.6361 -5.2250 0.1336 0 1
-8.2106 21.1196 -5.7030 0.1181 0 1
-10.0240 23.0006 -6.3147 0.1096 0 1
-12.2358 25.2522 -7.0623 0.0987 0 1
-14.8503 27.7466 -7.9207 0.0949 0 1
-15.6730 26.6498 -7.7813 0.5557 0 15
-16.7674 26.0536 -7.7979 0.7854 0 15
-27.3428 38.9509 -11.9776 0.0543 0 25
-26.0744 34.1384 -10.8116 0.9294 0 21
-27.9741 33.7237 -11.0278 0.6596 0 3
-22.8289 25.3719 -8.5901 0.5690 0 5
-22.9610 23.5423 -8.2767 0.7105 0 5
-23.0095 21.7683 -7.9720 0.7566 0 5
-31.6946 27.6570 -10.5870 0.6428 0 3
-28.5079 22.9244 -9.2070 0.7900 0 3
-30.6307 22.6658 -9.5904 0.5823 0 3
-33.2559 22.5976 -10.1194 0.8344 0 3
-28.7034 17.8610 -8.5086 0.8548 0 3
-31.2885 17.7660 -9.0557 0.4847 0 3
-34.4025 17.7447 -9.7425 0.4506 0 3
-38.0339 17.7198 -10.5604 0.4157 0 3
-38.3136 16.0085 -10.4508 0.8922 0 3
-27.1109 7.6536 -7.0900 0.9711 0 22
-46.6541 9.2013 -11.9682 0.9929 0 22
-46.6355 7.2637 -11.8789 0.9844 0 22
-30.7303 -16.3467 -8.7605 0.9462 0 22
-30.6208 -17.9036 -8.9274 0.9196 0 22
-31.8431 -33.4876 -11.6304 0.9016 0 20
-30.3004 -34.5459 -11.5652 0.5518 0 20
-28.1292 -34.7985 -11.2618 0.6601 0 20
-27.9409 -37.5592 -11.7819 0.6310 0 20
-23.4265 -34.2876 -10.4515 0.9945 0 9
-20.1953 -32.2711 -9.5814 0.0679 0 2
-16.5737 -29.0162 -8.4102 0.5422 0 2
-13.6740 -26.3454 -7.4706 0.0832 0 1
-11.1320 -23.7356 -6.5982 0.0971 0 1
-9.0892 -21.5984 -5.8977 0.1089 0 1
-7.4112 -19.8027 -5.3216 0.1204 0 1
-6.0192 -18.2917 -4.8466 0.1392 0 1
-4.8626 -17.0583 -4.4643 0.1564 0 1
-3.8705 -15.9903 -4.1407 0.1683 0 1
-3.0085 -15.0522 -3.8633 0.1803 0 1
-2.2503 -14.2099 -3.6210 0.1946 0 1
-1.5796 -13.4572 -3.4102 0.2117 0 1
-0.9808 -12.7731 -3.2243 0.2227 0 1
-0.4415 -12.1163 -3.0515 0.2245 0 1
0.0434 -11.4742 -2.8879 0.2333 0 24
0.4801 -10.9047 -2.7472 0.2485 0 1
0.8744 -10.3594 -2.6166 0.2609 0 1
1.2318 -9.8489 -2.4981 0.2754 0 1
1.5562 -9.3673 -2.3899 0.2879 0 1
1.8455 -8.8829 -2.2834 0.2981 0 24
2.1224 -8.4870 -2.2018 0.3139 0 1
2.3708 -8.0840 -2.1203 0.3259 0 1
2.5991 -7.7015 -2.0457 0.3412 0 1
2.8102 -7.3391 -1.9779 0.3529 0 1
3.0045 -6.9909 -1.9151 0.3635 0 1
3.1837 -6.6567 -1.8572 0.3749 0 1
3.3495 -6.3356 -1.8037 0.3860 0 1
3.5038 -6.0278 -1.7548 0.3933 0 1
3.6461 -5.7294 -1.7092 0.3932 0 1
3.7685 -5.4270 -1.6629 0.4079 0 1
3.8808 -5.1350 -1.6200 0.4083 0 1
3.9827 -4.8513 -1.5797 0.4187 0 1
4.0762 -4.5770 -1.5426 0.4288 0 1
4.1621 -4.3112 -1.5082 0.4385 0 1
4.2408 -4.0532 -1.4764 0.4480 0 1
4.3168 -3.8058 -1.4484 0.4752 0 1
4.3934 -3.5700 -1.4248 0.4831 0 1
4.4644 -3.3388 -1.4031 0.4905 0 1
4.5299 -3.1119 -1.3832 0.4976 0 1
4.5915 -2.8896 -1.3654 0.5041 0 1
4.6483 -2.6708 -1.3493 0.5102 0 1
4.7004 -2.4549 -1.3346 0.5157 0 1
4.7482 -2.2417 -1.3215 0.5209 0 1
4.7917 -2.0309 -1.3098 0.5256 0 1
4.8312 -1.8221 -1.2995 0.5298 0 1
4.8667 -1.6152 -1.2906 0.5334 0 1
4.8983 -1.4098 -1.2829 0.5366 0 1
4.1176 -1.0078 -1.0669 0.9023 25 14
3.8409 -0.7779 -0.9863 0.6794 25 14
3.8267 -0.6160 -0.9755 0.8995 25 14
3.8176 -0.4580 -0.9677 0.9067 25 14
3.8089 -0.3022 -0.9616 0.9125 25 14
3.8006 -0.1482 -0.9573 0.9916 25 14
3.7962 0.0047 -0.9555 0.9935 25 14
3.8018 0.1577 -0.9577 0.9912 25 14
3.8071 0.3116 -0.9614 0.9874 25 14
3.8123 0.4669 -0.9667 0.9820 25 14
3.8181 0.6243 -0.9737 0.9011 25 14
3.8326 0.7861 -0.9847 0.6071 25 14
4.1031 1.0150 -1.0638 0.9049 25 14
5.0193 1.4581 -1.3155 0.5255 0 1
4.9992 1.6730 -1.3268 0.5133 0 1
4.9719 1.8893 -1.3387 0.5088 0 1
4.9404 2.1083 -1.3519 0.5035 0 1
4.9049 2.3305 -1.3667 0.4980 0 1
4.8647 2.5560 -1.3831 0.4921 0 1
4.8198 2.7852 -1.4011 0.4858 0 1
4.7699 3.0185 -1.4207 0.4791 0 1
4.7148 3.2562 -1.4421 0.4720 0 1
4.6542 3.4988 -1.4655 0.4645 0 1
4.5884 3.7473 -1.4910 0.4565 0 1
4.5163 4.0016 -1.5187 0.4482 0 1
4.4376 4.2623 -1.5486 0.4395 0 1
4.3462 4.5242 -1.5790 0.4435 0 1
4.2457 4.7912 -1.6112 0.4346 0 1
4.1373 5.0652 -1.6461 0.4254 0 1
4.0225 5.3501 -1.6847 0.4138 0 1
3.8995 5.6454 -1.7269 0.4037 0 1
3.7663 5.9507 -1.7725 0.3933 0 1
3.6221 6.2671 -1.8218 0.3827 0 1
3.4642 6.5921 -1.8743 0.4114 0 1
3.2842 6.9109 -1.9258 0.3901 0 1
3.0936 7.2478 -1.9834 0.3698 0 1
2.8848 7.5902 -2.0436 0.3589 0 1
2.6597 7.9460 -2.1089 0.3478 0 1
2.4200 8.3281 -2.1828 0.3180 0 1
2.1689 8.7651 -2.2726 0.3054 0 1
1.8885 9.2044 -2.3649 0.3166 0 1
1.5802 9.6597 -2.4635 0.3039 0 1
1.2438 10.1493 -2.5735 0.2887 0 1
0.8740 10.6690 -2.6942 0.2755 0 1
0.4653 11.1995 -2.8212 0.2504 0 1
0.0154 11.7932 -2.9682 0.2474 0 24
-0.4852 12.4658 -3.1398 0.2230 0 1
-1.0396 13.1136 -3.3108 0.2168 0 24
-1.6726 13.9505 -3.5363 0.1989 0 1
-2.3882 14.8425 -3.7837 0.1750 0 1
-3.2022 15.8172 -4.0617 0.1654 0 1
-4.1275 16.8695 -4.3710 0.1575 0 1
-5.1839 18.0160 -4.7183 0.1470 0 1
-6.4013 19.2917 -5.1157 0.1365 0 1
-7.8117 20.7161 -5.5723 0.1267 0 1
-9.5341 22.4996 -6.1502 0.1095 0 1
-11.6322 24.6432 -6.8585 0.0992 0 1
-14.1573 27.1122 -7.6980 0.0928 0 1
-15.6170 27.1848 -7.8906 0.5908 0 15
-16.3906 26.0477 -7.7457 0.8338 0 15
-23.4862 34.1928 -10.4403 0.9954 0 21
-25.8122 34.5187 -10.8481 0.9263 0 21
-27.9376 34.3868 -11.1509 0.6523 0 3
-22.8118 25.8785 -8.6824 0.6990 0 5
-22.9252 23.9898 -8.3515 0.7538 0 5
-23.0045 22.2121 -8.0483 0.7154 0 5
-27.6113 24.5938 -9.3063 0.7598 0 3
-27.5918 22.6546 -8.9853 0.9517 0 3
-28.6632 21.6653 -9.0430 0.5902 0 3
-32.6164 22.6523 -9.9946 0.5588 0 3
-28.6893 18.2604 -8.5592 0.8497 0 3
-30.5675 17.7710 -8.8990 0.4933 0 3
-33.5695 17.7504 -9.5573 0.4593 0 3
-37.0571 17.7265 -10.3388 0.4246 0 3
-38.2058 16.4227 -10.4665 0.9197 0 3
-27.1270 9.1569 -7.2059 0.8925 0 22
-27.1327 7.9591 -7.1166 0.9047 0 22
-46.6257 7.7496 -11.8959 0.9913 0 22
-22.8616 -4.5677 -5.8676 0.4463 16 6
-30.7024 -15.9326 -8.7058 0.8206 0 22
-30.6579 -17.5085 -8.8857 0.8884 0 22
-32.3324 -33.3156 -11.6845 0.8955 0 20
-30.2130 -33.7464 -11.4000 0.5598 0 20
-28.5496 -34.5915 -11.2884 0.6685 0 20
-27.9908 -36.8363 -11.6440 0.6384 0 20
-24.1028 -34.5170 -10.5958 0.9648 0 9
-17.6241 -27.5345 -8.2280 0.9015 0 6
-17.2106 -29.4309 -8.5808 0.0758 0 2
-14.4385 -27.1385 -7.7368 0.0741 0 1
-11.7123 -24.3250 -6.7949 0.0949 0 1
-9.5358 -22.0292 -6.0415 0.1031 0 24
-7.8077 -20.2315 -5.4580 0.1177 0 1
-6.3449 -18.6397 -4.9557 0.1298 0 1
-5.1362 -17.3454 -4.5529 0.1533 0 1
-4.1079 -16.2455 -4.2174 0.1619 0 1
-3.2165 -15.2811 -3.9303 0.1772 0 1
-2.4336 -14.4150 -3.6794 0.1915 0 1
-1.7420 -13.6383 -3.4604 0.2086 0 1
-1.1235 -12.9075 -3.2609 0.2183 0 24
-0.5730 -12.2832 -3.0948 0.2214 0 1
-0.0745 -11.6327 -2.9278 0.2299 0 24
0.3737 -11.0490 -2.7824 0.2454 0 1
0.7782 -10.4940 -2.6484 0.2578 0 1
1.1445 -9.9758 -2.5272 0.2723 0 1
1.4769 -9.4865 -2.4164 0.2847 0 1
1.7795 -9.0263 -2.3155 0.2972 0 1
2.0560 -8.5925 -2.2236 0.3108 0 1
2.3098 -8.1842 -2.1403 0.3229 0 1
2.5428 -7.7960 -2.0639 0.3348 0 1
2.7583 -7.4294 -1.9946 0.3500 0 1
2.9567 -7.0778 -1.9306 0.3606 0 1
3.1396 -6.7402 -1.8714 0.3720 0 1
3.3087 -6.4158 -1.8168 0.3832 0 1
3.4656 -6.1044 -1.7667 0.3906 0 1
3.6122 -5.8059 -1.7210 0.4010 0 1
3.7382 -5.5022 -1.6742 0.4052 0 1
3.8535 -5.2085 -1.6307 0.4056 0 1
3.9577 -4.9223 -1.5896 0.4161 0 1
4.0533 -4.6457 -1.5517 0.4262 0 1
4.1410 -4.3778 -1.5166 0.4361 0 1
4.2215 -4.1178 -1.4842 0.4456 0 1
4.2964 -3.8663 -1.4547 0.4731 0 1
4.3746 -3.6293 -1.4306 0.4811 0 1
4.4469 -3.3970 -1.4084 0.4887 0 1
4.5138 -3.1691 -1.3881 0.4958 0 1
4.5763 -2.9456 -1.3697 0.5025 0 1
4.6343 -2.7259 -1.3532 0.5087 0 1
4.6877 -2.5093 -1.3382 0.5144 0 1
4.7365 -2.2955 -1.3247 0.5196 0 1
4.7811 -2.0841 -1.3127 0.5245 0 1
4.8216 -1.8749 -1.3020 0.5288 0 1
4.8581 -1.6675 -1.2927 0.5326 0 1
4.8907 -1.4617 -1.2847 0.5359 0 1
4.1182 -1.0525 -1.0698 0.8998 25 14
3.8630 -0.8234 -0.9941 0.6741 25 14
3.8291 -0.6565 -0.9778 0.8974 25 14
3.8199 -0.4978 -0.9695 0.9050 25 14
3.8110 -0.3415 -0.9630 0.9112 25 14
3.8026 -0.1871 -0.9582 0.9157 25 14
3.7965 -0.0340 -0.9556 0.9934 25 14
3.8004 0.1188 -0.9570 0.9920 25 14
3.8058 0.2725 -0.9603 0.9885 25 14
3.8110 0.4274 -0.9652 0.9835 25 14
3.8164 0.5842 -0.9717 0.9030 25 14
3.8233 0.7436 -0.9803 0.8951 25 14
4.1031 0.9707 -1.0612 0.9071 25 14
5.0227 1.4038 -1.3126 0.5267 0 1
5.0055 1.6185 -1.3240 0.5144 0 1
4.9793 1.8342 -1.3355 0.5100 0 1
4.9488 2.0526 -1.3484 0.5051 0 1
4.9143 2.2739 -1.3628 0.4994 0 1
4.8753 2.4985 -1.3788 0.4937 0 1
4.8317 2.7268 -1.3963 0.4874 0 1
4.7831 2.9590 -1.4156 0.4808 0 1
4.7293 3.1955 -1.4365 0.4738 0 1
4.6700 3.4368 -1.4593 0.4664 0 1
4.6056 3.6838 -1.4843 0.4586 0 1
4.5352 3.9366 -1.5115 0.4504 0 1
4.4582 4.1956 -1.5408 0.4418 0 1
4.3704 4.4576 -1.5712 0.4457 0 1
4.2719 4.7229 -1.6028 0.4369 0 1
4.1656 4.9951 -1.6370 0.4278 0 1
4.0522 5.2767 -1.6745 0.4163 0 1
3.9316 5.5697 -1.7159 0.4063 0 1
3.8011 5.8724 -1.7606 0.3960 0 1
3.6598 6.1858 -1.8089 0.3854 0 1
3.5067 6.5110 -1.8613 0.3745 0 1
3.3299 6.8266 -1.9116 0.3930 0 1
3.1441 7.1630 -1.9688 0.3726 0 1
2.9392 7.5022 -2.0279 0.3617 0 1
2.7184 7.8545 -2.0919 0.3506 0 1
2.4801 8.2213 -2.1613 0.3394 0 1
2.2347 8.6520 -2.2490 0.3086 0 1
1.9624 9.0930 -2.3413 0.3198 0 1
1.6610 9.5418 -2.4376 0.3071 0 1
1.3320 10.0222 -2.5446 0.2920 0 1
0.9712 10.5362 -2.6630 0.2790 0 1
0.5721 11.0533 -2.7857 0.2535 0 1
0.1338 11.6388 -2.9295 0.2521 0 24
-0.3531 12.2939 -3.0954 0.2262 0 1
-0.8928 12.9336 -3.2629 0.2192 0 24
-1.5066 13.7500 -3.4813 0.2020 0 1
-2.1979 14.6071 -3.7177 0.1781 0 1
-2.9855 15.5604 -3.9877 0.1684 0 1
4.6628 -2.1435 -1.3523 0.5315 0 1
4.7053 -1.9379 -1.3409 0.5360 0 1
4.7437 -1.7341 -1.3309 0.5400 0 1
4.7781 -1.5319 -1.3222 0.5436 0 1
4.8087 -1.3311 -1.3148 0.5467 0 1
4.1235 -0.9648 -1.1159 0.9006 25 14
3.8414 -0.7373 -1.0307 0.8888 25 14
3.8319 -0.5768 -1.0211 0.8971 25 14
3.8228 -0.4191 -1.0133 0.9040 25 14
3.8147 -0.2636 -1.0076 0.8575 25 14
3.8090 -0.1097 -1.0041 0.8605 25 14
3.8062 0.0435 -1.0030 0.8614 25 14
3.8083 0.1968 -1.0048 0.9116 25 14
3.8144 0.3513 -1.0093 0.9076 25 14
3.8207 0.5075 -1.0156 0.9020 25 14
3.8275 0.6660 -1.0237 0.8948 25 14
3.8776 0.8366 -1.0453 0.5971 25 14
4.9277 1.2724 -1.3410 0.5382 0 1
4.9133 1.4818 -1.3523 0.5258 0 1
4.8887 1.6916 -1.3631 0.5216 0 1
4.8601 1.9037 -1.3754 0.5170 0 1
4.8271 2.1184 -1.3890 0.5116 0 1
4.7901 2.3361 -1.4043 0.5060 0 1
4.7484 2.5570 -1.4211 0.5000 0 1
4.7019 2.7814 -1.4395 0.4936 0 1
4.6503 3.0096 -1.4596 0.4868 0 1
4.5935 3.2421 -1.4815 0.4796 0 1
4.5314 3.4793 -1.5054 0.4720 0 1
4.4638 3.7220 -1.5314 0.4640 0 1
4.3898 3.9701 -1.5596 0.4556 0 1
4.3092 4.2243 -1.5901 0.4469 0 1
4.2174 4.4807 -1.6214 0.4509 0 1
4.1154 4.7405 -1.6542 0.4419 0 1
4.0054 5.0070 -1.6896 0.4327 0 1
3.8895 5.2844 -1.7289 0.4209 0 1
3.7647 5.5709 -1.7717 0.4108 0 1
3.6299 5.8666 -1.8178 0.4003 0 1
3.4841 6.1725 -1.8677 0.3897 0 1
3.3264 6.4895 -1.9215 0.3787 0 1
3.1489 6.8042 -1.9756 0.3876 0 1
2.9545 7.1221 -2.0317 0.3769 0 1
2.7454 7.4512 -2.0924 0.3660 0 1
2.5203 7.7925 -2.1581 0.3548 0 1
2.2802 8.1565 -2.2317 0.3247 0 1
2.0290 8.5733 -2.3215 0.3121 0 1
1.7526 9.0071 -2.4179 0.3233 0 1
1.4458 9.4404 -2.5165 0.3106 0 1
1.1115 9.9043 -2.6262 0.2954 0 1
0.7440 10.3821 -2.7427 0.2825 0 1
0.3407 10.8715 -2.8661 0.2573 0 1
-0.1016 11.4358 -3.0134 0.2426 0 1
-0.5919 12.0471 -3.1782 0.2300 0 1
-1.1326 12.6486 -3.3462 0.2221 0 24
-1.7468 13.4117 -3.5638 0.2060 0 1
-2.4315 14.1883 -3.7931 0.1823 0 1
-3.2115 15.0721 -4.0607 0.1727 0 1
-4.0815 15.9742 -4.3444 0.1632 0 24
-5.0912 17.0384 -4.6858 0.1545 0 1
-6.2276 18.1474 -5.0556 0.1455 0 1
-7.5327 19.3758 -5.4778 0.1316 0 1
-9.1014 20.8836 -6.0027 0.1173 0 1
-10.9999 22.7014 -6.6471 0.1069 0 1
-13.2690 24.7921 -7.4095 0.0989 0 1
-15.8445 26.9413 -8.2357 0.0978 0 1
-17.3471 26.9544 -8.4462 0.7604 0 15
-22.7846 32.4576 -10.4495 0.0650 0 25
-25.9411 33.9638 -11.2613 0.9315 0 21
-25.5484 30.7994 -10.5444 0.9904 0 21
-22.7359 25.2685 -8.9568 0.6401 0 5
-22.8327 23.4107 -8.6169 0.7004 0 5
-22.9084 21.6726 -8.3096 0.7217 0 5
-23.0152 20.0833 -8.0488 0.7307 0 5
-26.8339 21.5783 -9.0733 0.7914 0 3
-30.6294 22.6648 -10.0402 0.5807 0 3
-33.1114 22.4994 -10.5485 0.8357 0 3
-28.5987 17.7958 -8.8756 0.9310 0 3
-33.2448 18.8768 -10.0737 0.8750 0 3
-34.4007 17.7437 -10.1993 0.4493 0 3
-37.6977 17.5631 -10.9585 0.7596 0 3
-42.3356 17.6890 -12.0901 0.3790 0 3
-43.4464 16.1340 -12.2120 0.5599 0 3
-27.0288 7.6304 -7.4005 0.9934 0 22
-46.4368 9.1584 -12.4718 0.9322 0 22
-46.4685 7.2376 -12.3921 0.9890 0 22
-30.5667 -16.2597 -9.1230 0.8883 0 22
-30.4935 -17.8291 -9.3077 0.8186 0 22
-31.7946 -33.4366 -12.1579 0.8087 0 20
-28.1516 -32.0960 -11.2495 0.6899 0 20
-27.9799 -34.6138 -11.7279 0.6620 0 20
-25.0557 -33.6807 -11.0613 0.9692 0 9
-21.3215 -31.2066 -9.9590 0.0682 0 2
-17.4092 -27.8192 -8.6474 0.0785 0 2
-14.8071 -25.9233 -7.8666 0.0742 0 1
-12.0977 -23.3084 -6.9198 0.0965 0 1
-10.0129 -21.3496 -6.2136 0.1086 0 1
-8.2644 -19.6385 -5.6143 0.1179 0 1
-6.8014 -18.1731 -5.1130 0.1314 0 1
-5.5837 -16.9683 -4.7070 0.1496 0 1
-4.5408 -15.9293 -4.3646 0.1634 0 1
-3.6356 -15.0198 -4.0720 0.1787 0 1
-2.8386 -14.2020 -3.8163 0.1928 0 1
-2.1316 -13.4600 -3.5909 0.2098 0 1
-1.5024 -12.7988 -3.3956 0.2219 0 1
-0.9347 -12.1723 -3.2168 0.2224 0 1
-0.4206 -11.5404 -3.0429 0.2325 0 24
0.0416 -10.9847 -2.8945 0.2462 0 1
0.4600 -10.4481 -2.7557 0.2586 0 1
0.8395 -9.9462 -2.6301 0.2730 0 1
1.1851 -9.4759 -2.5164 0.2855 0 1
1.4998 -9.0273 -2.4113 0.2979 0 1
1.7874 -8.6032 -2.3154 0.3102 0 1
2.0515 -8.2035 -2.2282 0.3238 0 1
2.2944 -7.8236 -2.1483 0.3358 0 1
2.5190 -7.4642 -2.0758 0.3511 0 1
2.7264 -7.1202 -2.0090 0.3618 0 1
2.9175 -6.7885 -1.9470 0.3733 0 1
3.0942 -6.4697 -1.8897 0.3846 0 1
3.2580 -6.1625 -1.8368 0.3957 0 1
3.4097 -5.8660 -1.7878 0.4065 0 1
3.5487 -5.5763 -1.7417 0.4066 0 1
3.6699 -5.2849 -1.6954 0.4073 0 1
3.7805 -5.0023 -1.6522 0.4179 0 1
3.8822 -4.7290 -1.6122 0.4283 0 1
3.9758 -4.4642 -1.5752 0.4383 0 1
4.0618 -4.2073 -1.5409 0.4481 0 1
4.1407 -3.9575 -1.5093 0.4575 0 1
4.2206 -3.7210 -1.4826 0.4846 0 1
4.2971 -3.4917 -1.4590 0.4925 0 1
4.3679 -3.2667 -1.4372 0.4999 0 1
4.4334 -3.0456 -1.4173 0.5070 0 1
4.4948 -2.8288 -1.3994 0.5135 0 1
4.5516 -2.6152 -1.3832 0.5195 0 1
4.6037 -2.4043 -1.3685 0.5251 0 1
4.6514 -2.1960 -1.3554 0.5303 0 1
4.6949 -1.9898 -1.3436 0.5349 0 1
4.7343 -1.7856 -1.3333 0.5391 0 1
4.7698 -1.5830 -1.3242 0.5427 0 1
4.8013 -1.3819 -1.3165 0.5459 0 1
4.1241 -1.0094 -1.1188 0.8982 25 14
3.8618 -0.7821 -1.0382 0.6738 25 14
3.8343 -0.6172 -1.0233 0.8952 25 14
3.8251 -0.4589 -1.0151 0.9024 25 14
3.8163 -0.3028 -1.0087 0.9081 25 14
3.8104 -0.1486 -1.0048 0.8599 25 14
3.8059 0.0047 -1.0028 0.8616 25 14
3.8075 0.1579 -1.0041 0.8605 25 14
3.8128 0.3121 -1.0080 0.9087 25 14
3.8191 0.4678 -1.0139 0.9035 25 14
3.8257 0.6256 -1.0215 0.8968 25 14
3.8540 0.7905 -1.0367 0.6749 25 14
4.1096 1.0166 -1.1155 0.9009 25 14
4.9180 1.4287 -1.3495 0.5348 0 1
4.8954 1.6382 -1.3602 0.5227 0 1
4.8677 1.8497 -1.3721 0.5182 0 1
4.8359 2.0637 -1.3854 0.5132 0 1
4.7999 2.2806 -1.4003 0.5074 0 1
4.7594 2.5007 -1.4167 0.5016 0 1
4.7141 2.7242 -1.4347 0.4953 0 1
4.6639 2.9514 -1.4543 0.4886 0 1
4.6084 3.1827 -1.4758 0.4815 0 1
4.5476 3.4187 -1.4991 0.4740 0 1
4.4815 3.6600 -1.5246 0.4661 0 1
4.4092 3.9067 -1.5523 0.4578 0 1
4.3303 4.1593 -1.5821 0.4492 0 1
4.2420 4.4158 -1.6135 0.4531 0 1
4.1420 4.6741 -1.6456 0.4442 0 1
4.0341 4.9388 -1.6803 0.4350 0 1
3.9196 5.2132 -1.7186 0.4235 0 1
3.7973 5.4974 -1.7605 0.4134 0 1
3.6650 5.7907 -1.8058 0.4030 0 1
3.5221 6.0940 -1.8547 0.3924 0 1
3.3675 6.4081 -1.9075 0.3815 0 1
3.1958 6.7248 -1.9619 0.3998 0 1
3.0051 7.0405 -2.0171 0.3796 0 1
2.7999 7.3667 -2.0766 0.3688 0 1
2.5790 7.7048 -2.1409 0.3577 0 1
2.3409 8.0561 -2.2106 0.3464 0 1
2.0948 8.4655 -2.2980 0.3153 0 1
1.8261 8.9000 -2.3940 0.3026 0 1
1.5260 9.3284 -2.4907 0.3138 0 1
1.1990 9.7838 -2.5973 0.2987 0 1
0.8407 10.2634 -2.7135 0.2856 0 1
0.4462 10.7414 -2.8328 0.2735 0 1
0.0148 11.2888 -2.9746 0.2479 0 1
-0.4627 11.8878 -3.1348 0.2332 0 1
-0.9898 12.4848 -3.3001 0.2265 0 24
-1.5860 13.2281 -3.5106 0.2091 0 1
-2.2488 13.9762 -3.7301 0.1968 0 1
-3.0047 14.8418 -3.9901 0.1757 0 1
-3.8609 15.7798 -4.2806 0.1691 0 1
-4.8257 16.7711 -4.5985 0.1563 0 1
-5.9273 17.8633 -4.9593 0.1483 0 1
-7.1836 19.0504 -5.3648 0.1344 0 1
-8.6747 20.4715 -5.8586 0.1202 0 1
-10.4804 22.2031 -6.4695 0.1072 0 1
-12.6616 24.2479 -7.2079 0.1017 0 1
-15.1716 26.4095 -8.0255 0.1007 0 1
-17.1783 27.2995 -8.4991 0.6053 0 15
-21.5977 31.4434 -10.0516 0.0676 0 2
-26.8336 35.8847 -11.8069 0.0575 0 25
-27.7824 34.1958 -11.6096 0.6541 0 3
-22.6928 25.7435 -9.0427 0.7272 0 5
-22.8075 23.8666 -8.6987 0.7344 0 5
-22.8752 22.0872 -8.3788 0.7827 0 5
-22.9875 20.4753 -8.1116 0.8110 0 5
-26.8140 22.0159 -9.1419 0.7854 0 3
-29.9913 22.6692 -9.9062 0.5885 0 3
-32.6149 22.6513 -10.4634 0.5572 0 3
-28.5669 18.1825 -8.9228 0.8509 0 3
-33.2297 19.3186 -10.1282 0.8703 0 3
-33.5677 17.7494 -10.0055 0.4580 0 3
-33.4103 15.9820 -9.7590 0.9705 0 3
-41.1704 17.6971 -11.8082 0.3881 0 3
-44.7351 17.1332 -12.6227 0.0573 0 3
-27.0132 9.1185 -7.5126 0.9343 0 22
-27.0143 7.9244 -7.4182 0.9275 0 22
-46.4475 7.7200 -12.4068 0.9852 0 22
-30.6008 -15.8799 -9.0844 0.9028 0 22
-30.5329 -17.4372 -9.2650 0.8839 0 22
-32.3599 -33.3439 -12.2435 0.8030 0 20
-28.5712 -31.9125 -11.2867 0.6990 0 20
-28.0251 -33.9560 -11.6012 0.6693 0 20
-26.2514 -34.5473 -11.4332 0.9533 0 9
-22.4883 -32.2048 -10.3501 0.0656 0 2
-17.4812 -27.3112 -8.5445 0.7113 0 6
-15.6715 -26.7990 -8.1803 0.0736 0 1
-12.7118 -23.8930 -7.1314 0.0824 0 1
-10.4792 -21.7641 -6.3650 0.1007 0 24
-8.6778 -20.0469 -5.7560 0.1150 0 1
-7.1494 -18.5257 -5.2324 0.1284 0 1
-5.8747 -17.2582 -4.8038 0.1466 0 1
-4.7916 -16.1817 -4.4469 0.1603 0 1
-3.8539 -15.2410 -4.1424 0.1756 0 1
-3.0313 -14.4011 -3.8779 0.1897 0 1
-2.3029 -13.6405 -3.6451 0.2018 0 1
-1.6511 -12.9266 -3.4338 0.2155 0 24
-1.0737 -12.3350 -3.2626 0.2290 0 1
-0.5462 -11.7087 -3.0886 0.2316 0 1
-0.0712 -11.1098 -2.9275 0.2409 0 24
0.3578 -10.5807 -2.7896 0.2555 0 1
0.7467 -10.0698 -2.6607 0.2679 0 1
1.0963 -9.5558 -2.5345 0.2801 0 24
1.4227 -9.1386 -2.4370 0.2947 0 1
1.7169 -8.7086 -2.3389 0.3071 0 1
1.9801 -8.2752 -2.2421 0.3238 0 24
2.2348 -7.9182 -2.1679 0.3328 0 1
2.4638 -7.5538 -2.0936 0.3481 0 1
2.6754 -7.2061 -2.0254 0.3598 0 1
2.8705 -6.8713 -1.9622 0.3704 0 1
3.0507 -6.5493 -1.9038 0.3818 0 1
3.2176 -6.2393 -1.8498 0.3929 0 1
3.3723 -5.9402 -1.7999 0.4038 0 1
3.5164 -5.6518 -1.7540 0.4000 0 1
3.6403 -5.3581 -1.7069 0.4045 0 1
3.7533 -5.0730 -1.6628 0.4152 0 1
3.8572 -4.7974 -1.6220 0.4257 0 1
3.9528 -4.5305 -1.5843 0.4358 0 1
4.0407 -4.2717 -1.5494 0.4456 0 1
4.1213 -4.0201 -1.5171 0.4551 0 1
4.2002 -3.7798 -1.4889 0.4826 0 1
4.2782 -3.5493 -1.4648 0.4905 0 1
4.3505 -3.3233 -1.4426 0.4981 0 1
4.4173 -3.1013 -1.4222 0.5052 0 1
4.4797 -2.8834 -1.4038 0.5119 0 1
4.5376 -2.6690 -1.3872 0.5180 0 1
4.5909 -2.4575 -1.3721 0.5237 0 1
4.6397 -2.2485 -1.3586 0.5290 0 1
4.6843 -2.0419 -1.3465 0.5338 0 1
4.7247 -1.8372 -1.3358 0.5381 0 1
4.7611 -1.6342 -1.3264 0.5419 0 1
4.7937 -1.4328 -1.3184 0.5452 0 1
4.1252 -1.0543 -1.1219 0.6836 25 14
3.8842 -0.8279 -1.0465 0.6685 25 14
3.8367 -0.6578 -1.0257 0.8931 25 14
3.8273 -0.4988 -1.0170 0.9007 25 14
3.8184 -0.3422 -1.0102 0.9068 25 14
3.8118 -0.1876 -1.0056 0.8592 25 14
3.8064 -0.0341 -1.0030 0.8614 25 14
3.8071 0.1190 -1.0037 0.8609 25 14
3.8113 0.2729 -1.0068 0.9098 25 14
3.8175 0.4281 -1.0122 0.9050 25 14
3.8240 0.5854 -1.0194 0.8986 25 14
3.8333 0.7456 -1.0290 0.6799 25 14
4.1096 0.9723 -1.1128 0.9031 25 14
4.9215 1.3755 -1.3465 0.5360 0 1
4.9017 1.5850 -1.3574 0.5238 0 1
4.8751 1.7959 -1.3690 0.5194 0 1
4.8444 2.0092 -1.3819 0.5145 0 1
4.8094 2.2254 -1.3964 0.5089 0 1
4.7701 2.4446 -1.4124 0.5031 0 1
4.7261 2.6672 -1.4299 0.4969 0 1
4.6771 2.8934 -1.4492 0.4903 0 1
4.6230 3.1237 -1.4702 0.4833 0 1
4.5634 3.3584 -1.4930 0.4759 0 1
4.4988 3.5983 -1.5180 0.4681 0 1
4.4281 3.8436 -1.5451 0.4599 0 1
4.3510 4.0947 -1.5743 0.4514 0 1
4.2662 4.3513 -1.6057 0.4553 0 1
4.1681 4.6080 -1.6372 0.4465 0 1
4.0622 4.8711 -1.6713 0.4374 0 1
3.9491 5.1425 -1.7085 0.4260 0 1
3.8292 5.4246 -1.7496 0.4160 0 1
3.6995 5.7155 -1.7940 0.4057 0 1
3.5594 6.0162 -1.8419 0.3951 0 1
3.4078 6.3274 -1.8937 0.3843 0 1
3.2409 6.6441 -1.9479 0.4026 0 1
3.0548 6.9596 -2.0027 0.3824 0 1
2.8533 7.2829 -2.0611 0.3715 0 1
2.6365 7.6179 -2.1241 0.3605 0 1
2.4029 7.9657 -2.1924 0.3493 0 1
2.1591 8.3593 -2.2750 0.3185 0 1
1.8965 8.7875 -2.3688 0.3059 0 1
1.6046 9.2179 -2.4654 0.3170 0 1
1.2846 9.6652 -2.5692 0.3019 0 1
0.9351 10.1441 -2.6843 0.2890 0 1
0.5495 10.6177 -2.8015 0.2766 0 1
0.1282 11.1448 -2.9368 0.2511 0 1
-0.3369 11.7315 -3.0925 0.2364 0 1
-0.8508 12.3248 -3.2553 0.2295 0 24
-1.4297 13.0484 -3.4588 0.2123 0 1
-2.0735 13.7804 -3.6720 0.1999 0 1
-2.8045 14.6173 -3.9219 0.1788 0 1
4.5693 -2.1006 -1.3849 0.5407 0 1
4.6117 -1.8994 -1.3735 0.5452 0 1
4.6500 -1.6999 -1.3634 0.5493 0 1
4.6844 -1.5019 -1.3547 0.5528 0 1
4.7150 -1.3052 -1.3473 0.5559 0 1
4.1539 -0.9719 -1.1748 0.6802 25 14
3.8584 -0.7406 -1.0820 0.7508 25 14
3.8418 -0.5783 -1.0699 0.8415 25 14
3.8349 -0.4205 -1.0624 0.8474 25 14
3.8286 -0.2646 -1.0569 0.8519 25 14
3.8228 -0.1101 -1.0532 0.8548 25 14
3.8201 0.0437 -1.0521 0.8558 25 14
3.8219 0.1975 -1.0539 0.8543 25 14
3.8243 0.3523 -1.0576 0.8513 25 14
3.8284 0.5085 -1.0635 0.8975 25 14
3.8352 0.6673 -1.0720 0.8904 25 14
3.8978 0.8409 -1.0981 0.6639 25 14
4.8302 1.2472 -1.3738 0.5474 0 1
4.8133 1.4516 -1.3845 0.5351 0 1
4.7884 1.6569 -1.3954 0.5310 0 1
4.7595 1.8643 -1.4077 0.5263 0 1
4.7262 2.0741 -1.4214 0.5213 0 1
4.6888 2.2867 -1.4366 0.5154 0 1
4.6468 2.5023 -1.4534 0.5094 0 1
4.6001 2.7211 -1.4718 0.5030 0 1
4.5483 2.9435 -1.4920 0.4963 0 1
4.4912 3.1698 -1.5138 0.4891 0 1
4.4290 3.4007 -1.5377 0.4815 0 1
4.3611 3.6364 -1.5637 0.4735 0 1
4.2871 3.8772 -1.5918 0.4652 0 1
4.2065 4.1236 -1.6222 0.4565 0 1
4.1177 4.3747 -1.6545 0.4604 0 1
4.0162 4.6262 -1.6871 0.4515 0 1
3.9068 4.8838 -1.7223 0.4423 0 1
3.7913 5.1510 -1.7613 0.4305 0 1
3.6674 5.4269 -1.8037 0.4204 0 1
3.5337 5.7111 -1.8495 0.4100 0 1
3.3893 6.0046 -1.8988 0.3994 0 1
3.2333 6.3080 -1.9520 0.3885 0 1
3.0626 6.6177 -2.0081 0.3973 0 1
2.8713 6.9215 -2.0636 0.3867 0 1
2.6659 7.2352 -2.1234 0.3758 0 1
2.4451 7.5598 -2.1881 0.3647 0 1
2.2075 7.8962 -2.2579 0.3534 0 1
1.9609 8.2856 -2.3448 0.3220 0 1
1.6927 8.6992 -2.4406 0.3093 0 1
1.3971 9.1224 -2.5415 0.3205 0 1
1.0722 9.5544 -2.6477 0.3053 0 1
0.7163 9.9957 -2.7597 0.2926 0 1
0.3274 10.4451 -2.8778 0.2806 0 1
-0.0972 10.9489 -3.0153 0.2548 0 1
-0.5652 11.5031 -3.1716 0.2402 0 1
-1.0797 12.0581 -3.3339 0.2330 0 24
-1.6505 12.6722 -3.5192 0.2182 0 24
-2.3002 13.4217 -3.7500 0.2040 0 1
-3.0204 14.1752 -3.9913 0.1805 0 1
-3.8367 15.0162 -4.2681 0.1720 0 1
-4.7381 15.8568 -4.5575 0.1635 0 24
-5.7907 16.8743 -4.9130 0.1535 0 1
-6.9564 17.8935 -5.2869 0.1450 0 1
-8.3090 19.0653 -5.7273 0.1237 0 1
-9.9654 20.5665 -6.2936 0.1166 0 1
-11.9359 22.3013 -6.9658 0.1038 0 1
-14.2333 24.2017 -7.7320 0.0985 0 1
-16.7526 26.0307 -8.5247 0.5819 0 2
-19.5127 27.7966 -9.3526 0.0757 0 2
-23.7325 31.0722 -10.7673 0.0657 0 25
-25.4616 30.6948 -10.9826 0.9402 0 21
-22.6153 25.1345 -9.3111 0.7160 0 5
-22.6875 23.2618 -8.9483 0.7040 0 5
-22.7938 21.5642 -8.6410 0.7401 0 5
-22.8927 19.9764 -8.3671 0.7919 0 5
-22.9920 18.4888 -8.1249 0.8365 0 5
-23.0293 17.0410 -7.8894 0.7712 0 5
-32.9672 22.4014 -10.9764 0.8368 0 3
-28.5778 17.7829 -9.2692 0.5151 0 3
-33.1066 18.7983 -10.4843 0.8761 0 3
-34.3988 17.7427 -10.6588 0.4480 0 3
-38.0294 17.7177 -11.5536 0.4133 0 3
-38.1062 15.9219 -11.3731 0.5512 0 3
-26.9652 7.6125 -7.7161 0.9892 0 22
-46.2539 9.1223 -12.9830 0.9967 0 22
-46.2789 7.2081 -12.8982 0.9894 0 22
-32.4248 -31.4635 -12.4422 0.6680 0 20
-29.5128 -31.0369 -11.7944 0.6939 0 20
-28.0105 -31.9352 -11.6981 0.6916 0 20
-25.1430 -31.1042 -11.0142 0.8854 0 9
-22.2858 -29.9573 -10.2823 0.0688 0 2
-18.3836 -26.9067 -8.9741 0.0789 0 2
-15.9362 -25.4653 -8.2728 0.0736 0 1
-13.0000 -22.7596 -7.2181 0.0971 0 1
-10.8741 -20.9510 -6.5005 0.1082 0 1
-9.0851 -19.3713 -5.8921 0.1170 0 1
-7.5780 -18.0075 -5.3802 0.1301 0 1
-6.3004 -16.8345 -4.9500 0.1455 0 1
-5.2088 -15.8290 -4.5890 0.1619 0 1
-4.2611 -14.9481 -4.2805 0.1771 0 1
-3.4274 -14.1598 -4.0120 0.1915 0 1
-2.6865 -13.4414 -3.7748 0.2031 0 1
-2.0261 -12.7941 -3.5672 0.2201 0 1
-1.4315 -12.1949 -3.3814 0.2261 0 1
-0.8886 -11.5725 -3.1963 0.2329 0 24
-0.4025 -11.0445 -3.0435 0.2449 0 1
0.0398 -10.5194 -2.8969 0.2564 0 1
0.4414 -10.0261 -2.7637 0.2707 0 1
0.8044 -9.5294 -2.6336 0.2805 0 24
1.1416 -9.1282 -2.5334 0.2953 0 1
1.4469 -8.7094 -2.4313 0.3078 0 1
1.7270 -8.3124 -2.3380 0.3215 0 1
1.9792 -7.9141 -2.2465 0.3364 0 24
2.2231 -7.5804 -2.1755 0.3490 0 1
2.4433 -7.2399 -2.1043 0.3608 0 1
2.6468 -6.9124 -2.0384 0.3716 0 1
2.8349 -6.5964 -1.9772 0.3830 0 1
3.0092 -6.2918 -1.9206 0.3943 0 1
3.1708 -5.9977 -1.8683 0.4054 0 1
3.3209 -5.7132 -1.8198 0.4162 0 1
3.4549 -5.4289 -1.7721 0.4060 0 1
3.5745 -5.1476 -1.7258 0.4169 0 1
3.6847 -4.8755 -1.6830 0.4275 0 1
3.7862 -4.6120 -1.6432 0.4378 0 1
3.8796 -4.3562 -1.6064 0.4479 0 1
3.9656 -4.1077 -1.5723 0.4576 0 1
4.0457 -3.8667 -1.5412 0.4858 0 1
4.1280 -3.6394 -1.5155 0.4940 0 1
4.2043 -3.4163 -1.4919 0.5018 0 1
4.2750 -3.1972 -1.4701 0.5093 0 1
4.3404 -2.9817 -1.4501 0.5163 0 1
4.4016 -2.7702 -1.4322 0.5228 0 1
4.4583 -2.5616 -1.4160 0.5288 0 1
4.5103 -2.3556 -1.4013 0.5344 0 1
4.5579 -2.1518 -1.3880 0.5395 0 1
4.6014 -1.9502 -1.3763 0.5442 0 1
4.6407 -1.7503 -1.3659 0.5483 0 1
4.6761 -1.5520 -1.3568 0.5520 0 1
4.7076 -1.3549 -1.3490 0.5551 0 1
4.1568 -1.0174 -1.1785 0.6781 25 14
3.8780 -0.7854 -1.0896 0.7456 25 14
3.8436 -0.6187 -1.0721 0.8397 25 14
3.8366 -0.4603 -1.0641 0.8461 25 14
3.8301 -0.3039 -1.0581 0.8509 25 14
3.8242 -0.1491 -1.0539 0.8542 25 14
3.8197 0.0047 -1.0519 0.8559 25 14
3.8214 0.1585 -1.0533 0.8548 25 14
3.8236 0.3129 -1.0565 0.8522 25 14
3.8267 0.4687 -1.0617 0.8990 25 14
3.8334 0.6268 -1.0697 0.8923 25 14
3.8764 0.7951 -1.0897 0.6689 25 14
4.1162 1.0183 -1.1677 0.8967 25 14
4.8189 1.3999 -1.3819 0.5361 0 1
4.7951 1.6047 -1.3925 0.5321 0 1
4.7672 1.8115 -1.4044 0.5275 0 1
4.7351 2.0207 -1.4177 0.5226 0 1
4.6987 2.2326 -1.4326 0.5168 0 1
4.6579 2.4474 -1.4490 0.5110 0 1
4.6124 2.6654 -1.4670 0.5047 0 1
4.5619 2.8868 -1.4867 0.4980 0 1
4.5062 3.1121 -1.5081 0.4909 0 1
4.4452 3.3417 -1.5315 0.4835 0 1
4.3789 3.5762 -1.5569 0.4756 0 1
4.3065 3.8157 -1.5845 0.4673 0 1
4.2275 4.0606 -1.6143 0.4587 0 1
4.1417 4.3114 -1.6464 0.4498 0 1
4.0426 4.5619 -1.6786 0.4538 0 1
3.9353 4.8179 -1.7131 0.4446 0 1
3.8212 5.0824 -1.7511 0.4331 0 1
3.6997 5.3562 -1.7927 0.4230 0 1
3.5685 5.6383 -1.8376 0.4127 0 1
3.4269 5.9293 -1.8859 0.4021 0 1
3.2740 6.2301 -1.9382 0.3913 0 1
3.1079 6.5397 -1.9940 0.3779 0 1
2.9211 6.8436 -2.0491 0.3894 0 1
2.7193 7.1547 -2.1078 0.3786 0 1
2.5026 7.4765 -2.1712 0.3675 0 1
2.2693 7.8098 -2.2397 0.3563 0 1
2.0252 8.1842 -2.3218 0.3252 0 1
1.7629 8.5923 -2.4155 0.3126 0 1
1.4751 9.0172 -2.5162 0.3237 0 1
1.1571 9.4419 -2.6196 0.3086 0 1
0.8098 9.8854 -2.7314 0.2956 0 1
0.4291 10.3290 -2.8469 0.2836 0 1
0.0142 10.8144 -2.9781 0.2580 0 1
-0.4421 11.3586 -3.1304 0.2454 0 1
-0.9443 11.9112 -3.2905 0.2370 0 24
-1.5075 12.5732 -3.4873 0.2194 0 1
-2.1309 13.2432 -3.6939 0.2071 0 1
-2.8282 13.9698 -3.9251 0.1949 0 1
-3.6208 14.7985 -4.1955 0.1749 0 1
-4.5111 15.6776 -4.4926 0.1679 0 1
-5.5152 16.6214 -4.8227 0.1564 0 1
-6.6465 17.6262 -5.1877 0.1478 0 1
-7.9035 18.6516 -5.5785 0.1289 0 24
-9.5204 20.1693 -6.1420 0.1153 0 1
-11.4007 21.8331 -6.7829 0.1066 0 1
-13.6148 23.6995 -7.5268 0.1012 0 1
-16.3385 25.9649 -8.4482 0.0981 0 2
-18.5979 27.0761 -9.0459 0.0782 0 2
-22.5594 30.1688 -10.3740 0.0682 0 2
-26.7520 32.9276 -11.6833 0.7900 0 3
-22.5721 25.6066 -9.4003 0.6980 0 5
-22.6620 23.7144 -9.0331 0.6974 0 5
-22.7813 21.9965 -8.7208 0.7166 0 5
-22.8929 20.3911 -8.4427 0.7187 0 5
-22.9605 18.8519 -8.1812 0.7863 0 5
-23.0368 17.4126 -7.9524 0.7392 0 5
-32.6135 22.6503 -10.9349 0.5556 0 3
-28.4447 18.1047 -9.2854 0.8520 0 3
-33.0908 19.2379 -10.5408 0.8714 0 3
-33.2427 17.5776 -10.3556 0.6214 0 3
-37.1219 17.7575 -11.3323 0.9062 0 3
-41.1678 17.6960 -12.3400 0.3869 0 3
-26.9064 9.0825 -7.8204 0.9420 0 22
-26.9301 7.8997 -7.7287 0.9541 0 22
-46.2613 9.6146 -13.0120 0.9725 0 22
-46.2833 7.6927 -12.9207 0.9908 0 22
-33.1034 -31.4734 -12.5789 0.6608 0 20
-30.1242 -31.0402 -11.9117 0.6870 0 20
-28.0520 -31.3326 -11.5815 0.6986 0 20
-26.1491 -31.6830 -11.3129 0.8499 0 9
-22.9160 -30.1578 -10.4307 0.7143 0 9
-19.2852 -27.6179 -9.2763 0.0763 0 2
-16.5716 -25.8902 -8.4653 0.6199 0 2
-13.6468 -23.3366 -7.4448 0.0823 0 1
-11.3489 -21.3313 -6.6540 0.1069 0 24
-9.5129 -19.7572 -6.0387 0.1142 0 1
-7.9387 -18.3397 -5.5034 0.1289 0 1
-6.6047 -17.1143 -5.0518 0.1452 0 1
-5.4705 -16.0709 -4.6751 0.1589 0 1
-4.4892 -15.1606 -4.3542 0.1741 0 1
-3.6287 -14.3503 -4.0763 0.1863 0 1
-2.8665 -13.6181 -3.8324 0.2000 0 1
-2.1866 -12.9518 -3.6172 0.2171 0 1
-1.5768 -12.3456 -3.4274 0.2291 0 1
-1.0229 -11.7517 -3.2485 0.2294 0 1
-0.5217 -11.1826 -3.0829 0.2418 0 1
-0.0681 -10.6301 -2.9275 0.2514 0 24
0.3432 -10.1480 -2.7962 0.2656 0 1
0.7177 -9.6790 -2.6728 0.2799 0 1
1.0597 -9.2365 -2.5603 0.2922 0 1
1.3721 -8.8134 -2.4563 0.3047 0 1
1.6582 -8.4108 -2.3608 0.3170 0 1
1.9157 -8.0060 -2.2670 0.3334 0 24
2.1644 -7.6690 -2.1944 0.3460 0 1
2.3891 -7.3249 -2.1218 0.3579 0 1
2.5969 -6.9944 -2.0546 0.3686 0 1
2.7886 -6.6753 -1.9922 0.3802 0 1
2.9662 -6.3680 -1.9346 0.3915 0 1
3.1310 -6.0713 -1.8812 0.4026 0 1
3.2839 -5.7844 -1.8318 0.4135 0 1
3.4231 -5.5019 -1.7845 0.4092 0 1
3.5451 -5.2180 -1.7372 0.4141 0 1
3.6576 -4.9437 -1.6935 0.4248 0 1
3.7612 -4.6780 -1.6530 0.4352 0 1
3.8567 -4.4203 -1.6155 0.4453 0 1
3.9445 -4.1700 -1.5807 0.4551 0 1
4.0252 -3.9264 -1.5485 0.4646 0 1
4.1078 -3.6966 -1.5218 0.4920 0 1
4.1855 -3.4724 -1.4977 0.4999 0 1
4.2576 -3.2524 -1.4754 0.5074 0 1
4.3243 -3.0360 -1.4550 0.5145 0 1
4.3865 -2.8235 -1.4366 0.5212 0 1
4.4443 -2.6142 -1.4199 0.5273 0 1
4.4975 -2.4075 -1.4048 0.5330 0 1
4.5463 -2.2033 -1.3913 0.5383 0 1
4.5908 -2.0011 -1.3791 0.5430 0 1
4.6311 -1.8008 -1.3684 0.5473 0 1
4.6675 -1.6021 -1.3590 0.5511 0 1
4.7000 -1.4047 -1.3509 0.5544 0 1
4.1599 -1.0632 -1.1824 0.6758 25 14
3.8978 -0.8308 -1.0975 0.7402 25 14
3.8455 -0.6593 -1.0745 0.8379 25 14
3.8383 -0.5002 -1.0660 0.8446 25 14
3.8317 -0.3434 -1.0594 0.8498 25 14
3.8257 -0.1882 -1.0548 0.8535 25 14
3.8202 -0.0342 -1.0521 0.8557 25 14
3.8209 0.1195 -1.0527 0.8552 25 14
3.8230 0.2737 -1.0555 0.8530 25 14
3.8256 0.4290 -1.0601 0.8492 25 14
3.8317 0.5865 -1.0675 0.8942 25 14
3.8554 0.7499 -1.0816 0.6740 25 14
4.1162 0.9738 -1.1648 0.8990 25 14
4.8238 1.3482 -1.3793 0.5452 0 1
4.8015 1.5526 -1.3897 0.5331 0 1
4.7747 1.7589 -1.4013 0.5287 0 1
4.7436 1.9675 -1.4142 0.5239 0 1
4.7083 2.1786 -1.4287 0.5182 0 1
4.6687 2.3926 -1.4447 0.5125 0 1
4.6244 2.6098 -1.4623 0.5063 0 1
4.5752 2.8304 -1.4815 0.4998 0 1
4.5208 3.0546 -1.5025 0.4928 0 1
4.4611 3.2830 -1.5253 0.4854 0 1
4.3963 3.5163 -1.5503 0.4776 0 1
4.3254 3.7545 -1.5773 0.4694 0 1
4.2482 3.9980 -1.6065 0.4609 0 1
4.1641 4.2472 -1.6380 0.4521 0 1
4.0686 4.4980 -1.6702 0.4560 0 1
3.9632 4.7525 -1.7041 0.4470 0 1
3.8506 5.0142 -1.7410 0.4356 0 1
3.7314 5.2860 -1.7818 0.4256 0 1
3.6027 5.5660 -1.8259 0.4153 0 1
3.4638 5.8546 -1.8733 0.4048 0 1
3.3138 6.1529 -1.9245 0.3940 0 1
3.1514 6.4606 -1.9795 0.3803 0 1
2.9700 6.7663 -2.0349 0.3921 0 1
2.7718 7.0749 -2.0925 0.3813 0 1
2.5590 7.3939 -2.1547 0.3703 0 1
2.3301 7.7242 -2.2218 0.3591 0 1
2.0881 8.0842 -2.2993 0.3283 0 1
1.8316 8.4868 -2.3910 0.3158 0 1
1.5513 8.9117 -2.4911 0.3031 0 1
1.2402 9.3310 -2.5922 0.3142 0 1
0.9012 9.7765 -2.7037 0.2986 0 1
0.5287 10.2144 -2.8167 0.2867 0 1
0.1228 10.6821 -2.9419 0.2612 0 1
-0.3222 11.2172 -3.0903 0.2486 0 1
-0.8123 11.7672 -3.2482 0.2401 0 24
-1.3599 12.4115 -3.4384 0.2225 0 1
-1.9556 12.9971 -3.6195 0.2106 0 24
-2.6438 13.7798 -3.8640 0.1980 0 1
4.4790 -2.0590 -1.4165 0.5499 0 1
4.5213 -1.8621 -1.4050 0.5544 0 1
4.5595 -1.6668 -1.3950 0.5584 0 1
4.5938 -1.4728 -1.3862 0.5620 0 1
4.6242 -1.2801 -1.3787 0.5650 0 1
4.1891 -0.9801 -1.2362 0.6724 25 14
3.8762 -0.7440 -1.1341 0.7339 25 14
3.8644 -0.5817 -1.1229 0.7500 25 14
3.8550 -0.4227 -1.1144 0.7558 25 14
3.8467 -0.2658 -1.1080 0.7602 25 14
3.8395 -0.1105 -1.1037 0.7631 25 14
3.8357 0.0438 -1.1022 0.7641 25 14
3.8372 0.1983 -1.1041 0.7629 25 14
3.8395 0.3537 -1.1079 0.7602 25 14
3.8429 0.5105 -1.1139 0.7561 25 14
3.8471 0.6694 -1.1221 0.7506 25 14
3.9102 0.8436 -1.1494 0.7352 25 14
4.7359 1.2229 -1.4055 0.5566 0 1
4.7167 1.4225 -1.4156 0.5444 0 1
4.6916 1.6234 -1.4265 0.5402 0 1
4.6624 1.8263 -1.4388 0.5356 0 1
4.6289 2.0314 -1.4525 0.5306 0 1
4.5912 2.2391 -1.4678 0.5247 0 1
4.5490 2.4496 -1.4846 0.5188 0 1
4.5020 2.6631 -1.5030 0.5124 0 1
4.4500 2.8799 -1.5231 0.5056 0 1
4.3928 3.1004 -1.5450 0.4985 0 1
4.3304 3.3250 -1.5688 0.4909 0 1
4.2625 3.5542 -1.5947 0.4830 0 1
4.1885 3.7880 -1.6227 0.4746 0 1
4.1079 4.0269 -1.6529 0.4660 0 1
4.0204 4.2713 -1.6855 0.4570 0 1
3.9210 4.5166 -1.7187 0.4610 0 1
3.8124 4.7657 -1.7537 0.4518 0 1
3.6974 5.0234 -1.7923 0.4401 0 1
3.5744 5.2893 -1.8344 0.4300 0 1
3.4419 5.5628 -1.8797 0.4196 0 1
3.2989 5.8445 -1.9285 0.4090 0 1
3.1442 6.1341 -1.9807 0.3954 0 1
2.9765 6.4315 -2.0364 0.3849 0 1
2.7922 6.7308 -2.0939 0.3964 0 1
2.5903 7.0303 -2.1529 0.3855 0 1
2.3738 7.3393 -2.2165 0.3745 0 1
2.1411 7.6588 -2.2851 0.3632 0 1
1.8969 8.0150 -2.3667 0.3318 0 1
1.6352 8.4039 -2.4601 0.3192 0 1
1.3497 8.8134 -2.5620 0.3065 0 1
1.0354 9.2265 -2.6678 0.3152 0 1
0.6905 9.6349 -2.7757 0.3026 0 1
0.3151 10.0526 -2.8900 0.2906 0 1
-0.0932 10.4994 -3.0171 0.2649 0 1
-0.5408 11.0069 -3.1666 0.2524 0 1
-1.0314 11.5184 -3.3230 0.2443 0 24
-1.5793 12.1254 -3.5136 0.2265 0 1
-2.1832 12.7393 -3.7139 0.2143 0 1
-2.8554 13.4005 -3.9370 0.2021 0 1
-3.6070 14.1174 -4.1869 0.1823 0 1
-4.4555 14.9109 -4.4718 0.1707 0 1
-5.4042 15.7480 -4.7841 0.1640 0 1
-6.4665 16.6333 -5.1280 0.1555 0 1
-7.6145 17.4719 -5.4765 0.1377 0 24
-9.0757 18.7303 -5.9806 0.1206 0 1
-10.7888 20.1579 -6.5697 0.1052 0 1
-12.8018 21.7677 -7.2564 0.1072 0 1
-15.0479 23.3818 -7.9898 0.1101 0 1
-17.0494 24.2875 -8.5268 0.0863 0 2
-20.3479 26.6409 -9.6326 0.0764 0 2
-24.4813 29.5130 -11.0183 0.0668 0 25
-22.4890 24.9942 -9.6612 0.6998 0 5
-22.5783 23.1498 -9.2919 0.7448 0 5
-22.6833 21.4596 -8.9726 0.7413 0 5
-22.8084 19.9028 -8.6983 0.7176 0 5
-22.8619 18.3842 -8.4298 0.7273 0 5
-22.9313 16.9685 -8.1970 0.8327 0 5
-32.8235 22.3038 -11.4031 0.8378 0 3
-26.8002 16.6767 -9.0701 0.8580 0 3
-32.9687 18.7200 -10.8940 0.8770 0 3
-37.8959 19.5465 -12.2524 0.8947 0 3
-38.0271 17.7166 -12.0546 0.4120 0 3
-42.3301 17.6867 -13.1824 0.3768 0 3
-42.7895 15.8900 -13.1158 0.8056 0 3
-26.8326 7.5750 -8.0116 0.9597 0 22
-46.1244 9.0968 -13.5089 0.9791 0 22
-46.0896 7.1786 -13.4033 0.9928 0 22
-30.9373 -25.5300 -11.5257 0.1344 0 20
-35.1515 -31.4666 -13.5564 0.6377 0 20
-32.0039 -31.0550 -12.8140 0.6643 0 20
-29.5169 -31.0412 -12.3083 0.6916 0 20
-25.2648 -28.8047 -11.0096 0.2820 0 9
-22.7450 -28.1377 -10.3964 0.6043 0 9
-19.2310 -25.8510 -9.2582 0.0795 0 2
-16.7128 -24.4612 -8.5127 0.7619 0 2
-13.8322 -22.1033 -7.4924 0.0973 0 1
-11.6819 -20.4520 -6.7679 0.1075 0 1
-9.8757 -19.0273 -6.1600 0.1183 0 1
-8.3291 -17.7593 -5.6364 0.1309 0 1
-7.0043 -16.6443 -5.1889 0.1444 0 1
-5.8685 -15.6804 -4.8109 0.1608 0 1
-4.8818 -14.8353 -4.4877 0.1757 0 1
-4.0134 -14.0792 -4.2067 0.1877 0 1
-3.2419 -13.3934 -3.9596 0.2014 0 1
-2.5507 -12.7617 -3.7395 0.2184 0 1
-1.9226 -12.1406 -3.5320 0.2238 0 24
-1.3595 -11.5816 -3.3508 0.2322 0 24
-0.8510 -11.0828 -3.1940 0.2427 0 1
-0.3853 -10.5719 -3.0398 0.2541 0 1
0.0382 -10.0893 -2.8991 0.2665 0 1
0.4243 -9.6371 -2.7719 0.2807 0 1
0.7773 -9.2090 -2.6556 0.2930 0 1
1.1009 -8.8025 -2.5490 0.3053 0 1
1.3974 -8.4114 -2.4501 0.3178 0 1
1.6703 -8.0396 -2.3595 0.3314 0 1
1.9169 -7.6652 -2.2704 0.3462 0 24
2.1557 -7.3506 -2.2011 0.3588 0 1
2.3716 -7.0274 -2.1312 0.3706 0 1
2.5714 -6.7153 -2.0662 0.3813 0 1
2.7564 -6.4137 -2.0059 0.3927 0 1
2.9282 -6.1224 -1.9501 0.4040 0 1
3.0877 -5.8405 -1.8984 0.4150 0 1
3.2361 -5.5672 -1.8503 0.4255 0 1
3.3658 -5.2888 -1.8014 0.4217 0 1
3.4834 -5.0165 -1.7549 0.4264 0 1
3.5931 -4.7543 -1.7124 0.4370 0 1
3.6942 -4.5000 -1.6730 0.4473 0 1
3.7875 -4.2527 -1.6364 0.4573 0 1
3.8734 -4.0121 -1.6024 0.4670 0 1
