ply
format ascii 1.0
element vertex 1370
property float32 x
property float32 y
property float32 z
property float32 CosAngle
property uint32 ObjIdx
property uint32 ObjTag
end_header
-9.3658 24.9813 -6.0894 0.1034 0 1
-11.6682 27.6859 -6.8574 0.0893 0 1
-14.5591 31.0041 -7.8179 0.0876 0 1
-15.5836 29.9929 -7.7146 0.4844 0 15
-15.7475 27.5451 -7.2419 0.5246 0 15
-16.3125 26.0471 -7.0147 0.8655 0 15
-28.0987 37.7521 -10.7414 0.6174 0 3
-30.4538 37.6591 -11.0542 0.7624 0 3
-26.7384 30.4758 -9.2536 0.5579 0 3
-31.0617 32.6593 -10.2873 0.7112 0 3
-28.4528 27.6064 -9.0486 0.5283 0 3
-30.9043 27.6644 -9.4670 0.6553 0 3
-28.7481 23.7256 -8.5076 0.7795 0 3
-28.8153 21.8968 -8.2604 0.8027 0 3
-28.8771 20.1676 -8.0393 0.8248 0 3
-28.9320 18.5233 -7.8410 0.8457 0 3
-30.3828 17.7740 -8.0341 0.4981 0 3
-31.2534 16.6363 -8.0811 0.0648 0 3
-33.6406 16.2084 -8.5230 0.4591 0 3
-38.7145 16.7726 -9.6300 0.2074 0 3
-27.3071 9.3076 -6.5848 0.9550 0 22
-27.3388 8.1087 -6.5086 0.9656 0 22
-30.9842 -15.9255 -7.9514 0.8178 0 22
-30.8972 -17.4835 -8.1028 0.9426 0 22
-32.5528 -33.2560 -10.6217 0.9592 0 20
-30.8718 -34.1827 -10.5129 0.9706 0 20
-23.0345 -38.9795 -10.3341 0.7025 0 9
-19.1860 -35.6632 -9.2431 0.0642 0 2
-15.7817 -32.3889 -8.2234 0.0675 0 1
-12.3642 -28.1973 -7.0274 0.0812 0 1
-9.8385 -25.1364 -6.1610 0.0897 0 24
-7.8279 -22.6382 -5.4672 0.1041 0 1
-6.2018 -20.5762 -4.9051 0.1195 0 1
-4.8788 -18.9031 -4.4559 0.1376 0 1
-3.7853 -17.5513 -4.0981 0.1553 0 1
-2.8527 -16.3964 -3.7986 0.1672 0 1
-2.0424 -15.3721 -3.5394 0.1802 0 1
-1.3327 -14.4562 -3.3135 0.1939 0 1
-0.7069 -13.6430 -3.1181 0.2100 0 1
-0.1496 -12.8938 -2.9431 0.2217 0 1
0.3486 -12.2002 -2.7858 0.2242 0 1
0.7918 -11.5024 -2.6316 0.2351 0 24
1.1934 -10.9165 -2.5065 0.2485 0 1
1.5520 -10.3349 -2.3853 0.2634 0 1
1.8712 -9.7707 -2.2706 0.2740 0 24
2.1713 -9.2994 -2.1796 0.2878 0 1
2.4396 -8.8305 -2.0910 0.3013 0 1
2.6850 -8.3905 -2.0107 0.3133 0 1
2.9096 -7.9741 -1.9374 0.3252 0 1
3.1163 -7.5804 -1.8707 0.3402 0 1
3.3064 -7.2057 -1.8095 0.3508 0 1
3.4822 -6.8490 -1.7537 0.3588 0 1
3.6455 -6.5093 -1.7028 0.3695 0 1
3.7965 -6.1827 -1.6560 0.3800 0 1
3.9308 -5.8600 -1.6106 0.3804 0 1
4.0468 -5.5385 -1.5656 0.3950 0 1
4.1550 -5.2319 -1.5249 0.4055 0 1
4.2544 -4.9363 -1.4874 0.4158 0 1
4.3429 -4.6477 -1.4518 0.4153 0 1
4.4236 -4.3684 -1.4190 0.4249 0 1
4.4974 -4.0979 -1.3887 0.4342 0 1
4.5673 -3.8376 -1.3616 0.4608 0 1
4.6405 -3.5913 -1.3393 0.4685 0 1
4.7080 -3.3502 -1.3189 0.4758 0 1
4.7712 -3.1144 -1.3005 0.4826 0 1
4.8299 -2.8830 -1.2838 0.4888 0 1
4.8838 -2.6553 -1.2688 0.4946 0 1
4.9333 -2.4308 -1.2553 0.4999 0 1
4.9785 -2.2092 -1.2432 0.5049 0 1
5.0195 -1.9903 -1.2325 0.5093 0 1
5.0566 -1.7735 -1.2231 0.5132 0 1
5.0899 -1.5587 -1.2150 0.5166 0 1
5.1194 -1.3454 -1.2081 0.5195 0 1
3.8731 -0.8532 -0.9052 0.6383 25 14
3.8295 -0.6837 -0.8879 0.9666 25 14
3.8258 -0.5255 -0.8814 0.9819 25 14
3.8206 -0.3692 -0.8761 0.9879 25 14
3.8153 -0.2146 -0.8722 0.9923 25 14
3.8098 -0.0610 -0.8697 0.9952 25 14
3.8115 0.0921 -0.8702 0.9945 25 14
3.8170 0.2458 -0.8730 0.9913 25 14
3.8223 0.4008 -0.8772 0.9866 25 14
3.8256 0.5572 -0.8824 0.9726 25 14
3.8265 0.7153 -0.8885 0.9659 25 14
3.9143 0.8958 -0.9165 0.6305 25 14
5.2383 1.4223 -1.2389 0.5088 0 1
5.2257 1.6469 -1.2505 0.5040 0 1
5.2046 1.8731 -1.2625 0.4918 0 1
5.1758 2.1011 -1.2750 0.4867 0 1
5.1432 2.3326 -1.2890 0.4814 0 1
5.1061 2.5677 -1.3045 0.4757 0 1
5.0643 2.8070 -1.3216 0.4695 0 1
5.0177 3.0507 -1.3403 0.4630 0 1
4.9659 3.2994 -1.3608 0.4560 0 1
4.9087 3.5535 -1.3831 0.4486 0 1
4.8461 3.8140 -1.4076 0.4409 0 1
4.7778 4.0813 -1.4342 0.4327 0 1
4.7015 4.3545 -1.4626 0.4365 0 1
4.6117 4.6289 -1.4914 0.4281 0 1
4.5145 4.9109 -1.5225 0.4193 0 1
4.4093 5.2010 -1.5563 0.4102 0 1
4.2969 5.5019 -1.5934 0.3989 0 1
4.1775 5.8161 -1.6344 0.3889 0 1
4.0479 6.1419 -1.6789 0.3786 0 1
3.9072 6.4805 -1.7272 0.3680 0 1
3.7386 6.8047 -1.7721 0.3967 0 1
3.5596 7.1445 -1.8219 0.3760 0 1
3.3727 7.5108 -1.8792 0.3645 0 1
3.1704 7.8940 -1.9416 0.3528 0 1
2.9471 8.2855 -2.0072 0.3332 0 1
2.7090 8.7088 -2.0817 0.3040 0 1
2.4520 9.1654 -2.1655 0.3152 0 1
2.1681 9.6392 -2.2551 0.3027 0 1
1.8572 10.1437 -2.3537 0.2878 0 1
-23.0787 23.4237 -7.8897 0.6772 0 5
-23.1475 21.6792 -7.6093 0.6824 0 5
-32.0140 27.6559 -10.1504 0.6409 0 3
-28.4794 22.6709 -8.7338 0.8954 0 3
-30.9443 22.6646 -9.2030 0.5801 0 3
-28.7771 19.3513 -8.3205 0.8356 0 3
-28.8862 17.7833 -8.1388 0.5156 0 3
-31.6346 17.7645 -8.7050 0.4820 0 3
-34.7993 17.7429 -9.3721 0.4477 0 3
-38.4958 17.7176 -10.1677 0.4127 0 3
-42.8857 17.6875 -11.1305 0.3770 0 3
-27.2079 9.9630 -6.9520 0.9461 0 22
-27.2208 7.5538 -6.7780 0.9481 0 22
-30.8316 -16.5412 -8.3949 0.8908 0 22
-30.7268 -18.1102 -8.5576 0.8997 0 22
-25.1000 -17.6519 -7.3624 0.9226 15 6
-33.4481 -32.6659 -11.2175 0.9523 0 20
-31.7360 -33.5873 -11.0871 0.9021 0 20
-30.2877 -34.7495 -11.0600 0.3961 0 20
-28.0837 -37.9903 -11.3352 0.6269 0 20
-22.8657 -36.7774 -10.3905 0.6326 0 9
-18.6208 -32.8194 -9.0536 0.0687 0 2
-15.5371 -30.1437 -8.1367 0.0718 0 1
-12.3384 -26.4998 -7.0136 0.0854 0 1
-9.9767 -23.8902 -6.2118 0.0986 0 1
-8.0225 -21.6127 -5.5313 0.1110 0 1
-6.4498 -19.7760 -4.9909 0.1231 0 1
-5.1557 -18.2658 -4.5538 0.1412 0 1
-4.0758 -17.0279 -4.2010 0.1588 0 1
-3.1464 -15.9495 -3.9005 0.1707 0 1
-2.3369 -14.9941 -3.6410 0.1836 0 1
-1.6250 -14.1372 -3.4143 0.1973 0 1
-0.9958 -13.3806 -3.2193 0.2133 0 1
-0.4324 -12.6700 -3.0417 0.2249 0 1
0.0725 -12.0007 -2.8794 0.2275 0 1
0.5256 -11.3662 -2.7300 0.2390 0 1
0.9331 -10.7759 -2.5952 0.2515 0 1
1.3004 -10.2218 -2.4723 0.2642 0 1
1.6331 -9.7059 -2.3615 0.2785 0 1
1.9292 -9.1927 -2.2537 0.2892 0 24
2.2109 -8.7674 -2.1694 0.3045 0 1
2.4635 -8.3407 -2.0867 0.3166 0 1
2.6949 -7.9361 -2.0109 0.3285 0 1
2.9082 -7.5534 -1.9420 0.3436 0 1
3.1046 -7.1887 -1.8788 0.3542 0 1
3.2855 -6.8390 -1.8204 0.3656 0 1
3.4528 -6.5045 -1.7669 0.3734 0 1
3.6090 -6.1854 -1.7182 0.3839 0 1
3.7536 -5.8776 -1.6733 0.3839 0 1
3.8750 -5.5620 -1.6264 0.3987 0 1
3.9883 -5.2609 -1.5840 0.4094 0 1
4.0913 -4.9690 -1.5443 0.4094 0 1
4.1844 -4.6852 -1.5072 0.4195 0 1
4.2696 -4.4106 -1.4729 0.4292 0 1
4.3477 -4.1445 -1.4412 0.4387 0 1
4.4194 -3.8864 -1.4120 0.4659 0 1
4.4958 -3.6442 -1.3886 0.4738 0 1
4.5666 -3.4070 -1.3670 0.4813 0 1
4.6318 -3.1744 -1.3473 0.4883 0 1
4.6933 -2.9468 -1.3296 0.4949 0 1
4.7500 -2.7228 -1.3136 0.5009 0 1
4.8020 -2.5020 -1.2992 0.5065 0 1
4.8495 -2.2841 -1.2862 0.5116 0 1
4.8930 -2.0687 -1.2746 0.5163 0 1
4.9323 -1.8556 -1.2644 0.5205 0 1
4.9677 -1.6445 -1.2555 0.5242 0 1
4.9993 -1.4349 -1.2479 0.5274 0 1
4.1110 -1.0032 -1.0153 0.9063 25 14
3.8285 -0.7728 -0.9371 0.8951 25 14
3.8224 -0.6130 -0.9288 0.9769 25 14
3.8173 -0.4559 -0.9224 0.9838 25 14
3.8121 -0.3006 -0.9175 0.9890 25 14
3.8067 -0.1467 -0.9140 0.9928 25 14
3.8024 0.0062 -0.9123 0.9946 25 14
3.8079 0.1593 -0.9144 0.9923 25 14
3.8133 0.3132 -0.9180 0.9885 25 14
3.8185 0.4687 -0.9230 0.9831 25 14
3.8235 0.6260 -0.9296 0.9761 25 14
3.8319 0.7866 -0.9386 0.6455 25 14
4.1037 1.0156 -1.0143 0.9713 25 14
5.1243 1.4889 -1.2803 0.5162 0 1
5.1070 1.7091 -1.2921 0.5039 0 1
5.0801 1.9302 -1.3039 0.4993 0 1
5.0491 2.1542 -1.3171 0.4940 0 1
5.0140 2.3816 -1.3318 0.4885 0 1
4.9744 2.6125 -1.3481 0.4826 0 1
4.9300 2.8474 -1.3660 0.4763 0 1
4.8806 3.0867 -1.3855 0.4696 0 1
4.8260 3.3307 -1.4069 0.4625 0 1
4.7659 3.5800 -1.4302 0.4550 0 1
4.7005 3.8356 -1.4556 0.4470 0 1
4.6290 4.0976 -1.4833 0.4387 0 1
4.5492 4.3650 -1.5127 0.4425 0 1
4.4562 4.6336 -1.5425 0.4339 0 1
4.3558 4.9093 -1.5747 0.4251 0 1
4.2472 5.1928 -1.6096 0.4159 0 1
4.1325 5.4882 -1.6484 0.4043 0 1
4.0091 5.7948 -1.6907 0.3941 0 1
3.8755 6.1124 -1.7365 0.3837 0 1
3.7306 6.4421 -1.7861 0.3731 0 1
3.5615 6.7625 -1.8338 0.4019 0 1
3.3815 7.0981 -1.8864 0.3807 0 1
3.1905 7.4544 -1.9455 0.3691 0 1
2.9803 7.8168 -2.0072 0.3493 0 1
2.7516 8.1910 -2.0732 0.3382 0 1
2.5115 8.6067 -2.1511 0.3084 0 1
2.2523 9.0563 -2.2391 0.3196 0 1
1.9640 9.5130 -2.3306 0.3071 0 1
1.6489 9.9990 -2.4315 0.2921 0 1
1.3038 10.5229 -2.5441 0.2792 0 1
0.9205 11.0509 -2.6606 0.2708 0 24
0.5020 11.6839 -2.8059 0.2385 0 1
0.0342 12.3034 -2.9520 0.2377 0 24
-0.4889 13.0705 -3.1382 0.2133 0 1
-1.0770 13.8605 -3.3356 0.2052 0 1
-1.7458 14.7628 -3.5667 0.1775 0 1
-2.5094 15.7625 -3.8296 0.1676 0 1
-3.3842 16.8643 -4.1270 0.1579 0 1
-4.3844 18.0566 -4.4582 0.1487 0 1
-5.5403 19.3860 -4.8375 0.1360 0 1
-6.8852 20.8794 -5.2750 0.1279 0 1
-8.4797 22.6176 -5.7956 0.1111 0 1
-10.4472 24.7888 -6.4543 0.1008 0 1
-12.8705 27.4080 -7.2650 0.0927 0 1
-15.7799 30.3706 -8.2118 0.0830 0 1
-15.6767 27.4212 -7.5785 0.6223 0 15
-16.3069 26.0381 -7.3714 0.8410 0 15
-23.5003 34.3740 -9.9906 0.7836 0 21
-27.9348 37.5319 -11.2256 0.6194 0 3
-26.3924 32.6368 -10.0706 0.7847 0 3
-22.9240 26.1283 -8.3398 0.6787 0 5
-23.0400 24.2250 -8.0214 0.5946 0 5
-23.1344 22.4463 -7.7340 0.6572 0 5
-30.9032 27.6634 -9.9515 0.6537 0 3
-28.6151 23.6158 -8.9019 0.7811 0 3
-28.6859 21.7985 -8.6444 0.8043 0 3
-32.4380 22.6544 -9.4931 0.5623 0 3
-28.8086 18.4443 -8.2074 0.8471 0 3
-30.3813 17.7731 -8.4452 0.4969 0 3
-33.3510 17.7528 -9.0650 0.4629 0 3
-34.1220 16.4403 -9.0877 0.9019 0 3
-36.9809 16.0215 -9.6698 0.2701 0 3
-43.4325 16.7791 -11.1715 0.8443 0 3
-27.2363 9.2835 -6.9041 0.9826 0 22
-27.2369 8.0785 -6.8164 0.9667 0 22
-23.6867 -4.6446 -5.7914 0.7144 16 6
-30.8590 -15.8611 -8.3248 0.8190 0 22
-30.7914 -17.4236 -8.4886 0.8981 0 22
-32.4901 -33.1920 -11.1441 0.9600 0 20
-30.6696 -33.9587 -10.9789 0.9130 0 20
-31.0391 -37.2737 -11.6380 0.3764 0 20
-28.5445 -37.2212 -11.2544 0.6410 0 20
-23.0178 -35.6050 -10.1725 0.6271 0 9
-20.6136 -34.8828 -9.7216 0.0640 0 2
-16.5748 -30.8094 -8.3940 0.5193 0 2
-13.6006 -27.9126 -7.4498 0.0804 0 1
-10.9414 -24.9525 -6.5372 0.0958 0 24
-8.8293 -22.5581 -5.8122 0.1019 0 1
-7.1037 -20.5438 -5.2155 0.1174 0 1
-5.6917 -18.8837 -4.7321 0.1362 0 1
-4.5276 -17.5423 -4.3469 0.1535 0 1
-3.5378 -16.4036 -4.0263 0.1655 0 1
-2.6794 -15.4003 -3.7505 0.1775 0 1
-1.9269 -14.5023 -3.5101 0.1919 0 1
-1.2636 -13.7068 -3.3027 0.2089 0 1
-0.6711 -12.9518 -3.1117 0.2196 0 24
-0.1426 -12.2949 -2.9501 0.2319 0 1
0.3325 -11.6395 -2.7938 0.2344 0 1
0.7592 -11.0299 -2.6527 0.2460 0 1
1.1438 -10.4630 -2.5254 0.2586 0 1
1.4909 -9.9284 -2.4088 0.2730 0 1
1.8002 -9.4003 -2.2964 0.2838 0 24
2.0929 -8.9636 -2.2085 0.2978 0 1
2.3553 -8.5253 -2.1221 0.3113 0 1
2.5957 -8.1113 -2.0434 0.3233 0 1
2.8164 -7.7186 -1.9714 0.3385 0 1
3.0204 -7.3472 -1.9060 0.3492 0 1
3.2078 -6.9908 -1.8455 0.3606 0 1
3.3807 -6.6494 -1.7898 0.3719 0 1
3.5419 -6.3242 -1.7391 0.3793 0 1
3.6914 -6.0116 -1.6926 0.3898 0 1
3.8229 -5.6990 -1.6465 0.3902 0 1
3.9397 -5.3918 -1.6022 0.4047 0 1
4.0478 -5.0968 -1.5616 0.4152 0 1
4.1445 -4.8087 -1.5231 0.4151 0 1
4.2331 -4.5302 -1.4876 0.4250 0 1
4.3142 -4.2604 -1.4548 0.4346 0 1
4.3885 -3.9987 -1.4245 0.4438 0 1
4.4630 -3.7499 -1.3986 0.4704 0 1
4.5362 -3.5106 -1.3762 0.4780 0 1
4.6038 -3.2761 -1.3557 0.4853 0 1
4.6669 -3.0463 -1.3372 0.4921 0 1
4.7257 -2.8208 -1.3205 0.4983 0 1
4.7797 -2.5986 -1.3053 0.5041 0 1
4.8292 -2.3795 -1.2917 0.5094 0 1
4.8744 -2.1630 -1.2795 0.5143 0 1
4.9155 -1.9490 -1.2687 0.5187 0 1
4.9526 -1.7370 -1.2593 0.5226 0 1
4.9858 -1.5268 -1.2511 0.5260 0 1
5.0153 -1.3181 -1.2442 0.5289 0 1
3.8755 -0.8538 -0.9522 0.6001 25 14
3.8246 -0.6828 -0.9321 0.9735 25 14
3.8196 -0.5247 -0.9250 0.9810 25 14
3.8144 -0.3686 -0.9195 0.9869 25 14
3.8091 -0.2142 -0.9154 0.9913 25 14
3.8036 -0.0609 -0.9127 0.9942 25 14
3.8055 0.0919 -0.9133 0.9935 25 14
3.8109 0.2454 -0.9163 0.9904 25 14
3.8162 0.4002 -0.9206 0.9856 25 14
3.8213 0.5566 -0.9265 0.9794 25 14
3.8245 0.7149 -0.9335 0.9639 25 14
3.9183 0.8967 -0.9644 0.5925 25 14
5.1297 1.3928 -1.2753 0.5182 0 1
5.1163 1.6124 -1.2871 0.5135 0 1
5.0924 1.8327 -1.2986 0.5014 0 1
5.0632 2.0554 -1.3111 0.4966 0 1
5.0300 2.2813 -1.3252 0.4910 0 1
4.9924 2.5106 -1.3408 0.4853 0 1
4.9501 2.7437 -1.3579 0.4791 0 1
4.9029 2.9810 -1.3767 0.4726 0 1
4.8506 3.2228 -1.3973 0.4656 0 1
4.7929 3.4697 -1.4197 0.4583 0 1
4.7300 3.7225 -1.4442 0.4505 0 1
4.6612 3.9816 -1.4708 0.4424 0 1
4.5859 4.2474 -1.4997 0.4339 0 1
4.4980 4.5148 -1.5291 0.4377 0 1
4.4009 4.7873 -1.5602 0.4290 0 1
4.2959 5.0672 -1.5939 0.4199 0 1
4.1836 5.3568 -1.6308 0.4086 0 1
4.0645 5.6588 -1.6717 0.3986 0 1
3.9355 5.9714 -1.7159 0.3883 0 1
3.7957 6.2956 -1.7638 0.3778 0 1
3.6396 6.6246 -1.8135 0.4064 0 1
3.4608 6.9462 -1.8620 0.3857 0 1
3.2763 7.2960 -1.9189 0.3742 0 1
3.0753 7.6572 -1.9798 0.3542 0 1
2.8543 8.0246 -2.0435 0.3431 0 1
2.6165 8.4114 -2.1136 0.3139 0 1
2.3712 8.8632 -2.2014 0.3014 0 1
2.0939 9.3091 -2.2894 0.3126 0 1
1.7908 9.7810 -2.3858 0.3000 0 1
-22.9719 23.3153 -8.2378 0.7174 0 5
-23.0288 21.5679 -7.9410 0.8158 0 5
-28.2827 24.4325 -9.4066 0.6489 0 3
-28.5150 22.6993 -9.1730 0.7929 0 3
-30.9430 22.6636 -9.6533 0.5785 0 3
-33.2645 22.3689 -10.0890 0.8369 0 3
-28.8848 17.7824 -8.5370 0.5142 0 3
-31.6330 17.7636 -9.1309 0.4807 0 3
-34.7974 17.7419 -9.8306 0.4465 0 3
-38.1640 17.5649 -10.5738 0.7541 0 3
-38.6814 15.9535 -10.5310 0.8339 0 3
-27.1135 9.9284 -7.2671 0.9522 0 22
-27.1176 7.5251 -7.0830 0.9842 0 22
-46.6469 8.9886 -11.9562 0.9616 0 22
-46.6294 7.0568 -11.8695 0.9741 0 22
-30.7107 -16.4764 -8.7715 0.8897 0 22
-30.6109 -18.0419 -8.9429 0.8878 0 22
-33.6480 -32.8611 -11.8373 0.8839 0 20
-31.6925 -33.5412 -11.6141 0.9029 0 20
-30.3275 -34.7952 -11.6169 0.5494 0 20
-28.1156 -35.0010 -11.2993 0.6579 0 20
-27.9258 -37.7768 -11.8236 0.6287 0 20
-23.4694 -34.5707 -10.5165 0.7160 0 9
-19.8765 -31.9694 -9.4745 0.0687 0 2
-16.5547 -29.1777 -8.4432 0.5401 0 2
-13.4719 -26.1369 -7.4006 0.0840 0 1
-10.9784 -23.5788 -6.5461 0.0979 0 1
-8.9645 -21.4663 -5.8549 0.1097 0 1
-7.3097 -19.6925 -5.2867 0.1216 0 1
-5.9373 -18.2047 -4.8194 0.1399 0 1
-4.7946 -16.9865 -4.4423 0.1571 0 1
-3.8125 -15.9280 -4.1220 0.1691 0 1
-2.9585 -14.9970 -3.8472 0.1818 0 1
-2.2071 -14.1612 -3.6072 0.1954 0 1
-1.5420 -13.4150 -3.3986 0.2124 0 1
-0.9476 -12.7338 -3.2137 0.2235 0 1
-0.4123 -12.0789 -3.0418 0.2253 0 1
0.0693 -11.4552 -2.8831 0.2377 0 1
0.5028 -10.8736 -2.7396 0.2492 0 1
0.8945 -10.3310 -2.6099 0.2616 0 1
1.2496 -9.8227 -2.4921 0.2761 0 1
1.5721 -9.3432 -2.3846 0.2885 0 1
1.8596 -8.8608 -2.2787 0.2987 0 24
2.1351 -8.4667 -2.1976 0.3145 0 1
2.3821 -8.0652 -2.1166 0.3265 0 1
2.6093 -7.6842 -2.0424 0.3418 0 1
2.8194 -7.3229 -1.9749 0.3534 0 1
3.0127 -6.9758 -1.9124 0.3641 0 1
3.1911 -6.6426 -1.8547 0.3754 0 1
3.3561 -6.3223 -1.8015 0.3865 0 1
3.5099 -6.0155 -1.7529 0.3937 0 1
3.6511 -5.7172 -1.7073 0.3936 0 1
3.7730 -5.4156 -1.6612 0.4083 0 1
3.8847 -5.1243 -1.6184 0.4087 0 1
3.9861 -4.8413 -1.5783 0.4190 0 1
4.0793 -4.5676 -1.5413 0.4291 0 1
4.1648 -4.3024 -1.5071 0.4388 0 1
4.2432 -4.0449 -1.4754 0.4483 0 1
4.3192 -3.7983 -1.4476 0.4754 0 1
4.3956 -3.5629 -1.4241 0.4833 0 1
4.4663 -3.3322 -1.4025 0.4907 0 1
4.5316 -3.1057 -1.3827 0.4978 0 1
4.5930 -2.8838 -1.3649 0.5043 0 1
4.6496 -2.6653 -1.3489 0.5103 0 1
4.7016 -2.4497 -1.3343 0.5159 0 1
4.7492 -2.2368 -1.3212 0.5211 0 1
4.7926 -2.0263 -1.3096 0.5257 0 1
4.8319 -1.8179 -1.2993 0.5298 0 1
4.8673 -1.6112 -1.2904 0.5335 0 1
4.8988 -1.4061 -1.2827 0.5367 0 1
4.1175 -1.0048 -1.0667 0.9024 25 14
3.8395 -0.7750 -0.9858 0.6797 25 14
3.8266 -0.6137 -0.9754 0.8996 25 14
3.8175 -0.4559 -0.9676 0.9068 25 14
3.8087 -0.3003 -0.9616 0.9125 25 14
3.8005 -0.1465 -0.9572 0.9917 25 14
3.7963 0.0062 -0.9555 0.9935 25 14
3.8018 0.1590 -0.9577 0.9912 25 14
3.8071 0.3127 -0.9614 0.9874 25 14
3.8123 0.4679 -0.9667 0.9820 25 14
3.8182 0.6251 -0.9738 0.9011 25 14
3.8332 0.7868 -0.9849 0.6070 25 14
4.1031 1.0155 -1.0638 0.9049 25 14
5.0193 1.4584 -1.3155 0.5255 0 1
4.9992 1.6730 -1.3268 0.5133 0 1
4.9719 1.8891 -1.3386 0.5088 0 1
4.9405 2.1079 -1.3519 0.5035 0 1
4.9050 2.3298 -1.3667 0.4980 0 1
4.8649 2.5550 -1.3830 0.4921 0 1
4.8201 2.7839 -1.4009 0.4858 0 1
4.7703 3.0169 -1.4206 0.4791 0 1
4.7152 3.2542 -1.4419 0.4720 0 1
4.6548 3.4965 -1.4652 0.4646 0 1
4.5891 3.7446 -1.4907 0.4566 0 1
4.5172 3.9986 -1.5183 0.4483 0 1
4.4386 4.2590 -1.5482 0.4397 0 1
4.3475 4.5205 -1.5785 0.4436 0 1
4.2473 4.7870 -1.6107 0.4347 0 1
4.1391 5.0607 -1.6455 0.4255 0 1
4.0246 5.3450 -1.6839 0.4140 0 1
3.9019 5.6398 -1.7260 0.4039 0 1
3.7690 5.9445 -1.7715 0.3935 0 1
3.6253 6.2602 -1.8207 0.3829 0 1
3.4682 6.5853 -1.8732 0.4116 0 1
3.2885 6.9030 -1.9244 0.3904 0 1
3.0986 7.2395 -1.9819 0.3701 0 1
2.8904 7.5811 -2.0420 0.3592 0 1
2.6660 7.9362 -2.1071 0.3481 0 1
2.4267 8.3161 -2.1803 0.3183 0 1
2.1766 8.7518 -2.2698 0.3058 0 1
1.8975 9.1908 -2.3620 0.3170 0 1
1.5905 9.6448 -2.4602 0.3043 0 1
1.2554 10.1326 -2.5697 0.2892 0 1
0.8873 10.6519 -2.6902 0.2759 0 1
0.4803 11.1789 -2.8161 0.2508 0 1
0.0327 11.7706 -2.9625 0.2479 0 24
-0.4653 12.4399 -3.1331 0.2235 0 1
-1.0168 13.0856 -3.3034 0.2150 0 24
-1.6460 13.9184 -3.5274 0.1994 0 1
-2.3568 14.8036 -3.7728 0.1755 0 1
-3.1653 15.7735 -4.0491 0.1659 0 1
-4.0846 16.8220 -4.3568 0.1580 0 1
-5.1333 17.9618 -4.7017 0.1475 0 1
-6.3413 19.2302 -5.0963 0.1370 0 1
-7.7401 20.6450 -5.5492 0.1272 0 1
-9.4424 22.4047 -6.1192 0.1101 0 1
-11.5172 24.5262 -6.8196 0.0998 0 1
-14.0167 26.9771 -7.6515 0.0933 0 1
-15.6034 27.2929 -7.9125 0.2290 0 15
-16.3149 26.0508 -7.7362 0.8348 0 15
-23.4095 34.2412 -10.4395 0.9955 0 21
-25.7544 34.6024 -10.8563 0.9256 0 21
-27.9292 34.5372 -11.1790 0.6506 0 3
-22.8035 25.9909 -8.7023 0.6805 0 5
-22.9126 24.0910 -8.3677 0.7636 0 5
-23.0017 22.3175 -8.0662 0.7253 0 5
-27.6058 24.7117 -9.3250 0.7583 0 3
-28.4826 23.5065 -9.2946 0.7826 0 3
-28.5569 21.7005 -9.0270 0.8057 0 3
-32.4366 22.6535 -9.9576 0.5608 0 3
-28.6856 18.3656 -8.5726 0.8484 0 3
-27.8516 16.2932 -8.1211 0.6553 0 3
-33.3492 17.7519 -9.5085 0.4616 0 3
-36.7950 17.7282 -10.2795 0.4270 0 3
-38.6743 16.7552 -10.6079 0.7941 0 3
-27.1318 9.2479 -7.2144 0.9304 0 22
-27.1325 8.0476 -7.1229 0.9613 0 22
-23.5870 -4.6251 -6.0495 0.7824 16 6
-30.7044 -15.7816 -8.6888 0.9554 0 22
-32.5408 -33.2437 -11.7081 0.8937 0 20
-30.6331 -33.9183 -11.5029 0.9116 0 20
-28.5711 -34.3100 -11.2373 0.6725 0 20
-28.0120 -36.5269 -11.5853 0.6417 0 20
-26.5716 -37.6916 -11.6067 0.6769 0 9
-17.6614 -27.3195 -8.1876 0.9955 0 6
-17.6278 -29.8301 -8.7207 0.0746 0 2
-14.8290 -27.5642 -7.8777 0.0728 0 1
-11.9885 -24.6040 -6.8884 0.0936 0 1
-9.8099 -22.3721 -6.1482 0.1008 0 1
-7.9992 -20.4372 -5.5237 0.1163 0 1
-6.5067 -18.8173 -5.0111 0.1284 0 1
-5.2721 -17.4916 -4.5980 0.1462 0 1
-4.2261 -16.3740 -4.2561 0.1605 0 1
-3.3202 -15.3946 -3.9637 0.1757 0 1
-2.5258 -14.5175 -3.7087 0.1900 0 1
-1.8242 -13.7295 -3.4858 0.2071 0 1
-1.1979 -12.9935 -3.2841 0.2163 0 24
-0.6407 -12.3660 -3.1165 0.2297 0 1
-0.1360 -11.7234 -2.9508 0.2322 0 1
0.3178 -11.1243 -2.8009 0.2437 0 1
0.7272 -10.5649 -2.6653 0.2561 0 1
1.0978 -10.0424 -2.5426 0.2685 0 1
1.4289 -9.5157 -2.4218 0.2811 0 24
1.7402 -9.0869 -2.3286 0.2955 0 1
2.0128 -8.6205 -2.2280 0.3068 0 24
2.2762 -8.2390 -2.1513 0.3212 0 1
2.5116 -7.8487 -2.0741 0.3332 0 1
2.7292 -7.4797 -2.0039 0.3483 0 1
2.9297 -7.1266 -1.9393 0.3590 0 1
3.1144 -6.7873 -1.8795 0.3704 0 1
3.2852 -6.4615 -1.8244 0.3816 0 1
3.4434 -6.1484 -1.7736 0.3891 0 1
3.5915 -5.8488 -1.7274 0.3995 0 1
3.7203 -5.5462 -1.6808 0.4036 0 1
3.8373 -5.2517 -1.6370 0.4040 0 1
3.9426 -4.9644 -1.5956 0.4145 0 1
4.0394 -4.6867 -1.5572 0.4247 0 1
4.1282 -4.4179 -1.5218 0.4346 0 1
4.2096 -4.1571 -1.4890 0.4442 0 1
4.2842 -3.9037 -1.4588 0.4534 0 1
4.3628 -3.6658 -1.4342 0.4799 0 1
4.4359 -3.4331 -1.4117 0.4875 0 1
4.5036 -3.2047 -1.3912 0.4947 0 1
4.5666 -2.9808 -1.3725 0.5015 0 1
4.6253 -2.7609 -1.3557 0.5077 0 1
4.6793 -2.5441 -1.3405 0.5135 0 1
4.7288 -2.3300 -1.3268 0.5188 0 1
4.7741 -2.1185 -1.3145 0.5237 0 1
4.8152 -1.9092 -1.3037 0.5281 0 1
4.8522 -1.7018 -1.2942 0.5320 0 1
4.8854 -1.4961 -1.2859 0.5354 0 1
4.9149 -1.2917 -1.2790 0.5383 0 1
3.8781 -0.8543 -0.9994 0.6705 25 14
3.8307 -0.6839 -0.9794 0.8959 25 14
3.8214 -0.5249 -0.9708 0.9038 25 14
3.8125 -0.3684 -0.9640 0.9102 25 14
3.8040 -0.2139 -0.9589 0.9151 25 14
3.7975 -0.0608 -0.9559 0.9931 25 14
3.7994 0.0918 -0.9565 0.9924 25 14
3.8048 0.2450 -0.9596 0.9892 25 14
3.8101 0.3995 -0.9642 0.9845 25 14
3.8152 0.5557 -0.9704 0.9043 25 14
3.8220 0.7145 -0.9786 0.8967 25 14
3.9233 0.8978 -1.0130 0.5902 25 14
5.0250 1.3644 -1.3105 0.5275 0 1
5.0099 1.5789 -1.3220 0.5152 0 1
4.9844 1.7938 -1.3333 0.5108 0 1
4.9548 2.0114 -1.3459 0.5061 0 1
4.9211 2.2319 -1.3600 0.5005 0 1
4.8831 2.4556 -1.3756 0.4948 0 1
4.8404 2.6829 -1.3929 0.4887 0 1
4.7928 2.9140 -1.4117 0.4821 0 1
4.7401 3.1494 -1.4323 0.4752 0 1
4.6820 3.3894 -1.4547 0.4679 0 1
4.6187 3.6349 -1.4793 0.4602 0 1
4.5495 3.8863 -1.5059 0.4520 0 1
4.4740 4.1437 -1.5348 0.4435 0 1
4.3891 4.4055 -1.5652 0.4474 0 1
4.2923 4.6691 -1.5962 0.4387 0 1
4.1877 4.9395 -1.6298 0.4296 0 1
4.0755 5.2184 -1.6665 0.4183 0 1
3.9570 5.5091 -1.7071 0.4084 0 1
3.8287 5.8093 -1.7511 0.3981 0 1
3.6899 6.1201 -1.7986 0.3876 0 1
3.5395 6.4424 -1.8500 0.3768 0 1
3.3668 6.7576 -1.9002 0.3954 0 1
3.1847 7.0921 -1.9567 0.3840 0 1
2.9838 7.4294 -2.0150 0.3640 0 1
2.7667 7.7785 -2.0779 0.3530 0 1
2.5325 8.1416 -2.1460 0.3418 0 1
2.2893 8.5573 -2.2295 0.3113 0 1
2.0242 8.9992 -2.3215 0.3225 0 1
1.7287 9.4421 -2.4159 0.3099 0 1
-22.8416 23.1831 -8.5757 0.7052 0 5
-22.9151 21.4614 -8.2728 0.7269 0 5
-23.0143 19.8813 -8.0137 0.7593 0 5
-28.3846 22.5955 -9.5598 0.7942 0 3
-30.9417 22.6627 -10.1061 0.5769 0 3
-33.1204 22.2719 -10.5169 0.8382 0 3
-28.8834 17.7816 -8.9374 0.5127 0 3
-33.2517 18.6727 -10.0488 0.8772 0 3
-34.7955 17.7410 -10.2916 0.4453 0 3
-38.1978 17.5805 -11.0800 0.8135 0 3
-42.8801 17.6852 -12.2222 0.3749 0 3
-27.0055 9.8889 -7.5780 0.9760 0 22
-27.0374 7.5029 -7.3936 0.9853 0 22
-46.4047 8.9420 -12.4526 0.9950 0 22
-46.4666 7.0322 -12.3834 0.9748 0 22
-30.5632 -16.3973 -9.1392 0.8866 0 22
-24.0851 -25.4901 -9.2407 0.6768 0 20
-28.1388 -32.2841 -11.2846 0.6877 0 20
-27.9660 -34.8147 -11.7669 0.6599 0 20
-25.2848 -34.2041 -11.2080 0.9943 0 9
-20.9957 -30.9269 -9.8497 0.0689 0 2
-17.1608 -27.6015 -8.5641 0.0793 0 2
-14.5717 -25.6828 -7.7808 0.0750 0 1
-11.9367 -23.1585 -6.8652 0.0973 0 1
-9.8815 -21.2230 -6.1687 0.1073 0 1
-8.1565 -19.5314 -5.5773 0.1186 0 1
-6.7121 -18.0825 -5.0824 0.1385 0 1
-5.5105 -16.8959 -4.6829 0.1523 0 1
-4.4783 -15.8660 -4.3440 0.1641 0 1
-3.5821 -14.9653 -4.0548 0.1794 0 1
-2.7922 -14.1538 -3.8014 0.1935 0 1
-2.0913 -13.4182 -3.5784 0.2106 0 1
-1.4668 -12.7608 -3.3846 0.2226 0 1
-0.9031 -12.1349 -3.2064 0.2231 0 1
-0.3927 -11.5069 -3.0338 0.2332 0 24
0.0662 -10.9535 -2.8863 0.2469 0 1
0.4818 -10.4195 -2.7485 0.2593 0 1
0.8590 -9.9201 -2.6237 0.2736 0 1
1.2024 -9.4516 -2.5106 0.2861 0 1
1.5152 -9.0049 -2.4061 0.2985 0 1
1.7944 -8.5505 -2.3021 0.3114 0 24
2.0639 -8.1844 -2.2241 0.3244 0 1
2.3055 -7.8059 -2.1447 0.3398 0 1
2.5291 -7.4478 -2.0726 0.3516 0 1
2.7354 -7.1047 -2.0061 0.3623 0 1
2.9256 -6.7741 -1.9443 0.3738 0 1
3.1015 -6.4562 -1.8873 0.3851 0 1
3.2645 -6.1498 -1.8346 0.3962 0 1
3.4157 -5.8541 -1.7859 0.4070 0 1
3.5537 -5.5646 -1.7398 0.4070 0 1
3.6742 -5.2739 -1.6937 0.4077 0 1
3.7844 -4.9919 -1.6506 0.4183 0 1
3.8857 -4.7193 -1.6108 0.4286 0 1
3.9789 -4.4551 -1.5739 0.4387 0 1
4.0645 -4.1987 -1.5398 0.4484 0 1
4.1431 -3.9495 -1.5083 0.4578 0 1
4.2230 -3.7137 -1.4818 0.4849 0 1
4.2993 -3.4848 -1.4583 0.4927 0 1
4.3699 -3.2602 -1.4366 0.5001 0 1
4.4351 -3.0396 -1.4168 0.5071 0 1
4.4963 -2.8231 -1.3990 0.5137 0 1
4.5529 -2.6098 -1.3828 0.5197 0 1
4.6049 -2.3993 -1.3682 0.5252 0 1
4.6524 -2.1912 -1.3551 0.5304 0 1
4.6958 -1.9854 -1.3434 0.5350 0 1
4.7351 -1.7814 -1.3331 0.5391 0 1
4.7704 -1.5791 -1.3241 0.5428 0 1
4.8019 -1.3783 -1.3164 0.5460 0 1
4.1241 -1.0064 -1.1186 0.8984 25 14
3.8604 -0.7793 -1.0377 0.6741 25 14
3.8341 -0.6149 -1.0232 0.8953 25 14
3.8249 -0.4568 -1.0150 0.9025 25 14
3.8161 -0.3009 -1.0087 0.9082 25 14
3.8104 -0.1469 -1.0048 0.8599 25 14
3.8059 0.0062 -1.0029 0.8616 25 14
3.8075 0.1592 -1.0042 0.8604 25 14
3.8128 0.3132 -1.0081 0.9087 25 14
3.8191 0.4687 -1.0139 0.9035 25 14
3.8258 0.6264 -1.0215 0.8968 25 14
3.8543 0.7911 -1.0368 0.6748 25 14
4.1096 1.0171 -1.1156 0.9008 25 14
4.9179 1.4290 -1.3495 0.5348 0 1
4.8953 1.6383 -1.3602 0.5227 0 1
4.8677 1.8495 -1.3721 0.5182 0 1
4.8359 2.0633 -1.3854 0.5132 0 1
4.8000 2.2799 -1.4002 0.5075 0 1
4.7595 2.4997 -1.4166 0.5016 0 1
4.7144 2.7229 -1.4345 0.4953 0 1
4.6642 2.9498 -1.4542 0.4886 0 1
4.6089 3.1808 -1.4756 0.4815 0 1
4.5482 3.4165 -1.4989 0.4741 0 1
4.4822 3.6574 -1.5244 0.4662 0 1
4.4100 3.9038 -1.5519 0.4579 0 1
4.3314 4.1560 -1.5817 0.4493 0 1
4.2433 4.4122 -1.6130 0.4532 0 1
4.1435 4.6701 -1.6451 0.4443 0 1
4.0359 4.9344 -1.6797 0.4352 0 1
3.9216 5.2082 -1.7179 0.4236 0 1
3.7996 5.4920 -1.7597 0.4136 0 1
3.6678 5.7848 -1.8049 0.4032 0 1
3.5252 6.0874 -1.8536 0.3926 0 1
3.3711 6.4009 -1.9063 0.3818 0 1
3.2000 6.7173 -1.9606 0.4000 0 1
3.0100 7.0326 -2.0157 0.3799 0 1
2.8054 7.3580 -2.0750 0.3690 0 1
2.5852 7.6955 -2.1391 0.3580 0 1
2.3479 8.0459 -2.2085 0.3467 0 1
2.1023 8.4531 -2.2952 0.3157 0 1
1.8346 8.8863 -2.3909 0.3030 0 1
1.5360 9.3144 -2.4875 0.3142 0 1
1.2103 9.7682 -2.5936 0.2991 0 1
0.8536 10.2475 -2.7096 0.2860 0 1
0.4608 10.7240 -2.8284 0.2740 0 1
0.0313 11.2679 -2.9691 0.2483 0 1
-0.4438 11.8643 -3.1284 0.2337 0 1
-0.9682 12.4600 -3.2931 0.2269 0 24
-1.5609 13.1994 -3.5023 0.2096 0 1
-2.2199 13.9439 -3.7205 0.1973 0 1
-2.9707 14.8036 -3.9785 0.1762 0 1
-3.8213 15.7375 -4.2673 0.1651 0 1
-4.7796 16.7242 -4.5832 0.1568 0 1
-5.8738 17.8124 -4.9422 0.1489 0 1
-7.1199 18.9908 -5.3442 0.1349 0 1
-8.5947 20.3932 -5.8313 0.1166 0 1
-10.3816 22.1079 -6.4358 0.1078 0 1
-12.5433 24.1414 -7.1687 0.1023 0 1
-15.0370 26.3023 -7.9833 0.1012 0 1
-17.1607 27.4013 -8.5193 0.6832 0 15
-21.3537 31.2341 -9.9697 0.0681 0 2
-26.4995 35.6035 -11.6949 0.0581 0 25
-27.7737 34.3450 -11.6387 0.6524 0 3
-22.6836 25.8543 -9.0630 0.6821 0 5
-22.7985 23.9711 -8.7170 0.7329 0 5
-22.8647 22.1846 -8.3947 0.7501 0 5
-22.9764 20.5676 -8.1256 0.7797 0 5
-26.8126 22.1282 -9.1605 0.2015 0 3
-28.3134 21.5154 -9.3702 0.4568 0 3
-32.4352 22.6525 -10.4247 0.5593 0 3
-28.5629 18.2871 -8.9367 0.8496 0 3
-28.7933 16.8441 -8.7899 0.8937 0 3
-33.3475 17.7509 -9.9544 0.4604 0 3
-36.7929 17.7272 -10.7616 0.4258 0 3
-40.8534 17.6992 -11.7317 0.3906 0 3
-43.3524 16.7482 -12.2462 0.9736 0 3
-27.0146 9.2079 -7.5205 0.9334 0 22
-27.0162 8.0130 -7.4253 0.9621 0 22
-23.3334 -4.5753 -6.2654 0.5018 16 6
-30.6087 -15.7325 -9.0684 0.9044 0 22
-32.6003 -33.3045 -12.2803 0.8006 0 20
-28.5935 -31.6600 -11.2411 0.7018 0 20
-28.0441 -33.6771 -11.5479 0.6724 0 20
-25.4628 -33.2028 -11.0254 0.9063 0 9
-22.8223 -32.3733 -10.4370 0.8823 0 9
-17.6378 -27.2829 -8.5605 0.8116 0 6
-16.2498 -27.4983 -8.4164 0.0945 0 2
-13.0110 -24.1850 -7.2364 0.0899 0 1
-10.7355 -22.0326 -6.4581 0.1034 0 1
-8.8757 -20.2415 -5.8239 0.1136 0 1
-7.3173 -18.6950 -5.2900 0.1270 0 1
-6.0160 -17.3984 -4.8508 0.1452 0 1
-4.9143 -16.3045 -4.4871 0.1589 0 1
-3.9617 -15.3496 -4.1772 0.1742 0 1
-3.1272 -14.4996 -3.9085 0.1882 0 1
-2.3890 -13.7316 -3.6726 0.2003 0 1
-1.7286 -13.0099 -3.4582 0.2133 0 24
-1.1443 -12.4129 -3.2847 0.2294 0 1
-0.6107 -11.7863 -3.1099 0.2300 0 1
-0.1299 -11.1994 -2.9512 0.2424 0 1
0.3043 -10.6497 -2.8074 0.2539 0 1
0.6976 -10.1351 -2.6769 0.2662 0 1
1.0555 -9.6547 -2.5592 0.2805 0 1
1.3812 -9.1980 -2.4509 0.2931 0 1
1.6786 -8.7653 -2.3516 0.3054 0 1
1.9445 -8.3282 -2.2535 0.3218 0 24
2.2018 -7.9700 -2.1788 0.3311 0 1
2.4331 -7.6032 -2.1035 0.3464 0 1
2.6468 -7.2538 -2.0346 0.3582 0 1
2.8439 -6.9177 -1.9708 0.3688 0 1
3.0259 -6.5944 -1.9118 0.3802 0 1
3.1944 -6.2831 -1.8573 0.3913 0 1
3.3507 -5.9828 -1.8069 0.4023 0 1
3.4963 -5.6939 -1.7606 0.4092 0 1
3.6229 -5.4009 -1.7137 0.4029 0 1
3.7371 -5.1146 -1.6691 0.4137 0 1
3.8422 -4.8380 -1.6279 0.4241 0 1
3.9389 -4.5702 -1.5898 0.4343 0 1
4.0278 -4.3105 -1.5545 0.4442 0 1
4.1094 -4.0581 -1.5218 0.4537 0 1
4.1876 -3.8157 -1.4928 0.4813 0 1
4.2665 -3.5848 -1.4684 0.4893 0 1
4.3395 -3.3584 -1.4459 0.4969 0 1
4.4071 -3.1361 -1.4253 0.5041 0 1
4.4700 -2.9178 -1.4066 0.5109 0 1
4.5286 -2.7032 -1.3897 0.5171 0 1
4.5826 -2.4915 -1.3744 0.5228 0 1
4.6320 -2.2823 -1.3607 0.5281 0 1
4.6772 -2.0756 -1.3484 0.5330 0 1
4.7183 -1.8708 -1.3374 0.5374 0 1
4.7553 -1.6678 -1.3279 0.5413 0 1
4.7885 -1.4664 -1.3196 0.5446 0 1
4.8179 -1.2662 -1.3126 0.5475 0 1
3.8995 -0.8590 -1.0522 0.6649 25 14
3.8383 -0.6852 -1.0274 0.8916 25 14
3.8289 -0.5259 -1.0184 0.8995 25 14
3.8200 -0.3692 -1.0113 0.9059 25 14
3.8128 -0.2144 -1.0063 0.8586 25 14
3.8073 -0.0610 -1.0034 0.8611 25 14
3.8068 0.0919 -1.0034 0.8611 25 14
3.8102 0.2454 -1.0061 0.9105 25 14
3.8163 0.4002 -1.0111 0.9060 25 14
3.8228 0.5568 -1.0179 0.8999 25 14
3.8297 0.7159 -1.0266 0.8923 25 14
4.0273 0.9216 -1.0886 0.0580 25 14
4.9239 1.3370 -1.3444 0.5368 0 1
4.9061 1.5462 -1.3554 0.5246 0 1
4.8804 1.7564 -1.3667 0.5202 0 1
4.8504 1.9690 -1.3794 0.5155 0 1
4.8163 2.1843 -1.3935 0.5099 0 1
4.7779 2.4027 -1.4092 0.5042 0 1
4.7348 2.6244 -1.4265 0.4981 0 1
4.6869 2.8496 -1.4453 0.4916 0 1
4.6339 3.0788 -1.4660 0.4847 0 1
4.5754 3.3123 -1.4884 0.4774 0 1
4.5119 3.5509 -1.5129 0.4697 0 1
4.4425 3.7948 -1.5395 0.4616 0 1
4.3668 4.0445 -1.5684 0.4531 0 1
4.2842 4.3002 -1.5995 0.4443 0 1
4.1883 4.5560 -1.6307 0.4483 0 1
4.0842 4.8174 -1.6642 0.4393 0 1
3.9723 5.0862 -1.7005 0.4280 0 1
3.8544 5.3662 -1.7410 0.4180 0 1
3.7270 5.6550 -1.7846 0.4078 0 1
3.5892 5.9532 -1.8317 0.3973 0 1
3.4403 6.2618 -1.8826 0.3866 0 1
3.2788 6.5810 -1.9374 0.4155 0 1
3.0953 6.8930 -1.9910 0.3846 0 1
2.8971 7.2136 -2.0484 0.3738 0 1
2.6839 7.5457 -2.1103 0.3629 0 1
2.4543 7.8902 -2.1773 0.3517 0 1
2.2125 8.2702 -2.2558 0.3212 0 1
1.9553 8.6929 -2.3478 0.3086 0 1
1.6705 9.1243 -2.4442 0.3198 0 1
-22.6950 23.0343 -8.9050 0.6817 0 5
-28.2845 26.4902 -10.6719 0.7471 0 3
-22.9244 19.8036 -8.3425 0.7953 0 5
-23.0081 18.3155 -8.0986 0.8146 0 5
-23.0358 16.8722 -7.8633 0.8350 0 5
-28.2747 19.0134 -9.3832 0.8656 0 3
-28.6320 17.6268 -9.2593 0.9426 0 3
-33.1138 18.5952 -10.4585 0.8782 0 3
-38.0584 19.4046 -11.7645 0.8958 0 3
-38.4889 17.7145 -11.6681 0.4092 0 3
-42.8773 17.6841 -12.7727 0.3738 0 3
-26.8938 9.8480 -7.8871 0.9381 0 22
-26.9670 7.4833 -7.7070 0.9073 0 22
-46.2658 8.9152 -12.9754 0.9962 0 22
-46.2856 7.0048 -12.8916 0.9879 0 22
-25.9626 -25.3554 -9.9937 0.9117 0 20
-29.3252 -31.0359 -11.7587 0.6960 0 20
-27.9975 -32.1219 -11.7344 0.6895 0 20
-25.0894 -31.2337 -11.0327 0.1349 0 9
-21.9575 -29.7031 -10.1722 0.0696 0 2
-18.1301 -26.7059 -8.8891 0.0796 0 2
-15.6888 -25.2339 -8.1827 0.0744 0 1
-12.8342 -22.6204 -7.1621 0.0978 0 1
-10.7387 -20.8342 -6.4547 0.1090 0 1
-8.9720 -19.2695 -5.8536 0.1212 0 1
-7.4830 -17.9189 -5.3476 0.1309 0 1
-6.2217 -16.7613 -4.9236 0.1463 0 1
-5.1424 -15.7673 -4.5672 0.1627 0 1
-4.2041 -14.8947 -4.2621 0.1779 0 1
-3.3780 -14.1128 -3.9962 0.1922 0 1
-2.6432 -13.3986 -3.7609 0.2038 0 1
-1.9824 -12.7195 -3.5451 0.2170 0 24
-1.3977 -12.1596 -3.3706 0.2268 0 1
-0.8588 -11.5394 -3.1866 0.2329 0 24
-0.3759 -11.0135 -3.0347 0.2456 0 1
0.0634 -10.4907 -2.8891 0.2571 0 1
0.4624 -9.9999 -2.7568 0.2714 0 1
0.8230 -9.5050 -2.6273 0.2811 0 24
1.1584 -9.1055 -2.5278 0.2961 0 1
1.4619 -8.6884 -2.4263 0.3085 0 1
1.7404 -8.2931 -2.3336 0.3221 0 1
1.9913 -7.8964 -2.2426 0.3369 0 24
2.2340 -7.5637 -2.1719 0.3496 0 1
2.4532 -7.2243 -2.1011 0.3614 0 1
2.6557 -6.8977 -2.0355 0.3721 0 1
2.8429 -6.5826 -1.9746 0.3836 0 1
3.0164 -6.2789 -1.9183 0.3948 0 1
3.1773 -5.9855 -1.8662 0.4058 0 1
3.3268 -5.7017 -1.8179 0.4166 0 1
3.4598 -5.4176 -1.7702 0.4064 0 1
3.5789 -5.1370 -1.7241 0.4173 0 1
3.6886 -4.8656 -1.6814 0.4279 0 1
3.7897 -4.6026 -1.6419 0.4382 0 1
3.8827 -4.3474 -1.6052 0.4482 0 1
3.9684 -4.0994 -1.5712 0.4579 0 1
4.0485 -3.8593 -1.5403 0.4861 0 1
4.1305 -3.6323 -1.5147 0.4943 0 1
4.2065 -3.4097 -1.4912 0.5021 0 1
4.2769 -3.1909 -1.4695 0.5095 0 1
4.3421 -2.9758 -1.4496 0.5165 0 1
4.4031 -2.7646 -1.4318 0.5230 0 1
4.4596 -2.5563 -1.4156 0.5290 0 1
4.5115 -2.3506 -1.4009 0.5345 0 1
4.5590 -2.1472 -1.3878 0.5396 0 1
4.6022 -1.9458 -1.3760 0.5442 0 1
4.6415 -1.7462 -1.3657 0.5484 0 1
4.6767 -1.5481 -1.3566 0.5520 0 1
4.7081 -1.3513 -1.3489 0.5552 0 1
4.1566 -1.0143 -1.1783 0.6782 25 14
3.8768 -0.7826 -1.0891 0.7459 25 14
3.8435 -0.6164 -1.0720 0.8398 25 14
3.8365 -0.4582 -1.0640 0.8461 25 14
3.8300 -0.3020 -1.0580 0.8509 25 14
3.8242 -0.1474 -1.0539 0.8542 25 14
3.8197 0.0062 -1.0519 0.8559 25 14
3.8214 0.1598 -1.0533 0.8548 25 14
3.8236 0.3141 -1.0565 0.8521 25 14
3.8268 0.4697 -1.0617 0.8990 25 14
3.8335 0.6276 -1.0697 0.8923 25 14
3.8767 0.7957 -1.0899 0.6689 25 14
4.1162 1.0187 -1.1678 0.8967 25 14
4.8189 1.4002 -1.3819 0.5361 0 1
4.7951 1.6047 -1.3925 0.5321 0 1
4.7672 1.8113 -1.4044 0.5276 0 1
4.7351 2.0203 -1.4177 0.5226 0 1
4.6988 2.2319 -1.4325 0.5168 0 1
4.6581 2.4464 -1.4489 0.5110 0 1
4.6126 2.6641 -1.4669 0.5047 0 1
4.5622 2.8853 -1.4865 0.4981 0 1
4.5066 3.1103 -1.5079 0.4910 0 1
4.4458 3.3395 -1.5312 0.4836 0 1
4.3796 3.5737 -1.5567 0.4757 0 1
4.3073 3.8129 -1.5841 0.4674 0 1
4.2286 4.0574 -1.6138 0.4588 0 1
4.1429 4.3078 -1.6459 0.4499 0 1
4.0442 4.5581 -1.6781 0.4539 0 1
3.9371 4.8136 -1.7125 0.4448 0 1
3.8233 5.0776 -1.7504 0.4332 0 1
3.7020 5.3510 -1.7919 0.4232 0 1
3.5712 5.6325 -1.8366 0.4129 0 1
3.4300 5.9230 -1.8849 0.4023 0 1
3.2775 6.2232 -1.9369 0.3915 0 1
3.1119 6.5324 -1.9926 0.3781 0 1
2.9259 6.8360 -2.0477 0.3897 0 1
2.7247 7.1465 -2.1062 0.3788 0 1
2.5086 7.4676 -2.1694 0.3678 0 1
2.2762 7.8002 -2.2377 0.3566 0 1
2.0325 8.1725 -2.3192 0.3255 0 1
1.7713 8.5794 -2.4125 0.3129 0 1
1.4848 9.0041 -2.5131 0.3241 0 1
1.1680 9.4273 -2.6160 0.3090 0 1
0.8222 9.8706 -2.7276 0.2960 0 1
0.4431 10.3129 -2.8426 0.2840 0 1
0.0300 10.7951 -2.9728 0.2584 0 1
-0.4241 11.3374 -3.1243 0.2459 0 1
-0.9238 11.8889 -3.2839 0.2374 0 24
-1.4838 12.5473 -3.4794 0.2199 0 1
-2.1038 13.2144 -3.6849 0.2076 0 1
-2.7969 13.9375 -3.9147 0.1954 0 1
-3.5843 14.7615 -4.1832 0.1754 0 1
-4.4690 15.6374 -4.4787 0.1684 0 1
-5.4661 16.5761 -4.8066 0.1569 0 1
-6.5899 17.5771 -5.1695 0.1483 0 1
-7.8342 18.5887 -5.5551 0.1295 0 24
-9.4350 20.0922 -6.1128 0.1159 0 1
-11.2963 21.7414 -6.7472 0.1071 0 1
-13.4915 23.5989 -7.4859 0.1018 0 1
-15.9171 25.4157 -8.2584 0.1017 0 1
-18.4086 26.9264 -8.9824 0.0788 0 2
-22.3123 29.9777 -10.2911 0.0688 0 2
-27.3682 33.8434 -11.9861 0.0590 0 25
-22.5650 25.7191 -9.4223 0.6866 0 5
-22.6553 23.8205 -9.0530 0.7061 0 5
-22.7762 22.0986 -8.7394 0.7373 0 5
-22.8952 20.4950 -8.4622 0.7170 0 5
-22.9550 18.9446 -8.1963 0.7969 0 5
-23.0381 17.5067 -7.9683 0.7332 0 5
-32.4338 22.6515 -10.8944 0.5576 0 3
-28.4406 18.2088 -9.2999 0.8507 0 3
-33.0865 19.3557 -10.5562 0.8701 0 3
-33.3457 17.7500 -10.4029 0.4590 0 3
-37.1181 17.8839 -11.3464 0.9051 0 3
-40.8508 17.6981 -12.2601 0.3895 0 3
-26.9062 9.1710 -7.8282 0.9411 0 22
-26.9305 7.9876 -7.7356 0.9533 0 22
-46.2766 7.8411 -12.9256 0.9905 0 22
-23.4004 -4.5885 -6.5669 0.9445 16 6
-34.0344 -32.0848 -12.8808 0.0255 0 20
-30.3853 -31.0417 -11.9622 0.6841 0 20
-28.0694 -31.0797 -11.5328 0.7015 0 20
-25.1502 -30.2019 -10.8234 0.9918 0 9
-23.0923 -30.1118 -10.4501 0.6436 0 9
-19.6989 -27.9427 -9.4150 0.0752 0 2
-16.6057 -25.6864 -8.4231 0.6230 0 2
-13.9579 -23.6199 -7.5554 0.0811 0 1
-11.6110 -21.5827 -6.7491 0.1042 0 1
-9.7154 -19.9390 -6.1081 0.1129 0 1
-8.1097 -18.4947 -5.5613 0.1275 0 1
-6.7505 -17.2468 -5.1004 0.1438 0 1
-5.5973 -16.1873 -4.7167 0.1577 0 1
-4.6006 -15.2637 -4.3902 0.1727 0 1
-3.7283 -14.4452 -4.1084 0.1848 0 1
-2.9559 -13.7053 -3.8610 0.1985 0 1
-2.2615 -12.9986 -3.6334 0.2107 0 24
-1.6501 -12.4194 -3.4502 0.2276 0 1
-1.0903 -11.8268 -3.2707 0.2279 0 1
-0.5831 -11.2533 -3.1032 0.2402 0 1
-0.1243 -10.7165 -2.9514 0.2516 0 1
0.2917 -10.2116 -2.8133 0.2640 0 1
0.6704 -9.7390 -2.6883 0.2783 0 1
1.0160 -9.2938 -2.5746 0.2905 0 1
1.3318 -8.8690 -2.4698 0.3030 0 1
1.6209 -8.4640 -2.3732 0.3154 0 1
1.8810 -8.0559 -2.2782 0.3321 0 24
2.1321 -7.7175 -2.2049 0.3444 0 1
2.3590 -7.3717 -2.1315 0.3562 0 1
2.5688 -7.0400 -2.0638 0.3679 0 1
2.7624 -6.7196 -2.0008 0.3785 0 1
2.9418 -6.4110 -1.9425 0.3899 0 1
3.1081 -6.1132 -1.8886 0.4010 0 1
3.2625 -5.8253 -1.8387 0.4119 0 1
3.4049 -5.5449 -1.7919 0.4075 0 1
3.5278 -5.2591 -1.7439 0.4125 0 1
3.6415 -4.9837 -1.6998 0.4233 0 1
3.7463 -4.7172 -1.6589 0.4337 0 1
3.8428 -4.4587 -1.6210 0.4438 0 1
3.9316 -4.2076 -1.5858 0.4537 0 1
4.0133 -3.9632 -1.5533 0.4632 0 1
4.0952 -3.7315 -1.5257 0.4907 0 1
4.1738 -3.5070 -1.5013 0.4987 0 1
4.2467 -3.2866 -1.4788 0.5063 0 1
4.3141 -3.0699 -1.4581 0.5135 0 1
4.3768 -2.8570 -1.4394 0.5202 0 1
4.4354 -2.6475 -1.4225 0.5264 0 1
4.4892 -2.4407 -1.4072 0.5321 0 1
4.5386 -2.2363 -1.3934 0.5375 0 1
4.5837 -2.0341 -1.3810 0.5423 0 1
4.6247 -1.8337 -1.3700 0.5466 0 1
4.6617 -1.6350 -1.3604 0.5505 0 1
4.6948 -1.4377 -1.3521 0.5539 0 1
4.7241 -1.2415 -1.3451 0.5567 0 1
3.9113 -0.8616 -1.1029 0.7366 25 14
3.8471 -0.6868 -1.0762 0.7524 25 14
3.8395 -0.5274 -1.0673 0.8436 25 14
3.8328 -0.3704 -1.0604 0.8490 25 14
3.8267 -0.2152 -1.0555 0.8530 25 14
3.8211 -0.0612 -1.0524 0.8555 25 14
3.8206 0.0923 -1.0524 0.8554 25 14
3.8226 0.2462 -1.0549 0.8535 25 14
3.8251 0.4011 -1.0592 0.8500 25 14
3.8305 0.5579 -1.0660 0.8954 25 14
3.8406 0.7180 -1.0760 0.6775 25 14
4.1161 0.9419 -1.1628 0.9005 25 14
4.8262 1.3104 -1.3772 0.5461 0 1
4.8060 1.5146 -1.3877 0.5339 0 1
4.7800 1.7203 -1.3990 0.5296 0 1
4.7498 1.9282 -1.4117 0.5248 0 1
4.7153 2.1385 -1.4258 0.5193 0 1
4.6766 2.3518 -1.4415 0.5136 0 1
4.6332 2.5680 -1.4588 0.5075 0 1
4.5850 2.7877 -1.4777 0.5011 0 1
4.5317 3.0109 -1.4983 0.4942 0 1
4.4731 3.2382 -1.5207 0.4869 0 1
4.4094 3.4702 -1.5452 0.4792 0 1
4.3398 3.7071 -1.5718 0.4711 0 1
4.2640 3.9493 -1.6005 0.4626 0 1
4.1814 4.1970 -1.6315 0.4538 0 1
4.0887 4.4477 -1.6637 0.4578 0 1
3.9851 4.7006 -1.6971 0.4488 0 1
3.8737 4.9599 -1.7331 0.4376 0 1
3.7564 5.2299 -1.7732 0.4276 0 1
3.6299 5.5078 -1.8165 0.4175 0 1
3.4934 5.7942 -1.8632 0.4070 0 1
3.3459 6.0901 -1.9136 0.3963 0 1
3.1865 6.3958 -1.9678 0.3826 0 1
3.0098 6.7027 -2.0234 0.3943 0 1
2.8149 7.0088 -2.0800 0.3836 0 1
2.6055 7.3252 -2.1411 0.3727 0 1
2.3804 7.6526 -2.2070 0.3615 0 1
2.1403 8.0003 -2.2806 0.3310 0 1
1.8889 8.3980 -2.3705 0.3185 0 1
1.6143 8.8174 -2.4685 0.3058 0 1
-22.5973 22.9351 -9.2517 0.7501 0 5
-29.5425 27.6685 -11.6306 0.6620 0 3
-22.7899 19.6874 -8.6537 0.7043 0 5
-22.8619 18.1991 -8.3965 0.7654 0 5
-22.9384 16.8008 -8.1701 0.8833 0 5
-26.6610 17.9283 -9.2319 0.4599 0 3
-28.8807 17.7799 -9.7453 0.5097 0 3
-32.9762 18.5180 -10.8674 0.8792 0 3
-37.9034 19.3255 -12.2253 0.8967 0 3
-38.1742 17.5696 -12.0752 0.9749 0 3
-42.8744 17.6829 -13.3264 0.3727 0 3
-26.8335 7.4463 -8.0018 0.9609 0 22
-46.1231 8.8877 -13.4971 0.9709 0 22
-46.1133 6.9787 -13.4013 0.9865 0 22
-34.5379 -31.1209 -13.3589 0.0257 0 20
-31.7975 -31.0539 -12.7713 0.6665 0 20
-29.3293 -31.0402 -12.2710 0.6937 0 20
-25.9614 -29.7859 -11.3536 0.6805 0 9
-22.7454 -28.3157 -10.4363 0.0705 0 2
-18.9756 -25.6694 -9.1725 0.0802 0 2
-16.6793 -24.5689 -8.5329 0.7034 0 2
-13.6623 -21.9745 -7.4352 0.0980 0 1
-11.5421 -20.3431 -6.7208 0.1083 0 1
-9.7586 -18.9328 -6.1204 0.1191 0 1
-8.2305 -17.6769 -5.6030 0.1317 0 1
-6.9213 -16.5737 -5.1609 0.1452 0 1
-5.7983 -15.6209 -4.7878 0.1616 0 1
-4.8215 -14.7835 -4.4682 0.1765 0 1
-3.9608 -14.0325 -4.1897 0.1885 0 1
-3.1958 -13.3514 -3.9448 0.2021 0 1
-2.5103 -12.7248 -3.7269 0.2191 0 1
-1.8868 -12.1060 -3.5206 0.2246 0 24
-1.3275 -11.5491 -3.3404 0.2324 0 24
-0.8225 -11.0520 -3.1845 0.2435 0 1
-0.3599 -10.5434 -3.0314 0.2548 0 1
0.0608 -10.0631 -2.8916 0.2691 0 1
0.4431 -9.5811 -2.7560 0.2782 0 24
0.7954 -9.1865 -2.6496 0.2937 0 1
1.1172 -8.7816 -2.5437 0.3059 0 1
1.4120 -8.3917 -2.4452 0.3184 0 1
1.6834 -8.0214 -2.3551 0.3320 0 1
1.9288 -7.6485 -2.2666 0.3467 0 24
2.1664 -7.3348 -2.1976 0.3594 0 1
2.3813 -7.0126 -2.1280 0.3711 0 1
2.5801 -6.7013 -2.0634 0.3818 0 1
2.7643 -6.4006 -2.0034 0.3932 0 1
2.9353 -6.1101 -1.9478 0.4045 0 1
3.0942 -5.8289 -1.8963 0.4154 0 1
3.2419 -5.5562 -1.8484 0.4259 0 1
3.3705 -5.2778 -1.7994 0.4221 0 1
3.4878 -5.0062 -1.7532 0.4268 0 1
3.5970 -4.7447 -1.7109 0.4374 0 1
3.6977 -4.4909 -1.6716 0.4477 0 1
3.7906 -4.2443 -1.6351 0.4577 0 1
3.8761 -4.0041 -1.6013 0.4673 0 1
3.9597 -3.7746 -1.5719 0.4954 0 1
4.0414 -3.5539 -1.5464 0.5036 0 1
4.1171 -3.3372 -1.5229 0.5114 0 1
4.1874 -3.1241 -1.5012 0.5188 0 1
4.2523 -2.9143 -1.4813 0.5257 0 1
4.3132 -2.7081 -1.4634 0.5322 0 1
4.3695 -2.5047 -1.4472 0.5382 0 1
4.4212 -2.3036 -1.4325 0.5437 0 1
4.4686 -2.1047 -1.4193 0.5488 0 1
4.5118 -1.9076 -1.4076 0.5534 0 1
4.5509 -1.7122 -1.3972 0.5575 0 1
4.5861 -1.5181 -1.3881 0.5612 0 1
4.6174 -1.3253 -1.3804 0.5643 0 1
4.1920 -1.0229 -1.2399 0.6704 25 14
3.8873 -0.7847 -1.1395 0.7415 25 14
3.8667 -0.6201 -1.1253 0.7485 25 14
3.8572 -0.4606 -1.1162 0.7545 25 14
3.8486 -0.3035 -1.1093 0.7592 25 14
3.8411 -0.1481 -1.1046 0.7625 25 14
3.8352 0.0063 -1.1020 0.8020 25 14
3.8367 0.1605 -1.1034 0.7633 25 14
3.8389 0.3153 -1.1068 0.7610 25 14
3.8419 0.4715 -1.1122 0.7572 25 14
3.8460 0.6297 -1.1198 0.7521 25 14
3.8913 0.7987 -1.1415 0.7403 25 14
4.1471 1.0264 -1.2276 0.6771 25 14
4.7224 1.3722 -1.4131 0.5454 0 1
4.6983 1.5723 -1.4236 0.5413 0 1
4.6702 1.7745 -1.4356 0.5368 0 1
4.6379 1.9788 -1.4489 0.5319 0 1
4.6012 2.1855 -1.4637 0.5262 0 1
4.5603 2.3950 -1.4801 0.5203 0 1
4.5146 2.6075 -1.4981 0.5141 0 1
4.4640 2.8232 -1.5177 0.5074 0 1
4.4082 3.0424 -1.5391 0.5004 0 1
4.3473 3.2656 -1.5623 0.4930 0 1
4.2810 3.4933 -1.5877 0.4851 0 1
4.2087 3.7255 -1.6151 0.4769 0 1
4.1300 3.9628 -1.6447 0.4683 0 1
4.0444 4.2054 -1.6766 0.4594 0 1
3.9489 4.4507 -1.7097 0.4634 0 1
3.8425 4.6980 -1.7440 0.4543 0 1
3.7291 4.9526 -1.7814 0.4428 0 1
3.6088 5.2162 -1.8226 0.4328 0 1
3.4791 5.4872 -1.8669 0.4225 0 1
3.3392 5.7663 -1.9147 0.4120 0 1
3.1882 6.0537 -1.9660 0.3983 0 1
3.0242 6.3482 -2.0205 0.3875 0 1
2.8458 6.6491 -2.0782 0.3994 0 1
2.6481 6.9457 -2.1359 0.3886 0 1
2.4360 7.2516 -2.1981 0.3776 0 1
2.2083 7.5677 -2.2652 0.3664 0 1
1.9669 7.9084 -2.3417 0.3354 0 1
1.7118 8.2914 -2.4327 0.3228 0 1
1.4337 8.6943 -2.5320 0.3101 0 1
1.1285 9.1083 -2.6372 0.3212 0 1
0.7929 9.5183 -2.7445 0.3060 0 1
0.4267 9.9299 -2.8559 0.2941 0 1
0.0288 10.3615 -2.9773 0.2821 0 1
-0.4060 10.8558 -3.1215 0.2560 0 1
-0.8831 11.3653 -3.2756 0.2479 0 24
-1.4136 11.9533 -3.4586 0.2301 0 1
-1.9878 12.4859 -3.6329 0.2184 0 24
-2.6339 13.1254 -3.8467 0.2050 0 24
-3.3742 13.8964 -4.1091 0.1900 0 1
-4.1916 14.6667 -4.3831 0.1742 0 1
-5.1083 15.4911 -4.6871 0.1674 0 1
-6.1353 16.3647 -5.0219 0.1588 0 1
-7.2846 17.2846 -5.3897 0.1474 0 1
-8.6141 18.3440 -5.8233 0.1239 0 1
-10.2231 19.6759 -6.3714 0.1132 0 1
-12.1623 21.2740 -7.0414 0.1067 0 1
-14.3667 22.9401 -7.7777 0.1019 0 1
-16.7453 24.4935 -8.5257 0.6052 0 2
-19.2516 25.8656 -9.2651 0.0794 0 2
-23.0923 28.5559 -10.5526 0.0698 0 25
-27.6208 31.4816 -12.0342 0.6839 0 3
-22.5417 23.7011 -9.3987 0.7159 0 5
-22.6612 21.9871 -9.0728 0.7206 0 5
-22.7612 20.3750 -8.7780 0.8232 0 5
-22.8369 18.8471 -8.5082 0.7063 0 5
-22.8966 17.3992 -8.2633 0.8418 0 5
-32.4324 22.6505 -11.3670 0.5559 0 3
-26.7810 17.1462 -9.1374 0.8517 0 3
-32.9477 19.2745 -10.9684 0.8711 0 3
-33.0838 17.6106 -10.7694 0.7828 0 3
-33.1424 15.9684 -10.5711 0.9884 0 3
-42.7764 18.5323 -13.3955 0.9214 0 3
-26.8039 7.9501 -8.0336 0.8764 0 22
-46.1065 7.8123 -13.4373 0.9910 0 22
-23.3131 -4.5714 -6.8265 0.9989 16 6
-32.9477 -31.0604 -13.0111 0.6542 0 20
-30.3896 -31.0461 -12.4834 0.6819 0 20
-26.6365 -29.4931 -11.4194 0.9584 0 9
-23.0378 -27.6652 -10.3449 0.7906 0 9
-20.5273 -26.7671 -9.6927 0.0759 0 2
-17.1976 -24.3946 -8.5764 0.0858 0 2
-14.8636 -22.9917 -7.8669 0.0721 0 1
-12.3752 -20.9416 -6.9896 0.1054 0 24
-10.5061 -19.5289 -6.3721 0.1142 0 1
-8.8733 -18.2106 -5.8209 0.1267 0 1
-7.4705 -17.0369 -5.3454 0.1428 0 1
-6.2697 -16.0184 -4.9428 0.1565 0 1
-5.2340 -15.1367 -4.6022 0.1679 0 1
-4.3266 -14.3546 -4.3080 0.1833 0 1
-3.5217 -13.6447 -4.0492 0.1973 0 1
-2.7946 -12.9577 -3.8089 0.2082 0 24
-2.1574 -12.4000 -3.6166 0.2258 0 1
-1.5726 -11.8356 -3.4308 0.2266 0 1
-1.0404 -11.2855 -3.2566 0.2381 0 1
-0.5577 -10.7635 -3.0970 0.2503 0 1
-0.1192 -10.2705 -2.9514 0.2617 0 1
0.2802 -9.8076 -2.8193 0.2760 0 1
0.6450 -9.3711 -2.6991 0.2883 0 1
0.9792 -8.9570 -2.5891 0.3005 0 1
1.2856 -8.5609 -2.4875 0.3130 0 1
1.5668 -8.1815 -2.3936 0.3267 0 1
1.8210 -7.7992 -2.3013 0.3417 0 24
2.0666 -7.4804 -2.2300 0.3542 0 1
2.2889 -7.1526 -2.1579 0.3660 0 1
2.4947 -6.8369 -2.0912 0.3767 0 1
2.6850 -6.5314 -2.0292 0.3882 0 1
2.8617 -6.2365 -1.9717 0.3995 0 1
3.0258 -5.9513 -1.9184 0.4106 0 1
3.1783 -5.6750 -1.8690 0.4215 0 1
3.3167 -5.4013 -1.8213 0.4170 0 1
3.4370 -5.1237 -1.7728 0.4221 0 1
3.5501 -4.8586 -1.7291 0.4328 0 1
3.6544 -4.6015 -1.6885 0.4432 0 1
3.7507 -4.3518 -1.6508 0.4533 0 1
3.8394 -4.1089 -1.6159 0.4631 0 1
3.9219 -3.8730 -1.5838 0.4917 0 1
4.0062 -3.6504 -1.5574 0.5000 0 1
4.0845 -3.4320 -1.5330 0.5080 0 1
4.1572 -3.2173 -1.5105 0.5156 0 1
4.2244 -3.0061 -1.4898 0.5227 0 1
4.2869 -2.7983 -1.4710 0.5295 0 1
4.3453 -2.5938 -1.4541 0.5356 0 1
4.3991 -2.3917 -1.4388 0.5413 0 1
4.4483 -2.1918 -1.4249 0.5467 0 1
4.4934 -1.9940 -1.4126 0.5515 0 1
4.5342 -1.7978 -1.4016 0.5558 0 1
4.5711 -1.6032 -1.3919 0.5596 0 1
4.6041 -1.4099 -1.3836 0.5630 0 1
4.6333 -1.2177 -1.3766 0.5659 0 1
3.9221 -0.8640 -1.1540 0.7322 25 14
3.8713 -0.6911 -1.1300 0.7454 25 14
3.8612 -0.5304 -1.1199 0.7520 25 14
3.8523 -0.3723 -1.1121 0.7574 25 14
3.8443 -0.2162 -1.1064 0.7612 25 14
3.8373 -0.0615 -1.1028 0.7637 25 14
3.8361 0.0927 -1.1026 0.7639 25 14
3.8378 0.2472 -1.1051 0.7622 25 14
3.8405 0.4027 -1.1096 0.7591 25 14
3.8441 0.5599 -1.1162 0.7545 25 14
3.8587 0.7213 -1.1280 0.7492 25 14
4.1453 0.9486 -1.2219 0.6803 25 14
4.7316 1.2848 -1.4088 0.5470 0 1
4.7094 1.4842 -1.4188 0.5432 0 1
4.6831 1.6854 -1.4301 0.5389 0 1
4.6526 1.8887 -1.4429 0.5341 0 1
4.6178 2.0943 -1.4570 0.5289 0 1
4.5789 2.3026 -1.4727 0.5229 0 1
4.5353 2.5138 -1.4900 0.5169 0 1
4.4869 2.7280 -1.5089 0.5104 0 1
4.4334 2.9456 -1.5295 0.5035 0 1
4.3746 3.1669 -1.5518 0.4963 0 1
4.3108 3.3927 -1.5763 0.4886 0 1
4.2412 3.6229 -1.6028 0.4805 0 1
4.1654 3.8579 -1.6314 0.4721 0 1
4.0829 4.0981 -1.6622 0.4634 0 1
3.9932 4.3438 -1.6954 0.4673 0 1
3.8902 4.5886 -1.7286 0.4584 0 1
3.7793 4.8391 -1.7643 0.4491 0 1
3.6628 5.0995 -1.8041 0.4372 0 1
3.5373 5.3672 -1.8470 0.4271 0 1
3.4020 5.6426 -1.8933 0.4166 0 1
3.2561 5.9266 -1.9431 0.4060 0 1
3.0978 6.2176 -1.9961 0.3923 0 1
2.9266 6.5173 -2.0529 0.3818 0 1
2.7367 6.8142 -2.1100 0.3933 0 1
2.5311 7.1160 -2.1702 0.3824 0 1
2.3104 7.4275 -2.2351 0.3713 0 1
2.0733 7.7496 -2.3051 0.3601 0 1
1.8266 8.1208 -2.3918 0.3283 0 1
1.5589 8.5147 -2.4873 0.3157 0 1
-22.4997 22.8361 -9.5976 0.7189 0 5
-22.6219 21.1869 -9.2790 0.7513 0 5
-22.7258 19.6321 -8.9908 0.7926 0 5
-22.7703 18.1262 -8.7132 0.8102 0 5
-22.8502 16.7362 -8.4795 0.8707 0 5
-32.6902 21.9827 -11.7938 0.8413 0 3
-26.5248 16.3295 -9.3252 0.7456 0 3
-28.4679 15.9863 -9.7746 0.6375 0 3
-32.9797 16.8152 -11.0828 0.9913 0 3
-36.8951 16.9809 -12.1594 0.9998 0 3
-42.5663 17.5559 -13.7848 0.5655 0 3
-26.6717 8.5688 -8.3870 0.5787 0 6
-45.9304 8.8506 -14.0036 0.9736 0 22
-45.9711 6.9572 -13.9196 0.9566 0 22
-34.4873 -31.0753 -13.8980 0.6354 0 20
-29.4135 -28.7257 -12.3086 0.6949 0 9
-25.6399 -27.1356 -11.1767 0.8248 0 9
-22.9377 -26.3167 -10.4514 0.7600 0 9
-19.6845 -24.5051 -9.4102 0.0812 0 2
-17.0686 -23.0896 -8.5963 0.8341 0 2
-14.3242 -21.0998 -7.6350 0.0816 0 24
-12.2819 -19.7543 -6.9639 0.1082 0 1
-10.4851 -18.4800 -6.3610 0.1202 0 1
-8.9357 -17.3363 -5.8390 0.1296 0 1
-7.6026 -16.3283 -5.3923 0.1443 0 1
-6.4414 -15.4245 -5.0043 0.1605 0 1
-5.4306 -14.6301 -4.6720 0.1756 0 1
-4.5396 -13.9190 -4.3831 0.1871 0 1
-3.7451 -13.2683 -4.1275 0.2011 0 1
-3.0312 -12.6641 -3.8985 0.2176 0 1
-2.3891 -12.1107 -3.6956 0.2235 0 1
-1.7977 -11.5344 -3.4949 0.2321 0 24
-1.2720 -11.0659 -3.3347 0.2421 0 1
-0.7870 -10.5757 -3.1749 0.2536 0 1
-0.3450 -10.1085 -3.0281 0.2649 0 1
0.0585 -9.6692 -2.8948 0.2792 0 1
0.4279 -9.2525 -2.7730 0.2914 0 1
0.7668 -8.8559 -2.6612 0.3036 0 1
1.0785 -8.4778 -2.5585 0.3158 0 1
1.3651 -8.1129 -2.4630 0.3283 0 1
1.6299 -7.7662 -2.3757 0.3453 0 1
1.8697 -7.4142 -2.2892 0.3566 0 24
2.1023 -7.1180 -2.2220 0.3691 0 1
2.3131 -6.8117 -2.1537 0.3809 0 1
2.5082 -6.5146 -2.0899 0.3915 0 1
2.6894 -6.2273 -2.0308 0.4029 0 1
2.8580 -5.9491 -1.9759 0.4140 0 1
