ply
format ascii 1.0
element vertex 1383
property float32 x
property float32 y
property float32 z
property float32 CosAngle
property uint32 ObjIdx
property uint32 ObjTag
end_header
6.2653 -4.1408 -0.2706 0.8077 14 6
7.4707 -4.5172 -0.3146 0.3060 0 25
7.4898 -4.1275 -0.3081 0.3123 0 25
7.5070 -3.7522 -0.3024 0.3183 0 25
7.5222 -3.3894 -0.2973 0.3238 0 25
7.5357 -3.0377 -0.2927 0.3288 0 25
7.5476 -2.6955 -0.2888 0.3333 0 25
7.5589 -2.3618 -0.2853 0.3388 0 2
7.8314 -2.1058 -0.2922 0.3416 0 1
7.8230 -1.7701 -0.2890 0.3444 0 24
4.4401 -0.8187 -0.1627 0.0262 25 14
3.9329 -0.5630 -0.1431 0.9692 25 14
3.9243 -0.4017 -0.1421 0.9761 25 14
3.9157 -0.2425 -0.1414 0.9815 25 14
3.8901 -0.0844 -0.1402 0.9823 25 14
3.8845 0.0718 -0.1400 0.9838 25 14
3.9095 0.2295 -0.1411 0.9760 25 14
3.9234 0.3889 -0.1421 0.9767 25 14
3.9325 0.5500 -0.1431 0.9697 25 14
4.1641 0.7540 -0.1525 0.2576 25 14
8.0220 1.7880 -0.2961 0.3351 0 24
8.0722 2.1428 -0.3009 0.3307 0 1
8.0922 2.5000 -0.3052 0.3236 0 1
8.1084 2.8664 -0.3099 0.3187 0 1
8.1237 3.2444 -0.3152 0.3133 0 1
8.1381 3.6355 -0.3211 0.3075 0 1
8.1516 4.0417 -0.3278 0.3012 0 1
8.1360 4.4496 -0.3341 0.3113 0 1
8.1023 4.8636 -0.3405 0.3050 0 1
8.0653 5.2933 -0.3476 0.2988 0 1
8.0252 5.7408 -0.3555 0.2921 0 1
7.9724 6.2018 -0.3639 0.3228 0 1
7.8652 6.6421 -0.3709 0.3146 0 1
7.7570 7.1035 -0.3790 0.3079 0 1
7.6423 7.5847 -0.3879 0.3008 0 1
7.6404 8.2176 -0.4043 0.2643 0 2
7.2327 8.4344 -0.4003 0.9038 0 2
7.1461 9.0444 -0.4153 0.2311 0 2
6.5247 8.9766 -0.3998 0.6346 22 6
7.0246 10.5290 -0.4560 0.2104 0 2
6.9514 11.3843 -0.4806 0.1997 0 2
6.8677 12.3349 -0.5087 0.1887 0 2
6.7713 13.4012 -0.5410 0.1774 0 2
6.6594 14.6094 -0.5785 0.1659 0 2
6.5283 15.9943 -0.6224 0.1542 0 2
6.3729 17.6028 -0.6745 0.1423 0 2
6.1862 19.5003 -0.7371 0.1302 0 2
5.9582 21.7799 -0.8136 0.1180 0 2
5.6739 24.5793 -0.9089 0.1056 0 2
5.3103 28.1115 -1.0308 0.0931 0 2
2.3217 15.7308 -0.5729 0.3981 0 9
1.7126 16.0395 -0.5812 0.2564 0 9
1.0151 15.3104 -0.5529 0.7576 0 9
-0.2045 14.4776 -0.5217 0.7784 0 9
-29.2329 37.9183 -1.7251 0.9280 0 3
-31.1102 37.1658 -1.7463 0.6145 0 3
-31.1159 34.2766 -1.6680 0.6433 0 3
-31.1203 31.6306 -1.5988 0.6712 0 3
-34.8157 32.6536 -1.7198 0.6884 0 3
-31.1258 26.9271 -1.4829 0.7236 0 3
-34.6926 27.6571 -1.5986 0.6280 0 3
-31.1275 22.8326 -1.3909 0.7715 0 3
-33.6521 22.6639 -1.4618 0.5636 0 3
-36.1334 22.2799 -1.5295 0.8144 0 3
-31.3137 17.6132 -1.2945 0.8754 0 3
-31.3101 15.9915 -1.2667 0.8562 0 3
-34.7848 16.0391 -1.3801 0.3665 0 3
-40.7618 16.8448 -1.5891 0.2618 0 3
-43.7918 16.0702 -1.6807 0.3503 0 3
-34.5830 -33.7303 -1.7406 0.9782 0 20
-33.0873 -34.9719 -1.7346 0.9811 0 20
1.8614 -40.7979 -1.4715 0.7971 0 20
3.7188 -43.2573 -1.5643 0.0613 0 2
4.5184 -35.6921 -1.2963 0.0740 0 2
5.0816 -30.3137 -1.1075 0.0867 0 2
5.4991 -26.2826 -0.9675 0.0992 0 2
5.8205 -23.1403 -0.8597 0.1116 0 2
6.0752 -20.6150 -0.7743 0.1239 0 2
6.2816 -18.5354 -0.7051 0.1361 0 2
6.4520 -16.7882 -0.6480 0.1481 0 2
6.9656 -16.1553 -0.6339 0.1766 0 2
6.9371 -14.4624 -0.5779 0.1501 0 1
6.9874 -13.1822 -0.5376 0.1871 0 24
7.1381 -12.2508 -0.5109 0.1929 0 1
7.2313 -11.3381 -0.4845 0.2051 0 1
7.3096 -10.5052 -0.4611 0.2155 0 1
7.3774 -9.7434 -0.4403 0.2195 0 1
7.4244 -9.0280 -0.4212 0.2295 0 1
7.4660 -8.3695 -0.4041 0.2392 0 1
7.5111 -7.7682 -0.3893 0.2632 0 1
7.5318 -7.1883 -0.3751 0.2749 0 24
7.5728 -6.6674 -0.3635 0.2859 0 24
7.6113 -6.1768 -0.3532 0.2945 0 24
7.4157 -5.5394 -0.3335 0.2897 0 2
6.2670 -4.3004 -0.2739 0.7980 14 6
6.4687 -4.0667 -0.2753 0.5721 14 6
7.4818 -4.2944 -0.3108 0.3096 0 25
7.4998 -3.9131 -0.3048 0.3158 0 25
7.5158 -3.5451 -0.2994 0.3214 0 25
7.5301 -3.1888 -0.2946 0.3266 0 25
7.5426 -2.8426 -0.2904 0.3314 0 25
7.5536 -2.5052 -0.2867 0.3356 0 25
7.7615 -2.2325 -0.2910 0.3418 0 2
7.8421 -1.9184 -0.2909 0.3432 0 1
7.8607 -1.5914 -0.2890 0.3457 0 1
3.9614 -0.6376 -0.1446 0.3102 25 14
3.9280 -0.4713 -0.1425 0.9733 25 14
3.9194 -0.3113 -0.1417 0.9794 25 14
3.9012 -0.1526 -0.1407 0.9790 25 14
3.8758 0.0042 -0.1396 0.9862 25 14
3.8986 0.1609 -0.1406 0.9796 25 14
3.9195 0.3198 -0.1417 0.9792 25 14
3.9285 0.4800 -0.1426 0.9729 25 14
3.9656 0.6471 -0.1448 0.3099 25 14
8.0440 1.6466 -0.2958 0.3384 0 1
8.0632 1.9909 -0.2992 0.3335 0 1
8.0848 2.3444 -0.3033 0.3281 0 1
8.1015 2.7063 -0.3078 0.3209 0 1
8.1172 3.0791 -0.3128 0.3157 0 1
8.1320 3.4643 -0.3185 0.3101 0 1
8.1459 3.8638 -0.3248 0.3040 0 1
8.1486 4.2740 -0.3315 0.3137 0 1
8.1174 4.6825 -0.3376 0.3076 0 1
8.0817 5.1051 -0.3444 0.3015 0 1
8.0430 5.5446 -0.3520 0.2950 0 1
8.0009 6.0034 -0.3604 0.2881 0 1
7.9103 6.4478 -0.3677 0.3174 0 1
7.8046 6.9013 -0.3754 0.3109 0 1
7.6928 7.3736 -0.3839 0.3039 0 1
7.6706 7.9675 -0.3985 0.2682 0 2
7.4443 8.3815 -0.4039 0.8647 0 2
7.1688 8.7555 -0.4077 0.2354 0 2
6.7297 8.9279 -0.4028 0.8250 22 6
6.5062 9.3936 -0.4117 0.2150 22 6
6.9843 11.0031 -0.4696 0.2044 0 2
6.9053 11.9102 -0.4960 0.1935 0 2
6.8147 12.9236 -0.5264 0.1823 0 2
6.7100 14.0666 -0.5615 0.1709 0 2
6.5877 15.3700 -0.6025 0.1593 0 2
6.4436 16.8749 -0.6508 0.1475 0 2
6.2715 18.6377 -0.7085 0.1354 0 2
6.0629 20.7379 -0.7785 0.1233 0 2
5.8052 23.2914 -0.8649 0.1110 0 2
5.4795 26.4732 -0.9741 0.0985 0 2
2.2712 13.7298 -0.5014 0.8408 0 9
1.7768 14.2822 -0.5186 0.9299 0 9
2.1205 25.3053 -0.9150 0.8626 0 9
1.1646 26.7942 -0.9663 0.9982 0 20
0.0480 14.6537 -0.5280 0.8896 0 9
-31.1072 38.5039 -1.7835 0.6017 0 3
-31.1136 35.4958 -1.7007 0.6309 0 3
-30.9819 32.6056 -1.6206 0.2398 0 3
-31.1227 30.2247 -1.5631 0.6355 0 3
-31.1249 27.8878 -1.5057 0.7126 0 3
-33.4900 27.6648 -1.5651 0.6414 0 3
-30.1418 22.9267 -1.3645 0.9722 0 3
-31.1249 21.7585 -1.3683 0.7842 0 3
-35.3467 22.6530 -1.5126 0.5447 0 3
-31.1229 18.2258 -1.2995 0.8257 0 3
-36.1302 19.2531 -1.4751 0.8445 0 3
-35.3834 17.0677 -1.4154 0.2520 0 3
-40.8532 17.7209 -1.6045 0.4036 0 3
-43.5501 16.8469 -1.6824 0.2663 0 3
1.6492 -26.1474 -1.2348 0.1886 0 20
3.5450 -34.2436 -1.6226 0.0773 0 2
4.2257 -29.2818 -1.3944 0.0900 0 2
4.7359 -25.5202 -1.2233 0.1026 0 2
4.2036 -18.4807 -0.8933 0.7970 0 6
5.4479 -20.1688 -0.9846 0.1274 0 2
5.7053 -18.1868 -0.8983 0.1397 0 2
6.0315 -16.8285 -0.8425 0.9982 0 2
6.3500 -15.7014 -0.7983 0.1382 0 1
6.4331 -14.2339 -0.7362 0.1541 0 1
6.5775 -13.1224 -0.6918 0.1873 0 1
6.7041 -12.1328 -0.6533 0.1972 0 1
6.8196 -11.2495 -0.6200 0.2105 0 1
6.9187 -10.4427 -0.5904 0.2200 0 1
7.0027 -9.6997 -0.5638 0.2241 0 1
7.0660 -9.0023 -0.5394 0.2343 0 1
7.1233 -8.3610 -0.5177 0.2588 0 1
7.1888 -7.7818 -0.4993 0.2684 0 1
7.2624 -7.2542 -0.4838 0.2867 0 1
7.3340 -6.7596 -0.4701 0.2951 0 1
7.3948 -6.2857 -0.4574 0.2608 0 1
7.1351 -5.5873 -0.4271 0.2923 0 2
7.1672 -5.1620 -0.4163 0.3023 0 25
6.2818 -4.1517 -0.3549 0.8052 14 6
6.6929 -4.0469 -0.3686 0.9003 14 6
7.2458 -3.9930 -0.3899 0.3227 0 25
7.2668 -3.6321 -0.3829 0.3286 0 25
7.2855 -3.2828 -0.3766 0.3341 0 25
7.3021 -2.9435 -0.3711 0.3391 0 25
7.3167 -2.6130 -0.3662 0.3436 0 25
7.3336 -2.2914 -0.3621 0.3558 0 2
7.5963 -2.0426 -0.3707 0.3496 0 1
7.5911 -1.7176 -0.3668 0.3549 0 24
4.1438 -0.7641 -0.1986 0.2953 25 14
3.9245 -0.5618 -0.1868 0.9708 25 14
3.9159 -0.4009 -0.1855 0.9778 25 14
3.9073 -0.2420 -0.1845 0.9831 25 14
3.8865 -0.0843 -0.1832 0.9828 25 14
3.8812 0.0717 -0.1830 0.9842 25 14
3.9062 0.2293 -0.1844 0.9836 25 14
3.9151 0.3881 -0.1854 0.9783 25 14
3.9241 0.5489 -0.1867 0.9714 25 14
4.0993 0.7423 -0.1963 0.2987 25 14
7.7778 1.7336 -0.3756 0.3462 0 24
7.8233 2.0767 -0.3815 0.3411 0 1
7.8369 2.4211 -0.3866 0.3340 0 1
7.8488 2.7746 -0.3924 0.3291 0 1
7.8593 3.1388 -0.3989 0.3237 0 1
7.8684 3.5151 -0.4062 0.3179 0 1
7.8761 3.9051 -0.4143 0.3116 0 1
7.8693 4.3037 -0.4227 0.3212 0 1
7.8314 4.7011 -0.4305 0.3154 0 1
7.7903 5.1127 -0.4392 0.3092 0 1
7.7455 5.5408 -0.4488 0.3025 0 1
7.6967 5.9873 -0.4596 0.2954 0 1
7.6120 6.4282 -0.4696 0.3293 0 1
7.5028 6.8707 -0.4795 0.3225 0 1
7.3870 7.3314 -0.4905 0.3152 0 1
7.2238 8.4240 -0.5230 0.9039 0 2
6.8357 8.6516 -0.5197 0.2419 0 2
6.5027 8.9464 -0.5213 0.9558 22 6
6.6902 10.0278 -0.5681 0.2209 0 2
6.6035 10.8146 -0.5972 0.2101 0 2
6.5050 11.6835 -0.6303 0.1991 0 2
6.3922 12.6511 -0.6680 0.1878 0 2
6.2623 13.7383 -0.7116 0.1763 0 2
6.1114 14.9728 -0.7622 0.1646 0 2
5.9342 16.3911 -0.8216 0.1527 0 2
5.7238 18.0427 -0.8921 0.1406 0 2
5.4704 19.9968 -0.9771 0.1284 0 2
5.1599 22.3526 -1.0812 0.1161 0 2
4.7712 25.2580 -1.2115 0.1036 0 2
2.3063 15.6260 -0.7444 0.9068 0 9
2.9137 27.2893 -1.2935 0.7472 0 20
1.1362 17.1373 -0.8095 0.3194 0 9
0.4451 17.0920 -0.8058 0.3277 0 9
-19.7507 36.4901 -1.9556 0.9734 0 6
-29.7543 38.5946 -2.2968 0.1492 0 3
-29.3010 35.0044 -2.1515 0.1619 0 3
-30.9463 34.0897 -2.1700 0.6466 0 3
-30.9577 31.4653 -2.0804 0.6744 0 3
-30.9671 29.0440 -2.0010 0.7011 0 3
-30.9748 26.7965 -1.9304 0.7268 0 3
-29.1916 23.2716 -1.7595 0.7766 0 3
-30.9833 22.7268 -1.8110 0.7746 0 3
-30.9870 20.8690 -1.7608 0.7967 0 3
-30.9895 19.1082 -1.7159 0.8176 0 3
-31.6096 17.7797 -1.7093 0.4953 0 3
-35.0295 17.8912 -1.8539 0.8553 0 3
-36.8951 17.0121 -1.9149 0.2531 0 3
-42.8480 17.7069 -2.1851 0.3875 0 3
-45.4472 16.6777 -2.2816 0.2425 0 3
-34.5391 -33.6876 -2.2739 0.9785 0 20
-33.0102 -34.8905 -2.2638 0.9829 0 20
1.8621 -40.8151 -1.9257 0.8190 0 20
3.1745 -36.9262 -1.7468 0.0718 0 2
3.9563 -31.2521 -1.4847 0.0845 0 2
4.5315 -27.0325 -1.2918 0.0971 0 2
4.9719 -23.7629 -1.1442 0.1097 0 2
5.3193 -21.1476 -1.0278 0.1221 0 2
5.5999 -19.0023 -0.9337 0.1344 0 2
5.8309 -17.2057 -0.8562 0.1465 0 2
6.3564 -16.5394 -0.8351 0.1753 0 2
6.3945 -14.8307 -0.7612 0.1450 0 1
6.4728 -13.4946 -0.7054 0.1791 0 24
6.6519 -12.5491 -0.6694 0.1925 0 1
6.7709 -11.6206 -0.6339 0.2059 0 1
6.8780 -10.7841 -0.6028 0.2155 0 1
6.9689 -10.0155 -0.5751 0.2259 0 1
7.0395 -9.2972 -0.5496 0.2299 0 1
7.0986 -8.6319 -0.5267 0.2399 0 1
7.1612 -8.0279 -0.5070 0.2643 0 1
7.2295 -7.4770 -0.4902 0.2830 0 1
7.3037 -6.9706 -0.4758 0.2915 0 1
7.3721 -6.4906 -0.4629 0.2996 0 1
7.4042 -6.0088 -0.4494 0.2654 0 1
7.1536 -5.3436 -0.4208 0.2990 0 25
6.2838 -4.3119 -0.3592 0.7955 14 6
6.4535 -4.0571 -0.3593 0.5732 14 6
7.2360 -4.1534 -0.3932 0.3200 0 25
7.2580 -3.7870 -0.3858 0.3261 0 25
7.2777 -3.4328 -0.3792 0.3318 0 25
7.2952 -3.0893 -0.3734 0.3370 0 25
7.3106 -2.7552 -0.3682 0.3417 0 25
7.5869 -2.1823 -0.3721 0.3483 0 1
7.6088 -1.8613 -0.3692 0.3530 0 1
7.6286 -1.5444 -0.3668 0.3568 0 1
3.9282 -0.6323 -0.1875 0.9673 25 14
3.9196 -0.4703 -0.1861 0.9749 25 14
3.9110 -0.3106 -0.1849 0.9810 25 14
3.8975 -0.1524 -0.1838 0.9795 25 14
3.8722 0.0042 -0.1825 0.9866 25 14
3.8953 0.1607 -0.1837 0.9799 25 14
3.9112 0.3191 -0.1850 0.9808 25 14
3.9202 0.4790 -0.1861 0.9745 25 14
3.9293 0.6411 -0.1876 0.9667 25 14
7.8015 1.5969 -0.3753 0.3487 0 1
7.8168 1.9300 -0.3795 0.3449 0 1
7.8314 2.2709 -0.3843 0.3360 0 1
7.8438 2.6203 -0.3898 0.3313 0 1
7.8550 2.9797 -0.3960 0.3261 0 1
7.8647 3.3505 -0.4029 0.3205 0 1
7.8730 3.7343 -0.4107 0.3144 0 1
7.8797 4.1330 -0.4194 0.3079 0 1
7.8482 4.5273 -0.4270 0.3180 0 1
7.8085 4.9325 -0.4353 0.3119 0 1
7.7653 5.3532 -0.4445 0.3055 0 1
7.7184 5.7914 -0.4548 0.2986 0 1
7.6574 6.2416 -0.4656 0.3321 0 1
7.5509 6.6769 -0.4751 0.3255 0 1
7.4380 7.1294 -0.4856 0.3184 0 1
7.3201 7.6035 -0.4974 0.3054 0 1
7.3031 8.2225 -0.5183 0.2701 0 2
6.9580 8.4980 -0.5176 0.9139 0 2
6.7286 8.9265 -0.5269 0.7939 22 6
6.4827 9.3597 -0.5366 0.5298 22 6
6.6424 10.4645 -0.5842 0.2148 0 2
6.5493 11.2961 -0.6154 0.2039 0 2
6.4430 12.2186 -0.6510 0.1927 0 2
6.3210 13.2511 -0.6920 0.1813 0 2
6.1797 14.4179 -0.7393 0.1697 0 2
6.0146 15.7513 -0.7947 0.1579 0 2
5.8196 17.2947 -0.8600 0.1459 0 2
5.5862 19.1076 -0.9383 0.1337 0 2
5.3025 21.2747 -1.0334 0.1214 0 2
4.9509 23.9196 -1.1513 0.1090 0 2
4.5046 27.2314 -1.3009 0.0965 0 2
2.5721 20.6753 -0.9820 0.9677 0 20
2.5549 30.4882 -1.4420 0.2789 0 20
0.7417 17.0641 -0.8050 0.1900 0 9
0.0472 14.4301 -0.6801 0.9291 0 9
-29.5057 36.5217 -2.2129 0.1454 0 3
-29.2465 33.3658 -2.0912 0.6342 0 3
-30.1124 31.6906 -2.0604 0.9553 0 3
-30.9632 30.0699 -2.0343 0.6897 0 3
-30.8108 27.6063 -1.9498 0.7982 0 3
-29.2002 24.1212 -1.7851 0.5780 0 3
-30.9840 23.5672 -1.8347 0.7647 0 3
-30.9855 21.6611 -1.7818 0.7873 0 3
-30.9885 19.8599 -1.7347 0.8087 0 3
-30.9905 18.1483 -1.6926 0.8288 0 3
-35.9799 19.1731 -1.9215 0.8476 0 3
-36.3242 17.5215 -1.9008 0.8651 0 3
-40.2717 17.4687 -2.0689 0.7875 0 3
-41.2032 15.9390 -2.0822 0.9501 0 3
1.0250 -44.8953 -2.6155 0.0582 0 1
1.6472 -26.1152 -1.5241 0.9836 0 20
3.1204 -30.1416 -1.7649 0.0878 0 2
3.7832 -26.2157 -1.5427 0.1005 0 2
4.2952 -23.1454 -1.3711 0.1130 0 2
4.2166 -18.5380 -1.1073 0.7769 0 6
5.0323 -18.6302 -1.1240 0.1379 0 2
5.3833 -17.1604 -1.0475 0.9689 0 2
5.8999 -14.5884 -0.9165 0.1487 0 1
6.0642 -13.4177 -0.8576 0.1867 0 1
6.2260 -12.4210 -0.8092 0.1966 0 1
6.3671 -11.5228 -0.7668 0.2103 0 1
6.4942 -10.7128 -0.7296 0.2210 0 1
6.6024 -9.9653 -0.6962 0.2304 0 1
6.6881 -9.2640 -0.6655 0.2345 0 1
6.7653 -8.6193 -0.6382 0.2593 0 1
6.8455 -8.0350 -0.6148 0.2692 0 1
6.9229 -7.4941 -0.5942 0.2883 0 1
7.0057 -6.9978 -0.5767 0.2971 0 1
7.0786 -6.5242 -0.5607 0.2628 0 1
7.1062 -6.0403 -0.5432 0.2712 0 1
6.8888 -5.3945 -0.5096 0.3050 0 25
6.9261 -4.9883 -0.4971 0.3126 0 25
6.2985 -4.1627 -0.4397 0.8025 14 6
6.6042 -3.9933 -0.4495 0.5842 14 6
7.0170 -3.8669 -0.4666 0.3330 0 25
7.0413 -3.5194 -0.4585 0.3390 0 25
7.0630 -3.1825 -0.4512 0.3444 0 25
7.0823 -2.8549 -0.4447 0.3494 0 25
7.0993 -2.5353 -0.4391 0.3540 0 25
7.2669 -2.2706 -0.4434 0.4997 0 2
7.3742 -1.9829 -0.4448 0.3607 0 1
7.3986 -1.6740 -0.4418 0.3644 0 1
4.0786 -0.7521 -0.2416 0.2998 25 14
3.9160 -0.5606 -0.2304 0.9723 25 14
3.9075 -0.4000 -0.2288 0.9793 25 14
3.8990 -0.2415 -0.2275 0.9847 25 14
3.8829 -0.0842 -0.2262 0.9831 25 14
3.8780 0.0717 -0.2259 0.9844 25 14
3.8980 0.2288 -0.2274 0.9851 25 14
3.9069 0.3873 -0.2287 0.9798 25 14
3.9158 0.5477 -0.2303 0.9728 25 14
4.0417 0.7319 -0.2392 0.3028 25 14
7.5815 1.6898 -0.4524 0.3624 0 1
7.5930 2.0156 -0.4576 0.3583 0 1
7.6025 2.3487 -0.4634 0.3539 0 1
7.6102 2.6903 -0.4701 0.3489 0 1
7.6162 3.0417 -0.4777 0.3434 0 1
7.6204 3.4042 -0.4861 0.3374 0 1
7.6227 3.7794 -0.4955 0.3310 0 1
7.6189 4.1668 -0.5058 0.3210 0 1
7.5790 4.5495 -0.5149 0.3278 0 1
7.5345 4.9449 -0.5249 0.3215 0 1
7.4860 5.3551 -0.5361 0.3148 0 1
7.4331 5.7822 -0.5485 0.3077 0 1
7.3772 6.2299 -0.5624 0.3396 0 1
7.2666 6.6544 -0.5739 0.3328 0 1
7.1493 7.0954 -0.5867 0.3255 0 1
7.0308 7.5620 -0.6014 0.3120 0 1
6.9910 8.1525 -0.6255 0.2764 0 2
6.7560 8.5507 -0.6347 0.9429 0 2
6.4724 8.9048 -0.6412 0.2417 0 2
6.3859 9.5716 -0.6702 0.2312 0 2
6.2885 10.2987 -0.7028 0.2205 0 2
6.1784 11.0969 -0.7397 0.2095 0 2
6.0531 11.9798 -0.7818 0.1982 0 2
5.9096 12.9645 -0.8298 0.1867 0 2
5.7442 14.0731 -0.8853 0.1750 0 2
5.5517 15.3343 -0.9499 0.1632 0 2
5.3253 16.7866 -1.0257 0.1511 0 2
5.0560 18.4821 -1.1160 0.1389 0 2
4.7308 20.4941 -1.2250 0.1265 0 2
4.3311 22.9282 -1.3590 0.1140 0 2
2.3016 15.5943 -0.9181 0.9672 0 9
1.9891 18.6293 -1.0912 0.1047 0 20
1.5384 23.2030 -1.3544 0.9958 0 20
1.1386 43.7193 -2.5472 0.0711 0 1
-0.2051 14.5186 -0.8457 0.4599 0 9
-30.7570 36.7438 -2.7909 0.6209 0 3
-30.7783 33.9047 -2.6670 0.6497 0 3
-30.4450 30.9441 -2.5283 0.1674 0 3
-29.8130 27.9616 -2.3806 0.7043 0 3
-29.7337 25.7228 -2.2899 0.1849 0 3
-29.4455 23.4740 -2.1933 0.1930 0 3
-29.1886 21.4103 -2.1084 0.1952 0 3
-29.1628 19.6405 -2.0478 0.7998 0 3
-30.8564 19.0261 -2.1114 0.8206 0 3
-29.0043 16.3143 -1.9382 0.9736 0 3
-34.8856 17.8177 -2.2815 0.8584 0 3
-37.9309 17.4897 -2.4328 0.2230 0 3
-42.5056 17.5654 -2.6787 0.9036 0 3
-34.4620 -33.6123 -2.8038 0.9820 0 20
-32.7250 -34.5890 -2.7733 0.9607 0 20
0.2641 -48.6654 -2.8345 0.0569 0 1
1.7425 -38.1937 -2.2268 0.0696 0 2
2.7688 -32.2074 -1.8828 0.0823 0 2
3.5182 -27.7912 -1.6316 0.0950 0 2
4.0885 -24.3898 -1.4404 0.1076 0 2
4.5365 -21.6820 -1.2902 0.1201 0 2
4.8971 -19.4693 -1.1693 0.1325 0 2
5.1932 -17.6222 -1.0700 0.1448 0 2
5.7367 -16.9276 -1.0410 0.1735 0 2
5.8487 -15.2183 -0.9496 0.1435 0 1
5.9866 -13.8848 -0.8807 0.1818 0 1
6.1590 -12.8403 -0.8294 0.1930 0 1
6.3070 -11.8985 -0.7843 0.2056 0 1
6.4410 -11.0544 -0.7452 0.2164 0 1
6.5572 -10.2812 -0.7102 0.2259 0 1
6.6534 -9.5621 -0.6785 0.2300 0 1
6.7310 -8.8897 -0.6494 0.2403 0 1
6.8118 -8.2831 -0.6246 0.2650 0 1
6.8875 -7.7210 -0.6026 0.2746 0 1
6.9707 -7.2094 -0.5841 0.2933 0 1
7.0497 -6.7281 -0.5676 0.3018 0 1
7.0948 -6.2464 -0.5506 0.2676 0 1
7.1167 -5.7754 -0.5338 0.2697 0 1
6.9104 -5.1619 -0.5024 0.3094 0 25
6.3006 -4.3235 -0.4451 0.7929 14 6
6.4384 -4.0476 -0.4429 0.5742 14 6
7.0056 -4.0211 -0.4705 0.3303 0 25
7.0311 -3.6686 -0.4619 0.3365 0 25
7.0539 -3.3272 -0.4543 0.3421 0 25
7.0742 -2.9957 -0.4474 0.3473 0 25
7.0922 -2.6728 -0.4414 0.3521 0 25
7.1097 -2.3580 -0.4363 0.3560 0 2
7.3640 -2.1182 -0.4463 0.3587 0 1
7.3883 -1.8074 -0.4430 0.3634 0 1
7.4100 -1.5001 -0.4403 0.3671 0 1
3.9197 -0.6309 -0.2312 0.9689 25 14
3.9112 -0.4693 -0.2294 0.9765 25 14
3.9027 -0.3100 -0.2280 0.9825 25 14
3.8939 -0.1523 -0.2270 0.9798 25 14
3.8686 0.0042 -0.2253 0.9870 25 14
3.8920 0.1606 -0.2269 0.9802 25 14
3.9030 0.3184 -0.2281 0.9823 25 14
3.9119 0.4779 -0.2295 0.9760 25 14
3.9209 0.6397 -0.2314 0.9682 25 14
7.5761 1.5508 -0.4504 0.3640 0 1
7.5883 1.8736 -0.4552 0.3602 0 1
7.5986 2.2034 -0.4608 0.3560 0 1
7.6071 2.5412 -0.4671 0.3511 0 1
7.6138 2.8882 -0.4743 0.3458 0 1
7.6188 3.2457 -0.4823 0.3401 0 1
7.6219 3.6152 -0.4913 0.3338 0 1
7.6231 3.9984 -0.5014 0.3272 0 1
7.5972 4.3824 -0.5108 0.3304 0 1
7.5542 4.7719 -0.5204 0.3243 0 1
7.5075 5.1754 -0.5311 0.3178 0 1
7.4566 5.5950 -0.5430 0.3108 0 1
7.4037 6.0348 -0.5563 0.3032 0 1
7.3153 6.4686 -0.5688 0.3358 0 1
7.2010 6.9022 -0.5810 0.3287 0 1
7.0795 7.3536 -0.5945 0.3212 0 1
6.9672 7.8443 -0.6111 0.3070 0 1
6.9380 8.4737 -0.6379 0.2711 0 2
6.5115 8.6384 -0.6301 0.8282 0 2
6.4246 9.2759 -0.6572 0.2358 0 2
6.3322 9.9757 -0.6882 0.2252 0 2
6.2278 10.7416 -0.7232 0.2143 0 2
6.1094 11.5860 -0.7629 0.2031 0 2
5.9742 12.5242 -0.8082 0.1917 0 2
5.8188 13.5760 -0.8603 0.1801 0 2
5.6388 14.7671 -0.9207 0.1683 0 2
5.4280 16.1311 -0.9913 0.1563 0 2
5.1787 17.7136 -1.0749 0.1442 0 2
4.8796 19.5778 -1.1752 0.1319 0 2
4.5149 21.8133 -1.2974 0.1194 0 2
4.0614 24.5525 -1.4495 0.1069 0 2
2.5470 20.4740 -1.2017 0.0943 0 20
2.7220 32.4822 -1.8985 0.0816 0 2
1.7625 40.5506 -2.3640 0.0732 0 1
0.1590 48.5814 -2.8296 0.0647 0 1
-30.7466 38.0576 -2.8496 0.6081 0 3
-30.7695 35.1032 -2.7188 0.6373 0 3
-30.5487 32.1497 -2.5830 0.6656 0 3
-29.9429 29.0791 -2.4310 0.4421 0 3
-29.7794 26.6822 -2.3288 0.7189 0 3
-29.5656 24.4230 -2.2335 0.1895 0 3
-29.3352 22.3131 -2.1467 0.1908 0 3
-29.1599 20.3848 -2.0722 0.7904 0 3
-30.8539 19.7736 -2.1344 0.8118 0 3
-30.8591 18.0714 -2.0829 0.8319 0 3
-35.8308 19.0936 -2.3647 0.8506 0 3
-36.7879 17.7452 -2.3789 0.4396 0 3
-40.8484 17.7188 -2.5933 0.4032 0 3
-45.7222 17.6871 -2.8553 0.3662 0 3
-0.7851 -45.2773 -3.1414 0.0545 0 24
0.8698 -38.0975 -2.6435 0.0721 0 1
1.6488 -26.1403 -1.8170 0.9914 0 20
2.7862 -26.9134 -1.8770 0.0983 0 2
3.4242 -23.7280 -1.6631 0.1109 0 2
3.9291 -21.1725 -1.4938 0.1235 0 2
4.2256 -18.5775 -1.3216 0.7747 0 6
4.7456 -17.5690 -1.2624 0.9327 0 2
5.3598 -14.9542 -1.1020 0.1465 0 1
5.5441 -13.7086 -1.0258 0.1871 0 1
5.7394 -12.6991 -0.9667 0.1971 0 1
5.9103 -11.7911 -0.9150 0.2097 0 1
6.0627 -10.9720 -0.8696 0.2207 0 1
6.1972 -10.2229 -0.8293 0.2303 0 1
6.3081 -9.5211 -0.7923 0.2345 0 1
6.4060 -8.8732 -0.7592 0.2595 0 1
6.5018 -8.2835 -0.7305 0.2696 0 1
6.5883 -7.7330 -0.7047 0.2795 0 1
6.6793 -7.2304 -0.6828 0.2986 0 1
6.7643 -6.7566 -0.6632 0.2644 0 1
6.8041 -6.2712 -0.6419 0.2732 0 1
6.8390 -5.8132 -0.6226 0.2816 0 1
6.6589 -5.2144 -0.5867 0.3153 0 25
6.7003 -4.8257 -0.5728 0.3229 0 25
6.2973 -4.1619 -0.5236 0.3302 14 6
6.6044 -3.9934 -0.5354 0.5215 14 6
6.8019 -3.7484 -0.5388 0.3433 0 25
6.8291 -3.4134 -0.5296 0.3493 0 25
6.8535 -3.0881 -0.5215 0.3547 0 25
6.8751 -2.7714 -0.5142 0.3597 0 25
6.8958 -2.4627 -0.5080 0.3619 0 2
7.1394 -2.2307 -0.5189 0.3680 0 1
7.1654 -1.9267 -0.5147 0.3722 0 1
7.1905 -1.6269 -0.5114 0.3746 0 1
4.0154 -0.7404 -0.2832 0.3043 25 14
3.9076 -0.5594 -0.2738 0.9738 25 14
3.8991 -0.3992 -0.2719 0.9807 25 14
3.8907 -0.2410 -0.2704 0.9861 25 14
3.8792 -0.0841 -0.2692 0.9833 25 14
3.8747 0.0716 -0.2688 0.9846 25 14
3.8899 0.2284 -0.2703 0.9865 25 14
3.8987 0.3865 -0.2718 0.9811 25 14
3.9075 0.5466 -0.2737 0.9742 25 14
3.9857 0.7217 -0.2810 0.3069 25 14
7.3678 1.6422 -0.5236 0.3727 0 1
7.3766 1.9581 -0.5294 0.3686 0 1
7.3832 2.2809 -0.5361 0.3642 0 1
7.3876 2.6116 -0.5436 0.3592 0 1
7.3899 2.9513 -0.5520 0.3537 0 1
7.3901 3.3014 -0.5615 0.3477 0 1
7.3880 3.6631 -0.5720 0.3413 0 1
7.3764 4.0341 -0.5832 0.3313 0 1
7.3426 4.4076 -0.5941 0.3381 0 1
7.2950 4.7877 -0.6053 0.3319 0 1
7.2432 5.1814 -0.6178 0.3252 0 1
7.1866 5.5905 -0.6316 0.3180 0 1
7.1319 6.0228 -0.6476 0.3100 0 1
7.0445 6.4511 -0.6626 0.3430 0 1
6.9261 6.8739 -0.6769 0.3358 0 1
6.8026 7.3166 -0.6930 0.3222 0 1
6.6859 7.7967 -0.7125 0.3134 0 1
6.6348 8.3973 -0.7424 0.2776 0 2
6.3233 8.6996 -0.7461 0.9733 0 2
6.1078 9.1547 -0.7634 0.2416 0 2
6.0019 9.8292 -0.7989 0.2309 0 2
5.8826 10.5658 -0.8389 0.2199 0 2
5.7477 11.3755 -0.8841 0.2086 0 2
5.5941 12.2724 -0.9356 0.1971 0 2
5.4182 13.2745 -0.9946 0.1854 0 2
5.2150 14.4045 -1.0627 0.1736 0 2
4.9783 15.6927 -1.1421 0.1615 0 2
4.6996 17.1791 -1.2355 0.1493 0 2
4.3672 18.9190 -1.3469 0.1369 0 2
3.9649 20.9896 -1.4818 0.1245 0 2
2.3039 15.6101 -1.0946 0.8788 0 9
2.2135 20.7306 -1.4463 0.6753 0 20
1.5383 23.2024 -1.6131 0.9951 0 20
0.9847 37.8104 -2.6238 0.0716 0 1
-0.6364 45.0457 -3.1251 0.0683 0 1
-29.7285 38.5611 -3.3776 0.7911 0 3
-30.5831 36.5361 -3.3053 0.6240 0 3
-30.6120 33.7214 -3.1594 0.6528 0 3
-30.6369 31.1392 -3.0303 0.6806 0 3
-30.6584 28.7544 -2.9158 0.7073 0 3
-30.6768 26.5387 -2.8139 0.7329 0 3
-30.6926 24.4682 -2.7229 0.7574 0 3
-30.7035 22.5215 -2.6415 0.7807 0 3
-30.3734 20.4558 -2.5403 0.1974 0 3
-30.1222 18.5734 -2.4549 0.2047 0 3
-29.9625 16.8532 -2.3847 0.2187 0 3
-34.7676 17.7574 -2.7082 0.4596 0 3
-40.9500 18.8818 -3.1281 0.8781 0 3
-34.4201 -33.5715 -3.3354 0.9515 0 20
-32.8795 -34.7524 -3.3188 0.3905 0 20
-18.6606 -27.4494 -2.3025 0.8291 0 22
0.2224 -40.9885 -2.8434 0.0692 0 1
1.5135 -33.1734 -2.3036 0.0801 0 2
2.4547 -28.5538 -1.9881 0.0928 0 2
3.1670 -25.0173 -1.7493 0.1054 0 2
3.7240 -22.2152 -1.5626 0.1180 0 2
4.1708 -19.9342 -1.4128 0.1306 0 2
4.5366 -18.0361 -1.2901 0.1430 0 2
5.1040 -17.3196 -1.2525 0.1714 0 2
5.2863 -15.5986 -1.1425 0.1413 0 1
5.4507 -14.1829 -1.0540 0.1845 0 1
5.6579 -13.1223 -0.9913 0.1922 0 1
5.8391 -12.1733 -0.9366 0.2022 0 1
5.9989 -11.3173 -0.8886 0.2160 0 1
6.1414 -10.5402 -0.8462 0.2268 0 1
6.2646 -9.8225 -0.8082 0.2299 0 1
6.3617 -9.1429 -0.7727 0.2404 0 1
6.4615 -8.5338 -0.7425 0.2653 0 1
6.5519 -7.9670 -0.7156 0.2753 0 1
6.6393 -7.4428 -0.6919 0.2947 0 1
6.7295 -6.9599 -0.6716 0.3036 0 1
6.7875 -6.4779 -0.6509 0.2694 0 1
6.8245 -6.0085 -0.6308 0.2780 0 1
6.6408 -5.3892 -0.5933 0.3119 0 2
6.6829 -4.9920 -0.5787 0.3197 0 25
6.2826 -4.3111 -0.5286 0.3271 14 6
6.3586 -3.9975 -0.5210 0.5999 14 6
6.7891 -3.8969 -0.5430 0.3406 0 25
6.8177 -3.5572 -0.5335 0.3467 0 25
6.8433 -3.2279 -0.5249 0.3524 0 25
6.8661 -2.9076 -0.5172 0.3576 0 25
6.8862 -2.5952 -0.5105 0.3623 0 25
7.0121 -2.3256 -0.5125 0.5796 0 2
7.1541 -2.0578 -0.5164 0.3698 0 1
7.1799 -1.7564 -0.5128 0.3736 0 1
4.2112 -0.8526 -0.2981 0.3248 25 14
3.9112 -0.6295 -0.2748 0.9703 25 14
3.9028 -0.4683 -0.2727 0.9779 25 14
3.8944 -0.3093 -0.2710 0.9839 25 14
3.8860 -0.1520 -0.2698 0.9884 25 14
3.8650 0.0042 -0.2681 0.9872 25 14
3.8860 0.1604 -0.2698 0.9883 25 14
3.8948 0.3178 -0.2711 0.9836 25 14
3.9037 0.4769 -0.2728 0.9774 25 14
3.9125 0.6384 -0.2750 0.9696 25 14
7.3634 1.5072 -0.5214 0.3743 0 1
7.3730 1.8205 -0.5268 0.3704 0 1
7.3806 2.1402 -0.5331 0.3662 0 1
7.3859 2.4673 -0.5402 0.3614 0 1
7.3892 2.8030 -0.5482 0.3561 0 1
7.3903 3.1484 -0.5572 0.3503 0 1
7.3892 3.5048 -0.5673 0.3441 0 1
7.3840 3.8730 -0.5784 0.3341 0 1
7.3620 4.2468 -0.5896 0.3407 0 1
7.3161 4.6215 -0.6003 0.3346 0 1
7.2662 5.0091 -0.6122 0.3281 0 1
7.2117 5.4113 -0.6254 0.3212 0 1
7.1551 5.8322 -0.6404 0.3135 0 1
7.0937 6.2727 -0.6569 0.3460 0 1
6.9783 6.6888 -0.6705 0.3390 0 1
6.8557 7.1210 -0.6857 0.3315 0 1
6.7375 7.5858 -0.7038 0.3173 0 1
6.6793 8.1577 -0.7314 0.2818 0 2
6.5029 8.6270 -0.7494 0.9505 0 2
6.1500 8.8794 -0.7493 0.2445 0 2
6.0493 9.5300 -0.7830 0.2356 0 2
5.9361 10.2384 -0.8210 0.2247 0 2
5.8083 11.0149 -0.8638 0.2135 0 2
5.6632 11.8721 -0.9125 0.2021 0 2
5.4974 12.8262 -0.9680 0.1905 0 2
5.3067 13.8975 -1.0320 0.1787 0 2
5.0855 15.1129 -1.1061 0.1667 0 2
4.8261 16.5077 -1.1931 0.1546 0 2
4.5187 18.1299 -1.2961 0.1423 0 2
4.1491 20.0458 -1.4201 0.1299 0 2
3.6972 22.3508 -1.5715 0.1174 0 2
2.5552 20.5398 -1.4358 0.8794 0 20
2.4109 28.7702 -2.0028 0.0921 0 2
1.5266 35.1226 -2.4388 0.0796 0 1
0.1366 41.7324 -2.8950 0.0744 0 1
-30.3917 37.6183 -3.3548 0.7516 0 3
-30.6000 34.9098 -3.2203 0.6404 0 3
-30.6266 32.2317 -3.0843 0.6687 0 3
-30.6495 29.7652 -2.9638 0.6958 0 3
-30.6692 27.4794 -2.8566 0.7220 0 3
-30.6861 25.3486 -2.7611 0.7469 0 3
-30.2614 23.0176 -2.6375 0.4824 0 3
-30.7101 21.4685 -2.5993 0.7934 0 3
-30.2265 19.3715 -2.4905 0.2018 0 3
-30.0108 17.5746 -2.4126 0.2134 0 3
-30.5718 16.2912 -2.4031 0.8691 0 3
-36.7859 17.7442 -2.8332 0.4393 0 3
-40.2597 17.4635 -3.0442 0.2157 0 3
-41.1881 15.9332 -3.0636 0.9531 0 3
-2.7363 -47.5313 -3.8333 0.0501 0 1
-0.6732 -38.8224 -3.1262 0.0740 0 1
0.7592 -33.2547 -2.6782 0.0837 0 1
1.6506 -26.1686 -2.1111 0.5772 0 20
2.5163 -24.3063 -1.9674 0.1087 0 2
3.1270 -21.6686 -1.7627 0.1213 0 2
3.6200 -19.5072 -1.5974 0.1339 0 2
4.1097 -18.0680 -1.4919 0.8852 0 2
4.8028 -15.3098 -1.2919 0.1449 0 1
5.0170 -13.9978 -1.1972 0.1884 0 1
5.2480 -12.9765 -1.1270 0.1975 0 1
5.4485 -12.0554 -1.0652 0.2090 0 1
5.6268 -11.2257 -1.0110 0.2201 0 1
5.7857 -10.4707 -0.9632 0.2310 0 1
5.9247 -9.7733 -0.9202 0.2341 0 1
6.0441 -9.1226 -0.8811 0.2593 0 1
6.1564 -8.5274 -0.8468 0.2698 0 1
6.2577 -7.9725 -0.8160 0.2799 0 1
6.3537 -7.4576 -0.7888 0.2998 0 1
6.4508 -6.9830 -0.7654 0.2657 0 1
6.5034 -6.4960 -0.7401 0.2748 0 1
6.5498 -6.0368 -0.7172 0.2836 0 1
6.5867 -5.5988 -0.6960 0.2855 0 1
6.4435 -5.0457 -0.6589 0.3255 0 25
6.4885 -4.6732 -0.6438 0.3332 0 25
6.2917 -4.1582 -0.6072 0.7592 14 6
6.5661 -3.9703 -0.6178 0.3472 0 25
6.5993 -3.6367 -0.6067 0.3536 0 25
6.6291 -3.3134 -0.5967 0.3595 0 25
6.6557 -2.9990 -0.5878 0.3650 0 25
6.6794 -2.6925 -0.5798 0.3699 0 25
6.7545 -2.4122 -0.5775 0.6620 0 2
6.9403 -2.1685 -0.5854 0.3782 0 1
6.9679 -1.8736 -0.5809 0.3825 0 1
6.9935 -1.5824 -0.5773 0.3849 0 1
3.9540 -0.7291 -0.3237 0.3088 25 14
3.8992 -0.5582 -0.3171 0.9750 25 14
3.8908 -0.3983 -0.3149 0.9820 25 14
3.8825 -0.2405 -0.3132 0.9873 25 14
3.8741 -0.0840 -0.3120 0.9911 25 14
3.8714 0.0715 -0.3118 0.9846 25 14
3.8817 0.2279 -0.3131 0.9877 25 14
3.8905 0.3857 -0.3148 0.9824 25 14
3.8992 0.5454 -0.3170 0.9755 25 14
3.9311 0.7118 -0.3217 0.3109 25 14
7.1654 1.5971 -0.5911 0.3829 0 1
7.1718 1.9038 -0.5974 0.3788 0 1
7.1758 2.2169 -0.6047 0.3744 0 1
7.1773 2.5372 -0.6129 0.3694 0 1
7.1764 2.8660 -0.6222 0.3639 0 1
7.1730 3.2044 -0.6325 0.3579 0 1
7.1670 3.5535 -0.6441 0.3515 0 1
7.1484 3.9095 -0.6560 0.3416 0 1
7.1202 4.2741 -0.6686 0.3484 0 1
7.0700 4.6400 -0.6809 0.3421 0 1
7.0153 5.0184 -0.6945 0.3354 0 1
6.9556 5.4108 -0.7095 0.3283 0 1
6.8974 5.8248 -0.7269 0.3202 0 1
6.8354 6.2595 -0.7462 0.3532 0 1
6.7161 6.6655 -0.7618 0.3460 0 1
6.5892 7.0871 -0.7791 0.3383 0 1
6.4697 7.5446 -0.8002 0.3236 0 1
6.3416 8.0262 -0.8236 0.3144 0 1
6.2787 8.6383 -0.8598 0.2783 0 2
5.9135 8.8635 -0.8579 0.9816 0 2
5.7398 9.4001 -0.8868 0.2412 0 2
5.6135 10.0824 -0.9291 0.2302 0 2
5.4713 10.8284 -0.9768 0.2190 0 2
5.3102 11.6495 -1.0308 0.2075 0 2
5.1268 12.5605 -1.0923 0.1958 0 2
4.9164 13.5798 -1.1628 0.1839 0 2
4.6733 14.7312 -1.2443 0.1719 0 2
4.3897 16.0462 -1.3394 0.1597 0 2
4.0551 17.5668 -1.4516 0.1474 0 2
3.6554 19.3509 -1.5856 0.1349 0 2
2.0006 13.5551 -1.1032 0.2570 0 20
2.5704 24.0739 -1.9493 0.1097 0 2
1.5383 23.2019 -1.8722 0.9943 0 20
0.8602 33.0272 -2.6600 0.0809 0 1
-0.5491 38.8698 -3.1299 0.0691 0 1
-2.5282 46.5212 -3.7511 0.0672 0 1
-31.5301 37.6674 -3.9550 0.7686 0 3
-30.4472 33.5399 -3.6472 0.6558 0 3
-30.4787 30.9784 -3.4990 0.6835 0 3
-30.5060 28.6115 -3.3674 0.7102 0 3
-30.5296 26.4113 -3.2502 0.7358 0 3
-28.7433 22.9143 -2.9596 0.4661 0 3
-30.5651 22.4200 -3.0520 0.7836 0 3
-30.5802 20.5950 -2.9684 0.8056 0 3
-30.5929 18.8636 -2.8938 0.8264 0 3
-31.6050 17.7771 -2.9196 0.4944 0 3
-34.7658 17.7565 -3.1431 0.4592 0 3
-40.7859 18.8061 -3.6161 0.8809 0 3
-40.7195 16.8273 -3.5474 0.5305 0 3
-34.3699 -33.5225 -3.8655 0.8910 0 20
-32.5911 -34.4475 -3.8181 0.3936 0 20
-20.3098 -27.4373 -2.7485 0.6940 0 22
-18.6660 -27.4574 -2.6732 0.8107 0 22
-1.4561 -41.8991 -3.3755 0.0664 0 1
0.1925 -35.4650 -2.8555 0.0774 0 1
1.4003 -30.6915 -2.4737 0.0299 0 2
2.2043 -25.6407 -2.0720 0.1032 0 2
2.8792 -22.7436 -1.8458 0.1159 0 2
3.4187 -20.3941 -1.6649 0.1285 0 2
3.8593 -18.4452 -1.5173 0.1401 0 2
4.4558 -17.7146 -1.4707 0.1688 0 2
4.6982 -15.9425 -1.3382 0.1460 0 1
4.9183 -14.5126 -1.2337 0.1517 0 1
5.1527 -13.4073 -1.1564 0.1925 0 1
5.3648 -12.4426 -1.0910 0.2040 0 1
5.5523 -11.5753 -1.0336 0.2164 0 1
5.7192 -10.7895 -0.9832 0.2263 0 1
5.8680 -10.0710 -0.9385 0.2371 0 1
5.9916 -9.3944 -0.8971 0.2546 0 1
6.1092 -8.7800 -0.8612 0.2652 0 1
6.2150 -8.2083 -0.8290 0.2756 0 1
6.3107 -7.6737 -0.7999 0.2856 0 1
6.4105 -7.1862 -0.7753 0.3050 0 1
6.4814 -6.7033 -0.7507 0.2709 0 1
6.5304 -6.2325 -0.7268 0.2798 0 1
6.5736 -5.7876 -0.7052 0.2884 0 1
6.4238 -5.2131 -0.6661 0.3229 0 2
6.4696 -4.8326 -0.6502 0.3299 0 25
6.2954 -4.3199 -0.6147 0.7499 14 6
6.3564 -3.9961 -0.6045 0.7170 14 6
6.5854 -3.7799 -0.6113 0.3509 0 25
6.6166 -3.4523 -0.6009 0.3570 0 25
6.6445 -3.1341 -0.5915 0.3626 0 25
6.6695 -2.8243 -0.5831 0.3678 0 25
6.6927 -2.5223 -0.5759 0.3703 0 2
6.9281 -2.2978 -0.5877 0.3768 0 1
6.9560 -2.0008 -0.5828 0.3813 0 1
6.9827 -1.7082 -0.5788 0.3839 0 1
4.1518 -0.8405 -0.3411 0.3292 25 14
3.9028 -0.6282 -0.3183 0.9716 25 14
3.8944 -0.4673 -0.3158 0.9792 25 14
3.8861 -0.3086 -0.3139 0.9852 25 14
3.8777 -0.1516 -0.3124 0.9897 25 14
3.8614 0.0042 -0.3109 0.9873 25 14
3.8779 0.1600 -0.3125 0.9895 25 14
3.8867 0.3171 -0.3140 0.9849 25 14
3.8954 0.4759 -0.3160 0.9787 25 14
3.9042 0.6370 -0.3185 0.9709 25 14
4.1878 0.8572 -0.3442 0.3263 25 14
7.1693 1.7702 -0.5946 0.3806 0 1
7.1744 2.0804 -0.6014 0.3764 0 1
7.1769 2.3975 -0.6092 0.3716 0 1
7.1770 2.7225 -0.6180 0.3663 0 1
7.1748 3.0565 -0.6279 0.3606 0 1
7.1699 3.4008 -0.6389 0.3543 0 1
7.1576 3.7542 -0.6507 0.3444 0 1
7.1354 4.1161 -0.6632 0.3379 0 1
7.0923 4.4801 -0.6754 0.3449 0 1
7.0396 4.8529 -0.6884 0.3384 0 1
6.9821 5.2390 -0.7028 0.3315 0 1
6.9224 5.6425 -0.7190 0.3237 0 1
6.8631 6.0688 -0.7376 0.3156 0 1
6.7687 6.4879 -0.7549 0.3492 0 1
6.6452 6.9024 -0.7714 0.3417 0 1
6.5222 7.3433 -0.7908 0.3275 0 1
6.3983 7.8145 -0.8132 0.3184 0 1
6.3292 8.3967 -0.8466 0.2826 0 2
6.0882 8.7901 -0.8609 0.9781 0 2
5.7902 9.1218 -0.8699 0.2459 0 2
5.6701 9.7796 -0.9102 0.2350 0 2
5.5350 10.4967 -0.9554 0.2239 0 2
5.3825 11.2837 -1.0066 0.2125 0 2
5.2093 12.1538 -1.0646 0.2009 0 2
5.0112 13.1236 -1.1310 0.1891 0 2
4.7831 14.2144 -1.2075 0.1771 0 2
4.5181 15.4541 -1.2964 0.1650 0 2
4.2071 16.8796 -1.4006 0.1527 0 2
3.8377 18.5411 -1.5245 0.1403 0 2
2.2397 13.5396 -1.1049 0.6329 0 20
2.2940 18.4399 -1.4961 0.0850 0 20
1.8769 22.3979 -1.8097 0.8958 0 6
1.3568 31.2160 -2.5157 0.0840 0 2
0.1181 36.0918 -2.9059 0.0776 0 1
-1.5837 42.9069 -3.4569 0.0700 0 1
-30.3934 37.6204 -3.8940 0.6142 0 3
-28.6004 32.6286 -3.4934 0.9538 0 3
-30.4656 32.0623 -3.5610 0.6716 0 3
-30.4946 29.6148 -3.4225 0.6988 0 3
-30.5198 27.3456 -3.2993 0.7249 0 3
-30.5416 25.2293 -3.1895 0.7498 0 3
-30.5604 23.2450 -3.0914 0.7736 0 3
-30.5739 21.3733 -3.0035 0.7962 0 3
-30.5877 19.6030 -2.9251 0.8176 0 3
-30.5992 17.9192 -2.8550 0.8376 0 3
-31.4713 16.7705 -2.8712 0.2101 0 3
-36.7839 17.7433 -3.2882 0.4390 0 3
-40.8436 17.7167 -3.5845 0.4027 0 3
-41.3492 15.9955 -3.5696 0.1822 0 3
-2.2925 -39.8227 -3.6569 0.0710 0 1
-0.5859 -33.7852 -3.0978 0.0820 0 1
0.6735 -29.5010 -2.7053 0.0941 0 1
1.5690 -24.8751 -2.2850 0.1065 0 2
2.2937 -22.1561 -2.0421 0.1192 0 2
2.8769 -19.9353 -1.8466 0.1318 0 2
3.4691 -18.6939 -1.7431 0.7675 0 2
3.9134 -17.2051 -1.6176 0.1293 0 1
4.2213 -15.6277 -1.4841 0.1498 0 1
4.4768 -14.2707 -1.3712 0.1871 0 1
4.7491 -13.2503 -1.2904 0.1962 0 1
4.9815 -12.3175 -1.2181 0.2079 0 1
5.1878 -11.4785 -1.1548 0.2204 0 1
5.3703 -10.7140 -1.0987 0.2316 0 1
5.5330 -10.0134 -1.0488 0.2427 0 1
5.6785 -9.3673 -1.0042 0.2588 0 1
5.8082 -8.7665 -0.9641 0.2695 0 1
5.9251 -8.2070 -0.9280 0.2800 0 1
6.0308 -7.6834 -0.8955 0.2902 0 1
6.1371 -7.2034 -0.8676 0.2667 0 1
6.2029 -6.7146 -0.8380 0.2760 0 1
6.2614 -6.2543 -0.8113 0.2851 0 1
6.3134 -5.8189 -0.7871 0.2939 0 1
6.3509 -5.3983 -0.7641 0.2958 0 1
6.2412 -4.8873 -0.7267 0.3358 0 25
6.2894 -4.5297 -0.7106 0.3434 0 25
6.3212 -4.1777 -0.6946 0.7550 14 6
6.3725 -3.8532 -0.6827 0.3574 0 25
6.4081 -3.5314 -0.6708 0.3638 0 25
6.4401 -3.2189 -0.6601 0.3697 0 25
6.4687 -2.9147 -0.6505 0.3751 0 25
6.4951 -2.6182 -0.6420 0.3774 0 2
6.7218 -2.4005 -0.6544 0.3849 0 1
6.7518 -2.1096 -0.6485 0.3897 0 1
6.7806 -1.8233 -0.6437 0.3926 0 1
6.8066 -1.5401 -0.6398 0.3951 0 1
3.8991 -0.7190 -0.3635 0.9678 25 14
3.8908 -0.5570 -0.3603 0.9762 25 14
3.8825 -0.3975 -0.3578 0.9831 25 14
3.8742 -0.2399 -0.3559 0.9885 25 14
3.8659 -0.0839 -0.3545 0.9923 25 14
3.8649 0.0714 -0.3544 0.9926 25 14
3.8736 0.2274 -0.3557 0.9888 25 14
3.8823 0.3849 -0.3577 0.9835 25 14
3.8910 0.5442 -0.3602 0.9766 25 14
3.8997 0.7062 -0.3633 0.9682 25 14
6.9736 1.5543 -0.6550 0.3930 0 1
6.9778 1.8523 -0.6619 0.3890 0 1
6.9794 2.1562 -0.6697 0.3846 0 1
6.9783 2.4669 -0.6785 0.3795 0 1
6.9745 2.7854 -0.6885 0.3741 0 1
6.9679 3.1128 -0.6996 0.3681 0 1
6.9572 3.4495 -0.7119 0.3581 0 1
6.9338 3.7921 -0.7245 0.3519 0 1
6.9067 4.1459 -0.7385 0.3452 0 1
6.8581 4.5010 -0.7520 0.3524 0 1
6.8009 4.8651 -0.7666 0.3457 0 1
6.7386 5.2420 -0.7827 0.3386 0 1
6.6775 5.6390 -0.8013 0.3305 0 1
6.6120 6.0550 -0.8219 0.3222 0 1
6.5182 6.4691 -0.8419 0.3562 0 1
6.3907 6.8736 -0.8604 0.3485 0 1
6.2667 7.3078 -0.8826 0.3338 0 1
6.1370 7.7672 -0.9075 0.3246 0 1
5.9969 8.2505 -0.9351 0.3150 0 1
5.9093 8.8572 -0.9761 0.9813 0 2
5.5276 9.0526 -0.9724 0.9959 0 2
5.3675 9.6406 -1.0116 0.2405 0 2
5.2198 10.3306 -1.0611 0.2293 0 2
5.0533 11.0859 -1.1169 0.2178 0 2
4.8647 11.9184 -1.1802 0.2062 0 2
4.6497 12.8431 -1.2522 0.1943 0 2
4.4031 13.8793 -1.3349 0.1823 0 2
4.1176 15.0518 -1.4306 0.1701 0 2
3.7842 16.3931 -1.5424 0.1578 0 2
3.3902 17.9473 -1.6745 0.1453 0 2
1.9845 13.4457 -1.2460 0.9866 0 20
2.3450 21.9622 -2.0249 0.1202 0 2
1.6333 24.6352 -2.2635 0.1075 0 2
0.7694 29.5413 -2.7092 0.1012 0 1
-0.4784 33.8655 -3.1050 0.0880 0 1
-2.1678 39.8893 -3.6624 0.0725 0 1
-4.5288 47.8030 -4.4021 0.0666 0 24
-28.3939 40.0593 -4.5015 0.4199 0 3
-29.2339 37.9195 -4.3895 0.7433 0 3
-31.5291 37.6663 -4.5033 0.7679 0 3
-30.2838 33.3599 -4.1306 0.6587 0 3
-32.1385 32.6654 -4.2011 0.7145 0 3
-30.3548 28.4697 -3.8153 0.7131 0 3
-19.1146 16.5362 -2.3171 0.4698 0 6
-30.4086 24.2418 -3.5652 0.7631 0 3
-30.4278 22.3193 -3.4595 0.7864 0 3
-30.4465 20.5050 -3.3653 0.8084 0 3
-30.4625 18.7832 -3.2810 0.8292 0 3
-31.6035 17.7762 -3.3242 0.4939 0 3
-33.0207 16.8652 -3.3992 0.4588 0 3
-40.6228 18.7309 -4.1010 0.8836 0 3
-40.5848 16.7717 -4.0259 0.5544 0 3
-43.8090 16.0765 -4.2782 0.3492 0 3
-34.3247 -33.4784 -4.3957 0.8919 0 20
-32.7152 -34.5787 -4.3641 0.5483 0 20
-20.3509 -27.4928 -3.1359 0.7560 0 22
-18.6687 -27.4612 -3.0442 0.8579 0 22
-3.2446 -43.2361 -3.9749 0.0609 0 1
-1.2557 -36.1334 -3.3146 0.0747 0 1
0.1694 -31.2218 -2.8624 0.0888 0 1
1.2638 -27.7014 -2.5422 0.1011 0 2
1.9999 -23.2631 -2.1406 0.1137 0 2
2.6389 -20.8457 -1.9263 0.1263 0 2
3.1890 -19.0236 -1.7684 0.7566 0 2
3.7896 -18.1124 -1.6965 0.1654 0 2
4.0891 -16.2567 -1.5368 0.1446 0 1
4.3745 -14.8440 -1.4187 0.1501 0 1
4.6363 -13.6804 -1.3243 0.1938 0 1
4.8845 -12.7095 -1.2483 0.2029 0 1
5.1013 -11.8316 -1.1812 0.2159 0 1
5.2939 -11.0367 -1.1222 0.2268 0 1
5.4648 -10.3096 -1.0697 0.2379 0 1
5.6179 -9.6417 -1.0230 0.2500 0 1
5.7537 -9.0213 -0.9809 0.2649 0 1
5.8759 -8.4447 -0.9432 0.2755 0 1
5.9863 -7.9062 -0.9091 0.2858 0 1
6.0914 -7.4071 -0.8792 0.3060 0 1
6.1753 -6.9227 -0.8505 0.2720 0 1
6.2369 -6.4505 -0.8226 0.2812 0 1
6.2916 -6.0046 -0.7973 0.2901 0 1
6.3383 -5.5804 -0.7742 0.2919 0 1
6.2205 -5.0481 -0.7344 0.3355 0 2
6.2691 -4.6829 -0.7174 0.3402 0 25
6.3147 -4.3331 -0.7021 0.3476 0 25
6.3559 -3.9958 -0.6883 0.3545 0 25
6.3931 -3.6696 -0.6758 0.3611 0 25
6.4266 -3.3532 -0.6646 0.3672 0 25
6.4567 -3.0455 -0.6545 0.3728 0 25
6.5971 -2.4863 -0.6463 0.7388 0 2
6.7391 -2.2351 -0.6509 0.3870 0 1
6.7685 -1.9469 -0.6457 0.3915 0 1
6.7957 -1.6624 -0.6414 0.3941 0 1
4.0939 -0.8288 -0.3829 0.3335 25 14
3.8944 -0.6268 -0.3616 0.9727 25 14
3.8861 -0.4663 -0.3588 0.9803 25 14
3.8778 -0.3080 -0.3566 0.9864 25 14
3.8695 -0.1513 -0.3550 0.9908 25 14
3.8577 0.0042 -0.3537 0.9873 25 14
3.8698 0.1597 -0.3551 0.9907 25 14
3.8785 0.3164 -0.3568 0.9860 25 14
3.8872 0.4749 -0.3590 0.9798 25 14
3.8959 0.6357 -0.3619 0.9720 25 14
4.1345 0.8463 -0.3869 0.3302 25 14
6.9762 1.7225 -0.6588 0.3908 0 1
6.9791 2.0238 -0.6662 0.3864 0 1
6.9791 2.3314 -0.6746 0.3818 0 1
6.9764 2.6464 -0.6841 0.3765 0 1
6.9711 2.9698 -0.6947 0.3707 0 1
6.9629 3.3027 -0.7065 0.3645 0 1
6.9444 3.6424 -0.7189 0.3546 0 1
6.9189 3.9912 -0.7323 0.3481 0 1
6.8814 4.3468 -0.7462 0.3551 0 1
6.8263 4.7059 -0.7601 0.3486 0 1
6.7663 5.0770 -0.7755 0.3417 0 1
6.7039 5.4644 -0.7929 0.3340 0 1
6.6411 5.8725 -0.8127 0.3258 0 1
6.5709 6.2983 -0.8344 0.3594 0 1
6.4469 6.6965 -0.8522 0.3519 0 1
6.3199 7.1155 -0.8725 0.3376 0 1
6.1944 7.5654 -0.8964 0.3286 0 1
6.0589 8.0380 -0.9228 0.3192 0 1
5.9784 8.6316 -0.9626 0.2828 0 2
5.6924 8.9678 -0.9738 0.9945 0 2
5.4264 9.3594 -0.9918 0.2453 0 2
5.2859 10.0243 -1.0389 0.2342 0 2
5.1279 10.7500 -1.0919 0.2228 0 2
4.9493 11.5474 -1.1518 0.2113 0 2
4.7464 12.4301 -1.2198 0.1995 0 2
4.5142 13.4154 -1.2977 0.1875 0 2
4.2466 14.5253 -1.3874 0.1754 0 2
3.9352 15.7888 -1.4918 0.1631 0 2
3.5693 17.2444 -1.6144 0.1507 0 2
2.2339 13.5048 -1.2549 0.6986 0 20
1.6897 13.5823 -1.2548 0.5018 0 20
1.8756 22.3822 -2.0591 0.9984 0 6
1.1772 27.0840 -2.4853 0.0338 0 2
0.1040 31.7703 -2.9126 0.0867 0 1
-1.3650 36.9810 -3.3926 0.0725 0 1
-3.4074 44.1312 -4.0579 0.0695 0 1
-29.2641 39.3562 -4.4962 0.4217 0 3
-30.2194 37.4050 -4.4085 0.6171 0 3
-30.3060 31.8943 -4.0335 0.6745 0 3
-33.6259 32.6557 -4.2972 0.6985 0 3
-18.4508 16.5318 -2.2712 0.6546 0 22
-30.3982 25.1108 -3.6147 0.7527 0 3
-30.4213 23.1392 -3.5041 0.7764 0 3
-30.4387 21.2788 -3.4048 0.7990 0 3
-30.4559 19.5186 -3.3163 0.8203 0 3
-30.4705 17.8438 -3.2372 0.8404 0 3
-32.9064 17.5352 -3.4184 0.5107 0 3
-36.7819 17.7423 -3.7439 0.4386 0 3
-40.5630 17.5950 -4.0535 0.1613 0 3
-45.7133 17.6837 -4.4935 0.3654 0 3
-4.0126 -40.9529 -4.2328 0.0642 0 1
-1.9903 -34.5731 -3.5622 0.0778 0 1
-0.5183 -29.8890 -3.0750 0.0882 0 1
0.6046 -26.4835 -2.7249 0.0986 0 1
1.4512 -23.0078 -2.3714 0.1731 0 2
2.1429 -20.6993 -2.1406 0.5157 0 2
2.8088 -19.4631 -2.0228 0.1534 0 2
3.2500 -17.5129 -1.8322 0.1279 0 1
3.6212 -15.9202 -1.6794 0.1484 0 1
3.9380 -14.5791 -1.5534 0.1536 0 1
4.2370 -13.5064 -1.4561 0.1975 0 1
4.5062 -12.5726 -1.3738 0.2066 0 1
4.7413 -11.7235 -1.3008 0.2197 0 1
4.9502 -10.9529 -1.2364 0.2307 0 1
5.1359 -10.2462 -1.1790 0.2420 0 1
5.3029 -9.5969 -1.1279 0.2547 0 1
5.4531 -8.9954 -1.0821 0.2650 0 1
5.5886 -8.4351 -1.0408 0.2755 0 1
5.7101 -7.9093 -1.0034 0.2902 0 1
5.8221 -7.4176 -0.9700 0.2673 0 1
5.9018 -6.9272 -0.9361 0.2770 0 1
5.9729 -6.4657 -0.9054 0.2864 0 1
6.0364 -6.0295 -0.8776 0.2954 0 1
6.0930 -5.6158 -0.8524 0.3042 0 1
6.1381 -5.2175 -0.8287 0.3381 0 1
6.0515 -4.7387 -0.7906 0.3463 0 2
6.1017 -4.3946 -0.7735 0.3536 0 25
6.1478 -4.0631 -0.7580 0.3608 0 25
6.1896 -3.7426 -0.7440 0.3676 0 25
6.2273 -3.4317 -0.7314 0.3739 0 25
6.2612 -3.1295 -0.7200 0.3798 0 25
6.2931 -2.8356 -0.7100 0.3863 0 2
6.4324 -2.5929 -0.7134 0.8680 0 2
6.5420 -2.3363 -0.7146 0.3951 0 1
6.5734 -2.0539 -0.7084 0.3999 0 1
6.6028 -1.7754 -0.7033 0.4028 0 1
4.2641 -0.9648 -0.4497 0.3183 25 14
3.8866 -0.7167 -0.4065 0.9510 25 14
3.8783 -0.5552 -0.4030 0.9545 25 14
3.8709 -0.3963 -0.4003 0.9611 25 14
3.8634 -0.2393 -0.3982 0.9661 25 14
3.8558 -0.0836 -0.3967 0.9697 25 14
3.8555 0.0712 -0.3967 0.9698 25 14
3.8648 0.2269 -0.3982 0.9660 25 14
3.8739 0.3840 -0.4004 0.9607 25 14
3.8827 0.5431 -0.4033 0.9776 25 14
3.8914 0.7046 -0.4068 0.9692 25 14
6.7913 1.5137 -0.7157 0.4031 0 1
6.7936 1.8034 -0.7230 0.3991 0 1
6.7931 2.0986 -0.7314 0.3947 0 1
6.7896 2.4002 -0.7408 0.3897 0 1
6.7832 2.7090 -0.7513 0.3842 0 1
6.7738 3.0261 -0.7632 0.3782 0 1
6.7575 3.3505 -0.7759 0.3683 0 1
6.7313 3.6813 -0.7892 0.3621 0 1
6.7012 4.0226 -0.8040 0.3554 0 1
6.6581 4.3697 -0.8192 0.3626 0 1
6.5989 4.7205 -0.8346 0.3559 0 1
6.5344 5.0831 -0.8516 0.3488 0 1
6.4707 5.4644 -0.8712 0.3407 0 1
6.4022 5.8628 -0.8930 0.3324 0 1
6.3270 6.2793 -0.9169 0.3237 0 1
6.2035 6.6722 -0.9371 0.3586 0 1
6.0756 7.0850 -0.9601 0.3439 0 1
5.9447 7.5239 -0.9864 0.3347 0 1
5.8035 7.9845 -1.0153 0.3252 0 1
5.7053 8.5514 -1.0574 0.2887 0 2
5.5252 9.0486 -1.0906 0.9953 0 2
5.1544 9.2578 -1.0900 0.8604 0 2
4.9899 9.8757 -1.1382 0.2396 0 2
4.8196 10.5733 -1.1953 0.2282 0 2
4.6276 11.3376 -1.2596 0.2165 0 2
4.4100 12.1810 -1.3326 0.2047 0 2
4.1619 13.1192 -1.4158 0.1926 0 2
3.8769 14.1717 -1.5113 0.1805 0 2
3.5467 15.3644 -1.6220 0.1681 0 2
3.0554 16.1748 -1.6932 0.1546 0 9
1.9863 13.4583 -1.3994 0.9513 0 20
2.1555 20.1878 -2.0884 0.1306 0 2
1.4872 22.4313 -2.3124 0.1179 0 2
0.6948 26.6767 -2.7450 0.1117 0 1
-0.4253 30.1062 -3.0972 0.0970 0 1
-1.8796 34.5860 -3.5629 0.0807 0 1
-3.8721 40.8713 -4.2230 0.0703 0 1
-29.7732 38.6191 -5.0160 0.4149 0 3
-29.1457 34.8189 -4.6708 0.1059 0 3
-28.4726 31.3647 -4.3574 0.6615 0 3
-32.1374 32.6643 -4.7136 0.7137 0 3
-30.2048 28.3291 -4.2597 0.7159 0 3
-31.9828 27.6685 -4.3501 0.6558 0 3
-28.4429 22.6748 -3.7417 0.8731 0 3
-30.2914 22.2192 -3.8643 0.7891 0 3
-33.6435 22.6581 -4.1724 0.5611 0 3
-30.3330 18.7034 -3.6656 0.8318 0 3
-31.6020 17.7754 -3.7297 0.4934 0 3
-34.7622 17.7546 -4.0152 0.4583 0 3
-38.4527 17.7303 -4.3556 0.4225 0 3
-40.7143 16.8252 -4.5315 0.1800 0 3
-34.2799 -33.4347 -4.9257 0.8030 0 20
-32.5024 -34.3538 -4.8647 0.5498 0 20
-20.3334 -27.4691 -3.5155 0.6616 0 22
-18.6561 -27.4428 -3.4134 0.7671 0 22
-5.1675 -44.7095 -4.6296 0.0583 0 1
-2.7819 -37.0701 -3.8239 0.0770 0 1
-1.1009 -31.6779 -3.2605 0.0862 0 1
0.1511 -27.8450 -2.8643 0.0995 0 1
1.1450 -25.0960 -2.5842 0.1115 0 2
1.8410 -21.4152 -2.2110 0.3939 0 2
2.5292 -19.9794 -2.0716 0.6028 0 2
3.1030 -18.5110 -1.9307 0.1618 0 2
3.4647 -16.5595 -1.7403 0.1289 0 1
3.8095 -15.1451 -1.6064 0.1551 0 1
4.1074 -13.9377 -1.4946 0.1924 0 1
4.3952 -12.9691 -1.4086 0.2015 0 1
4.6424 -12.0796 -1.3312 0.2132 0 1
4.8630 -11.2788 -1.2634 0.2258 0 1
5.0580 -10.5450 -1.2030 0.2371 0 1
5.2322 -9.8709 -1.1492 0.2482 0 1
5.3900 -9.2506 -1.1013 0.2603 0 1
5.5316 -8.6731 -1.0582 0.2710 0 1
5.6593 -8.1335 -1.0192 0.2857 0 1
5.7733 -7.6249 -0.9838 0.2960 0 1
5.8684 -7.1359 -0.9504 0.2728 0 1
5.9431 -6.6623 -0.9184 0.2823 0 1
6.0097 -6.2155 -0.8893 0.2915 0 1
6.0692 -5.7924 -0.8630 0.3004 0 1
6.1160 -5.3847 -0.8382 0.3022 0 1
6.0674 -4.9239 -0.8038 0.3255 0 2
6.0803 -4.5419 -0.7807 0.3503 0 25
6.1284 -4.2053 -0.7645 0.3577 0 25
6.1720 -3.8802 -0.7499 0.3647 0 25
6.2114 -3.5653 -0.7367 0.3712 0 25
6.2470 -3.2594 -0.7248 0.3773 0 25
6.3261 -2.6789 -0.7067 0.8763 0 2
6.5278 -2.4601 -0.7176 0.3934 0 1
6.5598 -2.1756 -0.7109 0.3971 0 1
6.5904 -1.8957 -0.7054 0.4016 0 1
6.6181 -1.6190 -0.7008 0.4042 0 1
4.0375 -0.8174 -0.4237 0.3378 25 14
3.8814 -0.6247 -0.4044 0.9561 25 14
3.8741 -0.4649 -0.4014 0.9584 25 14
3.8667 -0.3071 -0.3990 0.9641 25 14
3.8591 -0.1509 -0.3973 0.9683 25 14
3.8514 0.0042 -0.3962 0.9710 25 14
3.8608 0.1593 -0.3975 0.9678 25 14
3.8700 0.3157 -0.3994 0.9631 25 14
3.8790 0.4739 -0.4020 0.9808 25 14
3.8876 0.6343 -0.4052 0.9730 25 14
4.0826 0.8357 -0.4287 0.3340 25 14
6.7929 1.6772 -0.7197 0.4009 0 1
6.7937 1.9700 -0.7276 0.3965 0 1
6.7915 2.2687 -0.7365 0.3919 0 1
6.7864 2.5743 -0.7466 0.3866 0 1
6.7783 2.8876 -0.7579 0.3809 0 1
6.7671 3.2098 -0.7704 0.3747 0 1
6.7431 3.5368 -0.7832 0.3648 0 1
6.7147 3.8734 -0.7974 0.3583 0 1
6.6822 4.2211 -0.8130 0.3653 0 1
6.6252 4.5672 -0.8277 0.3588 0 1
6.5630 4.9245 -0.8440 0.3519 0 1
6.4984 5.2969 -0.8624 0.3442 0 1
6.4326 5.6881 -0.8833 0.3360 0 1
6.3604 6.0965 -0.9063 0.3275 0 1
6.2598 6.5021 -0.9284 0.3620 0 1
6.1293 6.9010 -0.9494 0.3477 0 1
6.0026 7.3313 -0.9747 0.3387 0 1
5.8660 7.7821 -1.0024 0.3294 0 1
5.7184 8.2562 -1.0331 0.3196 0 1
5.6255 8.8624 -1.0798 0.2827 0 2
5.3109 9.1602 -1.0892 0.9958 0 2
5.0578 9.5917 -1.1154 0.2445 0 2
4.8959 10.2635 -1.1697 0.2332 0 2
4.7137 10.9976 -1.2308 0.2216 0 2
4.5077 11.8050 -1.2998 0.2098 0 2
4.2735 12.7000 -1.3784 0.1979 0 2
4.0053 13.7002 -1.4682 0.1857 0 2
3.6959 14.8286 -1.5720 0.1735 0 2
3.2236 15.5744 -1.6360 0.1603 0 9
2.2288 13.4736 -1.4048 0.8569 0 20
2.4057 19.3380 -2.0045 0.1361 0 2
1.7938 21.4063 -2.2097 0.1234 0 2
1.0966 25.2304 -2.5977 0.1109 0 2
0.0928 28.3702 -2.9183 0.0971 0 1
-1.2014 32.5483 -3.3503 0.0915 0 1
-2.9279 37.9208 -3.9123 0.0710 0 1
-5.3516 45.4436 -4.7068 0.0624 0 1
-18.9484 36.5112 -4.2313 0.8473 0 6
-28.1897 37.9113 -4.8596 0.9948 0 3
-30.0470 37.1916 -4.9182 0.6200 0 3
-28.6607 32.6975 -4.4726 0.7597 0 3
-30.1477 31.7277 -4.5020 0.6773 0 3
-33.6247 32.6546 -4.8214 0.6978 0 3
-18.4433 16.5251 -2.5473 0.6784 0 22
-19.9779 16.5030 -2.6655 0.6456 0 22
-30.1182 22.9087 -3.8924 0.9380 0 3
-32.4233 22.6661 -4.0693 0.5754 0 3
-30.2131 19.3629 -3.6913 0.8101 0 3
-30.3745 17.7876 -3.6208 0.7923 0 3
-33.3357 17.7640 -3.8855 0.4736 0 3
-34.7439 16.7592 -3.9680 0.1810 0 3
-40.8387 17.7146 -4.5790 0.4019 0 3
-45.7039 17.6801 -5.0408 0.3650 0 3
-5.8501 -42.1736 -4.8571 0.0613 0 1
-3.4672 -35.3859 -4.0560 0.0785 0 1
-1.7506 -30.4101 -3.4748 0.0844 0 1
-0.4627 -26.6833 -3.0444 0.0977 0 1
0.5487 -24.0338 -2.7424 0.1096 0 1
1.3827 -21.9216 -2.5057 0.1325 0 2
2.0693 -19.9886 -2.2924 0.0898 0 1
2.5684 -17.7978 -2.0513 0.1260 0 1
3.0116 -16.2287 -1.8829 0.1500 0 1
3.3791 -14.8557 -1.7380 0.1588 0 1
3.7139 -13.7496 -1.6247 0.1961 0 1
4.0212 -12.8184 -1.5325 0.2079 0 1
4.2867 -11.9604 -1.4494 0.2184 0 1
4.5232 -11.1844 -1.3763 0.2300 0 1
4.7330 -10.4723 -1.3110 0.2410 0 1
4.9207 -9.8169 -1.2527 0.2540 0 1
5.0910 -9.2134 -1.2008 0.2645 0 1
5.2437 -8.6499 -1.1539 0.2752 0 1
5.3818 -8.1230 -1.1116 0.2857 0 1
5.5071 -7.6281 -1.0733 0.2959 0 1
5.6078 -7.1446 -1.0361 0.3012 0 1
5.6903 -6.6790 -1.0009 0.3118 0 1
5.7644 -6.2399 -0.9691 0.3220 0 1
5.8310 -5.8243 -0.9402 0.3319 0 1
5.8916 -5.4302 -0.9140 0.3446 0 1
5.9523 -5.0595 -0.8912 0.3483 0 1
5.9667 -4.6724 -0.8645 0.5363 0 2
5.9252 -4.2675 -0.8330 0.3666 0 2
5.9734 -3.9478 -0.8168 0.3683 0 2
9.4158 -5.6933 -1.2552 0.5244 0 1
6.0564 -3.3375 -0.7888 0.3865 0 2
6.0915 -3.0447 -0.7769 0.3890 0 2
6.2135 -2.7997 -0.7774 0.9586 0 2
6.3366 -2.5543 -0.7794 0.4012 0 1
6.3713 -2.2754 -0.7718 0.4052 0 1
6.4039 -2.0009 -0.7654 0.4100 0 1
6.4337 -1.7300 -0.7600 0.4129 0 1
4.2025 -0.9509 -0.4915 0.3226 25 14
3.8730 -0.7142 -0.4493 0.9532 25 14
3.8640 -0.5531 -0.4453 0.9618 25 14
3.8560 -0.3948 -0.4422 0.9636 25 14
3.8487 -0.2384 -0.4399 0.9687 25 14
3.8411 -0.0833 -0.4383 0.9722 25 14
3.8409 0.0710 -0.4382 0.9723 25 14
3.8501 0.2260 -0.4400 0.9685 25 14
3.8592 0.3826 -0.4424 0.9632 25 14
3.8681 0.5410 -0.4456 0.9563 25 14
3.8780 0.7022 -0.4496 0.9526 25 14
4.2061 0.9375 -0.4916 0.3226 25 14
6.6185 1.7569 -0.7812 0.4091 0 1
6.6161 2.0440 -0.7899 0.4046 0 1
6.6105 2.3369 -0.7998 0.3997 0 1
6.6018 2.6366 -0.8109 0.3943 0 1
6.5899 2.9439 -0.8234 0.3883 0 1
6.5684 3.2567 -0.8363 0.3784 0 1
6.5398 3.5766 -0.8503 0.3722 0 1
6.5071 3.9061 -0.8658 0.3656 0 1
6.4690 4.2456 -0.8827 0.3727 0 1
6.4081 4.5840 -0.8988 0.3660 0 1
6.3417 4.9332 -0.9165 0.3589 0 1
6.2759 5.2999 -0.9371 0.3508 0 1
6.2048 5.6821 -0.9598 0.3425 0 1
6.1268 6.0807 -0.9847 0.3338 0 1
6.0265 6.4818 -1.0096 0.3687 0 1
5.8955 6.8749 -1.0331 0.3540 0 1
5.7638 7.2949 -1.0606 0.3448 0 1
5.6218 7.7345 -1.0908 0.3353 0 1
