ply
format ascii 1.0
element vertex 1382
property float32 x
property float32 y
property float32 z
property float32 CosAngle
property uint32 ObjIdx
property uint32 ObjTag
end_header
-24.2951 12.8126 -10.9558 0.0901 0 2
-26.3491 12.5679 -11.6444 0.0848 0 2
-28.4784 12.2024 -12.3583 0.0799 0 2
-30.6571 11.6995 -13.0887 0.0754 0 2
-25.7562 8.6590 -10.8387 0.6380 0 6
-35.0121 10.2225 -14.5487 0.0679 0 2
-37.0889 9.2269 -15.2449 0.0648 0 2
-16.9457 3.4983 -6.9018 0.8802 26 14
-17.0107 2.8034 -6.8767 0.9413 26 14
-44.1372 5.4604 -17.7396 0.0593 0 1
-45.7741 3.8007 -18.3212 0.0574 0 1
-46.0959 -1.7478 -18.3999 0.0529 0 1
-45.0900 -3.5307 -18.0405 0.0550 0 24
-44.2153 -5.2593 -17.7609 0.0570 0 1
-42.9311 -6.8682 -17.3421 0.0628 0 1
-22.5345 -4.5418 -9.1693 0.9150 16 6
-39.3393 -9.5907 -16.1512 0.0623 0 1
-37.0321 -10.6237 -15.3672 0.0637 0 1
-34.7447 -11.4995 -14.5983 0.0700 0 1
-32.5088 -12.2315 -13.8545 0.0770 0 1
-29.8742 -12.6347 -12.9381 0.0664 0 1
-27.3647 -12.8949 -12.0664 0.0679 0 1
-25.0565 -13.0640 -11.2714 0.0768 0 1
-22.9684 -13.1769 -10.5623 0.0866 0 1
-20.9809 -13.1862 -9.8844 0.1063 0 1
-19.2522 -13.2093 -9.3131 0.1090 0 1
-17.5782 -13.1314 -8.7520 0.1205 0 1
-16.0049 -12.9914 -8.2225 0.1247 0 1
-14.5312 -12.7986 -7.7239 0.1329 0 1
-13.1578 -12.5644 -7.2569 0.1393 0 1
-11.9024 -12.3185 -6.8325 0.1522 0 1
-10.7627 -12.0757 -6.4522 0.1612 0 1
-9.7207 -11.8326 -6.1082 0.1770 0 1
-8.7408 -11.5584 -5.7803 0.1869 0 24
-7.8937 -11.3610 -5.5182 0.1960 0 1
-7.0676 -11.0999 -5.2488 0.2038 0 1
-6.2994 -10.8322 -4.9982 0.2137 0 1
-5.5859 -10.5615 -4.7657 0.2242 0 1
-4.9214 -10.2865 -4.5485 0.2332 0 1
-4.3035 -10.0109 -4.3465 0.2446 0 1
-3.7289 -9.7365 -4.1588 0.2547 0 1
-3.1938 -9.4626 -3.9836 0.2660 0 1
-2.6956 -9.1918 -3.8208 0.2773 0 1
-2.2310 -8.9225 -3.6686 0.2849 0 1
-1.7968 -8.6519 -3.5247 0.2965 0 1
-1.3922 -8.3857 -3.3907 0.3082 0 1
-1.0148 -8.1239 -3.2656 0.3197 0 1
-0.6626 -7.8672 -3.1492 0.3364 0 1
-0.3328 -7.5954 -3.0326 0.3494 0 24
-0.0260 -7.3515 -2.9324 0.3608 0 24
0.2619 -7.1307 -2.8462 0.3722 0 1
0.5316 -6.8939 -2.7580 0.3840 0 1
0.7844 -6.6615 -2.6755 0.3959 0 1
1.0214 -6.4333 -2.5982 0.4077 0 1
1.2436 -6.2083 -2.5256 0.4195 0 1
1.4519 -5.9861 -2.4570 0.4301 0 1
1.6471 -5.7672 -2.3924 0.4415 0 1
1.8229 -5.5298 -2.3225 0.4504 0 24
1.9925 -5.3148 -2.2640 0.4615 0 24
2.1636 -5.1327 -2.2218 0.4754 0 1
2.3152 -4.9284 -2.1719 0.4863 0 1
2.4541 -4.7206 -2.1222 0.4801 0 1
2.5802 -4.5098 -2.0725 0.4917 0 1
2.6976 -4.3036 -2.0260 0.5030 0 1
2.8070 -4.1015 -1.9825 0.5140 0 1
2.9088 -3.9035 -1.9418 0.5248 0 1
3.0091 -3.7162 -1.9073 0.5563 0 1
3.1033 -3.5319 -1.8754 0.5657 0 1
3.1914 -3.3501 -1.8456 0.5749 0 1
3.2737 -3.1706 -1.8179 0.5836 0 1
3.3505 -2.9934 -1.7921 0.5920 0 1
3.4228 -2.8187 -1.7686 0.5907 0 1
3.4907 -2.6463 -1.7472 0.5979 0 1
3.5538 -2.4754 -1.7275 0.6048 0 1
3.6124 -2.3061 -1.7095 0.6112 0 1
3.6671 -2.1384 -1.6933 0.6172 0 1
3.7176 -1.9718 -1.6785 0.6226 0 1
3.7641 -1.8063 -1.6653 0.6308 0 1
3.8068 -1.6418 -1.6537 0.6353 0 1
3.8457 -1.4781 -1.6434 0.6393 0 1
3.8807 -1.3149 -1.6344 0.6428 0 1
3.9119 -1.1522 -1.6267 0.6458 0 1
3.9394 -0.9900 -1.6202 0.6484 0 1
3.9633 -0.8280 -1.6150 0.6505 0 1
3.9837 -0.6662 -1.6111 0.6521 0 1
4.0004 -0.5046 -1.6083 0.6532 0 1
4.0137 -0.3429 -1.6068 0.6538 0 1
4.0235 -0.1811 -1.6065 0.6539 0 1
4.0310 -0.0190 -1.6079 0.6527 0 1
4.0368 0.1435 -1.6112 0.6513 0 1
4.0390 0.3066 -1.6157 0.6495 0 1
4.0378 0.4706 -1.6215 0.6472 0 1
4.0323 0.6353 -1.6282 0.6350 0 1
4.0194 0.8002 -1.6347 0.6324 0 1
4.0027 0.9658 -1.6424 0.6295 0 1
3.9822 1.1322 -1.6514 0.6261 0 1
3.9578 1.2995 -1.6616 0.6222 0 1
3.9294 1.4678 -1.6731 0.6179 0 1
3.8970 1.6373 -1.6860 0.6132 0 1
3.8604 1.8079 -1.7003 0.6080 0 1
3.8194 1.9799 -1.7160 0.6025 0 1
3.7741 2.1533 -1.7332 0.5961 0 1
3.7243 2.3283 -1.7520 0.5897 0 1
3.6697 2.5051 -1.7723 0.5830 0 1
3.6106 2.6839 -1.7945 0.5758 0 1
3.5464 2.8647 -1.8184 0.5682 0 1
3.4768 3.0476 -1.8442 0.5603 0 1
3.4015 3.2327 -1.8718 0.5520 0 1
3.3204 3.4202 -1.9014 0.5434 0 1
3.2335 3.6107 -1.9333 0.5385 0 1
3.1405 3.8043 -1.9677 0.5291 0 1
3.0406 4.0009 -2.0045 0.5194 0 1
2.9317 4.1982 -2.0425 0.5138 0 1
2.8136 4.3958 -2.0818 0.5046 0 1
2.6874 4.5961 -2.1237 0.4947 0 1
2.5529 4.7993 -2.1683 0.4845 0 1
2.4094 5.0055 -2.2158 0.4741 0 1
2.2565 5.2149 -2.2665 0.4635 0 1
2.0935 5.4276 -2.3204 0.4527 0 1
1.9089 5.6119 -2.3644 0.4423 0 24
1.7258 5.8338 -2.4267 0.4306 0 24
1.5370 6.0855 -2.5036 0.4199 0 1
1.3265 6.3121 -2.5728 0.4087 0 1
1.1022 6.5426 -2.6465 0.3973 0 1
0.8631 6.7783 -2.7255 0.3858 0 1
0.6080 7.0192 -2.8103 0.3742 0 1
0.3355 7.2646 -2.9008 0.3625 0 1
0.0444 7.5146 -2.9975 0.3508 0 1
-0.2669 7.7690 -3.1007 0.3418 0 1
-0.5996 8.0238 -3.2095 0.3303 0 1
-0.9553 8.2828 -3.3258 0.3187 0 1
-1.3358 8.5448 -3.4497 0.3081 0 1
-1.7424 8.8070 -3.5810 0.2968 0 1
-2.1775 9.0721 -3.7215 0.2856 0 1
-2.6421 9.3349 -3.8698 0.2808 0 1
-3.1399 9.6013 -4.0294 0.2623 0 1
-3.6772 9.8799 -4.2050 0.2530 0 1
-4.2522 10.1549 -4.3914 0.2423 0 1
-4.8718 10.4348 -4.5935 0.2276 0 1
-5.5196 10.6790 -4.7950 0.2168 0 24
-6.2505 10.9855 -5.0415 0.2107 0 1
-7.0099 11.2423 -5.2847 0.2010 0 1
-7.7944 11.4473 -5.5240 0.1862 0 24
-8.6812 11.7077 -5.8137 0.1800 0 24
-9.6298 11.9503 -6.1217 0.1736 0 24
-10.6437 12.1717 -6.4495 0.1666 0 24
-11.7506 12.3936 -6.8123 0.1543 0 24
-13.0206 12.6706 -7.2469 0.1429 0 1
-14.3671 12.8971 -7.7010 0.1274 0 1
-38.8166 -0.0931 -15.9840 0.0654 0 1
-38.6010 -1.6471 -15.9096 0.0697 0 1
-36.1630 -3.0045 -14.9425 0.0681 0 25
-35.3810 -4.3789 -14.6804 0.0693 0 25
-34.3396 -5.6610 -14.3313 0.0710 0 25
-22.4514 -4.6360 -9.4401 0.7154 16 6
-33.0957 -8.2352 -14.0438 0.0752 0 1
-31.2504 -9.1259 -13.4058 0.0704 0 24
-29.4468 -9.9013 -12.7927 0.0739 0 1
-27.4624 -10.4819 -12.1042 0.0795 0 1
-25.4873 -10.9222 -11.4183 0.0910 0 1
-23.6493 -11.2816 -10.7896 0.0953 0 1
-21.9213 -11.5621 -10.2054 0.1058 0 1
-20.3098 -11.7802 -9.6682 0.1188 0 1
-18.8121 -11.9481 -9.1768 0.1178 0 1
-17.2720 -11.9715 -8.6537 0.1202 0 24
-15.8755 -11.9772 -8.1890 0.1279 0 1
-14.5103 -11.8928 -7.7256 0.1356 0 1
-13.2261 -11.7611 -7.2881 0.1425 0 1
-12.0372 -11.6041 -6.8849 0.1553 0 1
-10.9516 -11.4427 -6.5222 0.1639 0 1
-9.9423 -11.2624 -6.1862 0.1796 0 1
-9.0279 -11.0963 -5.8905 0.1886 0 1
-8.1709 -10.9120 -5.6134 0.1980 0 1
-7.3639 -10.7066 -5.3509 0.2054 0 1
-6.6068 -10.4858 -5.1034 0.2151 0 1
-5.9001 -10.2574 -4.8727 0.2253 0 1
-5.2395 -10.0215 -4.6566 0.2346 0 1
-4.6224 -9.7804 -4.4545 0.2453 0 1
-4.0328 -9.5051 -4.2517 0.2564 0 24
-3.5080 -9.2914 -4.0896 0.2662 0 1
-3.0053 -9.0456 -3.9250 0.2774 0 1
-2.5356 -8.8008 -3.7714 0.2887 0 1
-2.0950 -8.5509 -3.6252 0.2963 0 1
-1.6834 -8.3035 -3.4888 0.3078 0 1
-1.2987 -8.0589 -3.3613 0.3195 0 1
-0.9391 -7.8191 -3.2429 0.3358 0 1
-0.6006 -7.5592 -3.1225 0.3482 0 24
-0.2870 -7.3494 -3.0286 0.3595 0 1
0.0086 -7.1195 -2.9317 0.3714 0 1
0.2859 -6.8930 -2.8408 0.3832 0 1
0.5462 -6.6698 -2.7557 0.3950 0 1
0.7905 -6.4500 -2.6759 0.4068 0 1
1.0200 -6.2336 -2.6010 0.4185 0 1
1.2356 -6.0198 -2.5305 0.4303 0 1
1.4378 -5.8075 -2.4636 0.4409 0 1
1.6218 -5.5783 -2.3922 0.4522 0 24
1.7986 -5.3701 -2.3320 0.4613 0 24
1.9639 -5.1637 -2.2749 0.4732 0 24
2.1313 -4.9898 -2.2343 0.4858 0 1
2.2795 -4.7930 -2.1855 0.4967 0 1
2.4130 -4.5882 -2.1347 0.4906 0 1
2.5365 -4.3851 -2.0860 0.5020 0 1
2.6517 -4.1860 -2.0405 0.5132 0 1
2.7591 -3.9908 -1.9978 0.5242 0 1
2.8619 -3.8027 -1.9598 0.5564 0 1
2.9608 -3.6211 -1.9261 0.5661 0 1
3.0534 -3.4419 -1.8946 0.5755 0 1
3.1400 -3.2650 -1.8653 0.5846 0 1
3.2210 -3.0901 -1.8380 0.5932 0 1
3.2966 -2.9172 -1.8127 0.6015 0 1
3.3671 -2.7461 -1.7892 0.6094 0 1
3.4334 -2.5773 -1.7678 0.6074 0 1
3.4955 -2.4103 -1.7484 0.6141 0 1
3.5532 -2.2447 -1.7307 0.6205 0 1
3.6071 -2.0805 -1.7147 0.6263 0 1
3.6569 -1.9175 -1.7003 0.6350 0 1
3.7029 -1.7554 -1.6874 0.6398 0 1
3.7449 -1.5941 -1.6760 0.6442 0 1
3.7830 -1.4334 -1.6659 0.6481 0 1
3.8173 -1.2733 -1.6570 0.6516 0 1
3.8479 -1.1136 -1.6495 0.6545 0 1
3.8748 -0.9542 -1.6432 0.6570 0 1
3.8981 -0.7951 -1.6382 0.6591 0 1
3.9178 -0.6361 -1.6344 0.6606 0 1
3.9340 -0.4772 -1.6318 0.6616 0 1
3.9467 -0.3183 -1.6304 0.6622 0 1
3.9559 -0.1592 -1.6303 0.6623 0 1
3.9631 0.0001 -1.6319 0.6609 0 1
3.9682 0.1599 -1.6354 0.6595 0 1
3.9698 0.3203 -1.6400 0.6576 0 1
3.9680 0.4815 -1.6459 0.6553 0 1
3.9599 0.6432 -1.6520 0.6432 0 1
3.9465 0.8052 -1.6586 0.6406 0 1
3.9293 0.9678 -1.6664 0.6376 0 1
3.9084 1.1313 -1.6754 0.6342 0 1
3.8835 1.2956 -1.6858 0.6303 0 1
3.8547 1.4608 -1.6974 0.6260 0 1
3.8218 1.6271 -1.7104 0.6212 0 1
3.7848 1.7945 -1.7248 0.6160 0 1
3.7434 1.9631 -1.7406 0.6104 0 1
3.6977 2.1330 -1.7578 0.6045 0 1
3.6475 2.3045 -1.7767 0.5977 0 1
3.5927 2.4776 -1.7971 0.5909 0 1
3.5334 2.6526 -1.8193 0.5837 0 1
3.4688 2.8294 -1.8433 0.5761 0 1
3.3990 3.0081 -1.8690 0.5682 0 1
3.3236 3.1888 -1.8966 0.5599 0 1
3.2428 3.3722 -1.9265 0.5554 0 1
3.1562 3.5582 -1.9586 0.5463 0 1
3.0632 3.7468 -1.9928 0.5369 0 1
2.9634 3.9380 -2.0295 0.5272 0 1
2.8547 4.1295 -2.0672 0.5217 0 1
2.7372 4.3214 -2.1064 0.5120 0 1
2.6117 4.5156 -2.1481 0.5026 0 1
2.4780 4.7123 -2.1924 0.4924 0 1
2.3356 4.9116 -2.2395 0.4821 0 1
2.1839 5.1137 -2.2897 0.4715 0 1
2.0104 5.2867 -2.3291 0.4616 0 24
1.8506 5.5262 -2.3998 0.4503 0 1
1.6675 5.7366 -2.4600 0.4392 0 1
1.4667 5.9256 -2.5137 0.4271 0 24
1.2654 6.1666 -2.5922 0.4168 0 1
1.0447 6.3863 -2.6647 0.4055 0 1
0.8099 6.6109 -2.7426 0.3949 0 1
0.5597 6.8391 -2.8256 0.3824 0 1
0.2930 7.0710 -2.9142 0.3708 0 1
0.0085 7.3063 -3.0086 0.3592 0 1
-0.2950 7.5451 -3.1093 0.3475 0 1
-0.6189 7.7845 -3.2156 0.3388 0 1
-0.9643 8.0256 -3.3285 0.3273 0 1
-1.3328 8.2681 -3.4486 0.3167 0 1
-1.7256 8.5096 -3.5754 0.3055 0 1
-2.1448 8.7525 -3.7107 0.2944 0 1
-2.5924 8.9962 -3.8552 0.2834 0 1
-3.0695 9.2375 -4.0084 0.2786 0 1
-3.5808 9.4829 -4.1740 0.2620 0 1
-4.1276 9.7273 -4.3512 0.2513 0 1
-4.7123 9.9695 -4.5407 0.2408 0 1
-5.3418 10.2158 -4.7471 0.2264 0 1
-6.0112 10.4493 -4.9640 0.2212 0 1
-6.7116 10.6510 -5.1840 0.2051 0 24
-7.4761 10.8686 -5.4320 0.2010 0 1
-8.2894 11.0691 -5.6945 0.1880 0 1
-9.1674 11.2666 -5.9811 0.1790 0 1
-10.1052 11.4458 -6.2872 0.1703 0 1
-11.1173 11.6147 -6.6205 0.1619 0 1
-12.1984 11.7583 -6.9767 0.1560 0 1
-13.3617 11.8805 -7.3625 0.1445 0 1
-14.5471 11.9218 -7.7449 0.1272 0 24
-16.0979 12.1438 -8.3034 0.1137 0 1
-17.6563 12.2367 -8.8459 0.9965 0 2
-18.4264 11.7018 -8.9884 0.1129 0 2
-19.9680 11.5806 -9.5052 0.1068 0 2
-21.5751 11.3782 -10.0440 0.1010 0 2
-23.2357 11.0829 -10.6007 0.0957 0 2
-24.9328 10.6832 -11.1697 0.0909 0 2
-26.6442 10.1681 -11.7434 0.0864 0 2
-25.6128 8.6108 -11.1269 0.9771 0 6
-29.9912 8.7565 -12.8655 0.0789 0 2
-31.6133 7.8647 -13.4146 0.2180 0 2
-16.7950 3.4672 -7.0617 0.8841 26 14
-16.8483 2.7766 -7.0314 0.8981 26 14
-37.1653 4.5979 -15.4207 0.0704 0 1
-38.1628 3.1687 -15.7688 0.0661 0 1
-38.6828 1.6487 -15.9433 0.0656 0 1
-38.8229 0.0912 -15.9866 0.0654 0 1
-38.6443 -1.4652 -15.9244 0.0696 0 1
-38.1288 -2.9856 -15.7488 0.0707 0 1
-35.4874 -4.2211 -14.7161 0.0692 0 25
-34.4747 -5.5153 -14.3766 0.0708 0 25
-22.4571 -4.5262 -9.4333 0.9141 16 6
-33.2784 -8.1131 -14.1048 0.0749 0 1
-31.5944 -9.0638 -13.5348 0.0701 0 1
-29.6805 -9.8234 -12.8739 0.0734 0 1
-27.6944 -10.4201 -12.1845 0.0790 0 1
-25.7061 -10.8718 -11.4930 0.0813 0 1
-23.8660 -11.2462 -10.8640 0.0946 0 1
-22.1220 -11.5341 -10.2733 0.1051 0 1
-20.4895 -11.7548 -9.7271 0.1181 0 1
-18.9920 -11.9362 -9.2368 0.1243 0 1
-17.4865 -11.9978 -8.7326 0.1240 0 1
-16.0426 -11.9842 -8.2458 0.1270 0 1
-14.6665 -11.9050 -7.7786 0.1347 0 1
-13.3217 -11.7333 -7.3100 0.1415 0 24
-12.1189 -11.5724 -6.9001 0.1501 0 24
-11.0759 -11.4632 -6.5637 0.1629 0 1
-10.0542 -11.2808 -6.2225 0.1718 0 1
-9.1327 -11.1169 -5.9244 0.1876 0 1
-8.2691 -10.9346 -5.6452 0.1969 0 1
-7.4567 -10.7320 -5.3813 0.2043 0 1
-6.6934 -10.5122 -5.1317 0.2140 0 1
-5.9810 -10.2846 -4.8991 0.2241 0 1
-5.3152 -10.0497 -4.6814 0.2334 0 1
-4.6929 -9.8090 -4.4776 0.2440 0 1
-4.0984 -9.5337 -4.2732 0.2552 0 24
-3.5696 -9.3204 -4.1098 0.2649 0 1
-3.0628 -9.0746 -3.9438 0.2761 0 1
-2.5894 -8.8296 -3.7890 0.2874 0 1
-2.1454 -8.5803 -3.6420 0.2949 0 1
-1.7305 -8.3325 -3.5044 0.3065 0 1
-1.3427 -8.0876 -3.3759 0.3181 0 1
-0.9803 -7.8472 -3.2564 0.3344 0 1
-0.6390 -7.5865 -3.1351 0.3472 0 24
-0.3232 -7.3767 -3.0405 0.3581 0 1
-0.0252 -7.1273 -2.9349 0.3704 0 24
0.2541 -6.9195 -2.8513 0.3818 0 1
0.5163 -6.6960 -2.7655 0.3936 0 1
0.7625 -6.4758 -2.6850 0.4054 0 1
0.9937 -6.2589 -2.6096 0.4171 0 1
1.2109 -6.0449 -2.5386 0.4289 0 1
1.4146 -5.8324 -2.4713 0.4395 0 1
1.6058 -5.6228 -2.4079 0.4508 0 1
1.7783 -5.3945 -2.3389 0.4607 0 24
1.9450 -5.1879 -2.2815 0.4717 0 24
2.1132 -5.0132 -2.2402 0.4845 0 1
2.2625 -4.8161 -2.1911 0.4954 0 1
2.3979 -4.6124 -2.1406 0.4892 0 1
2.5224 -4.4088 -2.0916 0.5007 0 1
2.6385 -4.2093 -2.0457 0.5119 0 1
2.7468 -4.0136 -2.0027 0.5229 0 1
2.8498 -3.8243 -1.9639 0.5552 0 1
2.9494 -3.6424 -1.9299 0.5650 0 1
3.0428 -3.4629 -1.8982 0.5744 0 1
3.1301 -3.2857 -1.8687 0.5835 0 1
3.2118 -3.1106 -1.8411 0.5922 0 1
3.2880 -2.9375 -1.8156 0.6006 0 1
3.3591 -2.7662 -1.7918 0.6085 0 1
3.4258 -2.5971 -1.7702 0.6065 0 1
3.4884 -2.4299 -1.7506 0.6133 0 1
3.5466 -2.2641 -1.7326 0.6198 0 1
3.6010 -2.0998 -1.7165 0.6257 0 1
3.6512 -1.9366 -1.7019 0.6344 0 1
3.6977 -1.7745 -1.6889 0.6393 0 1
3.7402 -1.6131 -1.6773 0.6437 0 1
3.7787 -1.4523 -1.6670 0.6477 0 1
3.8135 -1.2921 -1.6580 0.6512 0 1
3.8445 -1.1324 -1.6503 0.6542 0 1
3.8718 -0.9730 -1.6439 0.6568 0 1
3.8955 -0.8138 -1.6387 0.6588 0 1
3.9157 -0.6549 -1.6348 0.6604 0 1
3.9323 -0.4960 -1.6321 0.6615 0 1
3.9454 -0.3370 -1.6305 0.6622 0 1
3.9550 -0.1780 -1.6302 0.6623 0 1
3.9622 -0.0187 -1.6316 0.6610 0 1
3.9678 0.1410 -1.6349 0.6597 0 1
3.9698 0.3014 -1.6394 0.6579 0 1
3.9684 0.4625 -1.6452 0.6556 0 1
3.9612 0.6241 -1.6513 0.6435 0 1
3.9483 0.7860 -1.6577 0.6410 0 1
3.9315 0.9486 -1.6654 0.6380 0 1
3.9110 1.1120 -1.6743 0.6346 0 1
3.8866 1.2761 -1.6845 0.6308 0 1
3.8583 1.4412 -1.6960 0.6265 0 1
3.8259 1.6074 -1.7088 0.6218 0 1
3.7894 1.7747 -1.7230 0.6167 0 1
3.7485 1.9431 -1.7386 0.6111 0 1
3.7033 2.1129 -1.7557 0.6052 0 1
3.6537 2.2842 -1.7743 0.5984 0 1
3.5994 2.4571 -1.7946 0.5917 0 1
3.5406 2.6319 -1.8166 0.5845 0 1
3.4767 2.8084 -1.8404 0.5770 0 1
3.4075 2.9869 -1.8659 0.5691 0 1
3.3328 3.1674 -1.8933 0.5609 0 1
3.2526 3.3504 -1.9228 0.5564 0 1
3.1667 3.5361 -1.9547 0.5474 0 1
3.0745 3.7244 -1.9887 0.5380 0 1
2.9755 3.9153 -2.0250 0.5284 0 1
2.8681 4.1071 -2.0628 0.5228 0 1
2.7514 4.2987 -2.1017 0.5132 0 1
2.6269 4.4926 -2.1430 0.5038 0 1
2.4942 4.6890 -2.1870 0.4937 0 1
2.3529 4.8880 -2.2338 0.4833 0 1
2.2023 5.0897 -2.2836 0.4728 0 1
2.0421 5.2943 -2.3366 0.4620 0 1
1.8714 5.5016 -2.3929 0.4515 0 1
1.6897 5.7116 -2.4527 0.4405 0 1
1.4963 5.9247 -2.5163 0.4294 0 1
1.2905 6.1409 -2.5839 0.4182 0 1
1.0714 6.3602 -2.6559 0.4068 0 1
0.8384 6.5843 -2.7332 0.3962 0 1
0.5900 6.8120 -2.8156 0.3838 0 1
0.3253 7.0434 -2.9035 0.3722 0 1
0.0430 7.2784 -2.9972 0.3606 0 1
-0.2582 7.5168 -3.0971 0.3489 0 1
-0.5796 7.7563 -3.2028 0.3401 0 1
-0.9224 7.9970 -3.3148 0.3286 0 1
-1.2881 8.2397 -3.4342 0.3180 0 1
-1.6779 8.4811 -3.5600 0.3068 0 1
-2.0939 8.7238 -3.6943 0.2957 0 1
-2.5380 8.9674 -3.8377 0.2847 0 1
-3.0117 9.2094 -3.9899 0.2799 0 1
-3.5187 9.4540 -4.1539 0.2632 0 1
-4.0612 9.6986 -4.3297 0.2525 0 1
-4.6413 9.9411 -4.5177 0.2420 0 1
-5.2651 10.1867 -4.7219 0.2276 0 1
-5.9307 10.4235 -4.9383 0.2223 0 1
-6.6241 10.6235 -5.1553 0.2062 0 24
-7.3843 10.8450 -5.4027 0.2021 0 1
-8.1896 11.0448 -5.6619 0.1891 0 1
-9.0608 11.2442 -5.9463 0.1800 0 1
-9.9914 11.4257 -6.2501 0.1713 0 1
-10.9943 11.5959 -6.5800 0.1629 0 1
-12.0677 11.7433 -6.9338 0.1546 0 1
-13.2199 11.8673 -7.3153 0.1455 0 1
-33.3846 -0.0801 -14.1819 0.0817 0 1
-33.1724 -1.4155 -14.1045 0.0790 0 1
-31.6545 -2.6299 -13.4932 0.0800 0 2
-30.3788 -3.7598 -13.0034 0.0804 0 25
-29.5841 -4.8770 -12.7370 0.0820 0 25
-22.2746 -4.5995 -9.6619 0.9828 16 6
-28.4064 -7.0683 -12.4351 0.0794 0 1
-27.0664 -7.9040 -11.9781 0.0846 0 1
-25.6076 -8.6104 -11.4766 0.0939 0 1
-24.1476 -9.2167 -10.9797 0.0970 0 1
-22.6737 -9.7165 -10.4790 0.1052 0 1
-21.2291 -10.1270 -9.9917 0.1103 0 1
-19.8534 -10.4714 -9.5350 0.1228 0 1
-18.5007 -10.7309 -9.0855 0.1221 0 1
-17.1033 -10.8628 -8.6071 0.1245 0 24
-15.8373 -10.9771 -8.1857 0.1314 0 1
-14.5765 -10.9972 -7.7567 0.1387 0 1
-13.3270 -10.9230 -7.3199 0.1452 0 24
-12.2482 -10.8914 -6.9626 0.1577 0 1
-11.2130 -10.8095 -6.6162 0.1659 0 1
-10.2387 -10.6978 -6.2904 0.1745 0 1
-9.3466 -10.5876 -5.9994 0.1902 0 1
-8.5114 -10.4614 -5.7291 0.1992 0 1
-7.7235 -10.3145 -5.4739 0.2060 0 1
-6.9752 -10.1415 -5.2288 0.2154 0 1
-6.2733 -9.9564 -4.9991 0.2253 0 1
-5.6148 -9.7612 -4.7836 0.2351 0 1
-4.9795 -9.5242 -4.5655 0.2453 0 24
-4.4166 -9.3450 -4.3908 0.2555 0 1
-3.8607 -9.0995 -4.1990 0.2663 0 24
-3.3636 -8.9090 -4.0453 0.2763 0 1
-2.8864 -8.6878 -3.8890 0.2875 0 1
-2.4379 -8.4616 -3.7407 0.2948 0 1
-2.0095 -8.2021 -3.5873 0.3103 0 24
-1.6232 -8.0066 -3.4704 0.3178 0 1
-1.2542 -7.7830 -3.3489 0.3348 0 1
-0.9052 -7.5369 -3.2247 0.3460 0 24
-0.5833 -7.3416 -3.1286 0.3574 0 1
-0.2782 -7.1233 -3.0283 0.3692 0 1
0.0084 -6.9073 -2.9342 0.3810 0 1
0.2777 -6.6937 -2.8459 0.3928 0 1
0.5308 -6.4826 -2.7630 0.4045 0 1
0.7689 -6.2741 -2.6852 0.4163 0 1
0.9930 -6.0682 -2.6121 0.4279 0 1
1.2037 -5.8645 -2.5432 0.4397 0 1
1.4015 -5.6612 -2.4775 0.4499 0 1
1.5876 -5.4607 -2.4158 0.4614 0 1
1.7627 -5.2630 -2.3578 0.4727 0 1
1.9179 -5.0428 -2.2919 0.4823 0 24
2.0825 -4.8755 -2.2521 0.4949 0 1
2.2280 -4.6849 -2.2037 0.4880 0 1
2.3586 -4.4848 -2.1525 0.4996 0 1
2.4806 -4.2885 -2.1046 0.5109 0 1
2.5945 -4.0958 -2.0596 0.5221 0 1
2.7008 -3.9064 -2.0175 0.5330 0 1
2.8048 -3.7269 -1.9815 0.5651 0 1
2.9027 -3.5502 -1.9481 0.5748 0 1
2.9945 -3.3756 -1.9169 0.5841 0 1
3.0804 -3.2030 -1.8878 0.5931 0 1
3.1607 -3.0323 -1.8607 0.6018 0 1
3.2358 -2.8633 -1.8355 0.6100 0 1
3.3057 -2.6961 -1.8121 0.6179 0 1
3.3708 -2.5303 -1.7905 0.6253 0 1
3.4319 -2.3664 -1.7709 0.6226 0 1
3.4892 -2.2042 -1.7532 0.6289 0 1
3.5427 -2.0434 -1.7374 0.6381 0 1
3.5925 -1.8837 -1.7232 0.6434 0 1
3.6382 -1.7247 -1.7104 0.6482 0 1
3.6799 -1.5664 -1.6990 0.6525 0 1
3.7178 -1.4087 -1.6889 0.6564 0 1
3.7518 -1.2514 -1.6801 0.6599 0 1
3.7822 -1.0945 -1.6726 0.6628 0 1
3.8088 -0.9380 -1.6663 0.6653 0 1
3.8319 -0.7816 -1.6613 0.6673 0 1
3.8515 -0.6253 -1.6575 0.6689 0 1
3.8675 -0.4691 -1.6550 0.6699 0 1
3.8800 -0.3129 -1.6536 0.6705 0 1
3.8891 -0.1565 -1.6534 0.6705 0 1
3.8960 0.0001 -1.6550 0.6692 0 1
3.9009 0.1572 -1.6585 0.6678 0 1
3.9023 0.3149 -1.6631 0.6659 0 1
3.9002 0.4733 -1.6690 0.6636 0 1
3.8907 0.6319 -1.6744 0.6516 0 1
3.8772 0.7910 -1.6810 0.6491 0 1
3.8600 0.9508 -1.6888 0.6461 0 1
3.8391 1.1112 -1.6978 0.6426 0 1
3.8142 1.2725 -1.7081 0.6388 0 1
3.7855 1.4346 -1.7197 0.6345 0 1
3.7527 1.5976 -1.7326 0.6297 0 1
3.7157 1.7617 -1.7469 0.6246 0 1
3.6746 1.9270 -1.7626 0.6190 0 1
3.6290 2.0934 -1.7797 0.6131 0 1
3.5790 2.2612 -1.7984 0.6063 0 1
3.5245 2.4305 -1.8187 0.5996 0 1
3.4654 2.6016 -1.8408 0.5924 0 1
3.4013 2.7743 -1.8646 0.5848 0 1
3.3319 2.9487 -1.8901 0.5769 0 1
3.2574 3.1253 -1.9177 0.5729 0 1
3.1775 3.3043 -1.9474 0.5642 0 1
3.0916 3.4854 -1.9792 0.5551 0 1
2.9994 3.6688 -2.0131 0.5458 0 1
2.9006 3.8546 -2.0493 0.5361 0 1
2.7934 4.0409 -2.0868 0.5307 0 1
2.6773 4.2269 -2.1255 0.5210 0 1
2.5536 4.4151 -2.1666 0.5117 0 1
2.4217 4.6053 -2.2103 0.5016 0 1
2.2814 4.7977 -2.2568 0.4912 0 1
2.1322 4.9925 -2.3061 0.4807 0 1
1.9618 5.1591 -2.3447 0.4708 0 24
1.7950 5.3603 -2.4013 0.4597 0 24
1.6252 5.5909 -2.4733 0.4486 0 1
1.4344 5.7950 -2.5360 0.4375 0 1
1.2274 5.9815 -2.5939 0.4254 0 24
1.0160 6.2109 -2.6735 0.4150 0 1
0.7871 6.4247 -2.7496 0.4037 0 1
0.5435 6.6407 -2.8304 0.3929 0 1
0.2842 6.8594 -2.9164 0.3805 0 1
0.0082 7.0809 -3.0080 0.3689 0 1
-0.2856 7.3048 -3.1055 0.3573 0 1
-0.5986 7.5301 -3.2089 0.3486 0 1
-0.9317 7.7544 -3.3178 0.3371 0 1
-1.2863 7.9794 -3.4334 0.3267 0 1
-1.6632 8.2020 -3.5551 0.3155 0 1
-2.0645 8.4246 -3.6847 0.3044 0 1
-2.4916 8.6465 -3.8225 0.2935 0 1
-2.9465 8.8672 -3.9693 0.2826 0 1
-3.4308 9.0857 -4.1256 0.2719 0 1
-3.9477 9.3033 -4.2932 0.2615 0 1
-4.4984 9.5169 -4.4717 0.2511 0 1
-5.0851 9.7250 -4.6619 0.2408 0 1
-5.7147 9.9339 -4.8684 0.2316 0 1
-6.3732 10.1139 -5.0782 0.2220 0 1
-7.0725 10.2818 -5.3013 0.2115 0 1
-7.8157 10.4366 -5.5389 0.2024 0 1
-8.6162 10.5892 -5.7993 0.1895 0 1
-9.4437 10.6966 -6.0614 0.1811 0 24
-10.3856 10.8503 -6.3804 0.1730 0 1
-11.3554 10.9457 -6.7000 0.1648 0 1
-12.3449 10.9764 -7.0173 0.1573 0 24
-13.4378 11.0127 -7.3805 0.1506 0 24
-14.5936 11.0089 -7.7655 0.1378 0 24
-15.9925 11.0836 -8.2657 0.1222 0 1
-17.3588 11.0238 -8.7354 0.1200 0 1
-18.5791 10.7751 -9.1237 0.9768 0 2
-19.3850 10.2232 -9.3098 0.1119 0 2
-20.7602 9.9021 -9.7708 0.1067 0 2
-22.1499 9.4907 -10.2367 0.1018 0 2
-23.5353 8.9817 -10.7011 0.0974 0 2
-24.8940 8.3691 -11.1566 0.0934 0 2
-27.0350 7.8934 -11.9640 0.2790 0 2
-28.5556 7.1040 -12.5002 0.0917 0 1
-16.6258 3.4322 -7.2116 0.8081 26 14
-16.6817 2.7492 -7.1820 0.9028 26 14
-18.8494 2.3319 -8.0683 0.8686 26 14
-32.9083 2.7324 -14.0276 0.0873 0 1
-33.2893 1.4188 -14.1542 0.0865 0 1
-33.3920 0.0784 -14.1850 0.0817 0 1
-33.2171 -1.2595 -14.1208 0.0789 0 1
-32.7190 -2.5620 -13.9417 0.0793 0 1
-30.4597 -3.6231 -13.0305 0.0802 0 25
-29.6875 -4.7494 -12.7717 0.0818 0 25
-22.2791 -4.4903 -9.6545 0.9835 16 6
-28.5596 -6.9627 -12.4875 0.0791 0 1
-27.2305 -7.8119 -12.0341 0.0842 0 1
-25.7822 -8.5331 -11.5366 0.0864 0 1
-24.3243 -9.1521 -11.0402 0.0965 0 1
-22.8448 -9.6617 -10.5368 0.1046 0 1
-21.3986 -10.0835 -10.0488 0.1097 0 1
-20.0140 -10.4350 -9.5882 0.1221 0 1
-18.6635 -10.7072 -9.1403 0.1214 0 1
-17.2637 -10.8499 -8.6617 0.1237 0 24
-15.9905 -10.9713 -8.2379 0.1305 0 1
-14.7216 -10.9974 -7.8061 0.1378 0 1
-13.5149 -10.9702 -7.3945 0.1443 0 1
-12.3769 -10.9011 -7.0063 0.1522 0 1
-11.3318 -10.8208 -6.6560 0.1649 0 1
-10.3506 -10.7125 -6.3279 0.1735 0 1
-9.4484 -10.6010 -6.0324 0.1891 0 1
-8.6073 -10.4774 -5.7601 0.1981 0 1
-7.8148 -10.3339 -5.5038 0.2074 0 1
-7.0610 -10.1626 -5.2569 0.2143 0 1
-6.3537 -9.9788 -5.0254 0.2242 0 1
-5.6903 -9.7847 -4.8083 0.2339 0 1
-5.0502 -9.5486 -4.5887 0.2440 0 24
-4.4830 -9.3701 -4.4125 0.2542 0 1
-3.9353 -9.1543 -4.2329 0.2641 0 1
-3.4220 -8.9350 -4.0644 0.2750 0 1
-2.9411 -8.7140 -3.9069 0.2862 0 1
-2.4893 -8.4886 -3.7578 0.2935 0 1
-2.0654 -8.2605 -3.6171 0.3049 0 1
-1.6683 -8.0333 -3.4854 0.3164 0 1
-1.2964 -7.8089 -3.3626 0.3306 0 1
-0.9447 -7.5628 -3.2376 0.3448 0 24
-0.6205 -7.3675 -3.1408 0.3560 0 1
-0.3132 -7.1489 -3.0398 0.3678 0 1
-0.0244 -6.9145 -2.9373 0.3801 0 24
0.2468 -6.7188 -2.8561 0.3914 0 1
0.5018 -6.5074 -2.7725 0.4032 0 1
0.7416 -6.2985 -2.6941 0.4149 0 1
0.9672 -6.0923 -2.6204 0.4266 0 1
1.1795 -5.8885 -2.5511 0.4383 0 1
1.3788 -5.6850 -2.4850 0.4485 0 1
1.5607 -5.4647 -2.4142 0.4586 0 24
1.7426 -5.2861 -2.3644 0.4714 0 1
1.9085 -5.0908 -2.3096 0.4826 0 1
2.0647 -4.8981 -2.2580 0.4936 0 1
2.2116 -4.7078 -2.2096 0.5045 0 1
2.3437 -4.5082 -2.1584 0.4982 0 1
2.4667 -4.3114 -2.1101 0.5096 0 1
2.5815 -4.1183 -2.0647 0.5208 0 1
2.6886 -3.9286 -2.0223 0.5317 0 1
2.7929 -3.7479 -1.9856 0.5639 0 1
2.8915 -3.5709 -1.9519 0.5736 0 1
2.9840 -3.3960 -1.9204 0.5830 0 1
3.0706 -3.2232 -1.8911 0.5921 0 1
3.1515 -3.0523 -1.8638 0.6008 0 1
3.2272 -2.8832 -1.8383 0.6091 0 1
3.2977 -2.7157 -1.8148 0.6170 0 1
3.3634 -2.5498 -1.7929 0.6245 0 1
3.4249 -2.3857 -1.7731 0.6218 0 1
3.4826 -2.2232 -1.7552 0.6282 0 1
3.5366 -2.0623 -1.7391 0.6341 0 1
3.5869 -1.9025 -1.7248 0.6428 0 1
3.6330 -1.7435 -1.7118 0.6476 0 1
3.6752 -1.5851 -1.7003 0.6521 0 1
3.7135 -1.4273 -1.6900 0.6560 0 1
3.7480 -1.2700 -1.6811 0.6595 0 1
3.7788 -1.1130 -1.6734 0.6625 0 1
3.8059 -0.9564 -1.6670 0.6651 0 1
3.8294 -0.8000 -1.6619 0.6671 0 1
3.8493 -0.6438 -1.6579 0.6687 0 1
3.8658 -0.4876 -1.6552 0.6698 0 1
3.8787 -0.3313 -1.6537 0.6704 0 1
3.8882 -0.1750 -1.6534 0.6705 0 1
3.8952 -0.0184 -1.6547 0.6693 0 1
3.9005 0.1386 -1.6580 0.6680 0 1
3.9023 0.2963 -1.6625 0.6662 0 1
3.9007 0.4546 -1.6682 0.6639 0 1
3.8920 0.6132 -1.6737 0.6519 0 1
3.8790 0.7722 -1.6801 0.6494 0 1
3.8623 0.9319 -1.6878 0.6464 0 1
3.8417 1.0923 -1.6967 0.6431 0 1
3.8174 1.2534 -1.7068 0.6392 0 1
3.7891 1.4154 -1.7182 0.6350 0 1
3.7568 1.5783 -1.7310 0.6303 0 1
3.7203 1.7423 -1.7451 0.6252 0 1
3.6796 1.9074 -1.7606 0.6197 0 1
3.6346 2.0737 -1.7776 0.6138 0 1
3.5851 2.2413 -1.7961 0.6071 0 1
3.5312 2.4105 -1.8162 0.6004 0 1
3.4727 2.5813 -1.8381 0.5932 0 1
3.4091 2.7538 -1.8617 0.5857 0 1
3.3404 2.9280 -1.8870 0.5779 0 1
3.2665 3.1044 -1.9143 0.5739 0 1
3.1873 3.2831 -1.9438 0.5652 0 1
3.1021 3.4639 -1.9753 0.5562 0 1
3.0107 3.6471 -2.0090 0.5469 0 1
2.9126 3.8326 -2.0449 0.5373 0 1
2.8066 4.0191 -2.0824 0.5318 0 1
2.6914 4.2049 -2.1208 0.5222 0 1
2.5686 4.3928 -2.1617 0.5123 0 1
2.4377 4.5827 -2.2050 0.5028 0 1
2.2984 4.7749 -2.2511 0.4925 0 1
2.1503 4.9694 -2.3002 0.4820 0 1
1.9808 5.1356 -2.3383 0.4721 0 24
1.8152 5.3364 -2.3945 0.4610 0 24
1.6469 5.5669 -2.4662 0.4499 0 1
1.4575 5.7708 -2.5284 0.4388 0 1
1.2518 5.9566 -2.5856 0.4263 0 24
1.0421 6.1861 -2.6649 0.4163 0 1
0.8148 6.3994 -2.7404 0.4050 0 1
0.5730 6.6151 -2.8206 0.3943 0 1
0.3156 6.8335 -2.9060 0.3819 0 1
0.0417 7.0546 -2.9969 0.3703 0 1
-0.2500 7.2783 -3.0936 0.3587 0 1
-0.5607 7.5038 -3.1965 0.3499 0 1
-0.8913 7.7278 -3.3046 0.3385 0 1
-1.2433 7.9532 -3.4196 0.3280 0 1
-1.6175 8.1757 -3.5404 0.3168 0 1
-2.0158 8.3983 -3.6690 0.3057 0 1
-2.4398 8.6204 -3.8058 0.2947 0 1
-2.8913 8.8413 -3.9515 0.2839 0 1
-3.3721 9.0601 -4.1067 0.2732 0 1
-3.8850 9.2779 -4.2728 0.2628 0 1
-4.4316 9.4920 -4.4500 0.2523 0 1
-5.0140 9.7008 -4.6388 0.2420 0 1
-5.6387 9.9103 -4.8436 0.2278 0 1
-6.2934 10.0932 -5.0528 0.2231 0 1
-6.9876 10.2625 -5.2741 0.2126 0 1
-7.7258 10.4193 -5.5101 0.2035 0 1
-8.5190 10.5719 -5.7676 0.1906 0 1
-9.3654 10.7099 -6.0437 0.1819 0 1
-10.2749 10.8372 -6.3439 0.1740 0 1
-11.2381 10.9361 -6.6613 0.1657 0 1
-12.2613 11.0067 -6.9994 0.1573 0 1
-28.7679 -0.0690 -12.5988 0.0801 0 1
-28.5949 -1.2202 -12.5344 0.0805 0 1
-28.1826 -2.3414 -12.3850 0.0833 0 1
-26.5846 -3.2902 -11.7315 0.0914 0 25
-25.9557 -4.2789 -11.5206 0.0931 0 25
-22.1550 -4.5748 -9.9074 0.9834 16 6
-24.9505 -6.2084 -11.2601 0.0970 0 1
-23.9185 -6.9848 -10.9125 0.0998 0 1
-22.8193 -7.6729 -10.5434 0.1058 0 1
-21.6569 -8.2660 -10.1519 0.1119 0 1
-20.4712 -8.7727 -9.7538 0.1203 0 1
-19.2989 -9.2063 -9.3643 0.1259 0 1
-18.1003 -9.5468 -8.9620 0.1257 0 1
-16.9059 -9.8058 -8.5592 0.1316 0 1
-15.7180 -9.9829 -8.1547 0.1348 0 1
-14.5664 -10.0963 -7.7618 0.1416 0 1
-13.4570 -10.1526 -7.3825 0.1482 0 1
-12.3995 -10.1628 -7.0212 0.1559 0 1
-11.4178 -10.1531 -6.6914 0.1686 0 1
-10.4882 -10.1108 -6.3801 0.1768 0 1
-9.5898 -10.0199 -6.0741 0.1926 0 24
-8.8137 -9.9840 -5.8324 0.2009 0 1
-8.0469 -9.8905 -5.5840 0.2098 0 1
-7.3152 -9.7692 -5.3449 0.2163 0 1
-6.6037 -9.6013 -5.1034 0.2257 0 24
-5.9687 -9.4731 -4.9035 0.2353 0 1
-5.3527 -9.3057 -4.7015 0.2448 0 1
-4.7724 -9.1280 -4.5110 0.2552 0 1
-4.2262 -8.9421 -4.3315 0.2648 0 1
-3.7124 -8.7500 -4.1627 0.2755 0 1
-3.2295 -8.5537 -4.0041 0.2865 0 1
-2.7748 -8.3521 -3.8543 0.2936 0 1
-2.3466 -8.1448 -3.7121 0.3048 0 1
-1.9379 -7.9097 -3.5665 0.3201 0 24
-1.5671 -7.7298 -3.4541 0.3302 0 1
-1.2085 -7.4993 -3.3267 0.3441 0 24
-0.8791 -7.3194 -3.2285 0.3553 0 1
-0.5652 -7.1135 -3.1251 0.3671 0 1
-0.2698 -6.9088 -3.0280 0.3789 0 1
0.0081 -6.7056 -2.9367 0.3905 0 1
0.2698 -6.5039 -2.8508 0.4023 0 1
0.5162 -6.3040 -2.7700 0.4140 0 1
0.7483 -6.1060 -2.6941 0.4257 0 1
0.9671 -5.9099 -2.6226 0.4373 0 1
1.1731 -5.7153 -2.5552 0.4476 0 1
1.3622 -5.5023 -2.4825 0.4590 0 24
1.5492 -5.3285 -2.4302 0.4706 0 1
1.7210 -5.1386 -2.3733 0.4819 0 1
1.8736 -4.9263 -2.3082 0.4904 0 24
2.0232 -4.7367 -2.2557 0.5016 0 24
2.1773 -4.5782 -2.2202 0.4969 0 1
2.3062 -4.3850 -2.1698 0.5085 0 1
2.4266 -4.1951 -2.1225 0.5198 0 1
2.5392 -4.0085 -2.0781 0.5309 0 1
2.6463 -3.8276 -2.0379 0.5637 0 1
2.7495 -3.6534 -2.0025 0.5737 0 1
2.8464 -3.4813 -1.9694 0.5833 0 1
2.9373 -3.3111 -1.9384 0.5926 0 1
3.0225 -3.1427 -1.9096 0.6016 0 1
3.1021 -2.9760 -1.8827 0.6102 0 1
3.1766 -2.8110 -1.8576 0.6184 0 1
3.2460 -2.6474 -1.8344 0.6262 0 1
3.3106 -2.4851 -1.8129 0.6337 0 1
3.3707 -2.3242 -1.7931 0.6407 0 1
3.4268 -2.1648 -1.7751 0.6374 0 1
3.4804 -2.0074 -1.7596 0.6465 0 1
3.5298 -1.8508 -1.7455 0.6517 0 1
3.5752 -1.6949 -1.7328 0.6565 0 1
3.6166 -1.5395 -1.7214 0.6608 0 1
3.6541 -1.3846 -1.7113 0.6647 0 1
3.6879 -1.2301 -1.7026 0.6681 0 1
3.7180 -1.0760 -1.6951 0.6711 0 1
3.7445 -0.9221 -1.6889 0.6735 0 1
3.7674 -0.7684 -1.6839 0.6755 0 1
3.7867 -0.6148 -1.6801 0.6770 0 1
3.8026 -0.4613 -1.6775 0.6781 0 1
3.8150 -0.3076 -1.6762 0.6786 0 1
3.8239 -0.1539 -1.6760 0.6787 0 1
3.8306 0.0001 -1.6776 0.6773 0 1
3.8352 0.1545 -1.6810 0.6760 0 1
3.8365 0.3096 -1.6856 0.6741 0 1
3.8330 0.4652 -1.6910 0.6620 0 1
3.8232 0.6210 -1.6963 0.6599 0 1
3.8097 0.7773 -1.7028 0.6574 0 1
3.7925 0.9341 -1.7106 0.6544 0 1
3.7716 1.0917 -1.7195 0.6510 0 1
3.7468 1.2500 -1.7298 0.6472 0 1
3.7181 1.4090 -1.7413 0.6429 0 1
3.6854 1.5690 -1.7542 0.6382 0 1
3.6486 1.7299 -1.7684 0.6330 0 1
3.6075 1.8918 -1.7840 0.6275 0 1
3.5622 2.0549 -1.8010 0.6216 0 1
3.5124 2.2191 -1.8195 0.6148 0 1
3.4582 2.3848 -1.8397 0.6081 0 1
3.3995 2.5521 -1.8616 0.6010 0 1
3.3357 2.7208 -1.8852 0.5935 0 1
3.2672 2.8914 -1.9107 0.5900 0 1
3.1935 3.0640 -1.9382 0.5816 0 1
3.1143 3.2385 -1.9677 0.5729 0 1
3.0291 3.4149 -1.9991 0.5639 0 1
2.9377 3.5933 -2.0327 0.5546 0 1
2.8399 3.7739 -2.0685 0.5450 0 1
2.7342 3.9552 -2.1057 0.5396 0 1
2.6195 4.1356 -2.1439 0.5300 0 1
2.4974 4.3179 -2.1845 0.5201 0 1
2.3674 4.5020 -2.2276 0.5106 0 1
2.2292 4.6880 -2.2734 0.5003 0 1
2.0823 4.8758 -2.3219 0.4899 0 1
1.9152 5.0364 -2.3597 0.4800 0 24
1.7513 5.2297 -2.4154 0.4690 0 24
1.5845 5.4511 -2.4861 0.4579 0 1
1.3976 5.6466 -2.5475 0.4469 0 1
1.1992 5.8440 -2.6127 0.4357 0 1
0.9860 6.0275 -2.6748 0.4234 0 24
0.7653 6.2470 -2.7563 0.4132 0 1
0.5280 6.4520 -2.8351 0.4025 0 1
0.2759 6.6585 -2.9186 0.3910 0 1
0.0080 6.8670 -3.0074 0.3786 0 1
-0.2768 7.0772 -3.1018 0.3671 0 1
-0.5794 7.2887 -3.2021 0.3556 0 1
-0.9010 7.4986 -3.3076 0.3470 0 1
-1.2425 7.7078 -3.4192 0.3366 0 1
-1.6047 7.9132 -3.5361 0.3254 0 1
-1.9892 8.1175 -3.6602 0.3144 0 1
-2.3976 8.3201 -3.7920 0.3035 0 1
-2.8311 8.5201 -3.9319 0.2927 0 1
-3.2915 8.7166 -4.0805 0.2821 0 1
-3.7803 8.9089 -4.2383 0.2689 0 1
-4.3011 9.0995 -4.4078 0.2586 0 1
-4.8533 9.2815 -4.5870 0.2512 0 1
-5.4393 9.4551 -4.7771 0.2370 0 1
-6.0585 9.6146 -4.9769 0.2324 0 1
-6.7083 9.7524 -5.1839 0.2231 0 1
-7.3947 9.8744 -5.4026 0.2129 0 1
-8.1233 9.9834 -5.6367 0.2001 0 1
-8.9032 10.0843 -5.8913 0.1914 0 1
-9.7373 10.1729 -6.1672 0.1829 0 1
-10.6153 10.2323 -6.4571 0.1754 0 1
-11.5401 10.2608 -6.7628 0.1671 0 1
-12.5203 10.2608 -7.0893 0.1596 0 1
-13.5455 10.2183 -7.4308 0.1519 0 1
-14.6264 10.1368 -7.7936 0.1330 0 1
-15.8361 10.0568 -8.2157 0.1291 0 1
-17.0310 9.8773 -8.6222 0.1249 0 1
-18.2467 9.6228 -9.0342 0.1189 0 1
-19.7681 9.4289 -9.5917 0.1322 0 2
-20.6942 8.8670 -9.8598 0.7976 0 2
-21.8410 8.3351 -10.2380 0.6396 0 2
-23.3870 7.8625 -10.8055 0.1102 0 2
-24.1518 7.0516 -11.0188 0.0996 0 1
-16.4861 4.1014 -7.4401 0.5072 26 14
-16.4416 3.3942 -7.3524 0.9623 26 14
-16.4944 2.7183 -7.3211 0.8559 26 14
-18.2765 2.2611 -8.0651 0.1354 26 14
-28.3307 2.3523 -12.4500 0.0794 0 1
-28.6601 1.2215 -12.5629 0.0787 0 1
-28.7716 0.0676 -12.6004 0.0800 0 1
-28.6276 -1.0854 -12.5464 0.0804 0 1
-28.2475 -2.2119 -12.4087 0.0831 0 1
-26.6485 -3.1697 -11.7529 0.0912 0 25
-26.0377 -4.1655 -11.5481 0.0929 0 25
-22.1595 -4.4662 -9.8998 0.9841 16 6
-24.4043 -5.9496 -11.0008 0.0968 0 2
-24.0453 -6.8981 -10.9553 0.0994 0 1
-22.9509 -7.5961 -10.5875 0.1053 0 1
-21.7981 -8.2016 -10.1997 0.1113 0 1
-20.6100 -8.7166 -9.8001 0.1198 0 1
-19.4366 -9.1589 -9.4099 0.1253 0 1
-18.2428 -9.5115 -9.0101 0.1250 0 1
-17.0453 -9.7789 -8.6062 0.1309 0 1
-15.8568 -9.9658 -8.2020 0.1340 0 1
-14.6998 -10.0857 -7.8073 0.1407 0 1
-13.5853 -10.1485 -7.4264 0.1474 0 1
-12.5214 -10.1638 -7.0629 0.1549 0 1
-11.4701 -10.1024 -6.6939 0.1632 0 24
-10.5953 -10.1175 -6.4159 0.1758 0 1
-9.7206 -10.0605 -6.1266 0.1913 0 1
-8.9069 -9.9935 -5.8626 0.1999 0 1
-8.1352 -9.9026 -5.6126 0.2088 0 1
-7.3996 -9.7849 -5.3726 0.2151 0 1
-6.6833 -9.6190 -5.1296 0.2244 0 24
-6.0438 -9.4921 -4.9281 0.2341 0 1
-5.4236 -9.3261 -4.7248 0.2436 0 1
-4.8390 -9.1494 -4.5328 0.2539 0 1
-4.2889 -8.9645 -4.3521 0.2635 0 1
-3.7713 -8.7729 -4.1820 0.2743 0 1
-3.2849 -8.5770 -4.0223 0.2852 0 1
-2.8271 -8.3764 -3.8717 0.2923 0 1
-2.3957 -8.1693 -3.7284 0.3035 0 1
-1.9838 -7.9339 -3.5816 0.3187 0 24
-1.6104 -7.7543 -3.4684 0.3289 0 1
-1.2491 -7.5235 -3.3400 0.3425 0 24
-0.9174 -7.3437 -3.2411 0.3539 0 1
-0.6012 -7.1377 -3.1370 0.3657 0 1
-0.3037 -6.9329 -3.0391 0.3775 0 1
-0.0237 -6.7121 -2.9396 0.3897 0 24
0.2397 -6.5276 -2.8607 0.4009 0 1
0.4879 -6.3275 -2.7793 0.4126 0 1
0.7217 -6.1292 -2.7028 0.4243 0 1
0.9419 -5.9329 -2.6308 0.4359 0 1
1.1495 -5.7383 -2.5630 0.4460 0 1
1.3401 -5.5251 -2.4899 0.4576 0 24
1.5282 -5.3511 -2.4372 0.4692 0 1
1.7013 -5.1609 -2.3798 0.4806 0 1
1.8553 -4.9488 -2.3146 0.4908 0 24
2.0061 -4.7590 -2.2618 0.5002 0 24
2.1615 -4.6012 -2.2264 0.4956 0 1
2.2914 -4.4076 -2.1756 0.5071 0 1
2.4128 -4.2174 -2.1279 0.5185 0 1
2.5263 -4.0303 -2.0832 0.5296 0 1
2.6336 -3.8482 -2.0422 0.5625 0 1
2.7377 -3.6739 -2.0065 0.5725 0 1
2.8353 -3.5015 -1.9732 0.5822 0 1
2.9269 -3.3311 -1.9420 0.5916 0 1
3.0127 -3.1625 -1.9129 0.6006 0 1
3.0930 -2.9956 -1.8857 0.6092 0 1
3.1681 -2.8303 -1.8605 0.6175 0 1
3.2381 -2.6666 -1.8371 0.6253 0 1
3.3033 -2.5042 -1.8154 0.6328 0 1
3.3638 -2.3431 -1.7953 0.6399 0 1
3.4203 -2.1835 -1.7771 0.6366 0 1
3.4743 -2.0260 -1.7613 0.6458 0 1
3.5242 -1.8693 -1.7471 0.6511 0 1
3.5700 -1.7132 -1.7342 0.6559 0 1
3.6119 -1.5578 -1.7227 0.6603 0 1
3.6499 -1.4028 -1.7125 0.6643 0 1
3.6841 -1.2483 -1.7036 0.6677 0 1
3.7147 -1.0941 -1.6959 0.6707 0 1
3.7416 -0.9403 -1.6895 0.6733 0 1
3.7649 -0.7865 -1.6844 0.6753 0 1
3.7846 -0.6329 -1.6805 0.6769 0 1
3.8009 -0.4794 -1.6778 0.6780 0 1
3.8137 -0.3258 -1.6763 0.6786 0 1
3.8230 -0.1720 -1.6760 0.6787 0 1
3.8298 -0.0181 -1.6773 0.6775 0 1
3.8349 0.1363 -1.6805 0.6762 0 1
3.8365 0.2913 -1.6850 0.6744 0 1
3.8339 0.4468 -1.6904 0.6622 0 1
3.8246 0.6026 -1.6956 0.6602 0 1
3.8115 0.7588 -1.7020 0.6577 0 1
3.7948 0.9156 -1.7096 0.6548 0 1
3.7742 1.0731 -1.7184 0.6514 0 1
3.7499 1.2312 -1.7285 0.6476 0 1
3.7217 1.3902 -1.7399 0.6434 0 1
3.6894 1.5501 -1.7526 0.6387 0 1
3.6531 1.7109 -1.7666 0.6337 0 1
3.6126 1.8727 -1.7821 0.6282 0 1
3.5678 2.0356 -1.7989 0.6223 0 1
3.5185 2.1997 -1.8173 0.6156 0 1
3.4648 2.3652 -1.8372 0.6090 0 1
3.4067 2.5323 -1.8590 0.6018 0 1
3.3435 2.7008 -1.8823 0.5944 0 1
3.2755 2.8712 -1.9076 0.5909 0 1
3.2025 3.0436 -1.9349 0.5826 0 1
3.1239 3.2178 -1.9641 0.5739 0 1
3.0394 3.3940 -1.9953 0.5650 0 1
2.9488 3.5722 -2.0286 0.5557 0 1
2.8518 3.7525 -2.0641 0.5461 0 1
2.7472 3.9340 -2.1014 0.5407 0 1
2.6334 4.1142 -2.1393 0.5311 0 1
2.5122 4.2963 -2.1796 0.5213 0 1
2.3832 4.4802 -2.2224 0.5118 0 1
2.2460 4.6659 -2.2678 0.5016 0 1
2.1001 4.8536 -2.3161 0.4911 0 1
1.9338 5.0137 -2.3534 0.4813 0 24
1.7711 5.2068 -2.4086 0.4703 0 24
1.6058 5.4281 -2.4791 0.4592 0 1
1.4203 5.6234 -2.5401 0.4482 0 1
1.2232 5.8206 -2.6048 0.4370 0 1
1.0113 6.0034 -2.6662 0.4247 0 24
0.7924 6.2229 -2.7473 0.4145 0 1
0.5568 6.4278 -2.8256 0.4038 0 1
0.3064 6.6341 -2.9085 0.3923 0 1
0.0404 6.8423 -2.9966 0.3799 0 1
-0.2423 7.0523 -3.0904 0.3684 0 1
-0.5428 7.2637 -3.1900 0.3569 0 1
-0.8620 7.4739 -3.2949 0.3483 0 1
-1.2011 7.6832 -3.4057 0.3370 0 1
-1.5608 7.8890 -3.5219 0.3267 0 1
-1.9427 8.0935 -3.6452 0.3157 0 1
-2.3481 8.2963 -3.7761 0.3048 0 1
-2.7786 8.4967 -3.9150 0.2940 0 1
-3.2357 8.6936 -4.0625 0.2833 0 1
-3.7209 8.8861 -4.2190 0.2702 0 1
-4.2380 9.0773 -4.3873 0.2598 0 1
-4.7864 9.2605 -4.5653 0.2523 0 1
-5.3681 9.4347 -4.7539 0.2423 0 1
-5.9842 9.5974 -4.9532 0.2335 0 1
-6.6298 9.7370 -5.1589 0.2242 0 1
-7.3116 9.8607 -5.3761 0.2140 0 1
-8.0341 9.9701 -5.6076 0.2011 0 1
-8.8083 10.0728 -5.8601 0.1924 0 1
-9.6365 10.1638 -6.1338 0.1839 0 1
-10.5096 10.2271 -6.4222 0.1764 0 1
-11.4276 10.2583 -6.7253 0.1680 0 1
-25.2141 -0.0605 -11.3771 0.0962 0 1
-25.1127 -1.0716 -11.3416 0.0965 0 1
-24.7370 -2.0552 -11.2002 0.0988 0 24
-23.6075 -2.9217 -10.7334 0.1024 0 25
-23.0954 -3.8073 -10.5617 0.1041 0 25
-22.0055 -4.5439 -10.1387 0.9783 16 6
-21.7301 -5.4071 -10.1040 0.1088 0 25
-21.4882 -6.2750 -10.1008 0.1135 0 1
-20.5905 -6.9235 -9.8020 0.1200 0 1
-19.6528 -7.5011 -9.4917 0.1239 0 1
-18.6704 -8.0009 -9.1654 0.1238 0 1
-17.6258 -8.4082 -8.8116 0.1311 0 1
-16.5774 -8.7435 -8.4567 0.1335 0 1
-15.5208 -9.0024 -8.0960 0.1394 0 1
-14.4812 -9.1974 -7.7407 0.1451 0 1
-13.4684 -9.3352 -7.3943 0.1517 0 1
-12.4879 -9.4214 -7.0585 0.1590 0 1
-11.5668 -9.4803 -6.7482 0.1715 0 1
-10.6871 -9.5033 -6.4530 0.1792 0 1
-9.8533 -9.4988 -6.1755 0.1945 0 1
-9.0766 -9.4837 -5.9233 0.2028 0 1
-8.3342 -9.4407 -5.6822 0.2114 0 1
-7.6038 -9.3459 -5.4365 0.2220 0 24
-6.9445 -9.2742 -5.2278 0.2267 0 1
-6.2999 -9.1596 -5.0161 0.2358 0 1
-5.6896 -9.0301 -4.8159 0.2456 0 1
-5.1118 -8.8868 -4.6259 0.2551 0 1
-4.5656 -8.7324 -4.4462 0.2645 0 1
-4.0497 -8.5688 -4.2765 0.2750 0 1
-3.5632 -8.3984 -4.1165 0.2857 0 1
-3.1043 -8.2221 -3.9656 0.2925 0 1
-2.6700 -8.0366 -3.8211 0.3036 0 1
-2.2615 -7.8494 -3.6858 0.3173 0 1
-1.8767 -7.6600 -3.5586 0.3286 0 1
-1.5144 -7.4700 -3.4392 0.3429 0 1
-1.1734 -7.2813 -3.3278 0.3544 0 1
-0.8515 -7.0895 -3.2219 0.3650 0 1
-0.5480 -6.8970 -3.1219 0.3767 0 1
-0.2619 -6.7049 -3.0277 0.3885 0 1
0.0079 -6.5134 -2.9390 0.4001 0 1
0.2623 -6.3228 -2.8554 0.4118 0 1
0.5022 -6.1333 -2.7767 0.4235 0 1
0.7286 -5.9451 -2.7026 0.4351 0 1
0.9422 -5.7579 -2.6326 0.4450 0 1
1.1399 -5.5535 -2.5581 0.4575 0 24
1.3334 -5.3858 -2.5036 0.4683 0 1
1.5122 -5.2014 -2.4441 0.4797 0 1
1.6809 -5.0188 -2.3882 0.4910 0 1
1.8308 -4.8138 -2.3239 0.4993 0 24
1.9780 -4.6310 -2.2722 0.5103 0 24
2.1284 -4.4753 -2.2361 0.5059 0 1
2.2555 -4.2886 -2.1864 0.5174 0 1
2.3744 -4.1049 -2.1398 0.5286 0 1
2.4857 -3.9240 -2.0960 0.5397 0 1
2.5937 -3.7515 -2.0579 0.5723 0 1
2.6958 -3.5821 -2.0229 0.5822 0 1
2.7918 -3.4144 -1.9901 0.5918 0 1
2.8818 -3.2485 -1.9594 0.6011 0 1
2.9661 -3.0842 -1.9308 0.6100 0 1
3.0451 -2.9214 -1.9041 0.6186 0 1
3.1190 -2.7600 -1.8792 0.6267 0 1
3.1879 -2.5999 -1.8561 0.6345 0 1
3.2520 -2.4411 -1.8348 0.6419 0 1
3.3116 -2.2835 -1.8151 0.6489 0 1
3.3670 -2.1270 -1.7970 0.6561 0 1
3.4196 -1.9724 -1.7813 0.6547 0 1
3.4686 -1.8188 -1.7672 0.6599 0 1
3.5137 -1.6657 -1.7546 0.6647 0 1
3.5548 -1.5132 -1.7432 0.6690 0 1
3.5920 -1.3611 -1.7332 0.6729 0 1
3.6256 -1.2093 -1.7245 0.6763 0 1
3.6554 -1.0579 -1.7171 0.6792 0 1
3.6817 -0.9066 -1.7109 0.6817 0 1
3.7044 -0.7556 -1.7059 0.6836 0 1
3.7236 -0.6046 -1.7021 0.6852 0 1
3.7392 -0.4536 -1.6996 0.6862 0 1
3.7515 -0.3025 -1.6982 0.6867 0 1
3.7602 -0.1513 -1.6981 0.6868 0 1
3.7667 0.0001 -1.6996 0.6855 0 1
3.7712 0.1520 -1.7030 0.6841 0 1
3.7722 0.3044 -1.7076 0.6822 0 1
3.7673 0.4572 -1.7123 0.6703 0 1
3.7574 0.6103 -1.7176 0.6682 0 1
3.7439 0.7638 -1.7241 0.6657 0 1
3.7267 0.9179 -1.7318 0.6627 0 1
3.7058 1.0726 -1.7408 0.6593 0 1
3.6811 1.2280 -1.7509 0.6555 0 1
3.6524 1.3841 -1.7624 0.6512 0 1
3.6198 1.5411 -1.7752 0.6465 0 1
3.5832 1.6989 -1.7893 0.6414 0 1
3.5423 1.8576 -1.8048 0.6359 0 1
3.4972 2.0174 -1.8217 0.6300 0 1
3.4476 2.1782 -1.8401 0.6233 0 1
3.3937 2.3404 -1.8601 0.6166 0 1
3.3354 2.5040 -1.8819 0.6095 0 1
3.2724 2.6692 -1.9055 0.6065 0 1
3.2046 2.8360 -1.9309 0.5985 0 1
3.1315 3.0045 -1.9582 0.5902 0 1
3.0529 3.1747 -1.9873 0.5815 0 1
2.9684 3.3465 -2.0185 0.5726 0 1
2.8780 3.5202 -2.0517 0.5633 0 1
2.7811 3.6958 -2.0870 0.5538 0 1
2.6768 3.8722 -2.1241 0.5484 0 1
2.5636 4.0474 -2.1617 0.5389 0 1
2.4431 4.2241 -2.2018 0.5291 0 1
2.3150 4.4024 -2.2443 0.5191 0 1
2.1789 4.5821 -2.2894 0.5094 0 1
2.0343 4.7635 -2.3372 0.4990 0 1
1.8810 4.9464 -2.3878 0.4884 0 1
1.7182 5.1310 -2.4416 0.4780 0 1
1.5455 5.3168 -2.4983 0.4672 0 1
1.3624 5.5042 -2.5585 0.4562 0 1
1.1682 5.6930 -2.6223 0.4451 0 1
0.9625 5.8836 -2.6901 0.4340 0 1
0.7445 6.0772 -2.7626 0.4226 0 1
0.5133 6.2721 -2.8395 0.4120 0 1
0.2680 6.4675 -2.9207 0.4005 0 1
0.0077 6.6639 -3.0069 0.3891 0 1
-0.2683 6.8613 -3.0983 0.3767 0 1
-0.5612 7.0595 -3.1954 0.3653 0 1
-0.8719 7.2569 -3.2980 0.3568 0 1
-1.2011 7.4514 -3.4056 0.3455 0 1
-1.5496 7.6415 -3.5182 0.3353 0 1
-1.9186 7.8294 -3.6373 0.3244 0 1
-2.3095 8.0146 -3.7635 0.3135 0 1
-2.7235 8.1961 -3.8971 0.3028 0 1
-3.1618 8.3731 -4.0385 0.2922 0 1
-3.6256 8.5443 -4.1881 0.2819 0 1
-4.1170 8.7100 -4.3470 0.2688 0 1
-4.6382 8.8702 -4.5165 0.2587 0 1
-5.1894 9.0208 -4.6958 0.2489 0 1
-5.7709 9.1581 -4.8843 0.2428 0 1
-6.3772 9.2711 -5.0774 0.2336 0 1
-7.0147 9.3670 -5.2803 0.2246 0 1
-7.6839 9.4434 -5.4934 0.2147 0 1
-8.3969 9.5109 -5.7247 0.2020 0 1
-9.1592 9.5690 -5.9768 0.1935 0 1
-9.9590 9.5997 -6.2414 0.1853 0 1
-10.7949 9.5982 -6.5178 0.1777 0 1
-11.6755 9.5684 -6.8113 0.1701 0 1
-12.5914 9.4986 -7.1167 0.1630 0 1
-13.5452 9.3875 -7.4362 0.1556 0 1
-14.5307 9.2278 -7.7669 0.1490 0 1
-15.5786 9.0349 -8.1259 0.1338 0 1
-16.6376 8.7742 -8.4872 0.1309 0 1
-17.6989 8.4419 -8.8479 0.1264 0 1
-18.7589 8.0378 -9.2086 0.1213 0 1
-19.7784 7.5480 -9.5522 0.1207 0 1
-20.7704 6.9828 -9.8874 0.1161 0 1
-21.7101 6.3387 -10.2050 0.1146 0 1
-16.3112 4.0578 -7.5842 0.6156 26 14
-16.3321 3.3716 -7.5247 0.9100 26 14
-16.3716 2.6981 -7.4868 0.9539 26 14
-18.0384 2.2316 -8.2013 0.1169 26 14
-24.8508 2.0634 -11.2517 0.0986 0 1
-25.0972 1.0697 -11.3346 0.0965 0 1
-25.2114 0.0592 -11.3759 0.0962 0 1
-25.1350 -0.9530 -11.3495 0.0964 0 1
-24.8768 -1.9479 -11.2592 0.0974 0 1
-23.6593 -2.8142 -10.7508 0.1023 0 25
-23.1623 -3.7055 -10.5841 0.1039 0 25
-22.0090 -4.4359 -10.1305 0.9791 16 6
-21.8215 -5.3200 -10.1346 0.1085 0 25
-21.5912 -6.1941 -10.1353 0.1131 0 1
-20.6980 -6.8504 -9.8375 0.1195 0 1
-19.7656 -7.4369 -9.5290 0.1234 0 1
-18.7911 -7.9473 -9.2060 0.1233 0 1
-17.7493 -8.3639 -8.8534 0.1304 0 1
-16.7031 -8.7087 -8.4996 0.1328 0 1
-15.6444 -8.9752 -8.1382 0.1387 0 1
-14.6024 -9.1774 -7.7821 0.1448 0 1
-13.5864 -9.3218 -7.4346 0.1511 0 1
-12.6015 -9.4136 -7.0974 0.1581 0 1
-11.6729 -9.4750 -6.7837 0.1706 0 1
-10.7888 -9.5024 -6.4871 0.1783 0 1
-9.9472 -9.4986 -6.2060 0.1936 0 1
-9.1665 -9.4870 -5.9525 0.2018 0 1
-8.4199 -9.4471 -5.7100 0.2104 0 1
-7.6850 -9.3546 -5.4627 0.2208 0 24
-7.0228 -9.2866 -5.2535 0.2256 0 1
-6.3741 -9.1739 -5.0405 0.2347 0 1
-5.7424 -9.0187 -4.8243 0.2443 0 24
-5.1783 -8.9044 -4.6478 0.2539 0 1
-4.6284 -8.7512 -4.4669 0.2632 0 1
-4.1090 -8.5885 -4.2960 0.2737 0 1
-3.6191 -8.4188 -4.1348 0.2844 0 1
-3.1572 -8.2435 -3.9831 0.2953 0 1
-2.7199 -8.0586 -3.8377 0.3023 0 1
-2.3084 -7.8716 -3.7014 0.3159 0 1
-1.9145 -7.6570 -3.5613 0.3287 0 24
-1.5560 -7.4922 -3.4528 0.3416 0 1
-1.2126 -7.3036 -3.3406 0.3530 0 1
-0.8884 -7.1122 -3.2341 0.3637 0 1
-0.5828 -6.9197 -3.1333 0.3754 0 1
-0.2947 -6.7276 -3.0385 0.3871 0 1
-0.0230 -6.5195 -2.9417 0.3992 0 24
0.2330 -6.3453 -2.8650 0.4104 0 1
0.4747 -6.1556 -2.7858 0.4221 0 1
0.7026 -5.9672 -2.7111 0.4337 0 1
0.9177 -5.7800 -2.6407 0.4437 0 1
1.1168 -5.5754 -2.5657 0.4570 0 24
1.3116 -5.4077 -2.5108 0.4670 0 1
1.4917 -5.2231 -2.4510 0.4784 0 1
1.6615 -5.0402 -2.3946 0.4896 0 1
1.8128 -4.8355 -2.3301 0.4980 0 24
1.9612 -4.6525 -2.2782 0.5090 0 24
2.1128 -4.4975 -2.2421 0.5045 0 1
2.2409 -4.3105 -2.1921 0.5160 0 1
2.3608 -4.1264 -2.1451 0.5273 0 1
2.4730 -3.9452 -2.1010 0.5384 0 1
2.5812 -3.7716 -2.0622 0.5711 0 1
2.6841 -3.6020 -2.0269 0.5811 0 1
2.7808 -3.4341 -1.9938 0.5907 0 1
2.8714 -3.2680 -1.9629 0.6000 0 1
2.9565 -3.1035 -1.9340 0.6090 0 1
3.0361 -2.9405 -1.9071 0.6176 0 1
3.1105 -2.7789 -1.8821 0.6258 0 1
3.1800 -2.6187 -1.8588 0.6336 0 1
3.2447 -2.4598 -1.8372 0.6411 0 1
3.3048 -2.3020 -1.8173 0.6481 0 1
3.3605 -2.1453 -1.7990 0.6554 0 1
3.4135 -1.9906 -1.7830 0.6541 0 1
3.4631 -1.8368 -1.7688 0.6593 0 1
3.5086 -1.6837 -1.7560 0.6641 0 1
3.5501 -1.5311 -1.7445 0.6685 0 1
3.5878 -1.3790 -1.7344 0.6724 0 1
3.6218 -1.2272 -1.7255 0.6759 0 1
3.6521 -1.0757 -1.7179 0.6789 0 1
3.6788 -0.9245 -1.7115 0.6814 0 1
3.7019 -0.7734 -1.7064 0.6834 0 1
3.7215 -0.6224 -1.7025 0.6850 0 1
3.7376 -0.4714 -1.6998 0.6861 0 1
3.7502 -0.3203 -1.6983 0.6867 0 1
3.7594 -0.1692 -1.6980 0.6868 0 1
3.7659 -0.0178 -1.6993 0.6856 0 1
3.7708 0.1340 -1.7025 0.6843 0 1
3.7722 0.2864 -1.7070 0.6825 0 1
3.7682 0.4391 -1.7118 0.6705 0 1
3.7588 0.5922 -1.7169 0.6685 0 1
3.7457 0.7457 -1.7233 0.6660 0 1
3.7289 0.8997 -1.7309 0.6631 0 1
3.7085 1.0544 -1.7396 0.6597 0 1
3.6842 1.2097 -1.7497 0.6560 0 1
3.6560 1.3657 -1.7610 0.6517 0 1
3.6239 1.5225 -1.7736 0.6471 0 1
3.5877 1.6802 -1.7876 0.6420 0 1
3.5473 1.8388 -1.8029 0.6366 0 1
3.5027 1.9985 -1.8196 0.6307 0 1
3.4537 2.1591 -1.8378 0.6245 0 1
3.4003 2.3212 -1.8577 0.6175 0 1
3.3425 2.4846 -1.8792 0.6104 0 1
3.2801 2.6496 -1.9026 0.6075 0 1
3.2129 2.8163 -1.9278 0.5995 0 1
3.1404 2.9846 -1.9549 0.5912 0 1
3.0624 3.1545 -1.9838 0.5826 0 1
2.9787 3.3262 -2.0147 0.5736 0 1
2.8890 3.4996 -2.0476 0.5644 0 1
2.7929 3.6750 -2.0827 0.5549 0 1
2.6897 3.8517 -2.1198 0.5496 0 1
2.5773 4.0266 -2.1572 0.5400 0 1
2.4577 4.2031 -2.1969 0.5302 0 1
2.3305 4.3812 -2.2392 0.5202 0 1
2.1954 4.5608 -2.2839 0.5106 0 1
2.0518 4.7420 -2.3314 0.5002 0 1
1.8995 4.9248 -2.3817 0.4896 0 1
1.7288 5.0822 -2.4222 0.4794 0 24
1.5664 5.2948 -2.4915 0.4684 0 1
1.3845 5.4820 -2.5512 0.4575 0 1
1.1917 5.6706 -2.6146 0.4464 0 1
0.9873 5.8609 -2.6818 0.4354 0 1
0.7709 6.0543 -2.7538 0.4240 0 1
0.5413 6.2491 -2.8303 0.4133 0 1
0.2976 6.4444 -2.9109 0.4019 0 1
0.0392 6.6407 -2.9964 0.3904 0 1
-0.2349 6.8380 -3.0872 0.3781 0 1
-0.5258 7.0361 -3.1837 0.3666 0 1
-0.8343 7.2339 -3.2857 0.3581 0 1
-1.1613 7.4285 -3.3926 0.3468 0 1
-1.5074 7.6192 -3.5046 0.3366 0 1
-1.8740 7.8074 -3.6229 0.3257 0 1
-2.2622 7.9929 -3.7482 0.3148 0 1
-2.6734 8.1749 -3.8809 0.3041 0 1
-3.1088 8.3525 -4.0214 0.2934 0 1
-3.5695 8.5245 -4.1700 0.2831 0 1
-4.0574 8.6905 -4.3276 0.2700 0 1
-4.5752 8.8518 -4.4960 0.2599 0 1
-5.1228 9.0036 -4.6741 0.2500 0 1
-5.7014 9.1437 -4.8621 0.2439 0 1
-6.3041 9.2586 -5.0541 0.2346 0 1
-6.9379 9.3567 -5.2559 0.2256 0 1
-7.6033 9.4354 -5.4677 0.2169 0 1
-8.3095 9.5024 -5.6958 0.2030 0 1
-9.0673 9.5635 -5.9464 0.1944 0 1
-9.8627 9.5976 -6.2096 0.1862 0 1
-10.6934 9.5993 -6.4840 0.1786 0 1
-22.5279 -0.0540 -10.4670 0.1090 0 1
-22.4434 -0.9577 -10.4372 0.1094 0 1
-22.2197 -1.8460 -10.3594 0.1101 0 1
-21.8641 -2.7060 -10.2361 0.1124 0 1
-21.1732 -3.4905 -9.9703 0.9588 0 2
-20.8473 -4.3048 -9.8905 0.1199 0 1
-20.2211 -5.0316 -9.6817 0.1236 0 1
-19.5216 -5.7008 -9.4490 0.1267 0 1
-18.7615 -6.3085 -9.1966 0.1271 0 1
-17.9394 -6.8471 -8.9215 0.1310 0 1
-17.0730 -7.3164 -8.6302 0.1347 0 1
-16.1129 -7.6864 -8.2946 0.1372 0 24
-15.1964 -8.0151 -7.9825 0.1430 0 24
-14.3295 -8.3115 -7.6967 0.1495 0 1
-13.3679 -8.4903 -7.3579 0.1548 0 24
-12.5148 -8.6742 -7.0748 0.1625 0 1
-11.6583 -8.7956 -6.7854 0.1747 0 1
-10.8346 -8.8802 -6.5088 0.1820 0 1
-10.0388 -8.9268 -6.2416 0.1972 0 1
-9.2979 -8.9634 -6.0005 0.2051 0 1
-8.5848 -8.9698 -5.7687 0.2134 0 1
-7.9000 -8.9489 -5.5462 0.2219 0 1
-7.2381 -8.8964 -5.3287 0.2278 0 1
-6.6060 -8.8221 -5.1207 0.2367 0 1
-6.0045 -8.7301 -4.9230 0.2462 0 1
-5.4327 -8.6224 -4.7350 0.2553 0 1
-4.8892 -8.4999 -4.5560 0.2644 0 1
-4.3738 -8.3656 -4.3860 0.2747 0 1
-3.8739 -8.1967 -4.2123 0.2844 0 24
-3.4242 -8.0708 -4.0734 0.2957 0 1
-2.9864 -7.9100 -3.9284 0.3050 0 1
-2.5726 -7.7434 -3.7911 0.3160 0 1
-2.1746 -7.5479 -3.6496 0.3284 0 24
-1.8128 -7.3992 -3.5395 0.3385 0 1
-1.4649 -7.2258 -3.4255 0.3527 0 1
-1.1362 -7.0507 -3.3182 0.3641 0 1
-0.8253 -6.8716 -3.2156 0.3747 0 1
-0.5316 -6.6914 -3.1188 0.3864 0 1
-0.2543 -6.5108 -3.0274 0.3979 0 1
0.0077 -6.3302 -2.9412 0.4096 0 1
0.2551 -6.1499 -2.8598 0.4212 0 1
0.4889 -5.9701 -2.7831 0.4328 0 1
0.7097 -5.7908 -2.7107 0.4428 0 1
0.9183 -5.6119 -2.6421 0.4545 0 1
1.1154 -5.4342 -2.5775 0.4659 0 1
1.3013 -5.2561 -2.5158 0.4775 0 1
1.4767 -5.0790 -2.4575 0.4888 0 1
1.6422 -4.9033 -2.4026 0.5000 0 1
1.7896 -4.7054 -2.3390 0.5089 0 24
1.9344 -4.5288 -2.2881 0.5192 0 24
2.0811 -4.3760 -2.2514 0.5147 0 1
2.2065 -4.1955 -2.2025 0.5262 0 1
2.3240 -4.0177 -2.1565 0.5374 0 1
