ply
format ascii 1.0
element vertex 1404
property float32 x
property float32 y
property float32 z
property float32 CosAngle
property uint32 ObjIdx
property uint32 ObjTag
end_header
14.9388 1.7270 1.9692 0.1836 0 1
15.1219 2.3667 2.0043 0.1815 0 1
15.3110 3.0304 2.0438 0.1780 0 1
15.5283 3.7268 2.0911 0.1729 0 1
15.7129 4.4453 2.1383 0.1817 0 1
15.7819 5.1574 2.1742 0.1809 0 1
15.8633 5.8987 2.2162 0.1775 0 1
13.8746 5.8033 1.9694 0.2985 0 14
12.3081 5.7390 1.7783 0.4043 0 14
11.0385 5.6972 1.6266 0.4582 0 14
10.3758 5.8942 1.5626 0.6004 0 14
10.2429 6.3757 1.5799 0.4251 0 14
10.2368 6.9571 1.6208 0.3195 0 14
16.3107 12.0698 2.6570 0.1302 0 2
16.8107 13.5170 2.8247 0.1225 0 2
16.7245 14.5908 2.9063 0.6468 0 3
15.5509 14.7072 2.8028 0.6711 0 0
14.3342 14.6905 2.6877 0.6998 0 0
13.2118 14.6751 2.5857 0.7274 0 0
12.1601 14.6491 2.4931 0.6469 0 3
11.2364 14.6991 2.4228 0.7836 0 3
10.3245 14.6931 2.3515 0.8073 0 3
6.0058 9.3212 1.4520 0.5561 0 8
8.6463 14.6821 2.2312 0.8509 0 3
7.8675 14.6770 2.1806 0.8706 0 3
7.5448 15.5429 2.2624 0.4578 0 3
7.4725 17.1102 2.4449 0.4236 0 3
7.3861 18.9525 2.6636 0.3888 0 3
8.2977 24.1104 3.3389 0.9352 0 3
7.2271 24.1034 3.2951 0.9476 0 3
3.4402 13.4082 1.8126 0.3903 0 9
2.7458 12.8195 1.7168 0.3688 0 9
2.7426 15.8958 2.1123 0.5279 0 9
2.2335 16.9912 2.2441 0.0907 0 9
1.5598 17.1792 2.2588 0.0576 0 9
0.8309 16.4727 2.1598 0.6241 0 9
0.1660 16.1980 2.1212 0.2431 0 9
-0.4356 14.5608 1.9076 0.2024 0 9
-1.8929 26.9759 3.5411 0.4924 0 9
3.9006 -38.7052 5.0940 0.9718 0 6
2.5806 -18.2345 2.4116 0.7512 0 22
3.4597 -18.9326 2.5202 0.6326 0 22
7.1040 -31.6358 4.2458 0.2397 0 3
7.6310 -28.5654 3.8718 0.2775 0 3
9.2193 -29.6776 4.0694 0.9490 0 3
10.5296 -29.6397 4.1189 0.9367 0 3
11.8757 -29.6039 4.1769 0.9229 0 3
12.5873 -28.0620 4.0274 0.4199 0 3
13.9882 -28.1059 4.1110 0.6223 0 3
15.7165 -28.6357 4.2774 0.8725 0 3
17.2412 -28.6257 4.3759 0.8529 0 3
19.4918 -29.6049 4.6415 0.8319 0 3
21.1075 -29.4161 4.7410 0.0606 0 3
21.0708 -27.0065 4.4855 0.7616 0 3
21.1945 -25.0250 4.2943 0.0806 0 2
19.8450 -21.6093 3.8419 0.0901 0 2
18.7886 -18.8784 3.4878 0.0992 0 2
17.9422 -16.6356 3.2040 0.1080 0 2
17.7131 -13.9564 2.9530 0.1360 0 1
5.9852 -4.3380 0.9680 0.3377 14 6
17.0191 -11.3220 2.6767 0.1315 0 1
16.5644 -10.0846 2.5394 0.1305 0 1
16.0907 -8.9313 2.4099 0.1316 0 1
15.6362 -7.8753 2.2926 0.1384 0 1
8.6783 -3.9425 1.2482 0.8679 0 9
15.0043 -6.1022 2.1211 0.1646 0 24
14.3799 -5.1859 2.0017 0.1734 0 25
14.2436 -4.4993 1.9560 0.1774 0 25
14.1285 -3.8465 1.9174 0.1810 0 25
14.0329 -3.2215 1.8854 0.1841 0 25
13.9550 -2.6189 1.8593 0.1867 0 25
14.4456 -2.1147 1.9118 0.1892 0 1
14.4313 -1.5239 1.9003 0.1918 0 1
14.4433 -0.9409 1.8953 0.1923 0 1
14.4702 -0.3604 1.8954 0.1923 0 1
14.5511 0.2219 1.9057 0.1901 0 1
14.6924 0.8148 1.9269 0.1880 0 1
14.8531 1.4236 1.9539 0.1854 0 1
15.0357 2.0530 1.9872 0.1819 0 1
15.2160 2.7037 2.0237 0.1797 0 1
15.4179 3.3832 2.0670 0.1749 0 1
15.6522 4.0995 2.1188 0.1707 0 1
15.7463 4.8073 2.1559 0.1802 0 1
15.8211 5.5336 2.1948 0.1792 0 1
15.8739 6.2780 2.2353 0.2021 0 1
12.9646 5.7394 1.8566 0.3774 0 14
11.6236 5.7143 1.6961 0.3900 0 14
10.6112 5.7566 1.5808 0.3150 0 14
10.2900 6.1293 1.5684 0.4753 0 14
10.2233 6.6597 1.5977 0.3850 0 14
16.0967 11.4315 2.5853 0.1339 0 2
16.5565 12.7880 2.7394 0.1263 0 2
17.1041 14.3432 2.9230 0.1184 0 2
10.0460 9.1357 1.7781 0.6005 0 20
14.9137 14.6984 2.7420 0.6860 0 0
13.7472 14.6824 2.6338 0.7141 0 0
12.5559 14.5383 2.5155 0.7460 0 3
11.7008 14.7021 2.4605 0.7716 0 3
10.7615 14.6960 2.3852 0.7959 0 3
6.1262 9.1120 1.4378 0.6918 22 6
9.0388 14.6847 2.2580 0.8408 0 3
8.2421 14.6795 2.2045 0.8612 0 3
7.5759 14.8606 2.1842 0.4742 0 3
7.5092 16.3174 2.3521 0.4403 0 3
7.4302 18.0168 2.5520 0.4059 0 3
7.1909 19.6386 2.7386 0.3708 0 3
7.7446 24.1068 3.3156 0.9418 0 3
7.0772 25.5028 3.4657 0.2991 0 3
3.2065 13.6609 1.8375 0.0749 0 9
3.0226 15.6834 2.0915 0.7552 0 9
1.6614 15.0305 1.9802 0.5927 0 9
1.1027 15.7407 2.0663 0.3779 0 9
-0.1840 17.7519 2.3247 0.4918 0 9
-0.8531 16.8733 2.2124 0.3681 0 9
-1.5813 -38.9003 4.6599 0.9842 0 6
2.1447 -17.7897 2.1447 0.7543 0 22
7.6536 -47.3870 5.7454 0.8226 0 3
3.9038 -19.2300 2.3486 0.5994 0 22
7.8027 -31.8247 3.9220 0.2555 0 3
7.9560 -27.6070 3.4388 0.9561 0 3
9.8580 -29.6742 3.7426 0.9445 0 3
7.3017 -19.3464 2.4751 0.2017 0 9
12.5412 -29.5769 3.8452 0.9168 0 3
13.0828 -27.7038 3.6671 0.7866 0 3
14.9600 -28.6414 3.8676 0.8833 0 3
16.4503 -28.6317 3.9524 0.8643 0 3
17.9620 -28.5453 4.0368 0.5258 0 3
18.8976 -27.5162 3.9954 0.3436 0 3
19.8156 -26.5064 3.9612 0.7738 0 3
19.3351 -23.8075 3.6709 0.0863 0 2
18.2312 -20.6923 3.3009 0.0960 0 2
17.3580 -18.1752 3.0082 0.1053 0 2
16.6718 -16.1093 2.7748 0.5735 0 2
16.8555 -15.0264 2.7028 0.1423 0 1
16.5667 -13.6157 2.5667 0.1394 0 1
16.2928 -12.3290 2.4455 0.1393 0 1
6.0331 -4.1954 0.8796 0.9242 14 6
15.5148 -9.8895 2.2022 0.1411 0 1
15.0876 -8.7861 2.0898 0.1380 0 1
14.7049 -7.7902 1.9918 0.1448 0 1
8.6268 -4.1356 1.1451 0.7008 0 9
8.8895 -3.8307 1.1586 0.2933 0 9
13.6169 -5.2303 1.7459 0.1819 0 25
13.4966 -4.5713 1.7056 0.1862 0 25
13.3942 -3.9449 1.6713 0.1901 0 25
13.3083 -3.3453 1.6425 0.1934 0 25
13.2373 -2.7678 1.6187 0.1962 0 25
13.1803 -2.2078 1.5996 0.1986 0 2
13.6747 -1.7296 1.6498 0.2022 0 1
5.6665 -0.4866 0.6807 0.1747 25 14
5.5792 -0.2541 0.6685 0.1779 25 14
5.4697 -0.0293 0.6547 0.1571 25 14
5.5654 0.1937 0.6665 0.1543 25 14
5.7196 0.4294 0.6865 0.1732 25 14
14.1103 1.6312 1.7001 0.1874 0 1
14.2791 2.2347 1.7299 0.1855 0 1
14.4487 2.8597 1.7629 0.1812 0 1
14.6357 3.5126 1.8015 0.1848 0 1
14.8444 4.1995 1.8465 0.1792 0 1
14.8997 4.8691 1.8762 0.1896 0 1
14.9683 5.5659 1.9114 0.1861 0 1
13.9215 5.8229 1.8062 0.5637 0 14
12.3240 5.7464 1.6276 0.3909 0 14
11.0306 5.6931 1.4857 0.4644 0 14
10.1067 5.7413 1.3913 0.5588 0 14
9.8115 6.1072 1.3833 0.6220 0 14
9.7498 6.6261 1.4110 0.8057 0 14
14.4774 10.7131 2.1557 0.2520 0 9
15.4742 12.4423 2.3766 0.1333 0 2
15.9351 13.9021 2.5311 0.1251 0 2
15.4183 14.5817 2.5400 0.6774 0 3
14.3332 14.6894 2.4565 0.7008 0 0
13.2109 14.6741 2.3633 0.7285 0 0
12.2065 14.7050 2.2875 0.7597 0 3
11.2360 14.6986 2.2145 0.7847 0 3
10.3242 14.6927 2.1493 0.8085 0 3
6.0443 9.3810 1.3357 0.5533 0 8
8.6460 14.6817 2.0394 0.8521 0 3
7.8673 14.6766 1.9932 0.8718 0 3
7.6037 15.6643 2.0841 0.4549 0 3
7.5356 17.2547 2.2536 0.4207 0 3
7.4457 19.1054 2.4543 0.9226 0 3
7.5382 21.9035 2.7726 0.4370 0 3
7.2269 24.1028 3.0118 0.9490 0 3
3.4455 13.4289 1.6594 0.8151 0 9
2.3444 13.5879 1.6504 0.7828 0 9
1.4235 15.6775 1.8842 0.5344 0 9
0.6936 13.7503 1.6479 0.9210 0 9
0.1581 15.4337 1.8474 0.9563 0 9
-0.4632 15.4837 1.8541 0.1393 0 9
-1.0846 15.4562 1.8545 0.1427 0 9
2.5645 -18.1203 2.1905 0.5019 0 22
3.4476 -18.8666 2.2956 0.6357 0 22
4.3975 -19.5832 2.4023 0.8255 0 22
7.7298 -28.9354 3.5848 0.2743 0 3
9.2195 -29.6784 3.7197 0.9503 0 3
10.5120 -29.5900 3.7586 0.9380 0 3
11.8760 -29.6047 3.8179 0.9241 0 3
12.6945 -28.3010 3.7126 0.4170 0 3
14.0360 -28.2020 3.7705 0.6420 0 3
15.7169 -28.6365 3.9099 0.8737 0 3
17.2416 -28.6265 3.9999 0.8541 0 3
19.4795 -29.5861 4.2399 0.8330 0 3
19.3798 -27.0082 3.9788 0.7858 0 3
19.9836 -25.6130 3.8884 0.0815 0 2
18.7345 -22.1204 3.4696 0.0913 0 2
17.7588 -19.3376 3.1425 0.1008 0 2
16.9780 -17.0591 2.8807 0.1100 0 2
17.2372 -15.9820 2.8135 0.1303 0 2
16.7076 -14.2875 2.6313 0.1394 0 1
16.4216 -12.9388 2.5023 0.1430 0 1
16.1133 -11.6789 2.3819 0.1274 0 1
15.6898 -10.4377 2.2555 0.1378 0 1
15.2955 -9.3120 2.1433 0.1345 0 1
14.8842 -8.2616 2.0376 0.1415 0 1
14.5580 -7.3322 1.9510 0.1610 0 1
8.6668 -3.9373 1.1394 0.9639 0 9
13.6825 -5.5646 1.7680 0.1798 0 2
13.5528 -4.8876 1.7244 0.1842 0 25
13.4419 -4.2461 1.6873 0.1883 0 25
13.3481 -3.6341 1.6558 0.1918 0 25
13.2700 -3.0464 1.6296 0.1949 0 25
13.2064 -2.4784 1.6083 0.1975 0 25
13.6804 -2.0027 1.6549 0.2000 0 1
13.6767 -1.4442 1.6461 0.2026 0 1
5.6206 -0.3662 0.6742 0.1764 25 14
5.5273 -0.1377 0.6618 0.1554 25 14
5.4738 0.0835 0.6552 0.1569 25 14
5.6464 0.3131 0.6769 0.1757 25 14
5.8007 0.5560 0.6975 0.1705 25 14
14.1975 1.9386 1.7151 0.1858 0 1
14.3634 2.5522 1.7461 0.1829 0 1
14.5435 3.1913 1.7822 0.1868 0 1
14.7389 3.8603 1.8236 0.1826 0 1
14.8723 4.5405 1.8612 0.1911 0 1
14.9328 5.2229 1.8935 0.1878 0 1
15.0082 5.9356 1.9318 0.1864 0 1
13.0070 5.7582 1.7026 0.3411 0 14
11.6239 5.7145 1.5503 0.3929 0 14
10.5053 5.6991 1.4305 0.5303 0 14
9.9096 5.9027 1.3806 0.3044 0 14
9.7691 6.3638 1.3955 0.7913 0 14
9.7595 6.9310 1.4327 0.4774 0 14
15.2768 11.7996 2.3104 0.1371 0 2
15.7008 13.1664 2.4526 0.1292 0 2
10.0655 9.1535 1.6284 0.7692 0 20
14.8086 14.5948 2.4886 0.2191 0 3
13.7463 14.6814 2.4073 0.7152 0 0
12.5555 14.5378 2.2992 0.7470 0 3
11.7005 14.7017 2.2489 0.7727 0 3
10.7383 14.6643 2.1755 0.5994 0 3
6.0590 9.0120 1.2998 0.5686 0 8
9.0386 14.6843 2.0639 0.8420 0 3
8.2419 14.6791 2.0150 0.8624 0 3
7.6330 14.9726 2.0115 0.4713 0 3
7.5702 16.4499 2.1674 0.4374 0 3
7.4957 18.1757 2.3532 0.4029 0 3
7.1304 19.4735 2.4822 0.6581 0 3
7.7444 24.1062 3.0306 0.9431 0 3
4.0105 14.4517 1.7951 0.0916 0 9
1.5242 13.7885 1.6604 0.2677 0 9
1.1717 16.7260 2.0069 0.3501 0 9
0.4116 13.8133 1.6541 0.8091 0 9
-0.1568 15.1256 1.8105 0.4197 0 9
-0.7642 15.1159 1.8116 0.9200 0 9
-3.1409 -38.7982 4.2221 0.5112 0 6
1.5425 -38.8570 4.2180 0.9995 0 22
2.1391 -17.7435 1.9385 0.6752 0 22
2.9749 -18.4186 2.0237 0.5880 0 22
6.8133 -33.5625 3.7147 0.9765 0 3
7.8915 -32.1869 3.5946 0.9673 0 3
7.9562 -27.6077 3.1164 0.9573 0 3
9.8583 -29.6750 3.3917 0.9457 0 3
11.1966 -29.6663 3.4394 0.9326 0 3
12.5528 -29.6043 3.4878 0.9180 0 3
13.0219 -27.5749 3.3077 0.9019 0 3
14.9604 -28.6422 3.5050 0.8844 0 3
16.4508 -28.6325 3.5818 0.8654 0 3
17.7468 -28.2033 3.6144 0.0661 0 3
18.4583 -26.8767 3.5365 0.0765 0 3
18.2425 -24.4021 3.3047 0.0870 0 2
17.2253 -21.2097 2.9637 0.0970 0 2
16.4225 -18.6395 2.6945 0.1067 0 2
15.7748 -16.5175 2.4774 0.1160 0 2
15.9233 -15.3860 2.4017 0.1353 0 1
15.6356 -13.9389 2.2720 0.1429 0 1
15.3792 -12.6398 2.1592 0.1432 0 1
15.0684 -11.4025 2.0496 0.1376 0 1
6.0461 -4.2045 0.7988 0.9233 14 6
14.3727 -9.1615 1.8487 0.1453 0 1
14.0252 -8.1674 1.7604 0.1526 0 1
13.7647 -7.2921 1.6896 0.1697 0 1
8.6732 -4.1579 1.0433 0.7723 0 9
8.8851 -3.8288 1.0494 0.6051 0 9
12.8694 -4.9431 1.4953 0.1928 0 25
12.7718 -4.3258 1.4626 0.1971 0 25
12.6887 -3.7371 1.4348 0.2009 0 25
12.6187 -3.1720 1.4113 0.2042 0 25
12.5609 -2.6263 1.3919 0.2071 0 25
12.9828 -2.1747 1.4278 0.2086 0 2
12.9416 -1.6369 1.4149 0.2122 0 24
5.3416 -0.4587 0.5815 0.1855 25 14
5.2275 -0.2381 0.5676 0.1644 25 14
5.1428 -0.0276 0.5578 0.2415 25 14
5.2070 0.1812 0.5651 0.1651 25 14
5.3843 0.4043 0.5857 0.1593 25 14
5.5329 0.6396 0.6041 0.1786 25 14
13.5076 2.1140 1.4830 0.1963 0 1
13.6513 2.7019 1.5094 0.1929 0 1
13.8149 3.3156 1.5410 0.1881 0 1
13.9992 3.9604 1.5780 0.1837 0 1
14.1065 4.6099 1.6097 0.1978 0 1
14.1581 5.2647 1.6384 0.1944 0 1
13.8991 5.8135 1.6341 0.2956 0 14
12.3440 5.7557 1.4773 0.4455 0 14
11.0716 5.7142 1.3514 0.4740 0 14
10.1014 5.7383 1.2601 0.6667 0 14
9.8649 6.1404 1.2604 0.9265 0 14
9.8020 6.6616 1.2855 0.7992 0 14
9.9988 7.3991 1.3492 0.8921 0 14
14.3373 11.5282 1.9955 0.1440 0 2
14.6942 12.8195 2.1151 0.1359 0 2
15.1169 14.2966 2.2568 0.1274 0 2
14.2199 14.5733 2.2085 0.7069 0 3
13.0932 14.5434 2.1226 0.7344 0 3
12.2061 14.7045 2.0729 0.7607 0 3
11.2357 14.6982 2.0067 0.7857 0 3
10.3239 14.6922 1.9477 0.8095 0 3
6.0833 9.4415 1.2182 0.5504 0 8
8.6458 14.6813 1.8480 0.8532 0 3
7.8671 14.6762 1.8062 0.8730 0 3
7.6634 15.7873 1.9035 0.4519 0 3
7.5996 17.4013 2.0596 0.4177 0 3
7.4455 19.1049 2.2241 0.9238 0 3
8.2973 24.1091 2.7656 0.9377 0 3
7.2267 24.1022 2.7293 0.9502 0 3
7.1723 27.9542 3.1303 0.2750 0 3
2.3565 13.6584 1.5034 0.3734 0 9
2.1294 16.1996 1.7722 0.8547 0 9
1.2910 14.2187 1.5486 0.1995 0 9
0.7997 15.8542 1.7218 0.8989 0 9
0.1691 16.5028 1.7901 0.4944 0 9
-0.4561 15.2451 1.6543 0.6715 0 9
-1.7635 25.1315 2.7326 0.7617 0 9
2.5550 -18.0536 1.9777 0.6489 0 22
3.4429 -18.8409 2.0775 0.7512 0 22
8.4776 -37.7524 4.1968 0.2363 0 3
7.8310 -29.3140 3.2911 0.2711 0 3
9.2197 -29.6791 3.3709 0.9515 0 3
10.5122 -29.5908 3.4061 0.9391 0 3
11.8763 -29.6055 3.4599 0.9253 0 3
12.8033 -28.5436 3.3932 0.4139 0 3
13.8805 -27.8896 3.3790 0.6217 0 3
10.1103 -18.4211 2.2792 0.7537 0 9
17.1804 -28.5249 3.6119 0.8551 0 3
18.0765 -27.4553 3.5655 0.0808 0 3
18.8415 -26.2580 3.5055 0.0820 0 2
17.6888 -22.6717 3.1191 0.0921 0 2
16.7908 -19.8254 2.8180 0.1020 0 2
16.0735 -17.5025 2.5775 0.1115 0 2
16.0195 -16.0961 2.4632 0.7214 0 2
15.7498 -14.6029 2.3296 0.1429 0 1
15.5076 -13.2613 2.2132 0.1467 0 1
15.2510 -12.0165 2.1060 0.1468 0 1
14.8855 -10.7890 1.9941 0.1414 0 1
14.5610 -9.6868 1.8969 0.1416 0 1
14.1881 -8.6379 1.8017 0.1491 0 1
13.8650 -7.6959 1.7200 0.1562 0 1
13.6680 -6.8840 1.6599 0.1733 0 1
8.7105 -3.9571 1.0377 0.9625 0 9
12.9226 -5.2556 1.5132 0.1905 0 25
12.8174 -4.6224 1.4779 0.1950 0 25
12.7275 -4.0204 1.4477 0.1991 0 25
12.6512 -3.4443 1.4222 0.2027 0 25
12.5876 -2.8897 1.4008 0.2058 0 25
12.5442 -2.3541 1.3844 0.2834 0 2
12.9947 -1.9023 1.4245 0.2125 0 1
5.3818 -0.5683 0.5870 0.1838 25 14
5.2828 -0.3442 0.5742 0.1625 25 14
5.1794 -0.1290 0.5620 0.2397 25 14
5.1460 0.0785 0.5582 0.2413 25 14
5.2957 0.2937 0.5753 0.1622 25 14
5.4619 0.5235 0.5951 0.1813 25 14
13.4320 1.8341 1.4704 0.1966 0 1
13.5793 2.4129 1.4960 0.1946 0 1
13.7325 3.0133 1.5250 0.1901 0 1
13.9068 3.6424 1.5593 0.1859 0 1
14.0791 4.2983 1.5967 0.1939 0 1
14.1313 4.9426 1.6238 0.1961 0 1
14.1901 5.6121 1.6552 0.1924 0 1
13.1013 5.7999 1.5541 0.2538 0 14
11.6315 5.7182 1.4058 0.3836 0 14
10.4866 5.6890 1.2940 0.5573 0 14
9.9495 5.9265 1.2561 0.9427 0 14
9.8191 6.3963 1.2711 0.8800 0 14
9.8240 6.9768 1.3069 0.6976 0 14
14.1835 10.9551 1.9439 0.1479 0 2
14.5132 12.1705 2.0544 0.1399 0 2
14.9020 13.5517 2.1848 0.1315 0 2
14.7905 14.5771 2.2525 0.6931 0 3
13.7453 14.6804 2.1814 0.7161 0 0
12.5551 14.5373 2.0835 0.7480 0 3
11.7001 14.7012 2.0380 0.7737 0 3
10.7608 14.6951 1.9756 0.7981 0 3
6.0970 9.0685 1.1853 0.5658 0 8
9.0383 14.6839 1.8702 0.8431 0 3
8.2416 14.6787 1.8259 0.8635 0 3
7.6908 15.0860 1.8367 0.4683 0 3
7.6320 16.5842 1.9802 0.4344 0 3
7.5622 18.3369 2.1514 0.3998 0 3
8.2287 22.4728 2.5958 0.9163 0 3
7.7442 24.1056 2.7463 0.9443 0 3
7.2490 26.1216 2.9404 0.2928 0 3
1.5674 14.1802 1.5474 0.1625 0 9
1.1286 16.1100 1.7517 0.7106 0 9
0.7042 23.6333 2.5646 0.9670 0 9
-0.1628 15.7066 1.7037 0.1255 0 9
-0.8440 16.6931 1.8130 0.4046 0 9
-2.3079 25.3852 2.7648 0.3859 0 9
-0.0185 -38.8975 3.7835 0.9910 0 22
1.5447 -38.9122 3.7879 0.9840 0 22
5.7033 -35.3117 3.4792 0.1747 0 3
8.5982 -42.3547 4.2038 0.9738 0 3
7.9075 -32.2524 3.2300 0.9684 0 3
7.9828 -27.7000 2.8040 0.2857 0 3
9.8320 -29.5959 3.0334 0.9467 0 3
11.1492 -29.5407 3.0712 0.9876 0 3
12.5757 -29.6582 3.1334 0.9190 0 3
13.0223 -27.5757 2.9663 0.9029 0 3
14.9608 -28.6429 3.1432 0.8853 0 3
16.4177 -28.5750 3.2055 0.8664 0 3
17.0137 -27.0383 3.1073 0.8197 0 3
17.2000 -25.0445 2.9552 0.0873 0 2
16.2680 -21.7609 2.6427 0.0976 0 2
15.5344 -19.1276 2.3968 0.1077 0 2
14.9436 -16.9609 2.1987 0.1174 0 2
15.2546 -15.9728 2.1483 0.1390 0 2
14.7705 -14.2721 1.9978 0.1460 0 1
14.5312 -12.9543 1.8935 0.1514 0 1
14.3007 -11.7533 1.8005 0.1393 0 1
13.9852 -10.5828 1.7059 0.1470 0 1
6.0635 -4.2166 0.7184 0.9853 14 6
13.3976 -8.5399 1.5454 0.1561 0 1
13.1185 -7.6394 1.4766 0.1743 0 1
12.9568 -6.8641 1.4262 0.1805 0 1
8.7038 -4.1725 0.9388 0.7093 0 9
8.9104 -3.8397 0.9437 0.6428 0 9
12.2012 -4.6865 1.2713 0.2035 0 25
12.1225 -4.1059 1.2449 0.2079 0 25
12.0552 -3.5505 1.2224 0.2117 0 25
11.9986 -3.0161 1.2034 0.2150 0 25
11.9516 -2.4989 1.1876 0.2179 0 25
12.3851 -2.0746 1.2215 0.2208 0 1
12.3800 -1.5659 1.2138 0.2222 0 1
5.0763 -0.4359 0.4956 0.2440 25 14
5.0006 -0.2277 0.4869 0.2484 25 14
4.9246 -0.0264 0.4790 0.2450 25 14
4.9854 0.1735 0.4852 0.2419 25 14
5.0987 0.3828 0.4973 0.2432 25 14
5.2202 0.6035 0.5111 0.2366 25 14
12.8132 2.0053 1.2615 0.2058 0 1
12.9414 2.5614 1.2832 0.2037 0 1
13.0801 3.1393 1.3084 0.1998 0 1
13.2365 3.7447 1.3380 0.1945 0 1
13.3715 4.3697 1.3683 0.2032 0 1
13.4240 4.9917 1.3931 0.1996 0 1
13.4756 5.6364 1.4208 0.2012 0 1
12.3880 5.7762 1.3295 0.2664 0 14
11.0576 5.7070 1.2103 0.4614 0 14
10.1125 5.7446 1.1313 0.7652 0 14
9.8952 6.1592 1.1337 0.9494 0 14
9.8376 6.6858 1.1569 0.7998 0 14
9.9819 7.3865 1.2078 0.2172 0 14
13.3583 10.7410 1.6673 0.1548 0 2
13.6350 11.8954 1.7600 0.1466 0 2
13.9597 13.2023 1.8689 0.1381 0 2
14.2195 14.5728 1.9804 0.7077 0 3
13.0928 14.5429 1.9034 0.7352 0 3
12.2057 14.7040 1.8588 0.7616 0 3
11.2353 14.6977 1.7995 0.7867 0 3
10.3236 14.6918 1.7466 0.8105 0 3
6.1226 9.5026 1.0995 0.5475 0 8
8.6455 14.6809 1.6572 0.8542 0 3
7.8669 14.6758 1.6196 0.8740 0 3
7.7239 15.9119 1.7204 0.4489 0 3
7.6645 17.5500 1.8627 0.4146 0 3
7.4454 19.1046 1.9944 0.9782 0 3
8.2971 24.1085 2.4800 0.9388 0 3
7.2532 24.1904 2.4564 0.3082 0 3
7.2658 28.3186 2.8437 0.2718 0 3
1.4232 15.6744 1.5309 0.9465 0 9
0.7152 14.1792 1.3809 0.6255 0 9
0.2410 23.5181 2.2877 0.6167 0 9
-0.4348 14.5350 1.4144 0.5129 0 9
-0.7784 -38.8853 3.7830 0.9577 0 22
0.7833 -38.8956 3.7841 0.2342 0 6
2.5464 -17.9927 1.7676 0.6243 0 22
4.5284 -24.7810 2.4503 0.9564 0 6
9.5107 -42.3531 4.2222 0.9727 0 3
7.9345 -29.7018 2.9903 0.2679 0 3
9.2025 -29.6235 3.0172 0.9526 0 3
10.5408 -29.6713 3.0628 0.9402 0 3
11.8766 -29.6062 3.1028 0.9263 0 3
12.9069 -28.7744 3.0675 0.4109 0 3
13.8488 -27.8259 3.0232 0.6531 0 3
10.1074 -18.4158 2.0433 0.9609 0 9
16.5889 -27.5428 3.1274 0.8301 0 3
17.4723 -26.5375 3.0905 0.8011 0 3
16.6923 -23.2629 2.7850 0.0926 0 2
15.8707 -20.3414 2.5095 0.1028 0 2
15.2159 -17.9659 2.2900 0.1127 0 2
14.8046 -16.1208 2.1289 0.7493 0 2
14.9102 -14.9815 2.0559 0.1418 0 1
14.6447 -13.5783 1.9425 0.1429 0 1
14.4227 -12.3336 1.8459 0.1553 0 1
14.1326 -11.1353 1.7501 0.1433 0 1
13.8430 -10.0334 1.6630 0.1520 0 1
13.5427 -9.0094 1.5821 0.1514 0 1
13.2484 -8.0658 1.5087 0.1599 0 1
13.0327 -7.2339 1.4498 0.1775 0 1
12.8820 -6.4881 1.4030 0.1834 0 1
8.7394 -3.9702 0.9337 0.9988 0 9
12.2440 -4.9796 1.2857 0.2013 0 25
12.1593 -4.3850 1.2573 0.2058 0 25
12.0866 -3.8179 1.2329 0.2099 0 25
12.0249 -3.2738 1.2122 0.2135 0 25
11.9733 -2.7487 1.1949 0.2166 0 25
11.9311 -2.2391 1.1808 0.2191 0 2
12.3796 -1.8122 1.2170 0.2233 0 1
5.1153 -0.5401 0.5003 0.2417 25 14
5.0367 -0.3281 0.4910 0.2463 25 14
4.9627 -0.1236 0.4829 0.2430 25 14
4.9285 0.0752 0.4794 0.2448 25 14
5.0429 0.2797 0.4913 0.2462 25 14
5.1598 0.4945 0.5042 0.2399 25 14
12.7464 1.7404 1.2513 0.2075 0 1
12.8791 2.2885 1.2723 0.2054 0 1
13.0107 2.8549 1.2956 0.2017 0 1
13.1577 3.4462 1.3230 0.1967 0 1
13.3242 4.0679 1.3551 0.1920 0 1
13.3970 4.6857 1.3805 0.2014 0 1
13.4508 5.3197 1.4069 0.2032 0 1
13.5050 5.9787 1.4366 0.1990 0 1
11.6519 5.7283 1.2629 0.3822 0 14
10.4756 5.6830 1.1592 0.5589 0 14
9.9726 5.9402 1.1291 0.8795 0 14
9.8539 6.4190 1.1439 0.8803 0 14
9.8610 7.0031 1.1764 0.6432 0 14
13.2383 10.2250 1.6270 0.1586 0 2
13.4949 11.3165 1.7131 0.1506 0 2
13.7950 12.5450 1.8137 0.1423 0 2
14.1488 13.9446 1.9323 0.1335 0 2
13.6411 14.5691 1.9413 0.7220 0 3
12.5547 14.5369 1.8683 0.7489 0 3
11.6997 14.7007 1.8275 0.7746 0 3
10.7539 14.6856 1.7705 0.7990 0 3
6.1354 9.1256 1.0696 0.5629 0 8
9.0380 14.6834 1.6771 0.8440 0 3
8.2414 14.6783 1.6374 0.8645 0 3
7.7493 15.2008 1.6596 0.4653 0 3
7.6947 16.7204 1.7903 0.4314 0 3
7.6297 18.5007 1.9465 0.3967 0 3
8.2510 22.5339 2.3341 0.9148 0 3
7.7440 24.1050 2.4627 0.9454 0 3
7.3045 26.3216 2.6570 0.9571 0 3
2.4966 22.5863 2.2103 0.2060 0 9
1.1368 16.2274 1.5823 0.5586 0 9
0.4253 14.2742 1.3890 0.0764 0 9
-0.1635 15.7751 1.5345 0.9931 0 9
-1.3058 25.8280 2.5154 0.8812 0 9
-2.2811 25.0895 2.4505 0.1993 0 9
-0.0185 -38.8904 3.3482 0.9935 0 22
1.5443 -38.9027 3.3519 0.9710 0 22
6.8849 -42.6271 3.7175 0.0308 0 3
8.8435 -43.5633 3.8270 0.9844 0 3
7.9892 -32.5854 2.8885 0.2457 0 3
8.0828 -28.0471 2.5129 0.2824 0 3
9.8588 -29.6765 2.6922 0.9477 0 3
11.1972 -29.6679 2.7301 0.9345 0 3
12.5760 -29.6590 2.7735 0.9199 0 3
13.0556 -27.6464 2.6322 0.4246 0 3
14.9307 -28.5854 2.7765 0.8862 0 3
15.5337 -27.0364 2.6845 0.8406 0 3
16.1933 -25.7345 2.6177 0.0873 0 2
15.3465 -22.3456 2.3338 0.0980 0 2
14.6822 -19.6397 2.1111 0.1083 0 2
14.1485 -17.4211 1.9322 0.1183 0 2
14.1972 -16.1138 1.8489 0.7644 0 2
13.9962 -14.6551 1.7447 0.1480 0 1
13.7579 -13.2937 1.6471 0.1542 0 1
13.5589 -12.0875 1.5638 0.1532 0 1
13.2905 -10.9232 1.4811 0.1512 0 1
13.0515 -9.8763 1.4091 0.1589 0 1
6.0817 -4.2292 0.6377 0.9834 14 6
12.5454 -7.9967 1.2808 0.1657 0 1
12.3685 -7.2026 1.2322 0.1851 0 1
12.2393 -6.4840 1.1925 0.1875 0 1
8.7487 -4.1941 0.8353 0.7812 0 9
8.9315 -3.8488 0.8373 0.6576 0 9
11.6002 -4.4556 1.0698 0.2143 0 25
11.5371 -3.9076 1.0487 0.2186 0 25
11.4832 -3.3820 1.0306 0.2225 0 25
11.4376 -2.8751 1.0153 0.2258 0 25
11.3999 -2.3836 1.0027 0.2287 0 25
11.8164 -1.9793 1.0315 0.2302 0 1
11.8157 -1.4945 1.0254 0.2314 0 1
4.8689 -0.4181 0.4207 0.2547 25 14
4.7969 -0.2185 0.4134 0.2515 25 14
4.7237 -0.0253 0.4067 0.2557 25 14
4.7808 0.1664 0.4118 0.2525 25 14
4.8908 0.3672 0.4223 0.2538 25 14
5.0017 0.5782 0.4335 0.2472 25 14
12.1941 1.9084 1.0626 0.2180 0 1
12.3029 2.4350 1.0797 0.2145 0 1
12.4227 2.9815 1.0999 0.2105 0 1
12.5553 3.5520 1.1234 0.2062 0 1
12.7037 4.1515 1.1506 0.2004 0 1
12.7482 4.7404 1.1710 0.2104 0 1
12.7963 5.3523 1.1942 0.2063 0 1
12.8463 5.9899 1.2203 0.2076 0 1
11.0848 5.7210 1.0739 0.4104 0 14
10.1315 5.7554 1.0032 0.8371 0 14
9.8500 6.1311 0.9989 0.8100 0 14
9.7870 6.6514 1.0188 0.5564 0 14
9.9752 7.3815 1.0684 0.1528 0 14
12.5061 10.0558 1.3816 0.1655 0 2
12.7200 11.0972 1.4533 0.1573 0 2
12.9691 12.2654 1.5368 0.1488 0 2
13.2616 13.5911 1.6348 0.1398 0 2
13.0924 14.5424 1.6846 0.7360 0 3
12.2053 14.7036 1.6452 0.7623 0 3
11.2350 14.6973 1.5927 0.7875 0 3
10.3233 14.6914 1.5459 0.8113 0 3
8.9380 13.8721 1.4207 0.2250 0 21
8.6453 14.6805 1.4668 0.8551 0 3
7.8667 14.6754 1.4335 0.8749 0 3
7.7852 16.0382 1.5349 0.4458 0 3
7.7305 17.7009 1.6629 0.4115 0 3
7.5143 19.2814 1.7816 0.3765 0 3
8.2969 24.1079 2.1950 0.9398 0 3
7.3373 24.4711 2.1995 0.3050 0 3
7.3615 28.6918 2.5502 0.2685 0 3
7.7672 36.2626 3.1928 0.4046 0 6
2.5320 14.6754 1.2821 0.9411 0 9
1.4348 15.8023 1.3661 0.7709 0 9
1.2646 25.0719 2.1613 0.7875 0 9
-0.7603 25.4168 2.1892 0.0603 0 9
-1.7621 25.1112 2.1672 0.8443 0 9
-36.4779 -33.8296 4.2831 0.9130 0 20
2.3477 -38.8949 3.3547 0.9970 0 22
3.4000 -18.6060 1.6284 0.9887 0 6
9.5108 -42.3535 3.7371 0.9736 0 3
8.0407 -30.0990 2.6822 0.2646 0 3
9.2027 -29.6242 2.6707 0.9535 0 3
10.5411 -29.6721 2.7110 0.9411 0 3
11.8995 -29.6633 2.7516 0.9272 0 3
13.0292 -29.0471 2.7408 0.4077 0 3
13.8483 -27.8248 2.6758 0.6597 0 3
10.1150 -18.4296 1.8099 0.9610 0 9
9.9816 -16.5726 1.6656 0.2213 0 20
11.3268 -17.2036 1.7733 0.9955 0 20
14.9865 -20.8857 2.2131 0.1033 0 2
14.3943 -18.4492 2.0146 0.1135 0 2
13.9137 -16.4283 1.8535 0.1233 0 2
14.1184 -15.3736 1.7970 0.1437 0 1
13.8542 -13.9204 1.6908 0.1502 0 1
13.6616 -12.6668 1.6039 0.1494 0 1
13.4232 -11.4789 1.5206 0.1461 0 1
13.1635 -10.3717 1.4428 0.1552 0 1
12.9132 -9.3595 1.3730 0.1546 0 1
12.6578 -8.4206 1.3089 0.1622 0 1
12.4375 -7.5721 1.2536 0.1819 0 1
12.3004 -6.8275 1.2112 0.1883 0 1
12.1784 -6.1338 1.1740 0.1905 0 1
8.7654 -3.9821 0.8289 0.7067 0 9
11.6344 -4.7317 1.0813 0.2120 0 25
11.5666 -4.1713 1.0586 0.2166 0 25
11.5084 -3.6353 1.0390 0.2207 0 25
11.4588 -3.1197 1.0224 0.2242 0 25
11.4173 -2.6211 1.0085 0.2273 0 25
11.6857 -2.1930 1.0236 0.2315 0 2
11.7707 -1.7231 1.0242 0.2312 0 24
4.9043 -0.5179 0.4246 0.2524 25 14
4.8328 -0.3148 0.4169 0.2570 25 14
4.7587 -0.1185 0.4098 0.2537 25 14
4.7286 0.0721 0.4071 0.2554 25 14
4.8379 0.2683 0.4172 0.2492 25 14
4.9467 0.4741 0.4278 0.2504 25 14
12.1445 1.6583 1.0553 0.2195 0 1
12.2487 2.1765 1.0710 0.2148 0 1
12.3629 2.7128 1.0897 0.2125 0 1
12.4891 3.2711 1.1115 0.2083 0 1
12.6289 3.8556 1.1368 0.2028 0 1
12.7283 4.4519 1.1609 0.2122 0 1
12.7716 5.0511 1.1824 0.2083 0 1
12.8242 5.6773 1.2074 0.2098 0 1
11.6923 5.7481 1.1217 0.3704 0 14
10.4680 5.6789 1.0253 0.6037 0 14
9.9349 5.9178 0.9956 0.9517 0 14
9.8064 6.3881 1.0076 0.7739 0 14
9.8051 6.9634 1.0354 0.6756 0 14
12.4129 9.5875 1.3503 0.1693 0 2
12.6119 10.5761 1.4170 0.1613 0 2
12.8430 11.6793 1.4945 0.1530 0 2
13.1132 12.9240 1.5851 0.1442 0 2
13.4318 14.3456 1.6919 0.1351 0 2
12.5543 14.5364 1.6536 0.7497 0 3
11.6994 14.7003 1.6175 0.7754 0 3
10.7536 14.6851 1.5670 0.7999 0 3
6.1741 9.1833 0.9527 0.5599 0 8
9.0378 14.6830 1.4844 0.8449 0 3
8.2412 14.6779 1.4492 0.8654 0 3
7.8087 15.3172 1.4802 0.4623 0 3
7.7553 16.8520 1.5971 0.4283 0 3
7.6983 18.6670 1.7384 0.3936 0 3
8.2735 22.5952 2.0716 0.9133 0 3
7.7438 24.1044 2.1797 0.9464 0 3
7.4283 26.7680 2.3916 0.2863 0 3
2.7764 14.4058 1.2631 0.7868 0 9
2.7869 25.2122 2.1838 0.6621 0 9
0.7144 23.9778 2.0652 0.2341 0 9
-1.2776 25.2692 2.1783 0.6225 0 9
-2.2880 25.1654 2.1755 0.4757 0 9
-0.0185 -38.8974 2.9150 0.9967 0 22
1.5429 -38.8669 2.9150 0.9911 0 22
4.6675 -38.7160 2.9224 0.8128 0 6
9.0423 -44.5422 3.4061 0.2053 0 3
9.1662 -37.3863 2.8847 0.2424 0 3
8.1852 -28.4023 2.2151 0.2791 0 3
9.8590 -29.6772 2.3435 0.9485 0 3
11.1975 -29.6686 2.3764 0.9354 0 3
12.5763 -29.6597 2.4142 0.9207 0 3
13.1652 -27.8783 2.3104 0.4214 0 3
14.3811 -27.5331 2.3278 0.0756 0 3
15.2098 -26.4726 2.2880 0.0871 0 2
14.4501 -22.9641 2.0333 0.0980 0 2
13.8562 -20.1756 1.8342 0.1086 0 2
13.3804 -17.8983 1.6747 0.1189 0 2
13.1060 -16.1376 1.5579 0.7904 0 2
13.2544 -15.0437 1.5025 0.1497 0 1
13.0222 -13.6353 1.4130 0.1566 0 1
12.8437 -12.4103 1.3384 0.1560 0 1
12.6344 -11.2633 1.2684 0.1538 0 1
12.4216 -10.2090 1.2049 0.1619 0 1
12.2009 -9.2327 1.1466 0.1604 0 1
6.1019 -4.2433 0.5570 0.8930 14 6
11.8066 -7.5258 1.0492 0.1857 0 1
11.6892 -6.8070 1.0137 0.1922 0 1
11.5518 -6.1198 0.9797 0.2026 0 24
8.8116 -4.2242 0.7323 0.6106 0 9
8.9317 -3.8489 0.7288 0.8458 0 9
11.0566 -4.2468 0.8876 0.2250 0 25
11.0067 -3.7280 0.8709 0.2294 0 25
10.9639 -3.2291 0.8565 0.2332 0 25
10.9278 -2.7469 0.8444 0.2366 0 25
10.8977 -2.2786 0.8343 0.2394 0 2
6.0490 -1.0133 0.4596 0.9646 25 14
7.0857 -0.8962 0.5352 0.2706 25 14
4.6779 -0.4017 0.3519 0.2574 25 14
4.6063 -0.2098 0.3456 0.2621 25 14
4.5390 -0.0243 0.3402 0.2663 25 14
4.5928 0.1599 0.3444 0.2630 25 14
4.6967 0.3526 0.3530 0.2566 25 14
4.8012 0.5550 0.3622 0.2577 25 14
11.6307 1.8203 0.8822 0.2288 0 1
11.7241 2.3205 0.8956 0.2258 0 1
11.8264 2.8384 0.9114 0.2199 0 1
11.9413 3.3782 0.9300 0.2155 0 1
12.0676 3.9436 0.9514 0.2107 0 1
12.1397 4.5141 0.9706 0.2233 0 1
12.1735 5.0918 0.9889 0.2192 0 1
12.2152 5.6957 1.0100 0.2146 0 1
11.1029 5.7304 0.9363 0.5275 0 14
10.1587 5.7709 0.8756 0.8356 0 14
9.8951 6.1592 0.8735 0.9049 0 14
9.8518 6.6954 0.8926 0.8311 0 14
11.6150 8.5950 1.0828 0.1839 0 2
11.7575 9.4538 1.1306 0.1762 0 2
11.9215 10.4006 1.1856 0.1680 0 2
12.1114 11.4542 1.2492 0.1594 0 2
12.3324 12.6389 1.3233 0.1505 0 2
12.5919 13.9865 1.4103 0.1412 0 2
12.2049 14.7031 1.4320 0.7631 0 3
11.2347 14.6968 1.3863 0.7882 0 3
10.3230 14.6909 1.3456 0.8121 0 3
8.9020 13.8163 1.2317 0.8399 0 21
8.6451 14.6801 1.2767 0.8559 0 3
7.8896 14.7182 1.2514 0.4764 0 3
7.8474 16.1663 1.3467 0.4427 0 3
7.7974 17.8542 1.4600 0.4083 0 3
7.5854 19.4640 1.5655 0.3733 0 3
8.2967 24.1073 1.9106 0.9407 0 3
7.4209 24.7499 1.9363 0.3017 0 3
7.4597 29.0742 2.2494 0.2652 0 3
1.2725 25.2281 1.8930 0.2686 0 9
0.1458 14.2292 1.0664 0.5618 0 9
-0.4906 16.4003 1.2296 0.3327 0 9
-1.8359 26.1633 1.9655 0.0747 0 9
-30.6406 18.2463 2.6725 0.7852 0 3
-30.6362 16.6155 2.6118 0.3495 0 3
-36.3454 -33.7067 3.7147 0.8590 0 20
2.3470 -38.8829 2.9192 0.9793 0 22
8.7359 -47.8064 3.6419 0.1891 0 3
9.5110 -42.3544 3.2531 0.9744 0 3
8.1495 -30.5063 2.3663 0.2613 0 3
9.2204 -29.6813 2.3292 0.9543 0 3
10.5414 -29.6728 2.3598 0.9419 0 3
11.8998 -29.6641 2.3952 0.9280 0 3
13.1430 -29.3009 2.4066 0.4046 0 3
13.8068 -27.7415 2.3222 0.6114 0 3
10.1321 -18.4608 1.5781 0.8113 0 9
9.9784 -16.5672 1.4493 0.8859 0 20
14.1280 -21.4581 1.9253 0.1035 0 2
13.5995 -18.9526 1.7481 0.1139 0 2
13.1714 -16.8818 1.6046 0.1241 0 2
13.5256 -15.9701 1.5683 0.1470 0 2
13.1250 -14.2918 1.4541 0.1418 0 1
12.9315 -12.9933 1.3738 0.1520 0 1
12.7512 -11.8227 1.3031 0.1486 0 1
12.5213 -10.7077 1.2347 0.1580 0 1
12.3187 -9.7060 1.1753 0.1565 0 1
12.0850 -8.7591 1.1185 0.1644 0 1
11.8823 -7.9047 1.0695 0.1753 0 1
11.7444 -7.1501 1.0304 0.1891 0 1
11.6352 -6.4583 0.9973 0.1996 0 1
11.2161 -5.6491 0.9411 0.2123 0 2
8.7856 -3.9912 0.7231 0.9894 0 9
11.0837 -4.5077 0.8967 0.2228 0 25
11.0301 -3.9778 0.8787 0.2273 0 25
10.9839 -3.4696 0.8632 0.2314 0 25
10.9446 -2.9797 0.8500 0.2350 0 25
10.9116 -2.5050 0.8390 0.2381 0 25
11.3028 -2.1211 0.8618 0.2392 0 1
6.0840 -0.8906 0.4608 0.9622 25 14
4.7104 -0.4974 0.3550 0.2630 25 14
4.6406 -0.3023 0.3485 0.2599 25 14
4.5712 -0.1139 0.3427 0.2643 25 14
4.5446 0.0693 0.3406 0.2659 25 14
4.6452 0.2576 0.3486 0.2598 25 14
4.7509 0.4553 0.3577 0.2610 25 14
11.5871 1.5821 0.8764 0.2303 0 1
11.6789 2.0752 0.8889 0.2271 0 1
11.7744 2.5837 0.9034 0.2219 0 1
11.8840 3.1126 0.9206 0.2177 0 1
12.0046 3.6650 0.9406 0.2131 0 1
12.1250 4.2409 0.9626 0.2214 0 1
12.1561 4.8076 0.9796 0.2213 0 1
12.1939 5.3982 0.9993 0.2169 0 1
12.2399 6.0173 1.0221 0.2121 0 1
10.5062 5.6997 0.8957 0.5624 0 14
9.9785 5.9437 0.8704 0.9484 0 14
9.8662 6.4270 0.8824 0.8831 0 14
9.8568 7.0001 0.9060 0.6404 0 14
11.6857 9.0258 1.1065 0.1800 0 2
11.8388 9.9277 1.1579 0.1720 0 2
12.0154 10.9267 1.2171 0.1636 0 2
12.2205 12.0441 1.2858 0.1549 0 2
12.4603 13.3079 1.3662 0.1458 0 2
12.5539 14.5360 1.4393 0.7504 0 3
11.6990 14.6998 1.4079 0.7761 0 3
10.7599 14.6938 1.3648 0.8006 0 3
9.8751 14.6880 1.3264 0.8238 0 3
8.5139 13.8319 1.2172 0.8499 0 21
8.2409 14.6775 1.2614 0.8662 0 3
7.8688 15.4351 1.2983 0.4591 0 3
7.8228 16.9988 1.4023 0.4251 0 3
7.7680 18.8360 1.5269 0.3904 0 3
8.2960 22.6568 1.8081 0.9116 0 3
7.7436 24.1038 1.8973 0.9473 0 3
7.5211 27.1024 2.1078 0.2830 0 3
3.4083 14.5207 1.1177 0.3209 0 9
1.7585 15.9083 1.1994 0.6238 0 9
1.6041 22.8981 1.7202 0.5054 0 9
0.4335 14.5487 1.0908 0.0325 0 9
-0.2708 26.1269 1.9580 0.8420 0 9
-1.2947 25.6084 1.9215 0.4105 0 9
-1.4277 15.7037 1.1817 0.9479 0 9
-30.6595 19.0789 2.7062 0.6282 0 3
-30.6233 17.3914 2.6392 0.7951 0 3
-0.0185 -38.9163 2.4830 0.9836 0 22
4.6768 -38.7930 2.4931 0.3409 0 6
5.0124 -24.6909 1.6075 0.2183 0 6
9.0437 -36.8866 2.4232 0.9103 0 3
8.2900 -28.7660 1.9101 0.2758 0 3
9.8592 -29.6780 1.9954 0.9492 0 3
11.1777 -29.6162 2.0198 0.9360 0 3
12.5541 -29.6074 2.0519 0.9214 0 3
13.0163 -27.5631 1.9449 0.8783 0 3
13.8728 -26.5600 1.9119 0.8518 0 3
13.5688 -23.6165 1.7378 0.0977 0 2
13.0478 -20.7356 1.5632 0.1086 0 2
12.6316 -18.3925 1.4236 0.1192 0 2
12.2923 -16.4428 1.3099 0.1296 0 2
12.3202 -13.9834 1.1891 0.1521 0 1
12.1663 -12.7390 1.1239 0.1625 0 1
12.0080 -11.6029 1.0654 0.1560 0 1
11.8218 -10.5389 1.0105 0.1644 0 1
11.6433 -9.5693 0.9616 0.1629 0 1
11.4464 -8.6616 0.9159 0.1711 0 1
6.1257 -4.2598 0.4761 0.8902 14 6
11.1709 -7.1206 0.8452 0.1964 0 1
11.0874 -6.4566 0.8186 0.2071 0 1
11.0201 -5.8381 0.7957 0.2136 0 1
8.8304 -4.2332 0.6248 0.5789 0 9
8.9452 -3.8547 0.6215 0.6145 0 9
10.5625 -4.0570 0.7219 0.2357 0 25
10.5237 -3.5644 0.7089 0.2401 0 25
10.4903 -3.0896 0.6978 0.2439 0 25
10.4621 -2.6299 0.6883 0.2473 0 25
10.5736 -2.2108 0.6892 0.2552 0 2
6.0707 -1.0169 0.3927 0.9619 25 14
4.5639 -0.5773 0.2935 0.2710 25 14
4.4963 -0.3861 0.2879 0.2680 25 14
4.4306 -0.2018 0.2830 0.2727 25 14
4.3636 -0.0234 0.2784 0.3182 25 14
4.4192 0.1538 0.2821 0.2736 25 14
4.5150 0.3390 0.2889 0.2672 25 14
4.6164 0.5337 0.2965 0.2683 25 14
6.0853 0.9524 0.3930 0.9613 25 14
11.2006 2.2168 0.7285 0.2365 0 1
11.2869 2.7089 0.7406 0.2327 0 1
11.3837 3.2205 0.7548 0.2263 0 1
11.4918 3.7554 0.7714 0.2214 0 1
11.5855 4.3080 0.7887 0.2302 0 1
11.6144 4.8579 0.8033 0.2300 0 1
11.6427 5.4287 0.8196 0.2254 0 1
11.1547 5.7571 0.8009 0.5139 0 14
10.1967 5.7924 0.7482 0.7246 0 14
9.9325 6.1824 0.7465 0.7591 0 14
10.8433 7.3693 0.8365 0.4983 0 14
11.1938 8.2833 0.8885 0.6118 0 2
11.0945 8.9207 0.9083 0.1868 0 2
11.2185 9.7873 0.9499 0.1787 0 2
11.3612 10.7447 0.9977 0.1701 0 2
11.5262 11.8126 1.0530 0.1612 0 2
11.7183 13.0162 1.1175 0.1519 0 2
11.9441 14.3889 1.1932 0.1422 0 2
11.2343 14.6964 1.1803 0.7888 0 3
6.4123 9.1255 0.7116 0.3593 22 6
8.8837 13.7878 1.0465 0.8423 0 21
8.6448 14.6797 1.0870 0.8565 0 3
7.9485 14.8280 1.0735 0.4732 0 3
7.9104 16.2962 1.1558 0.4395 0 3
7.8654 18.0099 1.2539 0.4051 0 3
7.6578 19.6497 1.3456 0.3701 0 3
8.2965 24.1067 1.6267 0.9414 0 3
7.6676 25.5724 1.7034 0.2984 0 3
1.8948 14.4145 0.9276 0.2344 0 9
1.3237 14.5787 0.9340 0.4444 0 9
1.2790 25.3563 1.6199 0.9757 0 9
-0.4480 14.9770 0.9560 0.7102 0 9
-30.6694 27.8837 2.6447 0.6758 0 3
-30.9473 25.9455 2.5767 0.3035 0 3
-31.1443 24.0495 2.5107 0.3114 0 3
-31.2998 22.2228 2.4492 0.7474 0 3
-31.3173 20.3954 2.3846 0.1128 0 3
-31.4584 18.7334 2.3361 0.3329 0 3
-31.7668 17.2287 2.3058 0.3392 0 3
-36.2951 -33.6600 3.1584 0.8699 0 20
0.7835 -38.9055 2.4829 0.9980 0 22
9.4998 -42.3046 2.7664 0.6248 0 3
8.0589 -30.1674 1.9923 0.9659 0 20
9.2207 -29.6821 1.9831 0.9550 0 3
10.5416 -29.6736 2.0092 0.9426 0 3
11.8788 -29.6117 2.0357 0.9287 0 3
13.0206 -29.0279 2.0299 0.0695 0 3
13.4685 -27.0618 1.9287 0.8686 0 3
10.1552 -18.5030 1.3467 0.1025 0 9
9.9831 -16.5751 1.2346 0.9273 0 20
12.8231 -19.4761 1.4878 0.1141 0 2
12.4491 -17.3495 1.3625 0.1246 0 2
12.5844 -16.1294 1.3053 0.8038 0 2
12.4254 -14.6711 1.2267 0.1432 0 1
12.2370 -13.3249 1.1543 0.1582 0 1
12.0974 -12.1552 1.0942 0.1669 0 1
11.9091 -11.0418 1.0362 0.1604 0 1
11.7344 -10.0347 0.9851 0.1671 0 1
11.5390 -9.0917 0.9373 0.1672 0 1
11.3587 -8.2328 0.8951 0.1785 0 1
11.2194 -7.4638 0.8598 0.1931 0 1
11.1246 -6.7727 0.8310 0.2041 0 1
11.0506 -6.1338 0.8064 0.2103 0 1
10.6862 -5.3822 0.7634 0.2229 0 25
8.8273 -4.0102 0.6186 0.9599 0 9
10.5835 -4.3043 0.7290 0.2335 0 25
10.5418 -3.8017 0.7150 0.2380 0 25
10.5059 -3.3186 0.7030 0.2421 0 25
10.4752 -2.8519 0.6927 0.2457 0 25
10.4495 -2.3989 0.6841 0.2488 0 25
10.8270 -2.0319 0.7029 0.2508 0 1
6.1059 -0.8938 0.3937 0.9595 25 14
4.5298 -0.4783 0.2906 0.2656 25 14
4.4621 -0.2907 0.2853 0.2705 25 14
4.3899 -0.1093 0.2802 0.2011 25 14
4.3696 0.0666 0.2788 0.3178 25 14
4.4676 0.2478 0.2855 0.2704 25 14
4.5667 0.4377 0.2927 0.2637 25 14
4.6668 0.6372 0.3005 0.2647 25 14
6.0473 1.0746 0.3919 0.9640 25 14
11.2440 2.4673 0.7345 0.2346 0 1
11.3344 2.9686 0.7476 0.2285 0 1
11.4380 3.4920 0.7630 0.2238 0 1
11.5512 4.0401 0.7808 0.2188 0 1
11.6005 4.5879 0.7960 0.2281 0 1
11.6282 5.1478 0.8114 0.2277 0 1
11.6597 5.7321 0.8290 0.2228 0 1
10.5549 5.7261 0.7662 0.4438 0 14
10.0179 5.9672 0.7440 0.8812 0 14
9.8906 6.4429 0.7532 0.7679 0 14
9.9228 7.0469 0.7765 0.4964 0 14
11.0400 8.5271 0.8901 0.1907 0 2
11.1560 9.3552 0.9290 0.1827 0 2
11.2892 10.2663 0.9736 0.1743 0 2
11.4428 11.2776 1.0251 0.1656 0 2
11.6211 12.4116 1.0849 0.1564 0 2
11.8296 13.6972 1.1548 0.1470 0 2
11.6588 14.6493 1.1946 0.7767 0 3
10.7596 14.6933 1.1620 0.8013 0 3
9.2485 13.7560 1.0576 0.8325 0 21
8.5533 13.8960 1.0411 0.8178 0 21
8.2407 14.6771 1.0740 0.8669 0 3
7.9297 15.5547 1.1140 0.4560 0 3
7.8883 17.1411 1.2039 0.4219 0 3
7.8389 19.0079 1.3119 0.3872 0 3
8.3182 22.7173 1.5436 0.4122 0 3
7.7435 24.1031 1.6153 0.9480 0 3
7.6161 27.4446 1.8173 0.2797 0 3
1.5206 13.7564 0.8831 0.3510 0 9
1.9382 27.6678 1.7697 0.8984 0 9
0.4715 15.8256 1.0102 0.7290 0 9
-0.7350 14.5375 0.9287 0.3841 0 9
-30.7273 26.8007 2.6015 0.6884 0 3
-31.0509 24.9610 2.5420 0.3076 0 3
-31.0726 22.9877 2.4662 0.5344 0 3
-31.2808 21.2534 2.4130 0.7586 0 3
-31.4265 19.5562 2.3617 0.7796 0 3
-31.7052 18.0058 2.3264 0.3362 0 3
-31.7223 16.3677 2.2776 0.5752 0 3
-0.0185 -38.8894 2.0489 0.9010 0 22
5.1477 -42.6988 2.2659 0.9929 0 3
5.0059 -24.6592 1.3257 0.9972 0 6
9.2186 -37.5996 2.0396 0.9715 0 3
8.3974 -29.1387 1.5977 0.2725 0 3
9.8595 -29.6787 1.6477 0.9498 0 3
11.1679 -29.5903 1.6663 0.9366 0 3
11.6890 -27.5672 1.5776 0.7049 0 3
12.5435 -26.5618 1.5476 0.7017 0 3
12.6940 -24.3032 1.4446 0.0971 0 2
12.2492 -21.3196 1.2954 0.1082 0 2
11.8951 -18.9037 1.1767 0.1192 0 2
11.6072 -16.9008 1.0802 0.1298 0 2
11.9920 -16.0411 1.0552 0.1538 0 2
11.6792 -14.3808 0.9761 0.1531 0 1
11.5267 -13.0827 0.9186 0.1643 0 1
11.4042 -11.9410 0.8699 0.1649 0 1
11.2463 -10.8668 0.8239 0.1666 0 1
11.1029 -9.8980 0.7837 0.1736 0 1
10.9343 -8.9866 0.7457 0.1736 0 1
10.7912 -8.1659 0.7130 0.1852 0 1
6.1506 -4.2772 0.3947 0.6628 14 6
10.6088 -6.7623 0.6628 0.2114 0 1
10.5500 -6.1437 0.6432 0.2178 0 1
10.2280 -5.4185 0.6098 0.2306 0 25
8.9515 -4.2913 0.5230 0.2737 0 9
8.9577 -3.8601 0.5139 0.8944 0 9
10.1112 -3.8837 0.5707 0.2464 0 25
10.0818 -3.4147 0.5608 0.2508 0 25
10.0566 -2.9619 0.5523 0.2546 0 25
10.0351 -2.5226 0.5452 0.2580 0 25
10.3914 -2.1727 0.5593 0.2604 0 1
10.3519 -1.7340 0.5530 0.2648 0 24
4.3658 -0.5522 0.2318 0.2008 25 14
4.2837 -0.3679 0.2265 0.2055 25 14
4.2409 -0.1931 0.2237 0.3273 25 14
4.2272 -0.0227 0.2227 0.3287 25 14
4.2513 0.1480 0.2241 0.3267 25 14
4.3133 0.3239 0.2279 0.2043 25 14
4.4385 0.5131 0.2354 0.1978 25 14
6.1062 0.9557 0.3256 0.9586 25 14
10.7225 2.1222 0.5759 0.2472 0 1
10.7975 2.5914 0.5850 0.2434 0 1
10.8787 3.0776 0.5956 0.2390 0 1
10.9691 3.5846 0.6080 0.2321 0 1
11.0697 4.1162 0.6222 0.2268 0 1
11.0978 4.6419 0.6338 0.2367 0 1
11.1222 5.1860 0.6465 0.2361 0 1
11.1308 5.7448 0.6599 0.4323 0 14
11.1226 6.3184 0.6740 0.2540 0 1
10.0764 6.2720 0.6253 0.4702 0 14
10.0533 6.8324 0.6404 0.3809 0 14
10.9965 8.1373 0.7207 0.2152 0 2
10.5030 8.4451 0.7101 0.1975 0 2
10.5946 9.2430 0.7407 0.1893 0 2
10.6994 10.1188 0.7759 0.1807 0 2
10.8198 11.0887 0.8162 0.1718 0 2
10.9591 12.1729 0.8630 0.1625 0 2
11.1215 13.3979 0.9174 0.1529 0 2
11.1957 14.6459 0.9713 0.7894 0 3
6.4017 9.1104 0.5866 0.9082 22 6
8.8654 13.7594 0.8624 0.8446 0 21
8.6446 14.6793 0.8975 0.8571 0 3
8.0082 14.9394 0.8930 0.4700 0 3
7.9744 16.4280 0.9621 0.4362 0 3
7.9345 18.1680 1.0445 0.4018 0 3
7.7355 19.8490 1.1224 0.3668 0 3
8.2962 24.1061 1.3432 0.9421 0 3
7.7593 25.8783 1.4234 0.2951 0 3
3.3129 25.2029 1.3393 0.3468 0 9
1.2301 13.5479 0.7167 0.0768 0 9
0.6995 13.8681 0.7316 0.2611 0 9
-1.0427 14.8592 0.7848 0.4205 0 9
-30.8135 38.7078 2.6066 0.5677 0 3
-31.1458 36.0545 2.5102 0.2574 0 3
-30.5597 32.6308 2.3554 0.9274 0 3
-31.4828 31.0211 2.3286 0.7067 0 3
-31.8652 28.9710 2.2690 0.2847 0 3
-32.2941 22.9287 2.0867 0.7514 0 3
-32.2582 21.0081 2.0282 0.7730 0 3
-32.2279 19.1916 1.9762 0.7933 0 3
-32.7834 17.7801 1.9649 0.4816 0 3
-32.7383 16.0898 1.9219 0.4461 0 3
-36.1558 -33.5309 2.5980 0.7869 0 20
-35.2113 -35.3879 2.6301 0.5263 0 20
6.0418 -42.6910 2.2716 0.9893 0 3
9.5113 -42.3558 2.2871 0.9727 0 3
8.0610 -30.1753 1.6456 0.9647 0 20
8.5761 -27.6071 1.5231 0.9556 0 3
10.5419 -29.6743 1.6591 0.9432 0 3
11.8791 -29.6125 1.6810 0.9293 0 3
12.1378 -27.0599 1.5625 0.8586 0 3
12.9541 -26.0282 1.5318 0.0915 0 2
10.2315 -18.6419 1.1204 0.7045 0 9
9.9925 -16.5907 1.0204 0.9777 0 20
11.7402 -17.8314 1.1248 0.1247 0 2
11.5900 -16.1522 1.0474 0.8276 0 2
11.7649 -15.0790 1.0076 0.1483 0 1
11.5824 -13.6757 0.9442 0.1598 0 1
11.4669 -12.4864 0.8932 0.1606 0 1
11.3208 -11.3749 0.8455 0.1624 0 1
11.1703 -10.3569 0.8026 0.1695 0 1
11.0164 -9.4207 0.7637 0.1695 0 1
10.8585 -8.5556 0.7283 0.1813 0 1
10.7243 -7.7730 0.6978 0.1892 0 1
6.2943 -4.1873 0.3983 0.0193 14 6
10.5777 -6.4398 0.6524 0.2147 0 1
10.5251 -5.8421 0.6342 0.2224 0 1
10.2046 -5.1397 0.6020 0.2336 0 25
8.8585 -4.0243 0.5126 0.8135 0 9
10.1271 -4.1187 0.5760 0.2441 0 25
10.0956 -3.6408 0.5654 0.2487 0 25
10.0684 -3.1804 0.5563 0.2528 0 25
10.0451 -2.7348 0.5485 0.2564 0 25
10.0256 -2.3016 0.5419 0.2595 0 2
10.3908 -1.9500 0.5570 0.2615 0 1
6.1354 -0.8982 0.3267 0.8547 25 14
4.3229 -0.4565 0.2290 0.2033 25 14
4.2480 -0.2767 0.2243 0.3264 25 14
4.2337 -0.1054 0.2231 0.3281 25 14
4.2332 0.0646 0.2231 0.3282 25 14
4.2709 0.2369 0.2254 0.3249 25 14
4.3763 0.4194 0.2316 0.2010 25 14
4.4919 0.6133 0.2389 0.2752 25 14
6.0681 1.0782 0.3247 0.9613 25 14
10.7602 2.3611 0.5804 0.2453 0 1
10.8383 2.8387 0.5903 0.2412 0 1
10.9231 3.3348 0.6017 0.2345 0 1
11.0197 3.8542 0.6151 0.2295 0 1
11.0874 4.3850 0.6282 0.2388 0 1
11.1100 4.9184 0.6401 0.2344 0 1
11.1327 5.4730 0.6536 0.2335 0 1
10.7775 5.8468 0.6460 0.6972 0 14
10.1063 6.0199 0.6198 0.3501 0 14
10.0399 6.5402 0.6313 0.5546 0 14
10.7148 8.2759 0.7133 0.6297 0 2
10.5485 8.8458 0.7253 0.1933 0 2
10.6466 9.6819 0.7582 0.1850 0 2
10.7590 10.6038 0.7959 0.1762 0 2
10.8887 11.6295 0.8394 0.1671 0 2
11.0393 12.7822 0.8898 0.1576 0 2
11.2155 14.0923 0.9489 0.1478 0 2
10.7592 14.6929 0.9595 0.8018 0 3
9.2402 13.7437 0.8725 0.8347 0 21
8.5710 13.9247 0.8615 0.8167 0 21
8.2405 14.6767 0.8868 0.8675 0 3
7.9915 15.6760 0.9270 0.4527 0 3
7.9548 17.2856 1.0025 0.4186 0 3
7.8790 19.1053 1.0888 0.9206 0 3
8.8280 24.1095 1.3527 0.9354 0 3
7.7433 24.1025 1.3338 0.9487 0 3
7.7133 27.7950 1.5197 0.2764 0 3
1.5924 14.4061 0.7636 0.4195 0 9
1.1004 15.7086 0.8296 0.9330 0 9
0.5040 16.9144 0.8915 0.6301 0 9
-0.2832 27.3258 1.4398 0.1778 0 9
-30.8307 37.1324 2.5428 0.2527 0 3
-31.2858 34.7426 2.4632 0.2623 0 3
-31.3930 32.1655 2.3680 0.6398 0 3
-31.7635 30.0329 2.3031 0.2805 0 3
-31.3830 23.2174 2.0567 0.8006 0 3
-32.2739 21.9282 2.0557 0.7626 0 3
-32.2423 20.0638 2.0008 0.7836 0 3
-32.2133 18.2943 1.9518 0.8033 0 3
-32.7125 16.8786 1.9394 0.4634 0 3
5.7311 -47.5383 1.9909 0.9930 0 3
5.0316 -24.7859 1.0516 0.5578 0 6
8.9625 -36.5552 1.5650 0.5415 0 3
8.0911 -28.0759 1.2149 0.3438 0 3
9.8597 -29.6794 1.3004 0.9503 0 3
10.7369 -28.4482 1.2643 0.0728 0 3
11.4836 -27.0827 1.2231 0.8936 0 3
11.8174 -25.0242 1.1507 0.0962 0 2
11.4533 -21.9278 1.0286 0.1076 0 2
10.5699 -18.3968 0.8822 0.9651 0 9
10.4745 -16.6460 0.8178 0.1362 0 20
11.0889 -16.1462 0.8144 0.8404 0 2
11.0514 -14.7829 0.7674 0.1413 0 1
10.9051 -13.4276 0.7192 0.1657 0 1
10.8069 -12.2658 0.6797 0.1666 0 1
10.6893 -11.1925 0.6435 0.1669 0 1
10.5702 -10.2136 0.6112 0.1757 0 1
10.4425 -9.3093 0.5817 0.1792 0 1
10.3190 -8.4809 0.5554 0.1877 0 1
10.2093 -7.7255 0.5323 0.1958 0 1
6.1828 -4.2996 0.3131 0.6597 14 6
10.1047 -6.4410 0.4982 0.2220 0 1
10.0651 -5.8613 0.4843 0.2300 0 1
9.7820 -5.1822 0.4603 0.2412 0 25
8.9492 -4.2902 0.4127 0.4733 0 9
9.0012 -3.8788 0.4075 0.8155 0 9
9.4420 -3.6267 0.4206 0.4831 0 9
9.6761 -3.2773 0.4248 0.2614 0 25
9.6577 -2.8444 0.4186 0.2653 0 25
9.6421 -2.4238 0.4134 0.2686 0 25
9.9878 -2.0883 0.4243 0.2711 0 1
9.9565 -1.6678 0.4198 0.2755 0 24
4.1460 -0.5244 0.1738 0.2115 25 14
4.1257 -0.3543 0.1722 0.3358 25 14
4.1080 -0.1871 0.1710 0.2621 25 14
4.0946 -0.0219 0.1703 0.3119 25 14
4.1213 0.1434 0.1715 0.2614 25 14
4.1581 0.3122 0.1734 0.3334 25 14
4.2131 0.4870 0.1763 0.2085 25 14
6.1411 0.9611 0.2585 0.8531 25 14
10.2837 2.0354 0.4359 0.2574 0 1
10.3492 2.4839 0.4425 0.2540 0 1
10.4192 2.9476 0.4502 0.2497 0 1
10.4945 3.4295 0.4591 0.2449 0 1
10.5779 3.9334 0.4692 0.2375 0 1
10.6242 4.4438 0.4788 0.2474 0 1
10.6389 4.9607 0.4881 0.2427 0 1
10.6570 5.5003 0.4987 0.2376 0 1
10.6717 6.0623 0.5103 0.2361 0 1
10.5828 6.5872 0.5183 0.2608 0 1
10.4846 7.1255 0.5271 0.2565 0 1
10.5582 7.8130 0.5461 0.0514 0 1
10.2828 8.2680 0.5486 0.6465 0 2
10.0371 8.7565 0.5538 0.1999 0 2
10.1111 9.5625 0.5786 0.1914 0 2
10.1957 10.4491 0.6070 0.1824 0 2
10.2930 11.4330 0.6396 0.1731 0 2
10.4056 12.5355 0.6774 0.1635 0 2
10.5369 13.7841 0.7214 0.1535 0 2
6.4064 9.1171 0.4633 0.9080 22 6
8.8472 13.7312 0.6792 0.8468 0 21
8.6443 14.6789 0.7083 0.8576 0 3
8.0687 15.0523 0.7101 0.4667 0 3
8.0394 16.5619 0.7655 0.4329 0 3
8.0047 18.3288 0.8316 0.3985 0 3
8.7593 22.4760 1.0030 0.9136 0 3
8.2960 24.1055 1.0600 0.9426 0 3
7.8531 26.1912 1.1369 0.2917 0 3
1.8116 13.7814 0.5780 0.2494 0 9
1.2452 13.7144 0.5726 0.1358 0 9
0.9060 17.9620 0.7478 0.3671 0 9
-32.3885 37.4931 2.0601 0.6010 0 3
-32.3363 34.5278 1.9669 0.6294 0 3
-32.2895 31.8159 1.8848 0.6568 0 3
-32.2474 29.3184 1.8121 0.6832 0 3
-32.2093 27.0036 1.7476 0.7084 0 3
-32.1748 24.8452 1.6902 0.7325 0 3
-32.1433 22.8217 1.6391 0.7553 0 3
-32.1117 20.9128 1.5934 0.7769 0 3
-32.0853 19.1067 1.5527 0.7973 0 3
-30.1338 16.3430 1.4254 0.4110 0 3
-33.9526 16.6866 1.5730 0.3244 0 3
-36.1330 -33.5097 2.0490 0.7878 0 20
-35.0467 -35.2225 2.0660 0.6585 0 20
6.0419 -42.6920 1.7928 0.9898 0 3
9.5110 -42.3545 1.8049 0.9732 0 3
7.9158 -29.6317 1.2753 0.2438 0 20
8.5763 -27.6078 1.2020 0.9561 0 3
10.4210 -29.3339 1.2944 0.9879 0 3
11.0685 -27.5918 1.2361 0.9297 0 3
11.9226 -26.5801 1.2113 0.8846 0 3
11.6194 -23.3464 1.0843 0.1021 0 2
11.2972 -20.5837 0.9763 0.1134 0 2
10.0059 -16.6130 0.8064 0.9746 0 20
10.8269 -16.4443 0.8186 0.1353 0 2
11.2587 -15.6905 0.8030 0.1596 0 2
10.9523 -14.0375 0.7403 0.1465 0 1
10.8554 -12.8173 0.6984 0.1622 0 1
10.7515 -11.7073 0.6609 0.1640 0 1
10.6261 -10.6769 0.6263 0.1715 0 1
10.5124 -9.7469 0.5961 0.1715 0 1
10.3772 -8.8741 0.5677 0.1836 0 1
10.2611 -8.0848 0.5432 0.1919 0 1
10.1774 -7.3765 0.5226 0.2117 0 1
6.2789 -4.1770 0.3136 0.3924 14 6
10.0826 -6.1384 0.4908 0.2254 0 1
9.7990 -5.4391 0.4660 0.2383 0 25
9.7651 -4.9183 0.4546 0.2443 0 25
8.8867 -4.0372 0.4058 0.9944 0 9
9.3502 -3.8027 0.4197 0.2251 0 9
9.6861 -3.4931 0.4281 0.2594 0 25
9.6663 -3.0534 0.4215 0.2634 0 25
9.6493 -2.6271 0.4158 0.2670 0 25
9.6853 -2.2235 0.4132 0.2778 0 2
9.9895 -1.8747 0.4226 0.2727 0 1
6.1793 -0.9046 0.2597 0.8491 25 14
4.1327 -0.4364 0.1728 0.3346 25 14
4.1171 -0.2682 0.1716 0.2613 25 14
4.0987 -0.1021 0.1705 0.2629 25 14
4.1011 0.0625 0.1705 0.3114 25 14
4.1404 0.2296 0.1724 0.3353 25 14
4.1772 0.4004 0.1745 0.3313 25 14
4.2740 0.5836 0.1794 0.2049 25 14
10.2520 1.8217 0.4329 0.2655 0 1
10.3169 2.2638 0.4392 0.2560 0 1
10.3845 2.7198 0.4463 0.2519 0 1
10.4572 3.1926 0.4546 0.2473 0 1
10.5355 3.6849 0.4641 0.2401 0 1
10.6182 4.1994 0.4748 0.2495 0 1
10.6313 4.7065 0.4834 0.2450 0 1
10.6478 5.2346 0.4933 0.2401 0 1
10.6644 5.7855 0.5045 0.2389 0 1
10.6304 6.3320 0.5145 0.2628 0 1
10.5325 6.8610 0.5227 0.2587 0 1
10.4304 7.4074 0.5319 0.2676 0 1
10.4924 8.1042 0.5513 0.2221 0 2
10.0044 8.3895 0.5429 0.2040 0 2
10.0738 9.1610 0.5662 0.1956 0 2
10.1531 10.0065 0.5927 0.1868 0 2
10.2439 10.9408 0.6232 0.1777 0 2
10.3487 11.9826 0.6583 0.1682 0 2
10.4704 13.1561 0.6991 0.1584 0 2
10.6130 14.4932 0.7469 0.1482 0 2
9.2211 13.7152 0.6872 0.8369 0 21
9.0368 14.6814 0.7168 0.8474 0 3
8.2403 14.6763 0.6998 0.8680 0 3
8.0543 15.7990 0.7373 0.4494 0 3
8.0224 17.4324 0.7979 0.4153 0 3
7.8788 19.1048 0.8593 0.9211 0 3
8.8277 24.1089 1.0675 0.9359 0 3
7.7431 24.1019 1.0526 0.9492 0 3
7.8130 28.1542 1.2149 0.2730 0 3
1.5030 13.5968 0.5688 0.1264 0 9
0.9410 13.4324 0.5599 0.5111 0 9
0.8015 26.9014 1.1190 0.2230 0 9
-0.2604 25.1291 1.0449 0.4693 0 9
-32.3610 35.9366 2.0108 0.6157 0 3
-32.1247 32.9152 1.9124 0.9348 0 3
-32.2673 30.5093 1.8464 0.6705 0 3
-32.2274 28.1091 1.7781 0.6963 0 3
-32.1912 25.8776 1.7173 0.7209 0 3
-32.1582 23.7909 1.6633 0.7443 0 3
-32.1255 21.8273 1.6149 0.7666 0 3
-32.0979 19.9740 1.5719 0.7875 0 3
-32.0725 18.2144 1.5336 0.8072 0 3
-33.9019 17.4923 1.5862 0.3216 0 3
5.7313 -47.5393 1.4597 0.9934 0 3
3.7765 -18.6029 0.5786 0.9582 0 6
8.9850 -36.6472 1.1502 0.9690 0 3
8.4260 -29.2379 0.9275 0.9621 0 20
9.8257 -29.5770 0.9501 0.2173 0 3
10.4864 -27.7846 0.9053 0.3380 0 3
10.9312 -25.7799 0.8536 0.0951 0 2
10.6536 -22.5599 0.7605 0.1068 0 2
10.4344 -19.9770 0.6870 0.1182 0 2
10.2556 -17.8498 0.6275 0.2960 0 9
10.1734 -16.1677 0.5823 0.8621 0 2
10.4323 -15.1902 0.5617 0.1541 0 1
10.2968 -13.7736 0.5242 0.1667 0 1
10.2250 -12.5902 0.4944 0.1680 0 1
10.1471 -11.5168 0.4679 0.1683 0 1
10.0543 -10.5277 0.4438 0.1847 0 1
9.9689 -9.6326 0.4226 0.1868 0 1
9.8683 -8.7974 0.4030 0.1959 0 1
9.7787 -8.0369 0.3858 0.2046 0 1
9.7304 -7.3632 0.3720 0.2303 0 1
6.2258 -4.3294 0.2312 0.3319 14 6
9.6732 -6.1659 0.3497 0.2672 0 1
9.3979 -5.4727 0.3315 0.2457 0 25
9.3736 -4.9658 0.3234 0.2519 0 25
8.9115 -4.2721 0.3013 0.9771 0 9
8.9632 -3.8624 0.2975 0.5452 0 9
9.0393 -3.4720 0.2952 0.6092 0 9
9.3020 -3.1506 0.2994 0.2720 0 25
9.2896 -2.7360 0.2952 0.2759 0 25
9.2799 -2.3327 0.2917 0.2797 0 2
9.6143 -2.0102 0.2994 0.2813 0 1
9.6234 -1.6120 0.2974 0.2846 0 1
3.9843 -0.5040 0.1224 0.2685 25 14
3.9762 -0.3414 0.1217 0.3201 25 14
3.9691 -0.1808 0.1211 0.3216 25 14
