ply
format ascii 1.0
element vertex 1373
property float32 x
property float32 y
property float32 z
property float32 CosAngle
property uint32 ObjIdx
property uint32 ObjTag
end_header
-34.4921 17.7508 -6.6186 0.4570 0 3
-38.4940 17.8919 -7.2426 0.8982 0 3
-44.5091 18.5512 -8.2273 0.9136 0 3
-34.5504 -33.5471 -8.2166 0.3900 0 20
-32.2310 -33.9154 -7.9829 0.9629 0 20
-31.1846 -35.5738 -8.0715 0.9522 0 20
-17.1268 -45.7763 -8.3391 0.9985 0 20
-13.9615 -42.4388 -7.6226 0.0575 0 1
-10.0896 -35.4025 -6.2809 0.0720 0 1
-7.4082 -30.6111 -5.3736 0.0802 0 1
-5.3243 -26.6416 -4.6355 0.0884 0 1
-3.7312 -23.5613 -4.0701 0.1072 0 1
-2.4882 -21.1939 -3.6409 0.1232 0 24
-1.4934 -19.4383 -3.3263 0.1345 0 1
-0.6561 -17.9753 -3.0690 0.1561 0 1
0.0614 -16.5669 -2.8267 0.1703 0 1
0.6769 -15.4099 -2.6318 0.1815 0 1
1.2119 -14.3778 -2.4618 0.2004 0 1
1.6830 -13.4718 -2.3164 0.2130 0 1
2.0974 -12.6365 -2.1855 0.2200 0 1
2.4605 -11.8538 -2.0656 0.2279 0 1
2.7827 -11.1363 -1.9585 0.2425 0 1
3.0717 -10.4826 -1.8637 0.2548 0 1
3.3313 -9.8788 -1.7788 0.2677 0 1
3.5688 -9.3273 -1.7039 0.2771 0 1
3.7846 -8.8129 -1.6364 0.2885 0 1
3.9809 -8.3298 -1.5752 0.2997 0 1
4.1590 -7.8728 -1.5192 0.3102 0 1
4.3227 -7.4423 -1.4684 0.3239 0 1
4.4735 -7.0350 -1.4224 0.3343 0 1
4.6120 -6.6469 -1.3803 0.3445 0 1
4.7217 -6.2528 -1.3369 0.3464 0 1
4.8209 -5.8773 -1.2970 0.3571 0 1
4.9113 -5.5194 -1.2606 0.3708 0 1
4.9960 -5.1796 -1.2278 0.3807 0 1
5.0732 -4.8533 -1.1979 0.3902 0 1
5.1436 -4.5392 -1.1705 0.3993 0 1
5.2076 -4.2359 -1.1453 0.4081 0 1
5.2630 -3.9405 -1.1218 0.4063 0 1
5.3247 -3.6622 -1.1026 0.4302 0 1
5.3851 -3.3934 -1.0860 0.4368 0 1
5.4406 -3.1303 -1.0710 0.4429 0 1
5.4916 -2.8723 -1.0574 0.4486 0 1
5.5383 -2.6189 -1.0453 0.4538 0 1
5.5808 -2.3695 -1.0345 0.4585 0 1
5.6195 -2.1237 -1.0250 0.4628 0 1
5.6544 -1.8810 -1.0167 0.4666 0 1
5.6858 -1.6408 -1.0097 0.4699 0 1
4.0246 -0.9881 -0.7071 0.5357 25 14
3.8396 -0.7806 -0.6685 0.9581 25 14
3.8370 -0.6207 -0.6632 0.9658 25 14
3.8344 -0.4630 -0.6590 0.9720 25 14
3.8288 -0.3069 -0.6554 0.8626 25 14
3.8155 -0.1519 -0.6515 0.8677 25 14
3.8033 0.0015 -0.6489 0.8712 25 14
3.8119 0.1548 -0.6509 0.8685 25 14
3.8209 0.3093 -0.6541 0.8644 25 14
3.8304 0.4657 -0.6584 0.9729 25 14
3.8316 0.6229 -0.6623 0.9671 25 14
3.8332 0.7824 -0.6675 0.5641 25 14
5.8570 1.4429 -1.0292 0.4556 0 1
5.8513 1.6936 -1.0393 0.4512 0 1
5.8406 1.9481 -1.0505 0.4515 0 1
5.8253 2.2068 -1.0628 0.4464 0 1
5.8018 2.4688 -1.0758 0.4366 0 1
5.7712 2.7347 -1.0896 0.4310 0 1
5.7363 3.0061 -1.1050 0.4250 0 1
5.6968 3.2837 -1.1219 0.4186 0 1
5.6525 3.5682 -1.1405 0.4118 0 1
5.6030 3.8602 -1.1609 0.4046 0 1
5.5480 4.1607 -1.1832 0.3969 0 1
5.4809 4.4655 -1.2062 0.4000 0 1
5.4041 4.7767 -1.2306 0.3921 0 1
5.3203 5.0979 -1.2572 0.3838 0 1
5.2292 5.4300 -1.2862 0.3751 0 1
5.1299 5.7744 -1.3179 0.3661 0 1
5.0230 6.1337 -1.3527 0.3551 0 1
4.9066 6.5084 -1.3907 0.3821 0 1
4.7568 6.8673 -1.4253 0.3728 0 1
4.5958 7.2400 -1.4632 0.3631 0 1
4.4226 7.6282 -1.5044 0.3532 0 1
4.2479 8.0565 -1.5540 0.3332 0 1
4.0603 8.5133 -1.6093 0.3217 0 1
3.8532 8.9924 -1.6692 0.3159 0 1
3.6265 9.5006 -1.7351 0.2998 0 1
3.3814 10.0538 -1.8098 0.2875 0 1
3.1436 10.7597 -1.9126 0.2605 0 2
-28.8495 36.6668 -8.4935 0.9545 0 3
-28.9517 33.8997 -8.1156 0.6577 0 3
-29.0455 31.3647 -7.7821 0.6859 0 3
-29.1283 29.0225 -7.4855 0.7130 0 3
-18.0139 16.5605 -4.4546 0.7741 0 22
-19.4661 16.5026 -4.6458 0.6647 0 22
-29.3237 22.8996 -6.7731 0.7880 0 3
-29.3719 21.0937 -6.5830 0.8107 0 3
-29.4167 19.3832 -6.4132 0.8322 0 3
-29.5047 17.7835 -6.2714 0.6205 0 3
-34.2376 18.8035 -7.1109 0.8713 0 3
-39.3227 19.5825 -7.9971 0.8890 0 3
-38.1108 17.1039 -7.6046 0.1070 0 3
-44.0660 17.6853 -8.6440 0.3726 0 3
-27.7443 9.8600 -5.3602 0.9424 0 22
-27.6749 8.5995 -5.2757 0.6444 0 22
-32.8185 -32.7209 -8.4366 0.9702 0 20
-31.7666 -34.3258 -8.5142 0.9935 0 20
-14.4430 -40.2177 -7.7793 0.0595 0 1
-10.6601 -33.9098 -6.4710 0.0735 0 1
-7.9869 -29.5010 -5.5639 0.0837 0 1
-5.8861 -25.8122 -4.8196 0.0899 0 1
-4.2736 -22.9622 -4.2520 0.1087 0 1
-3.0101 -20.7852 -3.8233 0.1267 0 1
-1.9816 -19.0540 -3.4874 0.1484 0 1
-1.1190 -17.6166 -3.2135 0.1587 0 1
-0.3800 -16.3447 -2.9763 0.1722 0 1
0.2582 -15.2340 -2.7737 0.1834 0 1
0.8149 -14.2459 -2.5976 0.2029 0 1
1.3057 -13.3717 -2.4458 0.2148 0 1
1.7394 -12.5679 -2.3097 0.2216 0 1
2.1201 -11.8039 -2.1832 0.2297 0 1
2.4581 -11.1013 -2.0699 0.2443 0 1
2.7621 -10.4628 -1.9700 0.2567 0 1
3.0353 -9.8720 -1.8802 0.2685 0 1
3.2827 -9.3249 -1.7997 0.2818 0 1
3.5087 -8.8184 -1.7278 0.2910 0 1
3.7154 -8.3451 -1.6630 0.3023 0 1
3.9036 -7.8976 -1.6038 0.3129 0 1
4.0763 -7.4749 -1.5500 0.3267 0 1
4.2355 -7.0748 -1.5011 0.3374 0 1
4.3818 -6.6933 -1.4564 0.3477 0 1
4.5084 -6.3174 -1.4129 0.3490 0 1
4.6153 -5.9465 -1.3703 0.3599 0 1
4.7127 -5.5927 -1.3314 0.3704 0 1
4.8036 -5.2566 -1.2963 0.3840 0 1
4.8870 -4.9341 -1.2642 0.3937 0 1
4.9631 -4.6236 -1.2348 0.4031 0 1
5.0325 -4.3239 -1.2079 0.4121 0 1
5.0922 -4.0312 -1.1823 0.4105 0 1
5.1532 -3.7528 -1.1605 0.4352 0 1
5.2166 -3.4871 -1.1423 0.4422 0 1
5.2758 -3.2277 -1.1259 0.4486 0 1
5.3303 -2.9735 -1.1111 0.4546 0 1
5.3802 -2.7239 -1.0978 0.4601 0 1
5.4258 -2.4783 -1.0859 0.4652 0 1
5.4673 -2.2364 -1.0753 0.4698 0 1
5.5050 -1.9976 -1.0661 0.4739 0 1
5.5390 -1.7614 -1.0581 0.4774 0 1
5.5693 -1.5276 -1.0513 0.4805 0 1
3.9419 -0.9126 -0.7366 0.5476 25 14
3.8380 -0.7275 -0.7111 0.9714 25 14
3.8363 -0.5685 -0.7060 0.9784 25 14
3.8346 -0.4116 -0.7021 0.9839 25 14
3.8322 -0.2562 -0.6992 0.9755 25 14
3.8277 -0.1017 -0.6971 0.8637 25 14
3.8227 0.0521 -0.6960 0.8650 25 14
3.8297 0.2064 -0.6982 0.9769 25 14
3.8308 0.3613 -0.7005 0.9737 25 14
3.8320 0.5174 -0.7039 0.9690 25 14
3.8332 0.6754 -0.7086 0.9626 25 14
3.8939 0.8487 -0.7255 0.5527 25 14
5.7210 1.4901 -1.0762 0.4640 0 1
5.7130 1.7359 -1.0870 0.4594 0 1
5.7009 1.9857 -1.0990 0.4595 0 1
5.6818 2.2389 -1.1118 0.4499 0 1
5.6530 2.4944 -1.1248 0.4446 0 1
5.6200 2.7548 -1.1394 0.4389 0 1
5.5825 3.0204 -1.1555 0.4328 0 1
5.5404 3.2920 -1.1732 0.4263 0 1
5.4931 3.5701 -1.1926 0.4188 0 1
5.4406 3.8555 -1.2139 0.4114 0 1
5.3823 4.1490 -1.2372 0.4037 0 1
5.3133 4.4472 -1.2614 0.4074 0 1
5.2335 4.7508 -1.2867 0.3993 0 1
5.1466 5.0638 -1.3144 0.3909 0 1
5.0522 5.3872 -1.3445 0.3822 0 1
4.9495 5.7221 -1.3773 0.3731 0 1
4.8400 6.0725 -1.4137 0.3619 0 1
4.7232 6.4409 -1.4540 0.3518 0 1
4.5731 6.7926 -1.4907 0.3796 0 1
4.4095 7.1542 -1.5299 0.3698 0 1
4.2336 7.5303 -1.5726 0.3598 0 1
4.0572 7.9483 -1.6246 0.3394 0 1
3.8658 8.3896 -1.6816 0.3278 0 1
3.6561 8.8544 -1.7439 0.3219 0 1
3.4257 9.3442 -1.8118 0.3058 0 1
3.1766 9.8758 -1.8886 0.2933 0 1
2.9022 10.4452 -1.9735 0.2807 0 1
2.6254 11.1713 -2.0891 0.2529 0 2
2.2896 11.8646 -2.1998 0.2390 0 2
1.9142 12.6278 -2.3251 0.2248 0 2
1.4917 13.4754 -2.4681 0.2104 0 2
1.0027 14.2898 -2.6078 0.1432 0 1
0.4581 15.3370 -2.7933 0.1815 0 1
-0.1713 16.5826 -3.0189 0.1656 0 1
-0.9138 18.0727 -3.2943 0.1507 0 1
-1.7946 19.7292 -3.6065 0.1394 0 1
-2.8312 21.5043 -3.9485 0.1310 0 1
-4.0723 23.5681 -4.3540 0.1215 0 1
-5.5664 25.9517 -4.8319 0.1148 0 1
-7.3859 28.7479 -5.4034 0.0997 0 1
-9.8359 32.7606 -6.2269 0.0798 0 1
-13.1245 38.0851 -7.3334 0.0701 0 1
-16.9826 43.5194 -8.5044 0.0561 0 2
-16.0848 29.9657 -6.1913 0.5091 0 15
-16.3263 27.6850 -5.8510 0.5460 0 15
-28.8068 37.6271 -8.6268 0.6187 0 3
-28.9181 34.7826 -8.2346 0.6482 0 3
-29.0159 32.1771 -7.8876 0.6767 0 3
-29.1021 29.7747 -7.5795 0.7042 0 3
-17.4891 16.5106 -4.3784 0.7621 0 22
-29.0041 25.2562 -7.0013 0.6653 0 3
-29.3055 23.5168 -6.8403 0.7803 0 3
-29.3559 21.6771 -6.6432 0.8034 0 3
-29.4026 19.9372 -6.4671 0.8252 0 3
-29.4437 18.2825 -6.3094 0.8459 0 3
-34.2250 19.3909 -7.1610 0.8652 0 3
-31.6096 16.2673 -6.4717 0.4961 0 3
-34.3702 15.9752 -6.8998 0.9648 0 3
-44.3354 18.4787 -8.7441 0.9154 0 3
-27.7534 9.0286 -5.3130 0.9368 0 22
-27.7341 7.8049 -5.2450 0.8436 0 22
-17.8285 -4.5176 -3.3482 0.2509 16 6
-31.4443 -16.7447 -6.4853 0.7795 0 22
-31.3966 -18.3753 -6.6226 0.8064 0 22
-34.8084 -33.7976 -8.8323 0.2237 0 20
-32.1854 -33.8674 -8.5055 0.9945 0 20
-30.9168 -35.2683 -8.5381 0.9911 0 20
-16.1165 -43.0759 -8.3727 0.0669 0 2
-11.7370 -35.6770 -6.8373 0.0695 0 1
-8.7947 -30.8589 -5.8414 0.0797 0 1
-6.5208 -26.9443 -5.0467 0.0880 0 1
-4.7555 -23.7956 -4.4175 0.1051 0 1
-3.3789 -21.3365 -3.9326 0.1218 0 24
-2.3000 -19.5903 -3.5908 0.1327 0 1
-1.3884 -18.0720 -3.2996 0.1521 0 1
-0.6110 -16.7393 -3.0493 0.1681 0 1
0.0578 -15.5879 -2.8377 0.1793 0 1
0.6393 -14.5537 -2.6520 0.1918 0 1
1.1507 -13.6513 -2.4940 0.2107 0 1
1.6027 -12.8293 -2.3537 0.2232 0 1
1.9948 -12.0189 -2.2179 0.2254 0 24
2.3507 -11.3248 -2.1056 0.2381 0 1
2.6655 -10.6675 -2.0017 0.2526 0 1
2.9484 -10.0619 -1.9087 0.2649 0 1
3.2038 -9.5005 -1.8252 0.2778 0 1
3.4362 -8.9808 -1.7505 0.2872 0 1
3.6494 -8.4980 -1.6836 0.2986 0 1
3.8436 -8.0426 -1.6227 0.3093 0 1
4.0208 -7.6112 -1.5670 0.3232 0 1
4.1846 -7.2045 -1.5167 0.3339 0 1
4.3349 -6.8170 -1.4707 0.3443 0 1
4.4709 -6.4437 -1.4278 0.3454 0 1
4.5812 -6.0668 -1.3839 0.3563 0 1
4.6816 -5.7075 -1.3439 0.3670 0 1
4.7745 -5.3657 -1.3075 0.3807 0 1
4.8604 -5.0390 -1.2745 0.3905 0 1
4.9388 -4.7247 -1.2442 0.4000 0 1
5.0103 -4.4216 -1.2165 0.4092 0 1
5.0733 -4.1267 -1.1905 0.4076 0 1
5.1314 -3.8419 -1.1670 0.4328 0 1
5.1960 -3.5737 -1.1480 0.4400 0 1
5.2569 -3.3126 -1.1311 0.4465 0 1
5.3128 -3.0567 -1.1158 0.4527 0 1
5.3642 -2.8057 -1.1020 0.4583 0 1
5.4112 -2.5588 -1.0897 0.4635 0 1
5.4540 -2.3157 -1.0787 0.4683 0 1
5.4930 -2.0759 -1.0690 0.4726 0 1
5.5282 -1.8390 -1.0606 0.4763 0 1
5.5597 -1.6044 -1.0534 0.4796 0 1
4.0462 -0.9934 -0.7585 0.0489 25 14
3.8385 -0.7804 -0.7131 0.9687 25 14
3.8368 -0.6206 -0.7076 0.9763 25 14
3.8351 -0.4631 -0.7032 0.9823 25 14
3.8330 -0.3072 -0.7000 0.9744 25 14
3.8305 -0.1525 -0.6979 0.9774 25 14
3.8199 0.0015 -0.6954 0.8657 25 14
3.8285 0.1555 -0.6975 0.8631 25 14
3.8304 0.3101 -0.6996 0.9750 25 14
3.8316 0.4658 -0.7027 0.9707 25 14
3.8328 0.6231 -0.7069 0.9649 25 14
3.8341 0.7826 -0.7124 0.9575 25 14
4.2163 1.0387 -0.7905 0.8616 25 14
5.7160 1.6545 -1.0833 0.4609 0 1
5.7056 1.9030 -1.0949 0.4560 0 1
5.6894 2.1553 -1.1076 0.4562 0 1
5.6630 2.4098 -1.1204 0.4464 0 1
5.6314 2.6684 -1.1344 0.4409 0 1
5.5954 2.9323 -1.1500 0.4349 0 1
5.5548 3.2018 -1.1672 0.4285 0 1
5.5093 3.4777 -1.1860 0.4211 0 1
5.4585 3.7607 -1.2067 0.4139 0 1
5.4022 4.0513 -1.2293 0.4063 0 1
5.3381 4.3491 -1.2535 0.4099 0 1
5.2605 4.6498 -1.2781 0.4020 0 1
5.1760 4.9596 -1.3050 0.3937 0 1
5.0842 5.2794 -1.3343 0.3851 0 1
4.9843 5.6104 -1.3662 0.3761 0 1
4.8763 5.9546 -1.4011 0.3651 0 1
4.7629 6.3177 -1.4403 0.3552 0 1
4.6245 6.6764 -1.4785 0.3827 0 1
4.4647 7.0335 -1.5166 0.3731 0 1
4.2930 7.4047 -1.5582 0.3631 0 1
4.1168 7.8079 -1.6069 0.3431 0 1
3.9307 8.2416 -1.6622 0.3317 0 1
3.7278 8.6996 -1.7230 0.3200 0 1
3.5030 9.1772 -1.7882 0.3140 0 1
3.2613 9.6967 -1.8624 0.2975 0 1
2.9956 10.2531 -1.9446 0.2849 0 1
-28.8439 36.6595 -9.0269 0.7759 0 3
-27.8827 32.6480 -8.3085 0.5007 0 3
-28.8944 31.2015 -8.2294 0.6880 0 3
-28.9825 28.8772 -7.9174 0.7151 0 3
-17.9819 16.5311 -4.7269 0.6684 0 22
-19.4672 16.5036 -4.9389 0.7154 0 22
-27.5933 21.5484 -6.7751 0.3904 0 3
-29.2425 21.0008 -6.9671 0.8126 0 3
-29.2904 19.3000 -6.7881 0.8340 0 3
-29.5031 17.7825 -6.6663 0.5126 0 3
-34.0972 18.7264 -7.5281 0.8731 0 3
-39.1646 19.5038 -8.4669 0.8907 0 3
-39.1303 17.5614 -8.3001 0.9691 0 3
-40.6154 16.3005 -8.4692 0.9218 0 3
-27.6419 9.8236 -5.6770 0.9604 0 22
-27.6583 7.3898 -5.5401 0.9400 0 22
-26.0655 -11.7083 -5.5296 0.8108 15 6
-31.3791 -15.6396 -6.7848 0.9100 0 22
-32.9402 -32.8421 -9.0015 0.9969 0 20
-31.6808 -34.2331 -9.0263 0.9945 0 20
-16.4588 -40.6205 -8.4816 0.0701 0 2
-12.4082 -34.5516 -7.1044 0.1421 0 1
-9.3204 -29.6481 -6.0143 0.0837 0 1
-7.0518 -26.0473 -5.2221 0.0880 0 1
-5.2750 -23.1324 -4.5914 0.1073 0 1
-3.8949 -20.9275 -4.1194 0.1221 0 1
-2.7746 -19.1593 -3.7463 0.1465 0 1
-1.8461 -17.7517 -3.4538 0.1541 0 1
-1.0474 -16.4903 -3.1976 0.1701 0 1
-0.3577 -15.3883 -2.9787 0.1826 0 1
0.2441 -14.3981 -2.7867 0.2006 0 1
0.7740 -13.5303 -2.6226 0.2125 0 1
1.2438 -12.7379 -2.4767 0.2250 0 1
1.6589 -11.9861 -2.3416 0.2271 0 1
2.0211 -11.2525 -2.2124 0.2404 0 24
2.3552 -10.6364 -2.1082 0.2545 0 1
2.6518 -10.0450 -2.0105 0.2668 0 1
2.9193 -9.4946 -1.9223 0.2799 0 1
3.1628 -8.9843 -1.8432 0.2919 0 1
3.3842 -8.5055 -1.7715 0.3037 0 1
3.5882 -8.0595 -1.7072 0.3124 0 1
3.7747 -7.6368 -1.6485 0.3259 0 1
3.9469 -7.2376 -1.5953 0.3367 0 1
4.1052 -6.8571 -1.5466 0.3474 0 1
4.2508 -6.4933 -1.5019 0.3577 0 1
4.3750 -6.1305 -1.4575 0.3589 0 1
4.4828 -5.7757 -1.4149 0.3697 0 1
4.5819 -5.4375 -1.3760 0.3837 0 1
4.6741 -5.1148 -1.3408 0.3938 0 1
4.7583 -4.8043 -1.3085 0.4035 0 1
4.8354 -4.5047 -1.2789 0.4129 0 1
4.9028 -4.2125 -1.2509 0.4116 0 1
4.9632 -3.9291 -1.2250 0.4203 0 1
5.0298 -3.6630 -1.2041 0.4449 0 1
5.0936 -3.4048 -1.1856 0.4519 0 1
5.1532 -3.1527 -1.1691 0.4583 0 1
5.2079 -2.9053 -1.1540 0.4643 0 1
5.2581 -2.6621 -1.1405 0.4698 0 1
5.3040 -2.4227 -1.1284 0.4748 0 1
5.3458 -2.1867 -1.1177 0.4795 0 1
5.3837 -1.9536 -1.1083 0.4835 0 1
5.4178 -1.7229 -1.1002 0.4871 0 1
5.4482 -1.4944 -1.0933 0.4902 0 1
3.9271 -0.9092 -0.7801 0.5486 25 14
3.8360 -0.7271 -0.7556 0.9699 25 14
3.8343 -0.5682 -0.7501 0.9769 25 14
3.8326 -0.4114 -0.7459 0.9824 25 14
3.8309 -0.2561 -0.7430 0.9862 25 14
3.8291 -0.1017 -0.7413 0.9886 25 14
3.8282 0.0522 -0.7409 0.9974 25 14
3.8294 0.2063 -0.7421 0.9874 25 14
3.8303 0.3612 -0.7445 0.9842 25 14
3.8313 0.5173 -0.7481 0.9795 25 14
3.8322 0.6752 -0.7530 0.9731 25 14
3.8834 0.8464 -0.7691 0.5564 25 14
5.5921 1.4565 -1.1183 0.4737 0 1
5.5830 1.6964 -1.1292 0.4691 0 1
5.5702 1.9402 -1.1414 0.4641 0 1
5.5495 2.1868 -1.1543 0.4590 0 1
5.5198 2.4357 -1.1676 0.4538 0 1
5.4859 2.6890 -1.1823 0.4481 0 1
5.4474 2.9473 -1.1986 0.4421 0 1
5.4042 3.2111 -1.2165 0.4355 0 1
5.3559 3.4810 -1.2361 0.4286 0 1
5.3023 3.7576 -1.2576 0.4213 0 1
5.2431 4.0416 -1.2811 0.4136 0 1
5.1770 4.3332 -1.3065 0.4172 0 1
5.0966 4.6266 -1.3321 0.4092 0 1
5.0092 4.9286 -1.3599 0.4008 0 1
4.9143 5.2402 -1.3902 0.3921 0 1
4.8112 5.5622 -1.4232 0.3830 0 1
4.7010 5.8981 -1.4596 0.3718 0 1
4.5838 6.2507 -1.5000 0.3618 0 1
4.4479 6.6066 -1.5413 0.3894 0 1
4.2857 6.9533 -1.5807 0.3797 0 1
4.1115 7.3131 -1.6235 0.3697 0 1
3.9340 7.7068 -1.6745 0.3493 0 1
3.7444 8.1261 -1.7315 0.3378 0 1
3.5379 8.5681 -1.7939 0.3260 0 1
3.3109 9.0311 -1.8614 0.3200 0 1
3.0658 9.5311 -1.9375 0.3033 0 1
2.7965 10.0648 -2.0215 0.2907 0 1
2.4989 10.6330 -2.1137 0.2757 0 1
2.1727 11.2590 -2.2190 0.2521 0 1
1.8118 11.9523 -2.3394 0.2391 0 1
1.4069 12.7101 -2.4747 0.2261 0 1
0.9512 13.5558 -2.6297 0.2120 0 1
0.4327 14.4869 -2.8047 0.1918 0 1
-0.1609 15.5745 -3.0141 0.1700 0 1
-0.8521 16.8528 -3.2655 0.1567 0 1
-1.6666 18.3217 -3.5602 0.1498 0 1
-2.6166 19.8740 -3.8792 0.1392 0 1
-3.7382 21.6347 -4.2487 0.1300 0 1
-5.0770 23.6699 -4.6847 0.1189 0 1
-6.6816 26.0063 -5.1961 0.1143 0 1
-8.6634 28.8552 -5.8302 0.0930 0 1
-11.3601 32.9652 -6.7475 0.0795 0 1
-14.8797 38.1306 -7.9209 0.0717 0 1
-19.0269 43.5093 -9.1897 0.0551 0 2
-17.7350 36.4865 -7.8507 0.9882 0 6
-15.9653 29.7431 -6.5326 0.5282 0 15
-16.1719 27.4231 -6.1609 0.5621 0 15
-16.8759 26.1548 -6.0236 0.8108 0 15
-26.9450 38.2902 -9.0606 0.5907 0 3
-28.6407 37.4102 -9.1176 0.6210 0 3
-31.3078 37.6570 -9.4769 0.7593 0 3
-28.8629 32.0074 -8.3405 0.6789 0 3
-28.9546 29.6237 -8.0163 0.7063 0 3
-17.5103 16.5307 -4.6600 0.7640 0 22
-18.9825 16.5296 -4.8710 0.6647 0 22
-27.7007 22.2290 -6.8732 0.0566 0 3
-29.2254 21.5808 -7.0305 0.8053 0 3
-29.2753 19.8509 -6.8449 0.8271 0 3
-29.3194 18.2053 -6.6786 0.8477 0 3
-31.3641 17.7700 -6.9760 0.4898 0 3
-32.1225 16.5313 -6.9912 0.4872 0 3
-38.1889 17.7502 -8.1495 0.9017 0 3
-44.1623 18.4066 -9.2588 0.9171 0 3
-27.6361 8.9904 -5.6240 0.9005 0 22
-27.6664 7.7859 -5.5619 0.9607 0 22
-31.3393 -16.6887 -6.8710 0.8623 0 22
-31.2621 -18.2966 -7.0097 0.8225 0 22
-32.0941 -33.7714 -9.0158 0.9957 0 20
-30.6483 -34.9619 -8.9973 0.9989 0 20
-17.1605 -40.7917 -8.5640 0.0591 0 2
-13.3955 -35.8032 -7.3976 0.0622 0 1
-10.1882 -30.9691 -6.3091 0.0808 0 1
-7.7162 -27.0748 -5.4481 0.0875 0 24
-5.8029 -23.9781 -4.7742 0.1021 0 1
-4.2951 -21.4916 -4.2412 0.1170 0 24
-3.1190 -19.6953 -3.8589 0.1332 0 1
-2.1376 -18.2070 -3.5476 0.1547 0 1
-1.2971 -16.8830 -3.2768 0.1625 0 1
-0.5744 -15.7372 -3.0475 0.1785 0 1
0.0545 -14.7098 -2.8466 0.1896 0 1
0.6066 -13.8076 -2.6746 0.2083 0 1
1.0921 -12.9568 -2.5163 0.2187 0 24
1.5282 -12.2328 -2.3857 0.2276 0 1
1.9047 -11.4757 -2.2511 0.2360 0 24
2.2504 -10.8415 -2.1427 0.2503 0 1
2.5574 -10.2350 -2.0415 0.2628 0 1
2.8341 -9.6716 -1.9503 0.2746 0 1
3.0851 -9.1487 -1.8684 0.2879 0 1
3.3135 -8.6600 -1.7943 0.2998 0 1
3.5230 -8.2036 -1.7277 0.3087 0 1
3.7149 -7.7733 -1.6672 0.3193 0 1
3.8918 -7.3670 -1.6124 0.3332 0 1
4.0545 -6.9806 -1.5622 0.3439 0 1
4.2042 -6.6114 -1.5162 0.3543 0 1
4.3373 -6.2510 -1.4724 0.3553 0 1
4.4484 -5.8908 -1.4285 0.3662 0 1
4.5497 -5.5467 -1.3883 0.3803 0 1
4.6446 -5.2197 -1.3521 0.3905 0 1
4.7314 -4.9053 -1.3189 0.4004 0 1
4.8108 -4.6022 -1.2884 0.4098 0 1
4.8816 -4.3079 -1.2599 0.4086 0 1
4.9440 -4.0215 -1.2333 0.4174 0 1
5.0079 -3.7495 -1.2106 0.4425 0 1
5.0729 -3.4891 -1.1915 0.4497 0 1
5.1341 -3.2352 -1.1743 0.4563 0 1
5.1904 -2.9863 -1.1588 0.4624 0 1
5.2421 -2.7418 -1.1448 0.4680 0 1
5.2894 -2.5012 -1.1323 0.4732 0 1
5.3325 -2.2641 -1.1211 0.4780 0 1
5.3717 -2.0301 -1.1113 0.4822 0 1
5.4070 -1.7986 -1.1027 0.4860 0 1
5.4386 -1.5695 -1.0954 0.4892 0 1
4.1537 -1.0198 -0.8277 0.8730 25 14
3.8365 -0.7799 -0.7576 0.9672 25 14
3.8349 -0.6203 -0.7518 0.9747 25 14
3.8332 -0.4629 -0.7472 0.9807 25 14
3.8314 -0.3071 -0.7438 0.9851 25 14
3.8297 -0.1525 -0.7417 0.9880 25 14
3.8263 0.0015 -0.7405 0.9979 25 14
3.8290 0.1555 -0.7416 0.9881 25 14
3.8300 0.3101 -0.7436 0.9854 25 14
3.8310 0.4657 -0.7468 0.9812 25 14
3.8319 0.6230 -0.7513 0.9754 25 14
3.8328 0.7824 -0.7570 0.9680 25 14
4.1827 1.0304 -0.8336 0.8668 25 14
5.5864 1.6169 -1.1254 0.4707 0 1
5.5748 1.8594 -1.1373 0.4658 0 1
5.5583 2.1057 -1.1502 0.4606 0 1
5.5301 2.3532 -1.1630 0.4556 0 1
5.4976 2.6050 -1.1773 0.4501 0 1
5.4606 2.8616 -1.1930 0.4441 0 1
5.4190 3.1235 -1.2104 0.4377 0 1
5.3724 3.3913 -1.2295 0.4309 0 1
5.3206 3.6657 -1.2503 0.4238 0 1
5.2632 3.9471 -1.2731 0.4162 0 1
5.2006 4.2371 -1.2981 0.4082 0 1
5.1238 4.5290 -1.3234 0.4119 0 1
5.0388 4.8281 -1.3505 0.4036 0 1
4.9464 5.1364 -1.3800 0.3950 0 1
4.8461 5.4549 -1.4120 0.3860 0 1
4.7375 5.7850 -1.4470 0.3750 0 1
4.6235 6.1329 -1.4863 0.3651 0 1
4.4989 6.4950 -1.5290 0.3925 0 1
4.3404 6.8377 -1.5673 0.3830 0 1
4.1703 7.1931 -1.6090 0.3730 0 1
3.9931 7.5732 -1.6568 0.3530 0 1
3.8086 7.9856 -1.7121 0.3416 0 1
3.6079 8.4198 -1.7727 0.3299 0 1
3.3883 8.8768 -1.8387 0.3239 0 1
3.1490 9.3628 -1.9116 0.3074 0 1
2.8881 9.8850 -1.9929 0.2949 0 1
-29.6365 37.6669 -9.8272 0.7742 0 3
-28.6386 33.5331 -9.0418 0.6620 0 3
-30.2514 32.6669 -9.1289 0.7234 0 3
-28.8375 28.7327 -8.3468 0.7171 0 3
-17.9764 16.5260 -5.0067 0.6626 0 22
-19.4704 16.5063 -5.2337 0.6671 0 22
-29.0561 22.6906 -7.5590 0.7918 0 3
-28.6051 20.5430 -7.2210 0.0611 0 3
-29.1647 19.2171 -7.1614 0.8358 0 3
-29.5017 17.7817 -7.0628 0.5115 0 3
-32.3420 17.7625 -7.5657 0.4775 0 3
-32.5873 16.2283 -7.4644 0.4824 0 3
-39.4706 17.7142 -8.8707 0.4072 0 3
-43.4658 17.4445 -9.6032 0.2881 0 3
-27.5376 9.7865 -5.9923 0.9530 0 22
-27.4985 8.5447 -5.9042 0.8458 0 6
-27.5595 7.3634 -5.8490 0.9413 0 22
-25.5414 -15.4061 -6.1159 0.8769 15 6
-32.8460 -32.7482 -9.5102 0.9975 0 20
-31.5616 -34.1042 -9.5277 0.9972 0 20
-18.2180 -27.4501 -6.7551 0.6592 0 6
-17.3671 -38.3568 -8.6333 0.0620 0 2
-13.7940 -34.0437 -7.5315 0.0628 0 1
-10.6450 -29.6418 -6.4578 0.0845 0 1
-8.2314 -26.1841 -5.6278 0.0872 0 1
-6.3003 -23.2716 -4.9434 0.1043 0 1
-4.7991 -21.0456 -4.4260 0.1209 0 1
-3.5808 -19.2399 -4.0127 0.1379 0 1
-2.5850 -17.8498 -3.6981 0.1569 0 1
-1.7265 -16.6008 -3.4222 0.1675 0 1
-0.9853 -15.5117 -3.1869 0.1804 0 1
-0.3377 -14.5287 -2.9798 0.1984 0 1
0.2317 -13.6675 -2.8028 0.2109 0 1
0.7368 -12.8803 -2.6453 0.2227 0 1
1.1867 -12.1538 -2.5039 0.2246 0 1
1.5843 -11.4472 -2.3695 0.2373 0 1
1.9349 -10.7726 -2.2442 0.2504 0 24
2.2601 -10.2072 -2.1436 0.2646 0 1
2.5494 -9.6572 -2.0479 0.2765 0 1
2.8117 -9.1447 -1.9617 0.2899 0 1
3.0509 -8.6664 -1.8838 0.3019 0 1
3.2689 -8.2158 -1.8130 0.3137 0 1
3.4690 -7.7916 -1.7488 0.3218 0 1
3.6544 -7.3933 -1.6910 0.3359 0 1
3.8250 -7.0141 -1.6381 0.3467 0 1
3.9821 -6.6515 -1.5896 0.3573 0 1
4.1270 -6.3041 -1.5449 0.3676 0 1
4.2487 -5.9535 -1.4997 0.3688 0 1
4.3571 -5.6138 -1.4571 0.3796 0 1
4.4580 -5.2904 -1.4185 0.3935 0 1
4.5508 -4.9799 -1.3832 0.4036 0 1
4.6358 -4.6805 -1.3507 0.4133 0 1
4.7111 -4.3889 -1.3202 0.4123 0 1
4.7787 -4.1059 -1.2918 0.4213 0 1
4.8430 -3.8339 -1.2665 0.4472 0 1
4.9118 -3.5770 -1.2459 0.4546 0 1
4.9758 -3.3261 -1.2272 0.4616 0 1
5.0356 -3.0808 -1.2104 0.4680 0 1
5.0906 -2.8398 -1.1952 0.4740 0 1
5.1410 -2.6028 -1.1815 0.4794 0 1
5.1871 -2.3693 -1.1693 0.4845 0 1
5.2291 -2.1389 -1.1584 0.4891 0 1
5.2671 -1.9113 -1.1489 0.4931 0 1
5.3013 -1.6859 -1.1406 0.4967 0 1
5.3318 -1.4624 -1.1336 0.4998 0 1
3.9182 -0.9071 -0.8246 0.6324 25 14
3.8340 -0.7267 -0.8001 0.9682 25 14
3.8323 -0.5679 -0.7944 0.9752 25 14
3.8306 -0.4112 -0.7899 0.9807 25 14
3.8289 -0.2559 -0.7868 0.9846 25 14
3.8235 -0.1015 -0.7842 0.9961 25 14
3.8222 0.0521 -0.7838 0.9967 25 14
3.8274 0.2062 -0.7859 0.9857 25 14
3.8284 0.3610 -0.7885 0.9825 25 14
3.8293 0.5171 -0.7923 0.9778 25 14
3.8302 0.6749 -0.7974 0.9715 25 14
3.8772 0.8451 -0.8136 0.6410 25 14
5.4702 1.4247 -1.1590 0.4909 0 1
5.4603 1.6591 -1.1701 0.4862 0 1
5.4466 1.8971 -1.1826 0.4811 0 1
5.4224 2.1367 -1.1950 0.4687 0 1
5.3921 2.3793 -1.2084 0.4635 0 1
5.3573 2.6260 -1.2233 0.4579 0 1
5.3180 2.8773 -1.2398 0.4518 0 1
5.2740 3.1337 -1.2579 0.4453 0 1
5.2248 3.3958 -1.2777 0.4384 0 1
5.1703 3.6640 -1.2993 0.4311 0 1
5.1103 3.9393 -1.3230 0.4234 0 1
5.0449 4.2226 -1.3489 0.4153 0 1
4.9662 4.5082 -1.3752 0.4190 0 1
4.8784 4.7999 -1.4033 0.4106 0 1
4.7832 5.1004 -1.4337 0.4019 0 1
4.6799 5.4104 -1.4668 0.3929 0 1
4.5692 5.7327 -1.5031 0.3817 0 1
4.4518 6.0707 -1.5435 0.3717 0 1
4.3240 6.4225 -1.5875 0.3614 0 1
4.1682 6.7627 -1.6288 0.3896 0 1
3.9958 7.1073 -1.6718 0.3796 0 1
3.8175 7.4787 -1.7217 0.3591 0 1
3.6299 7.8777 -1.7785 0.3476 0 1
3.4260 8.2970 -1.8405 0.3359 0 1
3.2039 8.7392 -1.9085 0.3240 0 1
2.9619 9.2081 -1.9833 0.3107 0 1
2.6969 9.7062 -2.0656 0.2983 0 1
2.4059 10.2373 -2.1562 0.2857 0 1
2.0861 10.8105 -2.2575 0.2709 0 1
1.7345 11.4424 -2.3729 0.2492 0 1
1.3436 12.1380 -2.5040 0.2362 0 1
0.8998 12.8238 -2.6359 0.2223 0 24
0.4102 13.7326 -2.8170 0.2092 0 1
-0.1515 14.6719 -3.0085 0.1890 0 1
-0.7990 15.8022 -3.2442 0.1669 0 1
-1.5539 17.0822 -3.5170 0.1573 0 1
-2.4280 18.4416 -3.8139 0.1478 0 1
-3.4507 19.9711 -4.1555 0.1373 0 1
-4.6515 21.6862 -4.5477 0.1266 0 1
-6.0873 23.6934 -5.0159 0.1188 0 1
-7.7927 25.9551 -5.5565 0.1116 0 1
-9.9787 28.9564 -6.2799 0.0887 0 1
-12.8635 32.9638 -7.2553 0.0809 0 1
-16.7740 38.3575 -8.5840 0.4372 0 2
-17.6830 36.3797 -8.2938 0.9274 0 6
-15.8464 29.5215 -6.8700 0.8548 0 15
-16.0430 27.2046 -6.4757 0.5625 0 15
-16.8366 26.0939 -6.3673 0.8443 0 15
-26.9167 35.1583 -9.0789 0.6232 0 3
-31.3068 37.6558 -10.0408 0.7577 0 3
-28.7108 31.8388 -8.7905 0.6809 0 3
-31.9182 32.6558 -9.3629 0.7053 0 3
-17.4891 16.5106 -4.9315 0.6408 0 22
-18.9796 16.5271 -5.1602 0.6633 0 22
-28.8910 23.1841 -7.5953 0.8927 0 3
-29.0955 21.4849 -7.4159 0.8071 0 3
-27.5541 18.6838 -6.8260 0.8289 0 3
-29.1955 18.1284 -7.0464 0.8494 0 3
-31.3625 17.7691 -7.3910 0.4888 0 3
-32.5683 16.7607 -7.5102 0.4542 0 3
-34.3438 15.9630 -7.7653 0.9839 0 3
-43.9899 18.3347 -9.7717 0.9186 0 3
-43.1517 15.9822 -9.4352 0.1081 0 3
-27.5245 8.9542 -5.9347 0.9623 0 22
-27.5611 7.7562 -5.8706 0.9657 0 22
-25.6157 -13.6408 -5.9505 0.8902 15 6
-25.5745 -14.9679 -6.0759 0.7446 15 6
-25.4002 -17.7488 -6.3535 0.7044 15 6
-32.0480 -33.7229 -9.5389 0.9951 0 20
-30.5817 -34.8860 -9.5123 0.9988 0 20
-23.4621 -41.0928 -9.7023 0.9845 0 20
-19.0223 -40.5739 -9.1882 0.0583 0 2
-15.1395 -35.9876 -8.0052 0.0637 0 1
-11.5653 -30.9114 -6.7671 0.0797 0 1
-8.9693 -27.2641 -5.8850 0.0879 0 1
-6.8775 -24.1318 -5.1450 0.0948 0 1
-5.2543 -21.7112 -4.5802 0.1132 0 1
-3.9576 -19.8028 -4.1407 0.1284 0 1
-2.8952 -18.2819 -3.7952 0.1529 0 1
-1.9950 -16.9925 -3.5081 0.1604 0 1
-1.2183 -15.8573 -3.2610 0.1765 0 1
-0.5417 -14.8426 -3.0453 0.1873 0 1
0.0517 -13.9420 -2.8587 0.2068 0 1
0.5769 -13.1318 -2.6951 0.2186 0 1
1.0444 -12.3904 -2.5495 0.2310 0 1
1.4583 -11.6732 -2.4121 0.2331 0 1
1.8221 -10.9778 -2.2817 0.2461 0 24
2.1582 -10.3971 -2.1773 0.2605 0 1
2.4573 -9.8342 -2.0784 0.2724 0 1
2.7278 -9.3090 -1.9890 0.2859 0 1
2.9745 -8.8207 -1.9087 0.2980 0 1
3.1993 -8.3614 -1.8356 0.3098 0 1
3.4045 -7.9278 -1.7691 0.3187 0 1
3.5949 -7.5222 -1.7094 0.3322 0 1
3.7703 -7.1371 -1.6550 0.3432 0 1
3.9318 -6.7692 -1.6051 0.3538 0 1
4.0805 -6.4170 -1.5592 0.3642 0 1
4.2109 -6.0688 -1.5145 0.3652 0 1
4.3224 -5.7241 -1.4707 0.3761 0 1
4.4256 -5.3954 -1.4308 0.3901 0 1
4.5211 -5.0809 -1.3945 0.4003 0 1
4.6086 -4.7780 -1.3611 0.4101 0 1
4.6874 -4.4842 -1.3301 0.4092 0 1
4.7571 -4.1981 -1.3009 0.4184 0 1
4.8205 -3.9210 -1.2741 0.4272 0 1
4.8898 -3.6610 -1.2525 0.4522 0 1
4.9550 -3.4080 -1.2331 0.4594 0 1
5.0164 -3.1611 -1.2158 0.4659 0 1
5.0730 -2.9188 -1.2000 0.4720 0 1
5.1249 -2.6805 -1.1859 0.4777 0 1
5.1724 -2.4459 -1.1731 0.4829 0 1
5.2157 -2.2145 -1.1618 0.4876 0 1
5.2550 -1.9860 -1.1519 0.4919 0 1
5.2905 -1.7599 -1.1432 0.4956 0 1
5.3222 -1.5359 -1.1358 0.4988 0 1
4.1354 -1.0153 -0.8731 0.9714 25 14
3.8345 -0.7795 -0.8023 0.9656 25 14
3.8329 -0.6200 -0.7961 0.9731 25 14
3.8312 -0.4627 -0.7913 0.9791 25 14
3.8295 -0.3070 -0.7877 0.9835 25 14
3.8253 -0.1523 -0.7850 0.9952 25 14
3.8203 0.0015 -0.7833 0.9973 25 14
3.8259 0.1554 -0.7851 0.9950 25 14
3.8281 0.3099 -0.7875 0.9838 25 14
3.8290 0.4655 -0.7909 0.9795 25 14
3.8299 0.6227 -0.7956 0.9737 25 14
3.8308 0.7820 -0.8017 0.9664 25 14
4.1495 1.0223 -0.8763 0.8718 25 14
5.4640 1.5815 -1.1663 0.4878 0 1
5.4515 1.8183 -1.1783 0.4828 0 1
5.4316 2.0576 -1.1909 0.4706 0 1
5.4025 2.2989 -1.2039 0.4653 0 1
5.3693 2.5442 -1.2183 0.4598 0 1
5.3315 2.7940 -1.2342 0.4539 0 1
5.2890 3.0487 -1.2517 0.4475 0 1
5.2416 3.3088 -1.2710 0.4407 0 1
5.1889 3.5749 -1.2920 0.4335 0 1
5.1306 3.8477 -1.3149 0.4260 0 1
5.0671 4.1284 -1.3401 0.4180 0 1
4.9936 4.4138 -1.3665 0.4217 0 1
4.9081 4.7029 -1.3938 0.4134 0 1
4.8154 5.0004 -1.4234 0.4048 0 1
4.7149 5.3071 -1.4556 0.3959 0 1
4.6058 5.6242 -1.4905 0.3866 0 1
4.4916 5.9579 -1.5299 0.3750 0 1
4.3673 6.3050 -1.5726 0.3648 0 1
4.2224 6.6518 -1.6155 0.3928 0 1
4.0539 6.9924 -1.6572 0.3829 0 1
3.8761 7.3514 -1.7040 0.3628 0 1
3.6934 7.7441 -1.7592 0.3515 0 1
3.4950 8.1564 -1.8195 0.3398 0 1
3.2792 8.5908 -1.8854 0.3279 0 1
3.0438 9.0498 -1.9577 0.3174 0 1
2.7869 9.5387 -2.0376 0.3024 0 1
-29.6356 37.6658 -10.3816 0.7724 0 3
-28.4835 33.3515 -9.5005 0.6641 0 3
-30.2504 32.6658 -9.6439 0.7218 0 3
-28.6933 28.5890 -8.7739 0.7191 0 3
-30.0993 27.6708 -8.8564 0.6665 0 3
-19.4894 16.5224 -5.5346 0.6297 0 22
-28.9244 22.5878 -7.9496 0.7936 0 3
-28.9854 20.8162 -7.7300 0.8161 0 3
-29.0395 19.1346 -7.5331 0.8374 0 3
-28.8769 17.4050 -7.3035 0.0732 0 3
-32.3404 17.7616 -7.9923 0.4764 0 3
-33.1321 16.4996 -8.0176 0.4644 0 3
-39.1144 17.5543 -9.2869 0.9824 0 3
-44.0513 17.6794 -10.2819 0.3703 0 3
-27.4236 9.7460 -6.3043 0.8872 0 22
-27.3948 8.5125 -6.2140 0.9205 0 6
-27.4604 7.3369 -6.1569 0.9470 0 22
-25.6851 -9.1377 -5.9053 0.4177 15 6
-31.0234 -17.0516 -7.6683 0.9758 0 6
-25.3679 -16.7274 -6.5821 0.8777 15 6
-32.9618 -32.8637 -10.0824 0.9923 0 20
-31.4332 -33.9655 -10.0246 0.9670 0 20
-31.3539 -36.7369 -10.4619 0.2126 0 20
-18.1853 -27.4009 -7.1236 0.6673 0 6
-19.0615 -37.9609 -9.2013 0.0613 0 2
-15.4345 -34.0885 -8.1057 0.0646 0 1
-11.9418 -29.4724 -6.8883 0.0825 0 1
-9.4112 -26.2061 -6.0316 0.0857 0 1
-7.3388 -23.3447 -5.3008 0.1025 0 1
-5.6921 -21.0248 -4.7182 0.1179 0 24
-4.4064 -19.3234 -4.2932 0.1305 0 1
-3.3297 -17.8906 -3.9419 0.1552 0 1
-2.4153 -16.6784 -3.6505 0.1655 0 1
-1.6225 -15.6015 -3.3977 0.1786 0 1
-0.9298 -14.6383 -3.1772 0.1893 0 1
-0.3204 -13.7819 -2.9861 0.2086 0 1
0.2202 -12.9876 -2.8137 0.2202 0 24
0.7029 -12.2874 -2.6660 0.2329 0 1
1.1288 -11.5606 -2.5161 0.2342 0 24
1.5158 -10.9526 -2.3951 0.2475 0 1
1.8553 -10.3297 -2.2734 0.2604 0 24
2.1720 -9.8092 -2.1763 0.2742 0 1
2.4542 -9.2965 -2.0827 0.2865 0 1
2.7114 -8.8183 -1.9984 0.2999 0 1
2.9461 -8.3689 -1.9219 0.3119 0 1
3.1608 -7.9440 -1.8520 0.3237 0 1
3.3580 -7.5424 -1.7884 0.3377 0 1
3.5409 -7.1638 -1.7310 0.3458 0 1
3.7099 -6.8029 -1.6785 0.3566 0 1
3.8657 -6.4571 -1.6302 0.3672 0 1
4.0096 -6.1248 -1.5857 0.3775 0 1
4.1290 -5.7858 -1.5397 0.3786 0 1
4.2384 -5.4609 -1.4974 0.3929 0 1
4.3401 -5.1505 -1.4590 0.4033 0 1
4.4333 -4.8514 -1.4236 0.4133 0 1
4.5167 -4.5602 -1.3903 0.4126 0 1
4.5917 -4.2777 -1.3594 0.4220 0 1
4.6601 -4.0040 -1.3309 0.4310 0 1
4.7297 -3.7442 -1.3067 0.4569 0 1
4.7987 -3.4946 -1.2859 0.4643 0 1
4.8628 -3.2506 -1.2670 0.4712 0 1
4.9228 -3.0117 -1.2501 0.4776 0 1
4.9780 -2.7770 -1.2347 0.4835 0 1
5.0286 -2.5459 -1.2209 0.4890 0 1
5.0748 -2.3180 -1.2085 0.4940 0 1
5.1169 -2.0930 -1.1975 0.4986 0 1
5.1550 -1.8706 -1.1879 0.5027 0 1
5.1893 -1.6502 -1.1795 0.5063 0 1
5.2198 -1.4317 -1.1724 0.5093 0 1
3.9155 -0.9065 -0.8706 0.6314 25 14
3.8320 -0.7263 -0.8448 0.9665 25 14
3.8303 -0.5677 -0.8388 0.9735 25 14
3.8282 -0.4109 -0.8340 0.9873 25 14
3.8229 -0.2555 -0.8299 0.9921 25 14
3.8174 -0.1014 -0.8272 0.9954 25 14
3.8161 0.0521 -0.8267 0.9960 25 14
3.8217 0.2059 -0.8290 0.9932 25 14
3.8264 0.3608 -0.8325 0.9807 25 14
3.8274 0.5168 -0.8366 0.9760 25 14
3.8282 0.6745 -0.8420 0.9697 25 14
3.8767 0.8449 -0.8594 0.6396 25 14
5.3534 1.3943 -1.1983 0.5004 0 1
5.3425 1.6233 -1.2095 0.4958 0 1
5.3277 1.8557 -1.2221 0.4834 0 1
5.3006 2.0887 -1.2341 0.4784 0 1
5.2695 2.3252 -1.2476 0.4732 0 1
5.2341 2.5656 -1.2627 0.4676 0 1
5.1941 2.8103 -1.2792 0.4615 0 1
5.1493 3.0597 -1.2975 0.4550 0 1
5.0995 3.3143 -1.3174 0.4481 0 1
5.0442 3.5747 -1.3392 0.4408 0 1
4.9835 3.8415 -1.3630 0.4332 0 1
4.9173 4.1158 -1.3890 0.4251 0 1
4.8417 4.3952 -1.4165 0.4288 0 1
4.7537 4.6772 -1.4446 0.4204 0 1
4.6583 4.9672 -1.4751 0.4117 0 1
4.5550 5.2660 -1.5082 0.4027 0 1
4.4440 5.5756 -1.5444 0.3915 0 1
4.3266 5.9000 -1.5848 0.3815 0 1
4.1991 6.2370 -1.6287 0.3713 0 1
4.0564 6.5813 -1.6746 0.3994 0 1
3.8859 6.9118 -1.7176 0.3894 0 1
3.7073 7.2627 -1.7663 0.3689 0 1
3.5217 7.6429 -1.8229 0.3575 0 1
3.3204 8.0414 -1.8845 0.3458 0 1
3.1017 8.4603 -1.9519 0.3339 0 1
2.8634 8.9021 -2.0256 0.3206 0 1
2.6036 9.3707 -2.1067 0.3083 0 1
2.3192 9.8685 -2.1959 0.2957 0 1
2.0071 10.4008 -2.2945 0.2809 0 1
1.6641 10.9783 -2.4052 0.2680 0 1
1.2855 11.6129 -2.5309 0.2463 0 1
0.8588 12.2390 -2.6577 0.2356 0 24
0.3902 13.0642 -2.8311 0.2194 0 1
-0.1435 13.8898 -3.0089 0.2064 0 1
-0.7510 14.8526 -3.2214 0.1772 0 1
-1.4495 15.9346 -3.4659 0.1654 0 24
-2.2626 17.1854 -3.7547 0.1553 0 1
-3.1999 18.5191 -4.0709 0.1460 0 1
-4.2887 19.9949 -4.4297 0.1348 0 1
-5.5722 21.6883 -4.8506 0.1251 0 1
-7.0886 23.6102 -5.3398 0.1168 0 1
-8.9326 25.9210 -5.9389 0.1041 0 1
-11.2880 28.9265 -6.7261 0.0865 0 1
-14.2998 32.6996 -7.7308 0.0752 0 1
-17.5411 36.0876 -8.6916 0.0649 0 2
-15.7149 29.2766 -7.1976 0.5243 0 15
-15.9272 27.0082 -6.7919 0.5687 0 15
-16.8142 26.0592 -6.7178 0.8172 0 15
-26.4723 37.6185 -9.9641 0.9986 0 3
-28.3121 36.9810 -10.0886 0.6254 0 3
-27.2054 32.7226 -9.2179 0.1496 0 3
-28.5616 31.6733 -9.2384 0.9737 0 3
-31.9171 32.6546 -9.8910 0.7037 0 3
-28.7530 27.1443 -8.5653 0.7366 0 3
-18.9631 16.5127 -5.4467 0.2794 0 22
-28.9051 23.1954 -8.0280 0.7859 0 3
-28.9661 21.3893 -7.7997 0.8088 0 3
-29.0224 19.6794 -7.5956 0.8305 0 3
-29.0722 18.0519 -7.4127 0.8510 0 3
-28.5013 16.1480 -7.0958 0.4876 0 3
-34.1689 17.5844 -8.3241 0.9903 0 3
-38.1288 17.7222 -9.1078 0.4180 0 3
-42.8236 17.8486 -10.0496 0.9201 0 3
-27.4290 8.9231 -6.2480 0.9563 0 22
-27.4469 7.7241 -6.1763 0.9651 0 22
-21.4569 -4.5280 -4.7502 0.3749 16 6
-25.6521 -9.9125 -5.9570 0.7569 15 6
-31.0903 -16.5562 -7.6300 0.8971 0 22
-31.0386 -18.1658 -7.7902 0.9245 0 22
-25.3011 -17.6796 -6.6860 0.9984 15 6
-31.9741 -33.6451 -10.0541 0.9960 0 20
-30.3139 -34.5805 -9.9613 0.9746 0 20
-20.8057 -40.1014 -9.7860 0.0577 0 2
-16.5383 -35.2757 -8.4393 0.4665 0 2
-12.9588 -30.8039 -7.2390 0.0744 0 1
-10.1929 -27.2433 -6.3008 0.0901 0 1
-7.9602 -24.1966 -5.5176 0.0952 0 1
-6.2100 -21.7896 -4.9079 0.1103 0 1
-4.8113 -19.8808 -4.4308 0.1265 0 1
-3.6630 -18.3289 -4.0488 0.1495 0 1
-2.7027 -17.0661 -3.7428 0.1585 0 1
-1.8716 -15.9415 -3.4769 0.1745 0 1
-1.1483 -14.9463 -3.2471 0.1869 0 1
-0.5130 -14.0540 -3.0463 0.2045 0 1
0.0491 -13.2525 -2.8707 0.2163 0 1
0.5498 -12.5164 -2.7138 0.2288 0 1
0.9964 -11.8213 -2.5697 0.2304 0 1
1.3942 -11.1601 -2.4362 0.2433 0 1
1.7506 -10.5471 -2.3159 0.2581 0 1
2.0728 -9.9858 -2.2092 0.2701 0 1
2.3642 -9.4617 -2.1125 0.2825 0 1
2.6292 -8.9723 -2.0252 0.2960 0 1
2.8711 -8.5141 -1.9463 0.3080 0 1
3.0921 -8.0815 -1.8743 0.3198 0 1
3.2948 -7.6722 -1.8087 0.3347 0 1
3.4822 -7.2862 -1.7493 0.3422 0 1
3.6557 -6.9201 -1.6953 0.3531 0 1
3.8157 -6.5695 -1.6457 0.3637 0 1
3.9635 -6.2329 -1.6000 0.3741 0 1
4.0911 -5.8962 -1.5545 0.3750 0 1
4.2030 -5.5658 -1.5108 0.3894 0 1
4.3076 -5.2515 -1.4713 0.3999 0 1
4.4035 -4.9487 -1.4349 0.4100 0 1
4.4904 -4.6554 -1.4011 0.4094 0 1
4.5677 -4.3698 -1.3693 0.4190 0 1
4.6383 -4.0933 -1.3400 0.4281 0 1
4.7057 -3.8277 -1.3140 0.4543 0 1
4.7766 -3.5762 -1.2925 0.4619 0 1
4.8419 -3.3302 -1.2730 0.4690 0 1
4.9036 -3.0900 -1.2555 0.4756 0 1
4.9603 -2.8539 -1.2396 0.4816 0 1
5.0124 -2.6216 -1.2253 0.4873 0 1
5.0600 -2.3928 -1.2124 0.4924 0 1
5.1035 -2.1669 -1.2010 0.4972 0 1
5.1429 -1.9436 -1.1909 0.5014 0 1
5.1784 -1.7226 -1.1822 0.5051 0 1
5.2102 -1.5035 -1.1746 0.5084 0 1
4.1227 -1.0122 -0.9196 0.9721 25 14
3.8325 -0.7791 -0.8472 0.9638 25 14
3.8309 -0.6197 -0.8406 0.9713 25 14
3.8292 -0.4624 -0.8355 0.9773 25 14
3.8246 -0.3066 -0.8311 0.9907 25 14
3.8192 -0.1521 -0.8279 0.9945 25 14
3.8143 0.0015 -0.8262 0.9966 25 14
3.8199 0.1551 -0.8281 0.9943 25 14
3.8253 0.3097 -0.8313 0.9905 25 14
3.8271 0.4652 -0.8351 0.9777 25 14
3.8280 0.6223 -0.8401 0.9720 25 14
3.8291 0.7816 -0.8465 0.6494 25 14
4.1292 1.0173 -0.9212 0.9704 25 14
5.3465 1.5475 -1.2057 0.4974 0 1
5.3332 1.7788 -1.2178 0.4924 0 1
5.3100 2.0116 -1.2300 0.4803 0 1
5.2802 2.2469 -1.2430 0.4750 0 1
5.2463 2.4860 -1.2575 0.4695 0 1
5.2078 2.7292 -1.2736 0.4635 0 1
5.1646 2.9770 -1.2913 0.4572 0 1
5.1165 3.2298 -1.3106 0.4504 0 1
5.0630 3.4882 -1.3318 0.4433 0 1
5.0040 3.7528 -1.3549 0.4357 0 1
4.9398 4.0246 -1.3802 0.4278 0 1
4.8692 4.3039 -1.4077 0.4315 0 1
4.7835 4.5835 -1.4351 0.4232 0 1
4.6906 4.8708 -1.4648 0.4146 0 1
4.5900 5.1666 -1.4970 0.4057 0 1
4.4809 5.4717 -1.5320 0.3965 0 1
4.3664 5.7918 -1.5712 0.3849 0 1
4.2423 6.1245 -1.6138 0.3747 0 1
4.1074 6.4706 -1.6602 0.3642 0 1
3.9434 6.8017 -1.7031 0.3927 0 1
3.7653 7.1412 -1.7487 0.3726 0 1
3.5845 7.5157 -1.8037 0.3613 0 1
3.3886 7.9079 -1.8636 0.3497 0 1
3.1758 8.3199 -1.9290 0.3378 0 1
2.9424 8.7484 -1.9993 0.3011 0 1
2.6918 9.2132 -2.0791 0.3123 0 1
-29.6346 37.6646 -10.9386 0.7705 0 3
-28.3294 33.1711 -9.9564 0.6660 0 3
-30.2494 32.6647 -10.1613 0.7200 0 3
-28.5499 28.4461 -9.1987 0.7209 0 3
-30.0982 27.6698 -9.3316 0.6649 0 3
-27.0304 22.9154 -8.0882 0.4729 0 3
-28.7933 22.4855 -8.3384 0.7952 0 3
-28.8577 20.7244 -8.1091 0.8177 0 3
-28.9148 19.0524 -7.9035 0.8390 0 3
-29.4989 17.7800 -7.8614 0.5091 0 3
-29.1774 16.0245 -7.5978 0.7682 0 3
-33.6380 16.7516 -8.5770 0.4406 0 3
-39.4659 17.7121 -9.8734 0.4053 0 3
-44.0484 17.6783 -10.8332 0.3694 0 3
-27.3007 9.7023 -6.6130 0.9167 0 22
-27.3176 8.4885 -6.5291 0.5002 0 6
-27.3531 7.3082 -6.4622 0.9639 0 22
-46.9683 6.6431 -10.8269 0.3755 0 6
-33.0717 -32.9732 -10.6592 0.9559 0 20
-31.3750 -33.9026 -10.5432 0.9678 0 20
-30.8997 -36.2048 -10.8640 0.3820 0 20
-20.6609 -37.3262 -9.7375 0.0609 0 2
-16.5527 -32.9647 -8.4192 0.4921 0 2
-13.2586 -29.2828 -7.3368 0.0778 0 1
-10.5597 -26.0613 -6.4181 0.0906 0 1
-8.3818 -23.3397 -5.6602 0.1005 0 1
-6.6127 -21.0348 -5.0327 0.1167 0 24
-5.2395 -19.3532 -4.5763 0.1287 0 1
-4.0863 -17.9194 -4.1950 0.1517 0 1
-3.1117 -16.7193 -3.8816 0.1636 0 1
-2.2676 -15.6583 -3.6112 0.1766 0 1
-1.5301 -14.7128 -3.3762 0.1889 0 1
-0.8812 -13.8731 -3.1728 0.2064 0 1
-0.3046 -13.1050 -2.9919 0.2188 0 1
0.2102 -12.3969 -2.8299 0.2306 0 1
0.6706 -11.7220 -2.6798 0.2323 0 1
1.0829 -11.0909 -2.5435 0.2447 0 1
1.4528 -10.4968 -2.4187 0.2576 0 1
1.7871 -9.9496 -2.3073 0.2719 0 1
2.0901 -9.4391 -2.2066 0.2843 0 1
2.3655 -8.9605 -2.1152 0.2979 0 1
2.6175 -8.5130 -2.0328 0.3099 0 1
2.8479 -8.0899 -1.9575 0.3219 0 1
3.0594 -7.6892 -1.8888 0.3369 0 1
3.2544 -7.3097 -1.8263 0.3476 0 1
3.4338 -6.9471 -1.7688 0.3557 0 1
3.6010 -6.6032 -1.7167 0.3665 0 1
3.7554 -6.2728 -1.6687 0.3771 0 1
3.8967 -5.9523 -1.6238 0.3773 0 1
4.0154 -5.6265 -1.5777 0.3884 0 1
4.1259 -5.3159 -1.5359 0.4026 0 1
4.2277 -5.0171 -1.4975 0.4130 0 1
4.3192 -4.7265 -1.4614 0.4126 0 1
4.4020 -4.4445 -1.4278 0.4223 0 1
4.4777 -4.1715 -1.3968 0.4317 0 1
4.5468 -3.9066 -1.3682 0.4407 0 1
4.6210 -3.6582 -1.3452 0.4665 0 1
4.6901 -3.4156 -1.3243 0.4738 0 1
4.7543 -3.1780 -1.3053 0.4808 0 1
4.8144 -2.9454 -1.2882 0.4872 0 1
4.8697 -2.7166 -1.2727 0.4931 0 1
4.9204 -2.4911 -1.2588 0.4985 0 1
4.9667 -2.2686 -1.2463 0.5036 0 1
5.0089 -2.0489 -1.2352 0.5081 0 1
5.0471 -1.8314 -1.2255 0.5122 0 1
5.0814 -1.6159 -1.2170 0.5157 0 1
5.1119 -1.4021 -1.2098 0.5188 0 1
3.9167 -0.9068 -0.9176 0.5939 25 14
3.8300 -0.7259 -0.8897 0.9646 25 14
3.8272 -0.5672 -0.8831 0.9801 25 14
3.8220 -0.4103 -0.8774 0.9864 25 14
3.8167 -0.2551 -0.8731 0.9913 25 14
3.8112 -0.1012 -0.8702 0.9945 25 14
3.8101 0.0520 -0.8697 0.9951 25 14
3.8156 0.2056 -0.8721 0.9923 25 14
3.8210 0.3603 -0.8760 0.9880 25 14
3.8254 0.5165 -0.8810 0.9741 25 14
3.8263 0.6742 -0.8868 0.9678 25 14
3.8761 0.8448 -0.9055 0.6381 25 14
5.2409 1.3650 -1.2361 0.5099 0 1
5.2292 1.5889 -1.2474 0.5053 0 1
5.2113 1.8152 -1.2595 0.4930 0 1
5.1836 2.0426 -1.2717 0.4883 0 1
5.1519 2.2733 -1.2853 0.4828 0 1
5.1159 2.5077 -1.3004 0.4772 0 1
5.0753 2.7460 -1.3171 0.4711 0 1
5.0299 2.9887 -1.3354 0.4647 0 1
4.9794 3.2363 -1.3555 0.4578 0 1
4.9236 3.4892 -1.3773 0.4505 0 1
4.8623 3.7481 -1.4012 0.4429 0 1
4.7955 4.0139 -1.4273 0.4348 0 1
4.7223 4.2868 -1.4557 0.4263 0 1
4.6347 4.5601 -1.4840 0.4302 0 1
4.5393 4.8403 -1.5146 0.4215 0 1
4.4361 5.1285 -1.5477 0.4125 0 1
4.3249 5.4262 -1.5838 0.4013 0 1
4.2077 5.7379 -1.6240 0.3913 0 1
4.0806 6.0610 -1.6677 0.3811 0 1
3.9426 6.3966 -1.7150 0.3706 0 1
3.7814 6.7260 -1.7611 0.3992 0 1
3.6027 7.0580 -1.8087 0.3787 0 1
3.4193 7.4207 -1.8649 0.3673 0 1
3.2207 7.7999 -1.9261 0.3556 0 1
3.0028 8.1907 -1.9911 0.3359 0 1
2.7655 8.5977 -2.0614 0.3069 0 1
2.5162 9.0561 -2.1453 0.3182 0 1
2.2382 9.5237 -2.2329 0.3057 0 1
1.9336 10.0203 -2.3293 0.2930 0 1
1.6003 10.5568 -2.4371 0.2780 0 1
1.2276 11.0898 -2.5466 0.2709 0 24
0.8220 11.7149 -2.6804 0.2530 0 24
0.3721 12.4551 -2.8441 0.2295 0 1
-0.1357 13.1345 -2.9980 0.2201 0 24
-0.7092 14.0260 -3.2054 0.1966 0 1
-1.3656 15.0126 -3.4407 0.1755 0 1
-2.1086 16.0156 -3.6870 0.1641 0 24
-2.9790 17.2408 -3.9934 0.1556 0 1
-3.9745 18.5298 -4.3255 0.1474 0 1
-5.1292 19.9642 -4.7047 0.1334 0 1
-6.4837 21.5952 -5.1463 0.1258 0 1
-8.0787 23.4431 -5.6595 0.1113 0 1
-10.0675 25.7989 -6.3209 0.1028 0 1
-12.5763 28.7585 -7.1641 0.0889 0 1
-15.6459 32.1886 -8.1687 0.0799 0 1
-15.6270 29.1128 -7.5416 0.5222 0 15
-15.8206 26.8274 -7.1086 0.5709 0 15
-16.7987 26.0352 -7.0720 0.8216 0 15
-27.9923 39.7784 -11.1019 0.5973 0 3
-28.1495 36.7686 -10.5692 0.6274 0 3
-27.3972 32.9534 -9.7813 0.1270 0 3
-23.0730 25.5868 -7.8638 0.7611 0 5
-31.9160 32.6535 -10.4217 0.7020 0 3
-28.6126 27.0118 -8.9811 0.7384 0 3
-31.7629 27.6586 -9.6130 0.6454 0 3
-28.7728 23.0893 -8.4203 0.7875 0 3
-28.8373 21.2942 -8.1819 0.8104 0 3
-28.8967 19.5942 -7.9688 0.8321 0 3
-28.9493 17.9755 -7.7777 0.8525 0 3
-28.8350 16.3371 -7.5643 0.4545 0 3
-34.4830 17.7460 -8.8516 0.4521 0 3
-38.1266 17.7212 -9.5962 0.4170 0 3
-42.6561 17.7788 -10.5478 0.9214 0 3
-27.3378 8.8934 -6.5616 0.9339 0 22
-27.3363 7.6930 -6.4817 0.9642 0 22
-46.9658 7.2784 -10.8476 0.8043 0 6
-30.9535 -16.4833 -8.0042 0.9090 0 22
-30.9003 -18.0849 -8.1719 0.8389 0 22
-25.2454 -17.6407 -7.0295 0.7043 15 6
-31.9277 -33.5963 -10.5785 0.9632 0 20
-30.2623 -34.5216 -10.4782 0.9738 0 20
-22.4733 -39.3610 -10.3451 0.0573 0 2
-17.5293 -33.7864 -8.6876 0.0683 0 2
-14.3535 -30.6156 -7.7177 0.0672 0 1
-11.3650 -27.0153 -6.6895 0.0894 0 1
-9.0467 -24.1797 -5.8925 0.0937 0 1
-7.1744 -21.8081 -5.2400 0.1086 0 1
-5.6718 -19.9013 -4.7232 0.1241 0 1
-4.4426 -18.3572 -4.3109 0.1422 0 1
-3.4168 -17.0968 -3.9794 0.1599 0 1
-2.5330 -15.9945 -3.6961 0.1718 0 1
-1.7626 -15.0135 -3.4503 0.1848 0 1
-1.0865 -14.1418 -3.2373 0.2023 0 1
-0.4873 -13.3505 -3.0492 0.2147 0 1
0.0468 -12.6237 -2.8813 0.2265 0 1
0.5245 -11.9402 -2.7279 0.2290 0 1
0.9519 -11.2934 -2.5868 0.2406 0 1
1.3352 -10.6880 -2.4584 0.2534 0 1
1.6806 -10.1253 -2.3426 0.2682 0 1
1.9876 -9.5752 -2.2321 0.2789 0 24
2.2775 -9.1148 -2.1444 0.2925 0 1
2.5370 -8.6576 -2.0591 0.3060 0 1
2.7742 -8.2267 -1.9816 0.3180 0 1
2.9915 -7.8185 -1.9107 0.3298 0 1
3.1920 -7.4330 -1.8464 0.3438 0 1
3.3761 -7.0644 -1.7871 0.3552 0 1
3.5474 -6.7150 -1.7334 0.3630 0 1
3.7059 -6.3803 -1.6841 0.3736 0 1
3.8524 -6.0582 -1.6386 0.3840 0 1
3.9774 -5.7323 -1.5925 0.3848 0 1
4.0904 -5.4168 -1.5492 0.3992 0 1
4.1951 -5.1144 -1.5098 0.4096 0 1
4.2903 -4.8215 -1.4731 0.4093 0 1
4.3756 -4.5364 -1.4386 0.4192 0 1
4.4535 -4.2605 -1.4067 0.4286 0 1
4.5247 -3.9930 -1.3774 0.4378 0 1
4.5970 -3.7393 -1.3525 0.4639 0 1
4.6680 -3.4949 -1.3310 0.4714 0 1
4.7334 -3.2556 -1.3112 0.4785 0 1
4.7952 -3.0216 -1.2936 0.4851 0 1
4.8520 -2.7916 -1.2776 0.4912 0 1
4.9042 -2.5650 -1.2632 0.4968 0 1
4.9519 -2.3416 -1.2502 0.5020 0 1
4.9954 -2.1210 -1.2387 0.5067 0 1
5.0349 -1.9028 -1.2285 0.5109 0 1
5.0705 -1.6867 -1.2197 0.5146 0 1
5.1022 -1.4724 -1.2121 0.5178 0 1
4.1100 -1.0091 -0.9659 0.9727 25 14
3.8305 -0.7787 -0.8922 0.9620 25 14
3.8288 -0.6193 -0.8853 0.9776 25 14
3.8237 -0.4617 -0.8791 0.9845 25 14
3.8185 -0.3061 -0.8743 0.9898 25 14
3.8130 -0.1518 -0.8710 0.9936 25 14
3.8082 0.0015 -0.8692 0.9957 25 14
3.8138 0.1549 -0.8712 0.9934 25 14
3.8192 0.3092 -0.8746 0.9896 25 14
3.8245 0.4649 -0.8793 0.9842 25 14
3.8260 0.6220 -0.8847 0.9701 25 14
3.8286 0.7815 -0.8919 0.6479 25 14
4.1164 1.0141 -0.9676 0.9710 25 14
5.2335 1.5148 -1.2435 0.5069 0 1
5.2193 1.7408 -1.2558 0.5019 0 1
5.1931 1.9673 -1.2675 0.4899 0 1
5.1628 2.1969 -1.2806 0.4846 0 1
5.1283 2.4300 -1.2953 0.4791 0 1
5.0892 2.6670 -1.3114 0.4732 0 1
5.0454 2.9082 -1.3292 0.4669 0 1
4.9966 3.1541 -1.3487 0.4601 0 1
4.9426 3.4052 -1.3699 0.4530 0 1
4.8829 3.6620 -1.3931 0.4454 0 1
4.8182 3.9255 -1.4185 0.4375 0 1
4.7471 4.1960 -1.4461 0.4291 0 1
4.6645 4.4694 -1.4745 0.4330 0 1
4.5716 4.7471 -1.5042 0.4244 0 1
4.4710 5.0326 -1.5365 0.4155 0 1
4.3621 5.3266 -1.5714 0.4062 0 1
4.2474 5.6340 -1.6104 0.3947 0 1
4.1236 5.9532 -1.6529 0.3845 0 1
3.9893 6.2846 -1.6990 0.3741 0 1
3.8382 6.6203 -1.7466 0.4025 0 1
3.6616 6.9446 -1.7919 0.3923 0 1
3.4813 7.2994 -1.8458 0.3711 0 1
3.2879 7.6730 -1.9053 0.3595 0 1
3.0775 8.0625 -1.9697 0.3395 0 1
2.8446 8.4576 -2.0367 0.3284 0 1
2.6026 8.9079 -2.1182 0.3223 0 1
-29.6337 37.6634 -11.4985 0.7685 0 3
-28.1762 32.9916 -10.4097 0.6679 0 3
-23.0077 24.8448 -8.1245 0.6973 0 5
-23.0918 23.0079 -7.8212 0.6971 0 5
-30.0971 27.6688 -9.8091 0.6632 0 3
-28.4363 24.1072 -8.9446 0.8642 0 3
-28.6628 22.3835 -8.7257 0.7968 0 3
-28.5896 20.5319 -8.4452 0.7164 0 3
-28.7905 18.9705 -8.2725 0.8404 0 3
-27.1071 16.3383 -7.5939 0.7448 0 3
-32.3370 17.7597 -8.8518 0.4740 0 3
-35.6175 17.7373 -9.5468 0.4395 0 3
-39.4635 17.7110 -10.3784 0.4043 0 3
-43.6729 17.5276 -11.2910 0.9814 0 3
-27.2033 9.6677 -6.9269 0.9299 0 22
-27.2443 7.2792 -6.7661 0.9610 0 22
-33.0058 -32.9075 -11.1827 0.9553 0 20
-31.2408 -33.7576 -11.0358 0.9063 0 20
-30.6255 -35.8835 -11.3190 0.3870 0 20
-23.8414 -30.3221 -9.2548 0.3237 0 20
-28.0321 -38.7617 -11.4774 0.6192 0 20
-25.1819 -37.9431 -10.9263 0.8179 0 9
-22.1326 -36.4469 -10.2309 0.0608 0 2
-17.5479 -31.7022 -8.6939 0.0715 0 2
-14.5646 -29.0055 -7.7874 0.0699 0 1
-11.6586 -25.7491 -6.7818 0.0909 0 1
-9.4180 -23.2436 -6.0173 0.0984 0 1
-7.5485 -21.0194 -5.3586 0.1149 0 24
-6.0793 -19.3383 -4.8638 0.1264 0 1
-4.8483 -17.9082 -4.4514 0.1444 0 1
-3.8136 -16.7237 -4.1156 0.1586 0 1
-2.9188 -15.6828 -3.8274 0.1740 0 1
-2.1367 -14.7547 -3.5770 0.1869 0 1
-1.4484 -13.9270 -3.3596 0.2054 0 1
-0.8374 -13.1830 -3.1694 0.2166 0 1
-0.2903 -12.4867 -2.9968 0.2283 0 1
0.2004 -11.8237 -2.8373 0.2308 0 1
0.6408 -11.2011 -2.6919 0.2424 0 1
1.0372 -10.6221 -2.5607 0.2549 0 1
1.3947 -10.0771 -2.4409 0.2699 0 1
1.7133 -9.5387 -2.3253 0.2802 0 24
2.0073 -9.0655 -2.2278 0.2926 0 24
2.2828 -8.6474 -2.1459 0.3078 0 1
2.5295 -8.2267 -2.0650 0.3199 0 1
2.7556 -7.8276 -1.9911 0.3318 0 1
2.9645 -7.4507 -1.9240 0.3468 0 1
3.1565 -7.0897 -1.8620 0.3574 0 1
3.3334 -6.7440 -1.8050 0.3687 0 1
3.4978 -6.4140 -1.7529 0.3763 0 1
3.6507 -6.0980 -1.7053 0.3869 0 1
3.7888 -5.7875 -1.6597 0.3871 0 1
3.9079 -5.4759 -1.6141 0.4017 0 1
4.0186 -5.1777 -1.5726 0.4123 0 1
4.1185 -4.8876 -1.5335 0.4123 0 1
4.2093 -4.6062 -1.4971 0.4223 0 1
4.2926 -4.3340 -1.4636 0.4320 0 1
4.3687 -4.0699 -1.4326 0.4413 0 1
4.4419 -3.8165 -1.4051 0.4682 0 1
4.5167 -3.5756 -1.3822 0.4760 0 1
4.5859 -3.3396 -1.3611 0.4833 0 1
4.6501 -3.1084 -1.3420 0.4903 0 1
4.7102 -2.8817 -1.3248 0.4967 0 1
4.7655 -2.6585 -1.3093 0.5026 0 1
4.8162 -2.4384 -1.2952 0.5080 0 1
4.8626 -2.2211 -1.2826 0.5131 0 1
4.9048 -2.0063 -1.2715 0.5176 0 1
4.9430 -1.7936 -1.2617 0.5216 0 1
4.9773 -1.5828 -1.2532 0.5251 0 1
5.0078 -1.3736 -1.2459 0.5282 0 1
3.9193 -0.9074 -0.9652 0.5920 25 14
3.8259 -0.7252 -0.9343 0.9712 25 14
3.8209 -0.5663 -0.9268 0.9791 25 14
3.8158 -0.4096 -0.9208 0.9855 25 14
3.8105 -0.2547 -0.9163 0.9903 25 14
3.8051 -0.1011 -0.9133 0.9936 25 14
3.8040 0.0519 -0.9128 0.9941 25 14
3.8095 0.2053 -0.9154 0.9913 25 14
3.8148 0.3597 -0.9194 0.9870 25 14
3.8200 0.5158 -0.9249 0.9811 25 14
3.8243 0.6738 -0.9317 0.9658 25 14
3.8763 0.8449 -0.9519 0.6003 25 14
5.1325 1.3368 -1.2725 0.5193 0 1
5.1201 1.5557 -1.2839 0.5147 0 1
5.0992 1.7761 -1.2956 0.5025 0 1
5.0711 1.9983 -1.3078 0.4978 0 1
5.0389 2.2234 -1.3215 0.4924 0 1
5.0024 2.4520 -1.3367 0.4868 0 1
4.9613 2.6843 -1.3534 0.4807 0 1
4.9153 2.9206 -1.3718 0.4743 0 1
4.8643 3.1615 -1.3919 0.4674 0 1
4.8080 3.4072 -1.4139 0.4602 0 1
4.7462 3.6586 -1.4378 0.4525 0 1
4.6790 3.9163 -1.4640 0.4445 0 1
4.6053 4.1806 -1.4923 0.4360 0 1
4.5209 4.4482 -1.5217 0.4399 0 1
4.4256 4.7191 -1.5523 0.4312 0 1
4.3226 4.9973 -1.5853 0.4222 0 1
4.2115 5.2839 -1.6212 0.4110 0 1
4.0947 5.5837 -1.6613 0.4011 0 1
3.9681 5.8939 -1.7048 0.3909 0 1
3.8309 6.2154 -1.7518 0.3804 0 1
3.6819 6.5490 -1.8026 0.4089 0 1
3.5035 6.8635 -1.8489 0.3986 0 1
3.3222 7.2100 -1.9047 0.3770 0 1
3.1261 7.5708 -1.9652 0.3568 0 1
2.9090 7.9348 -2.0277 0.3458 0 1
2.6744 8.3145 -2.0956 0.3346 0 1
2.4319 8.7527 -2.1796 0.3044 0 1
2.1622 9.2006 -2.2677 0.3156 0 1
1.8653 9.6662 -2.3620 0.3030 0 1
1.5408 10.1647 -2.4667 0.2880 0 1
1.1813 10.6713 -2.5760 0.2846 0 24
0.7905 11.2650 -2.7095 0.2492 0 1
0.3553 11.8943 -2.8551 0.2344 0 1
-0.1294 12.5259 -3.0055 0.2326 0 24
-0.6736 13.3209 -3.2002 0.2092 0 1
-1.2864 14.1423 -3.4072 0.1858 0 1
-1.9857 15.0825 -3.6500 0.1734 0 1
-2.7744 16.0565 -3.9096 0.1630 0 24
-3.6997 17.2489 -4.2327 0.1555 0 1
-4.7466 18.4749 -4.5767 0.1461 0 1
-5.9654 19.8689 -4.9774 0.1341 0 1
-7.3794 21.4137 -5.4344 0.1242 0 1
-9.0912 23.2970 -6.0002 0.1102 0 1
-11.2023 25.6165 -6.7082 0.0993 0 1
-13.7969 28.3846 -7.5723 0.0889 0 1
-16.7818 31.2641 -8.5136 0.5120 0 2
-15.7274 26.6694 -7.4286 0.5938 0 15
-16.7991 26.0357 -7.4343 0.7879 0 15
-27.8236 39.5386 -11.6001 0.5994 0 3
-27.9938 36.5652 -11.0490 0.3774 0 3
-28.1324 33.8376 -10.5582 0.6585 0 3
-22.9494 25.4497 -8.2222 0.8015 0 5
-23.0813 23.6147 -7.9229 0.6901 0 5
-23.1428 21.8481 -7.6362 0.6800 0 5
-27.6969 24.1180 -8.8117 0.7651 0 3
-28.6411 22.9836 -8.8110 0.7891 0 3
