ply
format ascii 1.0
element vertex 1569
property float32 x
property float32 y
property float32 z
property float32 I
end_header
-0.1572 9.1182 -3.0640 0.9622
-0.9630 9.8322 -3.3192 0.9592
-1.4185 10.2269 -3.4690 0.9574
-3.6716 11.9288 -4.1934 0.9487
-4.3956 12.4746 -4.4438 0.9457
-6.9724 14.0956 -5.2836 0.9358
-9.1488 15.2715 -5.9812 0.9276
-11.9978 16.8013 -6.9365 0.9166
-13.7786 17.7419 -7.5475 0.9096
-17.6103 16.3961 -8.0842 0.9035
-27.7958 18.5682 -11.2310 0.8684
-31.8505 17.7556 -12.2517 0.8574
-33.4526 13.6719 -12.1419 0.8586
-24.7753 -17.5688 -10.2046 0.8797
-31.5603 -24.3435 -13.3916 0.8452
-20.6338 -20.3141 -9.7285 0.8850
-16.0574 -18.5754 -8.2496 0.9016
-10.6467 -15.8243 -6.4080 0.9227
-9.3086 -15.1131 -5.9636 0.9278
-8.1228 -14.4585 -5.5719 0.9324
-7.0606 -13.8426 -5.2209 0.9365
-6.1128 -13.2769 -4.9109 0.9402
-4.4886 -12.2551 -4.3850 0.9464
-3.7857 -11.7816 -4.1577 0.9491
-3.1441 -11.3292 -3.9503 0.9516
-2.5587 -10.9027 -3.7626 0.9538
-1.5240 -10.0750 -3.4235 0.9579
-1.0693 -9.6875 -3.2746 0.9597
-0.6504 -9.3106 -3.1358 0.9614
-0.2646 -8.9492 -3.0081 0.9629
0.0915 -8.6020 -2.8903 0.9644
0.4206 -8.2679 -2.7815 0.9657
1.5148 -7.0518 -2.4233 0.9700
2.5051 -5.7235 -2.0991 0.9740
2.8143 -5.2390 -1.9981 0.9752
3.0674 -4.7506 -1.8999 0.9764
3.1788 -4.5143 -1.8550 0.9770
3.2820 -4.2842 -1.8133 0.9775
3.3776 -4.0600 -1.7744 0.9780
3.4698 -3.8454 -1.7402 0.9784
3.6462 -3.4400 -1.6842 0.9791
3.7991 -3.0467 -1.6362 0.9797
3.8675 -2.8539 -1.6149 0.9799
4.0953 -2.1060 -1.5472 0.9808
4.1415 -1.9234 -1.5342 0.9809
4.1836 -1.7421 -1.5226 0.9811
4.2558 -1.3830 -1.5035 0.9813
4.2869 -1.2050 -1.4961 0.9814
4.3142 -1.0275 -1.4901 0.9815
4.3379 -0.8506 -1.4852 0.9815
4.3580 -0.6740 -1.4816 0.9816
4.3876 -0.3211 -1.4781 0.9816
4.3971 -0.1445 -1.4782 0.9816
4.4122 0.2099 -1.4841 0.9815
4.4148 0.3883 -1.4890 0.9815
4.3381 1.4804 -1.5400 0.9808
4.3087 1.6666 -1.5522 0.9807
4.2751 1.8543 -1.5657 0.9805
4.2372 2.0439 -1.5806 0.9803
4.1482 2.4296 -1.6152 0.9799
4.0399 2.8248 -1.6562 0.9794
3.8386 3.4407 -1.7320 0.9785
3.7596 3.6528 -1.7612 0.9781
3.6742 3.8687 -1.7926 0.9777
3.5820 4.0888 -1.8264 0.9773
3.4825 4.3132 -1.8625 0.9769
3.2543 4.7686 -1.9397 0.9759
2.9904 5.2415 -2.0275 0.9749
2.3380 6.2551 -2.2436 0.9722
1.9336 6.7932 -2.3730 0.9706
1.4659 7.3473 -2.5172 0.9689
1.2116 7.6668 -2.6079 0.9678
0.3133 8.6610 -2.9119 0.9641
-0.8210 9.7028 -3.2716 0.9597
-1.2653 10.1014 -3.4204 0.9580
-1.7443 10.4883 -3.5723 0.9561
-2.2666 10.9016 -3.7411 0.9541
-2.8285 11.3041 -3.9151 0.9520
-3.4653 11.8115 -4.1357 0.9494
-4.1545 12.3066 -4.3640 0.9467
-4.8941 12.7784 -4.5974 0.9439
-5.7478 13.3721 -4.8903 0.9404
-6.6548 13.9130 -5.1817 0.9370
-7.6216 14.4159 -5.4787 0.9335
-18.9238 19.6063 -9.1552 0.8914
-22.3653 19.7241 -10.0191 0.8818
-22.5431 16.8666 -9.4594 0.8880
-27.7692 19.0858 -11.3211 0.8675
-28.0066 17.6352 -11.1198 0.8697
-32.4095 18.6325 -12.5603 0.8541
-37.2667 19.4761 -14.1277 0.8374
-32.2635 13.6860 -11.7749 0.8625
-42.1076 15.8974 -15.1221 0.8270
-41.3729 13.7475 -14.6479 0.8320
2.3306 -5.7418 -2.1587 0.9741
2.4953 -5.5023 -2.1047 0.9747
2.7912 -5.0354 -2.0056 0.9759
3.0330 -4.5640 -1.9090 0.9771
3.1409 -4.3375 -1.8656 0.9776
3.4272 -3.6988 -1.7566 0.9789
3.5158 -3.5010 -1.7284 0.9792
3.5984 -3.3062 -1.7023 0.9795
3.9322 -2.3685 -1.5991 0.9807
3.9853 -2.1873 -1.5837 0.9809
4.0341 -2.0075 -1.5697 0.9811
4.0787 -1.8291 -1.5572 0.9812
4.1559 -1.4756 -1.5363 0.9815
4.1893 -1.3004 -1.5281 0.9816
4.3215 -0.0849 -1.5057 0.9819
4.3343 0.2636 -1.5127 0.9818
4.3354 0.4391 -1.5180 0.9817
4.3330 0.6156 -1.5246 0.9816
4.2960 1.1506 -1.5493 0.9813
4.2733 1.3307 -1.5592 0.9812
4.2158 1.6950 -1.5829 0.9809
4.1808 1.8794 -1.5968 0.9808
4.1414 2.0656 -1.6122 0.9806
4.0976 2.2538 -1.6291 0.9804
4.0493 2.4441 -1.6477 0.9802
3.9380 2.8318 -1.6897 0.9797
3.8749 3.0298 -1.7135 0.9794
3.8062 3.2308 -1.7392 0.9791
3.6511 3.6424 -1.7966 0.9784
3.4700 4.0682 -1.8627 0.9776
3.2580 4.5077 -1.9375 0.9767
3.0089 4.9581 -2.0204 0.9757
2.8709 5.1902 -2.0662 0.9752
2.7232 5.4272 -2.1153 0.9746
2.3955 5.9171 -2.2238 0.9733
1.8102 6.6940 -2.4157 0.9711
1.3427 7.2262 -2.5604 0.9693
1.0885 7.5317 -2.6510 0.9683
0.5152 8.1493 -2.8446 0.9660
0.1944 8.4677 -2.9506 0.9648
-0.1516 8.7934 -3.0637 0.9634
-0.9259 9.4541 -3.3092 0.9606
-1.3620 9.8197 -3.4535 0.9589
-2.8859 10.9189 -3.9343 0.9533
-3.5021 11.3781 -4.1472 0.9508
-4.1649 11.8199 -4.3657 0.9483
-4.8736 12.2383 -4.5890 0.9457
-5.6689 12.7227 -4.8522 0.9427
-6.5484 13.2385 -5.1451 0.9394
-9.6725 14.7656 -6.1491 0.9280
-12.4798 16.0695 -7.0879 0.9174
-14.2328 16.8803 -7.6917 0.9107
-17.6086 17.7679 -8.7143 0.8995
-17.5718 16.3603 -8.3638 0.9033
-22.6842 19.4787 -10.4159 0.8810
-22.3972 17.7197 -9.9489 0.8861
-24.8624 18.0945 -10.7120 0.8779
-29.0719 17.7741 -11.8703 0.8656
-35.0498 17.7321 -13.6836 0.8467
-29.9677 13.6776 -11.4755 0.8698
-43.2394 17.6718 -16.2724 0.8205
-32.9617 -4.4609 -11.5872 0.8686
-35.0039 -22.7653 -14.5460 0.8379
-24.6655 -17.4909 -10.5337 0.8798
-20.7657 -18.8622 -9.7727 0.8880
-19.3092 -19.0101 -9.4394 0.8916
-16.2979 -17.3893 -8.3025 0.9040
-12.6541 -15.8863 -7.0753 0.9176
-11.1661 -15.2365 -6.5806 0.9231
-9.8360 -14.6193 -6.1382 0.9281
-7.5939 -13.5170 -5.4010 0.9364
-6.6324 -13.0031 -5.0850 0.9400
-5.7484 -12.4855 -4.7883 0.9434
-4.2453 -11.5908 -4.3001 0.9491
-3.6027 -11.2122 -4.1026 0.9513
-3.0000 -10.8100 -3.9081 0.9536
-1.4626 -9.6689 -3.4066 0.9594
-1.0276 -9.3097 -3.2628 0.9611
-0.2550 -8.6276 -3.0068 0.9641
0.0884 -8.3045 -2.8931 0.9654
0.9773 -7.4049 -2.6019 0.9689
1.6934 -6.5828 -2.3678 0.9716
2.0936 -6.0691 -2.2365 0.9732
2.2739 -5.8217 -2.1773 0.9739
2.4424 -5.5804 -2.1220 0.9745
2.5999 -5.3446 -2.0704 0.9751
2.9957 -4.6397 -1.9239 0.9769
3.1063 -4.4113 -1.8795 0.9774
3.3038 -3.9712 -1.7996 0.9784
3.6506 -3.1768 -1.6858 0.9797
3.7238 -2.9863 -1.6629 0.9800
3.7918 -2.7981 -1.6416 0.9802
3.8548 -2.6121 -1.6221 0.9805
3.9683 -2.2467 -1.5886 0.9809
4.0185 -2.0665 -1.5741 0.9810
4.0645 -1.8876 -1.5611 0.9812
4.1063 -1.7100 -1.5496 0.9813
4.2367 -1.0091 -1.5172 0.9817
4.2802 -0.6619 -1.5088 0.9818
4.2965 -0.4886 -1.5064 0.9819
4.3187 -0.1419 -1.5053 0.9819
4.3342 0.5574 -1.5223 0.9817
4.3026 1.0917 -1.5463 0.9814
4.1928 1.8186 -1.5921 0.9808
4.1125 2.1917 -1.6234 0.9805
3.8962 2.9644 -1.7055 0.9795
3.8294 3.1644 -1.7306 0.9792
3.5934 3.7836 -1.8178 0.9781
3.5017 3.9972 -1.8512 0.9777
3.4029 4.2147 -1.8871 0.9773
3.1781 4.6570 -1.9641 0.9764
2.9173 5.1134 -2.0508 0.9754
2.2750 6.0865 -2.2636 0.9729
2.0848 6.3440 -2.3263 0.9721
1.8810 6.6081 -2.3934 0.9713
1.6594 6.8667 -2.4609 0.9705
1.4223 7.1288 -2.5323 0.9697
0.9061 7.7395 -2.7146 0.9675
0.3025 8.3629 -2.9152 0.9652
-0.3991 9.0181 -3.1446 0.9625
-0.7907 9.3442 -3.2668 0.9611
-1.6729 10.0587 -3.5522 0.9577
-2.1675 10.4247 -3.7092 0.9559
-3.2972 11.2385 -4.0801 0.9516
-3.9269 11.6324 -4.2770 0.9493
-4.6284 12.0847 -4.5080 0.9467
-5.4179 12.6048 -4.7795 0.9435
-6.2571 13.0816 -5.0516 0.9404
-7.1718 13.5650 -5.3453 0.9371
-8.1758 14.0655 -5.6675 0.9334
-10.5278 15.1624 -6.4304 0.9248
-15.4777 17.3827 -8.1080 0.9061
-16.8963 17.5058 -8.4755 0.9021
-17.3083 16.5471 -8.3417 0.9035
-21.7524 19.1835 -10.1035 0.8844
-22.4455 16.7935 -9.7655 0.8880
-30.8941 17.7613 -12.4141 0.8599
-30.8056 16.0994 -12.1086 0.8631
-29.0069 13.7049 -11.1759 0.8729
-32.2204 13.6677 -12.1924 0.8622
-42.1819 15.9254 -15.7069 0.8261
-29.5863 -17.0671 -11.8987 0.8653
-36.6008 -23.1217 -15.0814 0.8325
2.2723 -5.5982 -2.1801 0.9746
2.7244 -4.9148 -2.0277 0.9764
2.9638 -4.4598 -1.9322 0.9775
3.1700 -4.0267 -1.8492 0.9784
3.2646 -3.8203 -1.8133 0.9789
3.3569 -3.6228 -1.7822 0.9792
3.4443 -3.4299 -1.7540 0.9795
3.6027 -3.0525 -1.7039 0.9801
3.7397 -2.6841 -1.6610 0.9806
3.8008 -2.5029 -1.6421 0.9808
3.8581 -2.3239 -1.6252 0.9810
3.9594 -1.9704 -1.5958 0.9814
4.0038 -1.7955 -1.5833 0.9815
4.0441 -1.6217 -1.5722 0.9816
4.0810 -1.4490 -1.5627 0.9818
4.2102 -0.5943 -1.5342 0.9821
4.2367 -0.2538 -1.5315 0.9821
4.2530 0.0874 -1.5350 0.9821
4.2582 0.4312 -1.5444 0.9820
4.2555 0.6046 -1.5510 0.9819
4.2163 1.1293 -1.5750 0.9816
4.1359 1.6629 -1.6085 0.9812
4.1009 1.8435 -1.6224 0.9811
4.0615 2.0257 -1.6377 0.9809
4.0178 2.2098 -1.6546 0.9807
3.9695 2.3959 -1.6730 0.9805
3.9164 2.5840 -1.6931 0.9802
3.8584 2.7746 -1.7148 0.9800
3.3929 3.9778 -1.8866 0.9780
3.2925 4.1900 -1.9228 0.9776
3.0649 4.6210 -2.0009 0.9767
2.9376 4.8407 -2.0432 0.9762
2.8014 5.0645 -2.0884 0.9757
2.6557 5.2927 -2.1367 0.9751
2.3333 5.7633 -2.2436 0.9739
1.5399 6.7620 -2.5024 0.9709
1.0553 7.3018 -2.6621 0.9691
0.1878 8.1802 -2.9525 0.9658
-0.1463 8.4841 -3.0618 0.9646
-0.5058 8.7965 -3.1794 0.9632
-0.8928 9.1155 -3.3050 0.9618
-1.3094 9.4408 -3.4392 0.9603
-3.3373 10.8426 -4.0935 0.9529
-4.6168 11.5936 -4.5029 0.9483
-6.1701 12.4737 -5.0215 0.9425
-9.0159 13.7633 -5.9370 0.9324
-10.1482 14.2111 -6.3011 0.9284
-12.9043 15.3047 -7.2235 0.9184
-14.6011 15.9683 -7.8076 0.9121
-16.6939 16.8450 -8.5575 0.9041
-22.5136 17.8118 -10.3587 0.8851
-27.5516 18.4051 -11.9558 0.8686
-43.0950 13.6904 -16.3160 0.8251
-32.8391 -4.4443 -11.9576 0.8686
-42.1666 -20.6846 -16.9473 0.8190
-33.2447 -19.7673 -13.9563 0.8483
-24.5242 -17.3907 -10.8483 0.8800
-23.3366 -18.0003 -10.6346 0.8822
-21.1885 -17.7460 -9.9729 0.8891
-19.0960 -17.3456 -9.3088 0.8961
-16.5531 -16.2967 -8.3819 0.9059
-13.0829 -15.1344 -7.2186 0.9184
-9.1525 -13.6034 -5.9162 0.9327
-8.0641 -13.0925 -5.5485 0.9367
-7.1289 -12.6894 -5.2519 0.9400
-6.2564 -12.2659 -4.9685 0.9431
-5.4585 -11.8559 -4.7097 0.9460
-4.0542 -11.0692 -4.2536 0.9511
-3.4354 -10.6915 -4.0521 0.9534
-2.8661 -10.3276 -3.8674 0.9554
-2.3399 -9.9703 -3.6954 0.9574
-0.2461 -8.3260 -3.0056 0.9652
0.3935 -7.7355 -2.7948 0.9676
1.1975 -6.9174 -2.5332 0.9706
1.4300 -6.6569 -2.4569 0.9715
2.3823 -5.4431 -2.1439 0.9751
2.8087 -4.7594 -1.9941 0.9768
3.1382 -4.0965 -1.8621 0.9783
3.2328 -3.8860 -1.8240 0.9787
3.5000 -3.3021 -1.7363 0.9797
3.5782 -3.1138 -1.7116 0.9800
3.6509 -2.9279 -1.6887 0.9803
3.8397 -2.3825 -1.6306 0.9810
3.8940 -2.2046 -1.6147 0.9812
3.9897 -1.8529 -1.5873 0.9815
4.0313 -1.6787 -1.5757 0.9816
4.1344 -1.1621 -1.5497 0.9819
4.1614 -0.9911 -1.5436 0.9820
4.1847 -0.8205 -1.5387 0.9820
4.2045 -0.6502 -1.5352 0.9821
4.2207 -0.4800 -1.5328 0.9821
4.2333 -0.3098 -1.5316 0.9821
4.2425 -0.1394 -1.5317 0.9821
4.2568 0.5475 -1.5487 0.9819
4.2517 0.7215 -1.5561 0.9818
4.2405 0.8963 -1.5639 0.9817
4.2014 1.2477 -1.5815 0.9815
4.1760 1.4251 -1.5922 0.9814
4.0749 1.9657 -1.6325 0.9809
4.0326 2.1491 -1.6488 0.9808
3.9859 2.3345 -1.6668 0.9805
3.8779 2.7116 -1.7075 0.9801
3.8168 2.9040 -1.7306 0.9798
3.7502 3.0990 -1.7555 0.9795
3.5154 3.7015 -1.8420 0.9785
3.4244 3.9089 -1.8752 0.9781
3.3263 4.1198 -1.9106 0.9777
3.2212 4.3351 -1.9488 0.9773
3.1049 4.5497 -1.9876 0.9768
2.9804 4.7681 -2.0290 0.9764
2.8472 4.9905 -2.0732 0.9759
2.7047 5.2172 -2.1205 0.9753
2.2148 5.9256 -2.2826 0.9735
2.0282 6.1717 -2.3442 0.9728
1.8284 6.4236 -2.4099 0.9720
1.6144 6.6805 -2.4800 0.9712
1.3826 6.9301 -2.5499 0.9704
1.1387 7.2058 -2.6324 0.9695
0.5955 7.7841 -2.8170 0.9673
0.2923 8.0808 -2.9177 0.9662
-0.3847 8.6929 -3.1398 0.9637
-2.0779 9.9940 -3.6833 0.9575
-3.1442 10.7170 -4.0301 0.9536
-5.1214 11.9149 -4.6797 0.9463
-5.8853 12.3042 -4.9216 0.9436
-7.6354 13.1357 -5.4824 0.9374
-9.7620 14.0594 -6.1761 0.9298
-12.3914 15.0966 -7.0474 0.9203
-16.1458 16.7282 -8.3891 0.9059
-19.2720 16.9960 -9.2720 0.8965
-24.3581 18.2245 -10.9771 0.8787
-29.0100 13.7064 -11.5774 0.8725
-32.2893 13.6970 -12.6561 0.8614
-41.3186 13.7295 -15.7108 0.8310
-29.3691 -16.9418 -12.2342 0.8657
2.5256 -5.0221 -2.0991 0.9763
2.6601 -4.7989 -2.0489 0.9768
3.2898 -3.5505 -1.8074 0.9795
3.6029 -2.8120 -1.7066 0.9807
3.6685 -2.6330 -1.6862 0.9809
3.7861 -2.2806 -1.6505 0.9813
3.8387 -2.1068 -1.6351 0.9815
3.8869 -1.9343 -1.6212 0.9816
3.9715 -1.5926 -1.5978 0.9819
4.0083 -1.4232 -1.5883 0.9820
4.0961 -0.9186 -1.5675 0.9822
4.1181 -0.7511 -1.5631 0.9823
4.1365 -0.5839 -1.5599 0.9823
4.1627 -0.2494 -1.5572 0.9824
4.1825 0.2544 -1.5647 0.9823
4.1389 1.1086 -1.6000 0.9819
4.1161 1.2818 -1.6098 0.9818
4.0893 1.4561 -1.6209 0.9816
4.0234 1.8087 -1.6472 0.9813
3.8921 2.3492 -1.6976 0.9808
3.7814 2.7192 -1.7392 0.9803
3.6507 3.0988 -1.7881 0.9798
3.4112 3.6882 -1.8760 0.9788
3.3186 3.8907 -1.9095 0.9784
2.9949 4.5154 -2.0233 0.9771
2.8691 4.7278 -2.0651 0.9767
2.7347 4.9439 -2.1097 0.9762
2.4376 5.3878 -2.2082 0.9751
2.2737 5.6161 -2.2625 0.9745
1.7112 6.3279 -2.4478 0.9724
1.2672 6.8198 -2.5902 0.9708
0.7626 7.3534 -2.7606 0.9689
0.4822 7.6272 -2.8538 0.9679
0.1815 7.9079 -2.9537 0.9668
-0.1413 8.1936 -3.0600 0.9656
-0.4878 8.4842 -3.1733 0.9644
-1.2604 9.0874 -3.4258 0.9616
-2.1500 9.6962 -3.7086 0.9585
-2.6459 10.0110 -3.8666 0.9568
-5.0861 11.4147 -4.6663 0.9480
-5.8124 11.7505 -4.8952 0.9456
-6.6237 12.1375 -5.1632 0.9427
-10.5827 13.6267 -6.4426 0.9290
-15.0675 15.2038 -7.9930 0.9127
-16.7396 15.5854 -8.5406 0.9070
-22.2066 16.1617 -10.2558 0.8893
-23.3641 15.6077 -10.4920 0.8869
-26.6545 16.2962 -11.6659 0.8751
-30.4669 16.9842 -13.0250 0.8616
-35.9188 14.6799 -14.4894 0.8473
-43.0497 13.6760 -16.8669 0.8246
-33.1926 -4.4921 -12.5075 0.8667
-25.3770 -4.4793 -9.6225 0.8958
-42.4906 -16.7584 -17.0559 0.8228
-38.5311 -17.0161 -15.7285 0.8354
-34.8456 -17.0933 -14.4930 0.8473
-28.3411 -16.8516 -12.3124 0.8687
-21.5281 -16.6054 -10.1524 0.8904
-18.8945 -15.8247 -9.2031 0.9001
-16.7909 -15.2517 -8.4703 0.9077
-15.0192 -14.7865 -7.8702 0.9139
-13.4495 -14.3501 -7.3441 0.9195
-6.7235 -11.9678 -5.1259 0.9431
-5.8982 -11.5636 -4.8472 0.9461
-4.4954 -10.8964 -4.4015 0.9509
-3.8507 -10.5133 -4.1808 0.9533
-3.2818 -10.2137 -4.0059 0.9552
-1.3513 -8.9333 -3.3737 0.9622
0.3801 -7.4707 -2.7933 0.9686
0.6599 -7.2299 -2.7110 0.9695
1.3906 -6.4735 -2.4724 0.9721
1.7954 -5.9733 -2.3291 0.9737
2.1616 -5.5343 -2.2186 0.9750
2.4775 -5.0929 -2.1148 0.9761
2.9692 -4.2166 -1.9257 0.9782
3.1668 -3.8066 -1.8490 0.9791
3.3478 -3.4231 -1.7879 0.9798
3.5803 -2.8712 -1.7137 0.9806
3.6475 -2.6916 -1.6927 0.9808
3.7098 -2.5138 -1.6734 0.9810
3.8219 -2.1638 -1.6400 0.9814
3.9966 -1.4788 -1.5913 0.9820
4.0308 -1.3099 -1.5826 0.9821
4.0613 -1.1415 -1.5753 0.9821
4.1308 -0.6388 -1.5608 0.9823
4.1468 -0.4716 -1.5585 0.9823
4.1763 0.0306 -1.5595 0.9823
4.1456 1.0519 -1.5970 0.9819
4.1240 1.2247 -1.6064 0.9818
4.0985 1.3987 -1.6171 0.9817
4.0690 1.5739 -1.6291 0.9815
4.0354 1.7503 -1.6425 0.9814
3.9975 1.9283 -1.6573 0.9812
3.9085 2.2892 -1.6914 0.9808
3.8571 2.4724 -1.7108 0.9806
3.8009 2.6577 -1.7318 0.9804
3.7399 2.8455 -1.7548 0.9801
3.6018 3.2285 -1.8062 0.9796
3.5241 3.4239 -1.8348 0.9792
3.0344 4.4464 -2.0101 0.9773
2.9114 4.6576 -2.0510 0.9768
2.4891 5.3137 -2.1911 0.9753
1.9632 5.9742 -2.3482 0.9735
1.7784 6.2478 -2.4257 0.9726
1.5692 6.4934 -2.4945 0.9719
1.1051 6.9931 -2.6437 0.9702
0.8505 7.2649 -2.7313 0.9693
0.5765 7.5365 -2.8224 0.9682
0.2827 7.8148 -2.9201 0.9672
-0.0327 8.0996 -3.0245 0.9660
-0.3712 8.3879 -3.1352 0.9648
-0.7348 8.6834 -3.2541 0.9635
-2.4788 9.9065 -3.8133 0.9573
-3.0037 10.2382 -3.9842 0.9555
-3.5724 10.5821 -4.1706 0.9534
-4.1856 10.9285 -4.3699 0.9513
-4.8372 11.2538 -4.5741 0.9490
-7.1994 12.3856 -5.3495 0.9407
-8.1146 12.7516 -5.6439 0.9375
-10.1973 13.4948 -6.3160 0.9303
-12.7543 14.3240 -7.1618 0.9214
-14.3160 14.8324 -7.6976 0.9157
-17.2851 15.2438 -8.6059 0.9063
-19.2583 15.6544 -9.2674 0.8995
-21.4404 16.0415 -9.9989 0.8920
-26.5132 16.6948 -11.6996 0.8748
-29.0166 13.7095 -11.9836 0.8719
-32.2736 13.6903 -13.0908 0.8610
-38.0105 14.3506 -15.1714 0.8407
-41.2035 13.6912 -16.2130 0.8308
-22.7200 -4.6456 -8.6594 0.9057
-39.8035 -16.9533 -16.1551 0.8313
2.1628 -5.3284 -2.2203 0.9756
2.5984 -4.6875 -2.0693 0.9773
2.7198 -4.4728 -2.0211 0.9778
2.9380 -4.0574 -1.9341 0.9787
3.0370 -3.8576 -1.8956 0.9792
3.2249 -3.4804 -1.8319 0.9799
3.3097 -3.2958 -1.8034 0.9802
3.4642 -2.9351 -1.7530 0.9807
3.5343 -2.7584 -1.7310 0.9810
3.6598 -2.4100 -1.6919 0.9814
3.8605 -1.7313 -1.6335 0.9820
3.9010 -1.5643 -1.6227 0.9821
3.9375 -1.3981 -1.6132 0.9822
3.9703 -1.2325 -1.6050 0.9823
3.9993 -1.0673 -1.5981 0.9824
4.0465 -0.7381 -1.5881 0.9825
4.0647 -0.5737 -1.5849 0.9826
4.0794 -0.4094 -1.5829 0.9826
4.0985 -0.0805 -1.5827 0.9826
4.1059 0.0844 -1.5856 0.9825
4.0827 0.9194 -1.6158 0.9822
4.0637 1.0884 -1.6243 0.9821
4.0408 1.2584 -1.6340 0.9820
4.0140 1.4293 -1.6451 0.9819
3.9832 1.6015 -1.6575 0.9818
3.9482 1.7748 -1.6713 0.9816
3.9089 1.9496 -1.6865 0.9814
3.6444 2.8497 -1.7862 0.9804
3.5767 3.0360 -1.8113 0.9801
3.4241 3.4159 -1.8674 0.9795
3.3388 3.6098 -1.8985 0.9791
3.1494 4.0079 -1.9680 0.9784
3.0437 4.2112 -2.0061 0.9780
2.6705 4.8279 -2.1302 0.9766
2.5289 5.0400 -2.1771 0.9761
2.3778 5.2557 -2.2272 0.9756
2.2166 5.4751 -2.2805 0.9750
2.0445 5.6982 -2.3373 0.9744
1.8608 5.9252 -2.3978 0.9737
1.6648 6.1564 -2.4623 0.9730
0.7394 7.1298 -2.7675 0.9697
0.1756 7.6511 -2.9548 0.9677
-0.1366 7.9201 -3.0584 0.9666
-0.4710 8.1909 -3.1677 0.9654
-1.2135 8.7494 -3.4104 0.9628
-1.6251 9.0326 -3.5434 0.9614
-2.5377 9.6016 -3.8344 0.9583
-4.1878 10.5161 -4.3703 0.9526
-4.8114 10.7982 -4.5642 0.9506
-5.5221 11.1637 -4.8087 0.9480
-6.2618 11.4744 -5.0469 0.9455
-7.8878 12.0411 -5.5576 0.9401
-12.1722 13.3120 -6.9643 0.9256
-13.5213 13.6437 -7.4163 0.9209
-15.1706 14.1246 -8.0029 0.9150
-16.8874 14.5011 -8.5940 0.9090
-19.7588 14.3803 -9.4352 0.9005
-26.3251 14.6753 -11.6365 0.8788
-37.2666 13.5100 -15.3046 0.8437
-43.2000 11.8353 -17.2938 0.8253
-40.0699 -13.9707 -16.3840 0.8336
-36.8686 -14.5411 -15.3018 0.8437
-33.8804 -14.9622 -14.2997 0.8532
-31.0088 -15.2112 -13.3351 0.8623
-25.6228 -15.2353 -11.5094 0.8800
-23.1284 -15.0419 -10.6521 0.8884
-20.6999 -14.6788 -9.7975 0.8969
-18.6773 -14.4064 -9.1071 0.9038
-15.2651 -13.8658 -7.9621 0.9154
-13.7503 -13.5373 -7.4499 0.9206
-12.3339 -13.1598 -6.9636 0.9256
-8.9715 -12.2418 -5.8598 0.9370
-8.0364 -11.9446 -5.5583 0.9401
-7.1432 -11.5973 -5.2588 0.9433
-5.6138 -11.0060 -4.7702 0.9484
-4.9235 -10.6938 -4.5454 0.9508
-0.5620 -8.0452 -3.1137 0.9660
-0.2299 -7.7784 -3.0045 0.9672
0.0798 -7.4973 -2.8948 0.9684
0.6404 -7.0159 -2.7200 0.9702
1.1311 -6.5339 -2.5602 0.9720
1.7555 -5.8404 -2.3546 0.9742
1.9298 -5.5944 -2.2848 0.9749
2.2693 -5.1849 -2.1852 0.9760
2.4198 -4.9744 -2.1358 0.9766
2.5565 -4.7592 -2.0858 0.9771
2.6809 -4.5428 -2.0366 0.9776
2.9043 -4.1244 -1.9476 0.9786
3.0045 -3.9218 -1.9074 0.9790
3.1029 -3.7297 -1.8732 0.9794
3.3634 -3.1733 -1.7853 0.9804
3.4400 -2.9936 -1.7607 0.9806
3.6404 -2.4668 -1.6978 0.9813
3.6982 -2.2947 -1.6804 0.9815
3.8012 -1.9547 -1.6503 0.9818
3.8464 -1.7863 -1.6374 0.9820
3.9259 -1.4527 -1.6162 0.9822
3.9599 -1.2868 -1.6076 0.9823
3.9902 -1.1216 -1.6003 0.9824
4.0168 -0.9567 -1.5942 0.9825
4.0397 -0.7921 -1.5894 0.9825
4.0591 -0.6277 -1.5858 0.9825
4.0750 -0.4634 -1.5835 0.9826
4.1038 0.0301 -1.5845 0.9826
4.1082 0.5284 -1.5992 0.9824
4.1021 0.6961 -1.6064 0.9823
4.0881 0.8641 -1.6132 0.9822
4.0704 1.0328 -1.6213 0.9822
4.0488 1.2024 -1.6307 0.9821
4.0233 1.3730 -1.6413 0.9819
3.9938 1.5447 -1.6533 0.9818
3.9602 1.7177 -1.6666 0.9817
3.6655 2.7889 -1.7783 0.9804
3.5996 2.9745 -1.8029 0.9802
3.5281 3.1624 -1.8293 0.9799
3.2779 3.7417 -1.9206 0.9789
3.1824 3.9415 -1.9559 0.9785
2.9665 4.3469 -2.0319 0.9777
2.8450 4.5513 -2.0723 0.9772
2.4286 5.1844 -2.2104 0.9758
2.2707 5.4026 -2.2626 0.9752
1.9120 5.8181 -2.3645 0.9741
1.7306 6.0800 -2.4407 0.9733
0.8249 7.0462 -2.7391 0.9700
-0.0316 7.8312 -3.0236 0.9670
-0.3585 8.1013 -3.1309 0.9658
-1.4867 8.9391 -3.4987 0.9619
-4.5961 10.6927 -4.4936 0.9513
-5.9972 11.3434 -4.9540 0.9465
-7.5953 11.9356 -5.4621 0.9411
-10.5389 12.8396 -6.4133 0.9313
-11.7670 13.2152 -6.8318 0.9269
-13.0550 13.5259 -7.2579 0.9226
-14.4261 13.7917 -7.7056 0.9180
-25.5317 14.6784 -11.3705 0.8814
-28.0016 14.6340 -12.1986 0.8733
-42.2336 12.1725 -16.9697 0.8282
-22.6204 -4.6253 -8.9142 0.9057
-44.3043 -12.8396 -17.8093 0.8205
-41.0073 -13.6927 -16.6918 0.8308
-37.9087 -14.3756 -15.6532 0.8404
-32.0058 -15.1791 -13.6764 0.8591
-29.1349 -15.2806 -12.7020 0.8684
-23.9301 -15.1172 -10.9283 0.8857
2.4100 -4.7923 -2.1397 0.9772
2.6590 -4.3728 -2.0414 0.9782
3.0719 -3.5948 -1.8861 0.9798
3.4676 -2.7064 -1.7546 0.9812
3.5923 -2.3656 -1.7157 0.9816
3.7003 -2.0309 -1.6837 0.9820
3.8323 -1.5368 -1.6470 0.9824
3.9012 -1.2110 -1.6293 0.9826
3.9300 -1.0488 -1.6225 0.9826
3.9768 -0.7254 -1.6124 0.9827
3.9948 -0.5639 -1.6092 0.9828
4.0094 -0.4024 -1.6073 0.9828
4.0204 -0.2409 -1.6065 0.9828
4.0388 0.4090 -1.6192 0.9827
4.0354 0.5733 -1.6258 0.9826
3.9677 1.2356 -1.6576 0.9823
3.9101 1.5721 -1.6810 0.9820
3.8751 1.7420 -1.6947 0.9819
3.8359 1.9132 -1.7098 0.9817
3.7923 2.0858 -1.7264 0.9815
3.7444 2.2600 -1.7445 0.9813
3.6917 2.4358 -1.7642 0.9811
3.6345 2.6136 -1.7857 0.9809
3.5724 2.7934 -1.8089 0.9807
3.3535 3.3454 -1.8894 0.9798
3.2689 3.5343 -1.9203 0.9795
3.1787 3.7266 -1.9537 0.9791
2.9773 4.1193 -2.0274 0.9783
2.7397 4.5146 -2.1064 0.9775
2.4692 4.9210 -2.1961 0.9766
2.1618 5.3398 -2.2979 0.9755
1.8031 5.7416 -2.4005 0.9744
1.6132 5.9657 -2.4650 0.9737
1.4159 6.2174 -2.5435 0.9729
0.9652 6.6788 -2.6917 0.9714
0.4527 7.1607 -2.8620 0.9696
-1.1696 8.4329 -3.3959 0.9640
-1.5642 8.6941 -3.5236 0.9627
-2.4373 9.2215 -3.8046 0.9598
-2.9192 9.4843 -3.9582 0.9582
-5.2410 10.5955 -4.7151 0.9504
-6.6612 11.1190 -5.1701 0.9457
-7.4563 11.3824 -5.4276 0.9431
-8.3086 11.6352 -5.7029 0.9403
-9.2349 11.8912 -6.0055 0.9372
-10.2211 12.1224 -6.3248 0.9340
-13.6445 12.7037 -7.4362 0.9229
-17.7820 12.9415 -8.7724 0.9096
-21.2519 12.9931 -9.9357 0.8983
-23.1509 12.9058 -10.5724 0.8921
-25.1500 12.7237 -11.2426 0.8857
-27.2356 12.4306 -11.9417 0.8790
-31.5730 11.4460 -13.3958 0.8653
-33.7562 10.7236 -14.1277 0.8585
-16.9316 3.2040 -6.8735 0.9285
-17.8503 2.6399 -7.1976 0.9252
-46.3930 -0.6468 -18.5070 0.8189
-44.8732 -4.2453 -17.9789 0.8236
-33.2068 -4.4940 -13.3663 0.8656
-40.6333 -8.8691 -16.5894 0.8360
-38.4434 -10.0251 -15.8471 0.8427
-36.1324 -10.9907 -15.0645 0.8499
-33.8642 -11.8070 -14.3052 0.8569
-28.8587 -12.7446 -12.5837 0.8730
-24.2268 -13.1173 -10.9891 0.8881
-22.2186 -13.2112 -10.3109 0.8947
-20.3226 -13.2171 -9.6699 0.9009
-15.4280 -12.9214 -8.0272 0.9170
-13.9960 -12.7131 -7.5420 0.9218
-12.6663 -12.4701 -7.0899 0.9263
-11.3907 -12.1535 -6.6442 0.9308
-7.5796 -11.2656 -5.4160 0.9432
-6.7761 -11.0014 -5.1538 0.9459
-4.6895 -10.1855 -4.4727 0.9529
-4.0887 -9.9108 -4.2764 0.9549
-3.5177 -9.6042 -4.0798 0.9569
-3.0089 -9.3643 -3.9233 0.9585
-2.0711 -8.8248 -3.6157 0.9617
-1.6484 -8.5561 -3.4756 0.9632
-1.2543 -8.2920 -3.3451 0.9645
-0.5434 -7.7782 -3.1101 0.9670
0.0775 -7.2865 -2.9066 0.9691
0.3585 -7.0473 -2.8147 0.9701
0.8686 -6.5818 -2.6481 0.9718
1.1001 -6.3553 -2.5727 0.9726
1.5205 -5.9105 -2.4343 0.9741
1.8822 -5.4563 -2.3023 0.9755
2.2161 -5.0633 -2.2046 0.9765
2.3643 -4.8603 -2.1559 0.9770
2.4976 -4.6494 -2.1052 0.9775
2.8417 -4.0355 -1.9687 0.9790
3.0409 -3.6553 -1.8966 0.9797
3.1330 -3.4721 -1.8654 0.9801
3.4453 -2.7630 -1.7616 0.9812
3.5731 -2.4212 -1.7216 0.9816
3.8195 -1.5906 -1.6504 0.9823
3.9473 -0.9401 -1.6185 0.9827
3.9893 -0.6169 -1.6102 0.9828
4.0050 -0.4555 -1.6078 0.9828
4.0172 -0.2940 -1.6066 0.9828
4.0392 0.3552 -1.6174 0.9827
4.0369 0.5192 -1.6235 0.9826
4.0290 0.6838 -1.6301 0.9826
4.0150 0.8486 -1.6369 0.9825
3.9756 1.1807 -1.6543 0.9823
3.8493 1.8568 -1.7047 0.9818
3.7096 2.3779 -1.7576 0.9812
3.5278 2.9152 -1.8254 0.9805
3.3800 3.2839 -1.8798 0.9799
3.2973 3.4718 -1.9099 0.9796
2.7809 4.4489 -2.0928 0.9777
2.5161 4.8534 -2.1806 0.9767
2.3704 5.0602 -2.2289 0.9762
1.8730 5.6997 -2.3931 0.9745
1.2710 6.3705 -2.5911 0.9724
1.0433 6.6017 -2.6660 0.9716
0.2650 7.3265 -2.9243 0.9689
-0.0306 7.5773 -3.0224 0.9679
-0.3466 7.8315 -3.1269 0.9668
-0.6843 8.0870 -3.2373 0.9657
-3.8088 9.9448 -4.2477 0.9552
-4.3927 10.2195 -4.4370 0.9532
-7.1910 11.3003 -5.3427 0.9439
-8.0188 11.5488 -5.6081 0.9412
-9.8514 12.0021 -6.1936 0.9353
-10.9386 12.2849 -6.5612 0.9316
-12.0712 12.5066 -6.9332 0.9279
-13.3021 12.7171 -7.3406 0.9238
-14.5767 12.8552 -7.7524 0.9197
-20.6512 13.0037 -9.7344 0.9002
-22.5152 12.9442 -10.3592 0.8942
-24.4826 12.7950 -11.0188 0.8878
-26.5418 12.5402 -11.7091 0.8812
-25.7602 8.5597 -10.8276 0.8897
-35.1960 10.1441 -14.6104 0.8541
-37.2601 9.1348 -15.3024 0.8477
-16.9387 3.4377 -6.8943 0.9283
-17.0451 2.7514 -6.8869 0.9283
-44.2825 5.3326 -17.7910 0.8252
-45.8464 3.6595 -18.3453 0.8203
-44.1284 -5.3795 -17.7322 0.8258
-22.5275 -4.6063 -9.1717 0.9057
-36.8746 -10.6864 -15.3137 0.8476
-27.2122 -12.9057 -12.0132 0.8784
-24.9274 -13.0739 -11.2276 0.8858
-22.8540 -13.1835 -10.5240 0.8926
2.0617 -5.0794 -2.2573 0.9766
2.3544 -4.6816 -2.1578 0.9776
2.4816 -4.4769 -2.1078 0.9781
2.7111 -4.0796 -2.0170 0.9790
2.8145 -3.8868 -1.9761 0.9795
2.9162 -3.7043 -1.9413 0.9798
3.1843 -3.1709 -1.8505 0.9807
3.2623 -2.9974 -1.8243 0.9810
3.4029 -2.6559 -1.7775 0.9815
3.4671 -2.4885 -1.7574 0.9817
3.5267 -2.3224 -1.7388 0.9819
3.7655 -1.5100 -1.6706 0.9826
3.8624 -1.0308 -1.6461 0.9829
3.9088 -0.7130 -1.6361 0.9830
3.9267 -0.5543 -1.6330 0.9830
3.9520 -0.2368 -1.6303 0.9830
3.9594 -0.0778 -1.6307 0.9830
3.9695 0.4020 -1.6429 0.9829
3.9653 0.5633 -1.6492 0.9828
3.9537 0.7248 -1.6552 0.9828
3.9194 1.0498 -1.6708 0.9826
3.8965 1.2134 -1.6805 0.9825
3.8697 1.3779 -1.6915 0.9824
3.7650 1.8778 -1.7325 0.9820
3.7215 2.0469 -1.7490 0.9818
3.6737 2.2173 -1.7670 0.9816
3.6213 2.3894 -1.7865 0.9814
3.5644 2.5632 -1.8078 0.9812
3.5026 2.7388 -1.8309 0.9809
3.4356 2.9163 -1.8557 0.9807
3.2852 3.2773 -1.9108 0.9801
3.1123 3.6488 -1.9749 0.9795
2.6785 4.4138 -2.1260 0.9779
2.2652 5.0069 -2.2629 0.9765
2.1093 5.2100 -2.3145 0.9760
1.9320 5.3848 -2.3558 0.9756
1.7573 5.5956 -2.4151 0.9749
1.3727 6.0278 -2.5457 0.9736
1.1647 6.2683 -2.6254 0.9728
0.9379 6.4898 -2.7001 0.9720
-0.1279 7.4154 -3.0540 0.9684
-0.7731 7.8940 -3.2662 0.9663
-1.1285 8.1359 -3.3823 0.9651
-1.9112 8.6192 -3.6354 0.9625
-2.8027 9.1057 -3.9232 0.9596
-3.2929 9.3450 -4.0800 0.9580
-4.9850 10.0779 -4.6299 0.9525
-7.0453 10.7550 -5.2943 0.9459
-7.7899 10.9087 -5.5197 0.9437
-9.5359 11.3097 -6.0916 0.9380
-11.5232 11.6275 -6.7410 0.9316
-17.8531 11.9263 -8.8410 0.9113
-19.0716 11.6601 -9.2048 0.9078
-22.2692 11.2662 -10.2768 0.8977
-23.9453 10.9289 -10.8387 0.8924
-25.6492 10.4827 -11.4099 0.8870
-27.3563 9.9173 -11.9822 0.8817
-29.0361 9.2242 -12.5453 0.8765
-17.2843 2.5562 -7.1948 0.9272
-37.6641 4.0316 -15.5980 0.8489
-38.4156 2.5562 -15.8538 0.8466
-25.0837 -4.4275 -10.4887 0.8957
-34.1998 -7.4649 -14.4144 0.8595
-32.6573 -8.5162 -13.8974 0.8642
-18.4022 -11.9681 -9.0393 0.9094
-16.9298 -12.0054 -8.5463 0.9141
-15.5049 -11.9595 -8.0633 0.9188
-14.1631 -11.8620 -7.6074 0.9232
-12.8541 -11.6758 -7.1507 0.9276
-11.7469 -11.5649 -6.7880 0.9312
-8.8025 -11.0510 -5.8178 0.9407
-7.9607 -10.8626 -5.5456 0.9434
-7.1665 -10.6516 -5.2865 0.9460
-6.4235 -10.4289 -5.0437 0.9484
-5.7105 -10.1645 -4.8009 0.9508
-4.4753 -9.7203 -4.4065 0.9548
-3.8967 -9.4453 -4.2074 0.9568
-1.2103 -8.0010 -3.3321 0.9656
-0.8569 -7.7627 -3.2159 0.9668
-0.5243 -7.5046 -3.0978 0.9680
-0.2157 -7.2951 -3.0053 0.9689
0.0752 -7.0664 -2.9100 0.9699
0.8446 -6.4001 -2.6583 0.9725
1.2828 -5.9715 -2.5151 0.9739
1.4818 -5.7601 -2.4491 0.9746
2.1649 -4.9463 -2.2233 0.9769
2.3106 -4.7498 -2.1750 0.9774
2.4408 -4.5437 -2.1239 0.9779
2.6756 -4.1438 -2.0311 0.9789
2.8835 -3.7640 -1.9525 0.9797
3.1575 -3.2284 -1.8595 0.9807
3.5076 -2.3768 -1.7447 0.9818
3.7116 -1.7237 -1.6851 0.9825
3.7528 -1.5628 -1.6740 0.9826
3.7901 -1.4024 -1.6641 0.9827
3.8796 -0.9240 -1.6422 0.9829
3.9212 -0.6064 -1.6339 0.9830
3.9488 -0.2890 -1.6304 0.9830
3.9689 0.1888 -1.6362 0.9830
3.9699 0.3491 -1.6410 0.9829
3.9674 0.5103 -1.6471 0.9828
3.9579 0.6717 -1.6531 0.9828
3.9261 0.9962 -1.6679 0.9826
3.8790 1.3238 -1.6877 0.9824
3.8160 1.6552 -1.7128 0.9822
3.7783 1.8226 -1.7274 0.9820
3.7363 1.9912 -1.7434 0.9819
3.6899 2.1611 -1.7609 0.9817
3.5235 2.6809 -1.8231 0.9810
3.4582 2.8577 -1.8473 0.9808
3.3876 3.0365 -1.8733 0.9805
3.3114 3.2173 -1.9012 0.9802
3.1425 3.5871 -1.9637 0.9796
3.0486 3.7758 -1.9983 0.9792
2.8377 4.1582 -2.0730 0.9785
2.5927 4.5445 -2.1545 0.9776
2.3144 4.9407 -2.2467 0.9767
1.8159 5.5259 -2.3952 0.9752
1.6413 5.7662 -2.4687 0.9744
1.2363 6.1964 -2.6019 0.9730
1.0140 6.4163 -2.6749 0.9723
0.5255 6.8697 -2.8371 0.9706
-1.3801 8.2982 -3.4640 0.9643
-2.1975 8.7822 -3.7278 0.9616
-2.6480 9.0257 -3.8732 0.9601
-3.1281 9.2661 -4.0271 0.9586
-4.1933 9.7558 -4.3726 0.9551
-5.4160 10.2440 -4.7716 0.9511
-7.5243 10.8367 -5.4325 0.9445
-10.2078 11.4642 -6.3209 0.9358
-11.2263 11.6312 -6.6566 0.9325
-12.3122 11.7708 -7.0141 0.9290
-14.6858 11.9375 -7.7932 0.9214
-16.2493 12.1576 -8.3567 0.9160
-17.7012 12.1660 -8.8446 0.9113
-18.5711 11.6939 -9.0370 0.9094
-23.3904 11.0512 -10.6526 0.8941
-25.0876 10.6420 -11.2216 0.8888
-26.7966 10.1169 -11.7946 0.8835
-30.1306 8.6842 -12.9123 0.8732
-16.7882 3.4072 -7.0540 0.9286
-16.8538 2.7205 -7.0299 0.9288
-22.4370 -4.5878 -9.4303 0.9057
-31.3471 -9.0845 -13.4393 0.8683
-22.0199 -11.5489 -10.2388 0.8980
-20.4001 -11.7680 -9.6979 0.9031
2.1637 -4.7711 -2.2254 0.9775
2.3007 -4.5750 -2.1754 0.9780
2.4264 -4.3772 -2.1260 0.9785
2.5437 -4.1832 -2.0798 0.9789
2.6533 -3.9926 -2.0364 0.9794
2.8587 -3.6312 -1.9632 0.9801
2.9531 -3.4558 -1.9310 0.9804
3.1243 -3.1112 -1.8730 0.9810
3.2017 -2.9417 -1.8470 0.9813
3.3411 -2.6077 -1.8004 0.9817
3.4037 -2.4430 -1.7798 0.9820
3.5696 -1.9591 -1.7298 0.9825
3.6172 -1.8001 -1.7163 0.9826
3.7003 -1.4839 -1.6936 0.9828
3.7361 -1.3266 -1.6842 0.9829
3.8603 -0.5449 -1.6561 0.9832
3.8745 -0.3889 -1.6542 0.9832
3.8991 0.0801 -1.6567 0.9832
3.8501 1.0312 -1.6932 0.9828
3.8273 1.1918 -1.7028 0.9827
3.8005 1.3533 -1.7138 0.9826
3.5529 2.3442 -1.8082 0.9817
3.4963 2.5142 -1.8294 0.9815
3.3683 2.8591 -1.8768 0.9810
3.2196 3.2118 -1.9319 0.9804
3.0481 3.5736 -1.9953 0.9798
2.9529 3.7579 -2.0302 0.9794
2.8510 3.9446 -2.0675 0.9791
2.7390 4.1296 -2.1050 0.9787
2.6194 4.3164 -2.1448 0.9783
2.4921 4.5053 -2.1871 0.9779
2.2122 4.8896 -2.2798 0.9769
2.0587 5.0852 -2.3305 0.9764
1.8956 5.2833 -2.3844 0.9759
1.7221 5.4834 -2.4415 0.9753
0.9119 6.3096 -2.7082 0.9727
0.6766 6.5243 -2.7864 0.9719
0.4262 6.7411 -2.8694 0.9711
-0.1239 7.1832 -3.0519 0.9693
-0.7475 7.6321 -3.2577 0.9672
-1.0897 7.8568 -3.3695 0.9661
-1.8410 8.3026 -3.6126 0.9637
-2.6919 8.7458 -3.8873 0.9610
-3.6570 9.1833 -4.1990 0.9580
-4.1879 9.3990 -4.3711 0.9563
-5.9996 10.0148 -4.9593 0.9505
-6.6747 10.1892 -5.1744 0.9484
-8.9806 10.6511 -5.9183 0.9412
-13.9739 11.0556 -7.5693 0.9255
-15.2130 11.0718 -7.9928 0.9215
-18.2248 11.1424 -9.0742 0.9113
-18.8251 10.4944 -9.1556 0.9106
-22.7318 9.2904 -10.4319 0.8988
-24.1072 8.7394 -10.8930 0.8945
-16.6399 3.1488 -7.1941 0.9290
-16.8684 2.4947 -7.2437 0.9286
-32.5789 3.4873 -13.9186 0.8673
-33.3533 -0.4650 -14.1699 0.8651
-33.0513 -1.7909 -14.0608 0.8660
-29.3034 -6.3961 -12.7412 0.8778
-28.0389 -7.3119 -12.3093 0.8817
-26.6757 -8.1142 -11.8445 0.8859
-23.7366 -9.3617 -10.8393 0.8950
-18.1324 -10.7815 -8.9614 0.9124
-16.8013 -10.9270 -8.5139 0.9166
-15.4948 -10.9878 -8.0692 0.9208
-13.0727 -10.9487 -7.2437 0.9286
-11.9707 -10.8734 -6.8698 0.9321
-9.9974 -10.6668 -6.2104 0.9384
-9.1262 -10.5573 -5.9282 0.9412
-7.5278 -10.2719 -5.4098 0.9462
-3.7438 -9.0747 -4.1701 0.9582
-3.2432 -8.8549 -4.0059 0.9598
-1.9122 -8.1481 -3.5554 0.9643
-1.5321 -7.9527 -3.4405 0.9654
0.0730 -6.8573 -2.9132 0.9706
0.3380 -6.6445 -2.8263 0.9715
0.8218 -6.2267 -2.6680 0.9731
1.0424 -6.0216 -2.5960 0.9738
1.4447 -5.6158 -2.4633 0.9751
1.6280 -5.4162 -2.4025 0.9757
1.9526 -4.9992 -2.2799 0.9769
2.2575 -4.6408 -2.1923 0.9778
2.3860 -4.4418 -2.1419 0.9783
2.8263 -3.6893 -1.9742 0.9800
3.0131 -3.3393 -1.9106 0.9806
3.0977 -3.1673 -1.8820 0.9809
3.1768 -2.9972 -1.8553 0.9812
3.4439 -2.3337 -1.7672 0.9821
3.5004 -2.1720 -1.7500 0.9823
3.5531 -2.0116 -1.7345 0.9824
3.6020 -1.8523 -1.7206 0.9826
3.6877 -1.5357 -1.6970 0.9828
3.7248 -1.3782 -1.6871 0.9829
3.7877 -1.0646 -1.6714 0.9830
3.8136 -0.9083 -1.6653 0.9831
3.8360 -0.7522 -1.6606 0.9832
3.8905 -0.1279 -1.6536 0.9832
3.8973 0.0286 -1.6556 0.9832
3.9015 0.1856 -1.6593 0.9832
3.8887 0.6599 -1.6755 0.9830
3.8746 0.8190 -1.6823 0.9829
3.8568 0.9786 -1.6903 0.9829
3.8352 1.1390 -1.6995 0.9828
3.7469 1.6252 -1.7350 0.9824
3.6212 2.1209 -1.7827 0.9819
3.2454 3.1532 -1.9222 0.9805
3.1647 3.3323 -1.9522 0.9802
2.5348 4.4430 -2.1729 0.9780
2.1102 5.0206 -2.3135 0.9766
1.9390 5.1875 -2.3526 0.9762
1.1992 6.0105 -2.6036 0.9737
0.5102 6.6696 -2.8415 0.9713
0.2492 6.8884 -2.9281 0.9705
-0.0287 7.1099 -3.0203 0.9696
-0.3246 7.3338 -3.1185 0.9686
-0.6396 7.5586 -3.2224 0.9676
-0.9749 7.7828 -3.3320 0.9665
-3.0023 8.8935 -3.9874 0.9600
-3.4897 9.1114 -4.1447 0.9585
-4.0097 9.3286 -4.3134 0.9568
-4.5637 9.5413 -4.4929 0.9551
-5.1541 9.7488 -4.6845 0.9532
-5.7865 9.9549 -4.8914 0.9512
-7.1515 10.2998 -5.3266 0.9470
-8.7047 10.6050 -5.8283 0.9421
-9.5368 10.7105 -6.0921 0.9396
-16.1274 11.0843 -8.3130 0.9185
-17.4891 11.0126 -8.7796 0.9141
-18.6339 10.7128 -9.1306 0.9108
-19.5122 10.1973 -9.3525 0.9088
-20.8876 9.8687 -9.8136 0.9045
-22.2759 9.4493 -10.2790 0.9002
-23.6580 8.9319 -10.7424 0.8959
-25.0113 8.3109 -11.1961 0.8918
-27.3614 7.8860 -12.0963 0.8836
-16.9386 4.1527 -7.4086 0.9270
-16.6264 3.3743 -7.2069 0.9289
-16.6873 2.6936 -7.1805 0.9292
-33.3886 -0.0244 -14.1835 0.8649
-29.6264 -4.8267 -12.7513 0.8777
-22.2765 -4.5549 -9.6589 0.9059
-28.4719 -7.0244 -12.4576 0.8803
-27.1382 -7.8648 -12.0027 0.8844
-25.6832 -8.5759 -11.5024 0.8890
-24.2286 -9.1879 -11.0075 0.8935
-22.7541 -9.6915 -10.5062 0.8981
-21.3105 -10.1068 -10.0193 0.9026
-19.9324 -10.4541 -9.5612 0.9068
-17.2314 -10.8855 -8.6582 0.9152
2.1154 -4.6645 -2.2431 0.9779
2.7031 -3.7330 -2.0185 0.9801
2.8028 -3.5602 -1.9844 0.9804
2.8963 -3.3894 -1.9525 0.9807
3.0660 -3.0531 -1.8949 0.9813
3.2144 -2.7235 -1.8451 0.9818
3.4558 -2.0816 -1.7668 0.9825
3.5071 -1.9248 -1.7520 0.9827
3.5543 -1.7688 -1.7387 0.9828
3.5975 -1.6133 -1.7267 0.9829
3.6368 -1.4584 -1.7160 0.9830
3.7042 -1.1499 -1.6986 0.9832
3.7323 -0.9961 -1.6918 0.9833
3.7569 -0.8425 -1.6862 0.9833
3.7780 -0.6891 -1.6818 0.9834
3.8095 -0.3823 -1.6767 0.9834
3.8201 -0.2289 -1.6760 0.9834
3.8272 -0.0752 -1.6764 0.9834
3.8364 0.2333 -1.6832 0.9834
3.8359 0.3885 -1.6885 0.9833
3.8286 0.5439 -1.6936 0.9833
3.8170 0.6998 -1.6995 0.9832
3.8017 0.8561 -1.7066 0.9831
3.7331 1.3293 -1.7354 0.9828
3.4864 2.3003 -1.8293 0.9819
3.4302 2.4666 -1.8503 0.9817
3.1560 3.1484 -1.9523 0.9807
2.9860 3.5007 -2.0151 0.9801
2.8917 3.6799 -2.0496 0.9798
2.6804 4.0412 -2.1237 0.9790
2.4368 4.4053 -2.2048 0.9783
2.3031 4.5900 -2.2490 0.9778
1.9980 4.9351 -2.3317 0.9770
1.8395 5.1270 -2.3855 0.9765
1.4987 5.5423 -2.5144 0.9752
1.3068 5.7384 -2.5775 0.9746
0.8870 6.1376 -2.7159 0.9733
0.6576 6.3417 -2.7922 0.9725
-0.1201 6.9632 -3.0499 0.9700
-0.4125 7.1737 -3.1469 0.9691
-1.0532 7.5937 -3.3575 0.9671
-2.5886 8.4103 -3.8538 0.9623
-6.3393 9.6772 -5.0664 0.9507
-7.0039 9.8080 -5.2781 0.9487
-8.4568 10.0299 -5.7456 0.9443
-9.2591 10.1261 -6.0091 0.9418
-11.0067 10.2478 -6.5862 0.9364
-12.9535 10.2483 -7.2337 0.9304
-14.0001 10.1891 -7.5832 0.9272
-15.1391 10.1133 -7.9734 0.9236
-17.5407 9.7783 -8.7949 0.9160
-18.7594 9.4906 -9.2071 0.9123
-20.1599 9.2012 -9.7051 0.9078
-21.1359 8.6382 -9.9996 0.9051
-23.4825 7.4599 -10.7905 0.8980
-24.6132 6.7431 -11.1764 0.8945
-16.4531 3.8040 -7.3957 0.9289
-16.4481 3.1125 -7.3312 0.9295
-16.6172 2.4575 -7.3566 0.9293
-28.0419 3.0016 -12.3510 0.8841
-28.4893 1.8957 -12.5043 0.8828
-28.7355 0.7545 -12.5889 0.8820
-28.7472 -0.4008 -12.5909 0.8820
-28.5043 -1.5445 -12.5016 0.8828
-27.3747 -2.5898 -12.0421 0.8869
-25.1069 -4.4316 -11.1654 0.8946
-24.6730 -6.4341 -11.1668 0.8946
-23.6170 -7.1838 -10.8109 0.8978
-21.3277 -8.4117 -10.0406 0.9047
-20.1498 -8.8986 -9.6467 0.9083
-18.9821 -9.3116 -9.2595 0.9118
-12.1340 -10.1626 -6.9316 0.9332
-11.1693 -10.1454 -6.6082 0.9362
-10.2539 -10.0950 -6.3017 0.9391
-9.4085 -10.0385 -6.0254 0.9417
-8.6118 -9.9622 -5.7671 0.9441
-5.7914 -9.4027 -4.8363 0.9529
-4.0953 -8.8950 -4.2886 0.9581
-3.5901 -8.7020 -4.1226 0.9597
-3.1151 -8.5051 -3.9667 0.9612
-2.6675 -8.3017 -3.8188 0.9626
-2.2463 -8.0943 -3.6789 0.9640
-1.8510 -7.8871 -3.5480 0.9652
-1.4796 -7.6801 -3.4253 0.9664
-1.1309 -7.4764 -3.3115 0.9675
-0.8025 -7.2704 -3.2034 0.9686
-0.4936 -7.0651 -3.1017 0.9695
-0.2028 -6.8610 -3.0061 0.9705
0.3285 -6.4574 -2.8316 0.9722
0.5712 -6.2582 -2.7521 0.9729
0.7999 -6.0608 -2.6773 0.9737
1.4090 -5.4773 -2.4768 0.9756
1.7581 -5.0966 -2.3611 0.9767
1.9176 -4.9096 -2.3083 0.9772
2.5626 -3.9688 -2.0689 0.9796
2.8662 -3.4453 -1.9627 0.9806
3.0396 -3.1079 -1.9039 0.9812
3.1181 -2.9418 -1.8774 0.9815
3.1914 -2.7772 -1.8528 0.9817
3.2597 -2.6141 -1.8299 0.9819
3.5392 -1.8200 -1.7429 0.9828
3.5837 -1.6643 -1.7305 0.9829
3.6243 -1.5093 -1.7194 0.9830
3.6611 -1.3547 -1.7096 0.9831
3.6941 -1.2005 -1.7011 0.9832
3.7492 -0.8930 -1.6879 0.9833
3.8318 0.0281 -1.6782 0.9834
3.8358 0.1825 -1.6818 0.9834
3.8364 0.3374 -1.6866 0.9833
3.8212 0.6485 -1.6974 0.9832
3.8071 0.8047 -1.7041 0.9832
3.7677 1.1189 -1.7213 0.9830
3.7423 1.2771 -1.7317 0.9829
3.7129 1.4361 -1.7435 0.9828
3.6796 1.5960 -1.7565 0.9826
3.6005 1.9188 -1.7867 0.9823
3.5544 2.0818 -1.8040 0.9822
3.3253 2.7478 -1.8892 0.9813
3.2561 2.9186 -1.9150 0.9811
3.1816 3.0912 -1.9427 0.9808
3.1016 3.2658 -1.9725 0.9805
3.0156 3.4422 -2.0042 0.9802
2.9234 3.6208 -2.0380 0.9799
2.6020 4.1626 -2.1498 0.9788
2.0607 4.9030 -2.3292 0.9770
1.7276 5.2572 -2.4235 0.9761
1.5593 5.4782 -2.4945 0.9754
1.1714 5.8712 -2.6219 0.9742
0.2419 6.6858 -2.9299 0.9712
-0.0278 6.8943 -3.0193 0.9703
-0.3144 7.1044 -3.1144 0.9694
-0.6191 7.3158 -3.2154 0.9684
-1.6505 7.9385 -3.5510 0.9652
-2.0374 8.1424 -3.6759 0.9640
-2.8843 8.5438 -3.9492 0.9614
-4.3628 9.1211 -4.4280 0.9568
-4.9178 9.3018 -4.6080 0.9551
-6.1286 9.6308 -4.9993 0.9514
-6.7815 9.7668 -5.2073 0.9494
-7.4711 9.8869 -5.4271 0.9473
-9.8265 10.1810 -6.1968 0.9401
-11.6372 10.2629 -6.7952 0.9345
-12.6206 10.2588 -7.1228 0.9314
-18.3614 9.5959 -9.0732 0.9135
-19.8763 9.3910 -9.6274 0.9085
-20.7830 8.8161 -9.8869 0.9061
-23.4951 7.8070 -10.8428 0.8975
-24.2492 6.9891 -11.0521 0.8957
-16.4445 4.0316 -7.4151 0.9287
-16.5011 2.6636 -7.3201 0.9296
-28.3651 2.2642 -12.4619 0.8832
-28.6782 1.1322 -12.5693 0.8822
-28.7706 -0.0211 -12.6000 0.8819
-28.6081 -1.1714 -12.5393 0.8825
-28.2082 -2.2932 -12.3944 0.8837
-25.9893 -4.2342 -11.5320 0.8914
-22.1569 -4.5305 -9.9043 0.9060
-24.3409 -6.0053 -10.9796 0.8963
-23.9741 -6.9478 -10.9314 0.8967
-22.8783 -7.6393 -10.5633 0.9000
-19.3651 -9.1841 -9.3863 0.9107
-15.7894 -9.9746 -8.1791 0.9217
2.0683 -4.5607 -2.2596 0.9783
2.5450 -3.8296 -2.0748 0.9800
2.6499 -3.6595 -2.0387 0.9804
3.0854 -2.8348 -1.8906 0.9818
3.1565 -2.6744 -1.8667 0.9820
3.2844 -2.3573 -1.8242 0.9824
3.3414 -2.2004 -1.8052 0.9826
3.4461 -1.8913 -1.7737 0.9829
3.5358 -1.5857 -1.7485 0.9831
3.5749 -1.4336 -1.7379 0.9832
3.6101 -1.2818 -1.7286 0.9833
3.6940 -0.8284 -1.7082 0.9835
3.7322 -0.5268 -1.7007 0.9836
3.7461 -0.3760 -1.6988 0.9836
3.7709 0.3819 -1.7102 0.9835
3.7512 0.6877 -1.7208 0.9834
3.7359 0.8413 -1.7279 0.9833
3.6674 1.3059 -1.7566 0.9831
3.6368 1.4622 -1.7687 0.9829
3.6023 1.6193 -1.7821 0.9828
3.5636 1.7774 -1.7969 0.9827
3.5207 1.9364 -1.8130 0.9825
3.4734 2.0965 -1.8306 0.9824
3.3052 2.5844 -1.8932 0.9818
3.2401 2.7503 -1.9177 0.9815
3.1699 2.9178 -1.9440 0.9813
2.8324 3.6044 -2.0684 0.9801
2.7325 3.7807 -2.1048 0.9797
2.5072 4.1314 -2.1806 0.9790
2.3833 4.3087 -2.2217 0.9786
2.2516 4.4874 -2.2654 0.9782
1.9517 4.8207 -2.3467 0.9774
1.7959 5.0055 -2.3995 0.9769
1.4614 5.4043 -2.5261 0.9757
1.2735 5.5921 -2.5878 0.9751
0.4022 6.3620 -2.8764 0.9724
0.1505 6.5577 -2.9597 0.9716
-0.1165 6.7542 -3.0481 0.9708
-0.7002 7.1498 -3.2416 0.9690
-1.3562 7.5379 -3.4558 0.9669
-1.7133 7.7267 -3.5711 0.9659
-2.0915 7.9132 -3.6932 0.9647
-2.9162 8.2760 -3.9593 0.9622
-3.3652 8.4505 -4.1042 0.9609
-3.8401 8.6183 -4.2573 0.9594
-4.3441 8.7823 -4.4210 0.9579
-5.4418 9.0837 -4.7779 0.9546
-6.6522 9.3155 -5.1650 0.9510
-7.9865 9.4721 -5.5905 0.9471
-8.7227 9.5395 -5.8325 0.9449
-10.3144 9.6032 -6.3589 0.9400
-11.1685 9.5903 -6.6424 0.9374
-12.0635 9.5441 -6.9408 0.9347
-16.0237 8.9326 -8.2777 0.9226
-19.1908 7.8432 -9.3545 0.9130
-20.1948 7.3211 -9.6925 0.9100
-21.1720 6.7259 -10.0236 0.9071
-22.0747 6.0477 -10.3275 0.9044
-16.3494 3.0938 -7.5081 0.9296
-16.4186 2.4282 -7.4889 0.9298
-24.6478 2.6383 -11.1850 0.8969
-24.9652 1.6612 -11.2896 0.8960
-25.1642 0.6607 -11.3584 0.8954
-25.2117 -0.3515 -11.3771 0.8953
-25.0502 -1.3574 -11.3197 0.8958
-24.7212 -2.3388 -11.2044 0.8968
-21.9985 -4.8017 -10.1598 0.9059
-21.2428 -6.4616 -10.0187 0.9072
-20.3369 -7.0906 -9.7181 0.9098
-19.3889 -7.6470 -9.4044 0.9126
-17.3113 -8.4920 -8.7004 0.9189
-16.2903 -8.8202 -8.3587 0.9219
-15.1899 -9.0319 -7.9740 0.9254
-14.2071 -9.2398 -7.6470 0.9283
-13.2037 -9.3631 -7.3037 0.9314
-12.2361 -9.4382 -6.9728 0.9344
-11.3314 -9.4904 -6.6693 0.9372
-10.4628 -9.5037 -6.3778 0.9399
-7.4464 -9.3484 -5.3928 0.9489
-6.1415 -9.1282 -4.9643 0.9529
-4.9716 -8.8493 -4.5799 0.9564
-4.4337 -8.6924 -4.4029 0.9581
-3.9260 -8.5272 -4.2358 0.9596
-2.9949 -8.1770 -3.9293 0.9625
-2.1657 -7.8037 -3.6542 0.9651
-1.7811 -7.5893 -3.5175 0.9664
-1.4304 -7.4249 -3.4118 0.9674
-1.0946 -7.2362 -3.3022 0.9684
-0.4787 -6.8517 -3.0991 0.9703
-0.1969 -6.6600 -3.0064 0.9712
0.0688 -6.4689 -2.9190 0.9720
0.3194 -6.2788 -2.8368 0.9728
0.5559 -6.0898 -2.7593 0.9735
0.7789 -5.9021 -2.6862 0.9742
1.1840 -5.5115 -2.5436 0.9756
1.3748 -5.3441 -2.4899 0.9761
1.8644 -4.7733 -2.3123 0.9778
2.0093 -4.5909 -2.2612 0.9782
2.2822 -4.2485 -2.1761 0.9791
2.3993 -4.0656 -2.1301 0.9795
2.5091 -3.8859 -2.0871 0.9799
2.6162 -3.7152 -2.0503 0.9803
2.7168 -3.5464 -2.0158 0.9806
2.8114 -3.3793 -1.9835 0.9809
2.9000 -3.2140 -1.9533 0.9812
2.9831 -3.0502 -1.9251 0.9815
3.0609 -2.8879 -1.8988 0.9817
3.2015 -2.5674 -1.8517 0.9822
3.2646 -2.4091 -1.8307 0.9824
3.3232 -2.2519 -1.8113 0.9825
3.5625 -1.4835 -1.7412 0.9832
3.6609 -1.0290 -1.7159 0.9835
3.6864 -0.8780 -1.7099 0.9835
3.7084 -0.7271 -1.7052 0.9836
3.7535 -0.2747 -1.6982 0.9836
3.7679 0.0276 -1.7002 0.9836
3.7721 0.3317 -1.7086 0.9835
3.7659 0.4844 -1.7132 0.9835
3.7554 0.6373 -1.7187 0.9834
3.7413 0.7908 -1.7254 0.9834
3.7235 0.9448 -1.7333 0.9833
3.6766 1.2547 -1.7529 0.9831
3.6473 1.4107 -1.7645 0.9830
3.5352 1.8840 -1.8075 0.9826
3.4894 2.0437 -1.8247 0.9824
3.1197 3.0311 -1.9627 0.9811
3.0403 3.2012 -1.9921 0.9808
2.9551 3.3732 -2.0235 0.9805
2.8637 3.5469 -2.0570 0.9802
2.7660 3.7225 -2.0926 0.9799
2.4249 4.2502 -2.2079 0.9788
2.2958 4.4285 -2.2508 0.9783
2.1587 4.6083 -2.2962 0.9779
1.1410 5.7189 -2.6313 0.9747
0.2349 6.4933 -2.9318 0.9719
-0.0270 6.6895 -3.0185 0.9711
-0.3048 6.8869 -3.1105 0.9702
-1.5936 7.6649 -3.5325 0.9662
-2.7741 8.2176 -3.9135 0.9627
-3.2148 8.3938 -4.0557 0.9613
-4.1752 8.7290 -4.3660 0.9584
-4.6991 8.8880 -4.5364 0.9568
-5.8364 9.1716 -4.9052 0.9534
-7.0854 9.3765 -5.3029 0.9497
-7.7573 9.4508 -5.5169 0.9478
-8.4754 9.5185 -5.7507 0.9456
-9.2405 9.5738 -6.0038 0.9433
-10.0431 9.6014 -6.2694 0.9408
-12.6834 9.4896 -7.1475 0.9328
-13.6398 9.3746 -7.4680 0.9299
-14.6306 9.2126 -7.8013 0.9269
-16.7367 8.7468 -8.5210 0.9205
-19.8679 7.5010 -9.5824 0.9110
-20.8560 6.9301 -9.9165 0.9081
-16.3332 3.3148 -7.5201 0.9295
-16.3741 2.6431 -7.4839 0.9298
-24.8749 1.9856 -11.2597 0.8963
-25.1128 0.9915 -11.3402 0.8956
-25.2143 -0.0185 -11.3771 0.8953
-23.1229 -3.7672 -10.5710 0.9023
-21.5334 -6.2405 -10.1160 0.9063
-20.6388 -6.8915 -9.8180 0.9089
-18.7272 -7.9764 -9.1846 0.9145
-17.6853 -8.3874 -8.8319 0.9177
-16.6393 -8.7269 -8.4779 0.9209
-15.5831 -8.9892 -8.1174 0.9241
-14.5436 -9.1876 -7.7621 0.9273
1.8705 -4.6082 -2.3107 0.9783
2.2717 -4.0982 -2.1771 0.9795
2.4945 -3.7537 -2.0940 0.9803
2.5983 -3.5882 -2.0584 0.9806
2.6959 -3.4244 -2.0249 0.9810
3.0295 -2.7835 -1.9115 0.9820
3.1658 -2.4708 -1.8659 0.9824
3.2270 -2.3161 -1.8455 0.9826
3.2833 -2.1621 -1.8265 0.9828
3.3371 -2.0101 -1.8100 0.9830
3.3868 -1.8588 -1.7950 0.9831
3.4757 -1.5587 -1.7698 0.9833
3.6084 -0.9630 -1.7352 0.9837
3.6326 -0.8146 -1.7297 0.9837
3.6532 -0.6663 -1.7254 0.9838
3.6841 -0.3698 -1.7203 0.9838
3.6870 0.6759 -1.7416 0.9836
3.6717 0.8269 -1.7487 0.9835
3.5729 1.4365 -1.7892 0.9832
3.5384 1.5907 -1.8025 0.9830
3.4999 1.7456 -1.8172 0.9829
3.4572 1.9015 -1.8332 0.9827
3.3589 2.2162 -1.8697 0.9824
3.3034 2.3755 -1.8905 0.9822
3.2437 2.5363 -1.9131 0.9820
3.1791 2.6985 -1.9374 0.9818
3.0343 3.0270 -1.9914 0.9813
2.8673 3.3615 -2.0528 0.9807
2.5688 3.8731 -2.1593 0.9797
2.4538 4.0435 -2.1976 0.9794
2.3317 4.2153 -2.2382 0.9790
2.2019 4.3884 -2.2812 0.9786
2.0642 4.5626 -2.3268 0.9782
1.5994 5.0929 -2.4802 0.9767
1.4256 5.2717 -2.5373 0.9762
0.6209 5.9873 -2.7968 0.9738
0.1462 6.3706 -2.9607 0.9723
-0.1131 6.5560 -3.0465 0.9715
-0.9862 7.1105 -3.3353 0.9688
-1.6550 7.4640 -3.5522 0.9668
-2.4016 7.8027 -3.7931 0.9646
-3.2343 8.1220 -4.0619 0.9622
-3.6855 8.2714 -4.2073 0.9608
-4.1612 8.4124 -4.3606 0.9594
-5.1950 8.6716 -4.6967 0.9564
-7.5700 8.9782 -5.4564 0.9495
-8.2399 9.0114 -5.6734 0.9476
-9.6958 9.0273 -6.1552 0.9432
-12.9689 8.6635 -7.2465 0.9335
-13.8466 8.4656 -7.5406 0.9309
-14.7509 8.2231 -7.8466 0.9282
-17.5036 7.1536 -8.7855 0.9200
-19.2149 6.1042 -9.3674 0.9149
-19.9677 5.4705 -9.6193 0.9127
-22.1103 2.3667 -10.3316 0.9066
-22.5218 -0.3140 -10.4652 0.9054
-22.3938 -1.2134 -10.4199 0.9058
-22.0428 -2.0854 -10.2873 0.9070
-20.6794 -4.5137 -9.8343 0.9109
-20.0338 -5.2243 -9.6194 0.9127
-17.7068 -6.9836 -8.8437 0.9195
-14.0813 -8.3727 -7.6117 0.9303
-13.1703 -8.5655 -7.2995 0.9331
-11.4375 -8.8221 -6.7113 0.9383
-10.6218 -8.8961 -6.4374 0.9407
-9.8419 -8.9398 -6.1776 0.9430
-8.4043 -8.9671 -5.7102 0.9472
-7.7269 -8.9386 -5.4897 0.9492
-7.0729 -8.8795 -5.2745 0.9512
-6.4494 -8.8004 -5.0693 0.9530
-5.8564 -8.7044 -4.8744 0.9548
-5.2926 -8.5929 -4.6890 0.9565
-4.7569 -8.4673 -4.5124 0.9581
-3.3138 -8.0323 -4.0371 0.9624
-2.0832 -7.5065 -3.6195 0.9662
-0.1912 -6.4685 -3.0067 0.9719
0.9614 -5.5540 -2.6189 0.9754
1.1587 -5.3940 -2.5634 0.9760
1.3419 -5.2161 -2.5024 0.9765
1.5148 -5.0396 -2.4450 0.9771
1.6780 -4.8644 -2.3908 0.9776
2.5649 -3.6424 -2.0698 0.9805
2.8458 -3.1539 -1.9737 0.9814
2.9282 -2.9940 -1.9458 0.9817
3.0774 -2.6781 -1.8954 0.9822
3.2074 -2.3668 -1.8520 0.9826
3.2652 -2.2126 -1.8326 0.9828
3.3709 -1.9085 -1.7998 0.9831
3.4621 -1.6079 -1.7736 0.9833
3.5021 -1.4584 -1.7626 0.9834
3.5708 -1.1604 -1.7445 0.9836
3.5997 -1.0118 -1.7373 0.9836
3.6250 -0.8634 -1.7314 0.9837
3.6468 -0.7151 -1.7267 0.9837
3.6800 -0.4185 -1.7208 0.9838
3.6994 -0.1216 -1.7198 0.9838
3.7054 0.0272 -1.7217 0.9838
3.6912 0.6264 -1.7395 0.9836
3.6771 0.7772 -1.7462 0.9836
3.6378 1.0803 -1.7632 0.9834
3.5130 1.6946 -1.8122 0.9829
3.4262 2.0067 -1.8448 0.9826
3.3762 2.1642 -1.8633 0.9825
3.3221 2.3230 -1.8834 0.9823
3.2639 2.4833 -1.9055 0.9821
3.2009 2.6450 -1.9293 0.9819
3.1328 2.8081 -1.9547 0.9816
2.9808 3.1386 -2.0111 0.9811
2.8963 3.3061 -2.0422 0.9808
2.8059 3.4753 -2.0753 0.9805
2.7092 3.6461 -2.1105 0.9802
2.4924 3.9873 -2.1848 0.9795
2.1104 4.5052 -2.3115 0.9783
1.1119 5.5729 -2.6403 0.9752
0.9095 5.7553 -2.7072 0.9746
0.4685 6.1247 -2.8540 0.9733
0.2282 6.3097 -2.9336 0.9725
-0.2956 6.6804 -3.1069 0.9709
-0.5810 6.8657 -3.2014 0.9701
-1.5400 7.4070 -3.5150 0.9672
-1.8965 7.5794 -3.6301 0.9661
-2.6711 7.9124 -3.8801 0.9638
-3.0912 8.0712 -4.0157 0.9626
-3.5346 8.2232 -4.1587 0.9613
-4.0020 8.3670 -4.3093 0.9599
-4.4962 8.5043 -4.4696 0.9585
-5.0176 8.6322 -4.6391 0.9569
-6.1393 8.8419 -5.0013 0.9536
-7.3593 8.9659 -5.3893 0.9501
-8.7150 9.0294 -5.8306 0.9462
-9.4483 9.0328 -6.0733 0.9440
-10.2116 9.0057 -6.3260 0.9417
-11.0092 8.9490 -6.5918 0.9393
-11.8331 8.8535 -6.8665 0.9369
-12.6841 8.7177 -7.1510 0.9344
-13.5566 8.5363 -7.4434 0.9318
-14.4495 8.3072 -7.7440 0.9291
-16.1976 3.9711 -7.7486 0.9291
-16.2036 3.2885 -7.6820 0.9297
-16.2404 2.6215 -7.6433 0.9300
-22.2910 1.7793 -10.3898 0.9061
-22.5287 -0.0165 -10.4673 0.9054
-22.4508 -0.9193 -10.4399 0.9056
-22.2331 -1.8074 -10.3641 0.9063
-21.8842 -2.6678 -10.2432 0.9073
-19.5594 -5.6684 -9.4617 0.9141
-18.8038 -6.2788 -9.2108 0.9163
-17.1219 -7.2926 -8.6468 0.9212
-16.1647 -7.6663 -8.3123 0.9241
-15.2498 -7.9982 -8.0008 0.9269
