ply
format ascii 1.0
element vertex 1373
property float32 x
property float32 y
property float32 z
property float32 CosAngle
property uint32 ObjIdx
property uint32 ObjTag
end_header
1.7855 -15.2939 -2.2772 0.1818 0 1
2.2331 -14.1550 -2.1193 0.2025 0 1
2.6358 -13.2249 -1.9943 0.2097 0 1
2.9862 -12.3643 -1.8812 0.2223 0 1
3.2945 -11.5778 -1.7803 0.2320 0 1
3.5722 -10.8710 -1.6923 0.2415 0 1
3.8215 -10.2229 -1.6141 0.2527 0 1
4.0457 -9.6229 -1.5438 0.2660 0 1
4.2489 -9.0666 -1.4808 0.2773 0 1
4.4327 -8.5460 -1.4238 0.2879 0 1
4.5990 -8.0559 -1.3719 0.2988 0 1
4.7505 -7.5942 -1.3248 0.3123 0 1
4.8909 -7.1607 -1.2825 0.3226 0 1
5.0099 -6.7360 -1.2415 0.3245 0 1
5.1075 -6.3194 -1.2017 0.3352 0 1
5.1958 -5.9242 -1.1654 0.3457 0 1
5.2758 -5.5481 -1.1323 0.3558 0 1
5.3511 -5.1919 -1.1027 0.3687 0 1
5.4196 -4.8506 -1.0757 0.3780 0 1
5.4818 -4.5225 -1.0510 0.3869 0 1
5.5382 -4.2062 -1.0285 0.3953 0 1
5.5913 -3.9020 -1.0084 0.3954 0 1
5.6517 -3.6149 -0.9922 0.4071 0 1
5.7069 -3.3345 -0.9775 0.4133 0 1
5.7575 -3.0602 -0.9643 0.4189 0 1
5.8037 -2.7913 -0.9524 0.4241 0 1
5.8458 -2.5271 -0.9419 0.4289 0 1
5.8846 -2.2674 -0.9327 0.4343 0 1
5.9210 -2.0118 -0.9249 0.4380 0 1
5.9539 -1.7591 -0.9182 0.4411 0 1
5.9833 -1.5089 -0.9126 0.4438 0 1
3.8783 -0.8136 -0.5861 0.3637 25 14
3.8291 -0.6436 -0.5742 0.9627 25 14
3.8204 -0.4850 -0.5696 0.9706 25 14
3.8117 -0.3287 -0.5658 0.9770 25 14
3.8027 -0.1742 -0.5630 0.9819 25 14
3.7945 -0.0209 -0.5612 0.9801 25 14
3.8015 0.1321 -0.5626 0.9827 25 14
3.8118 0.2864 -0.5653 0.9778 25 14
3.8220 0.4424 -0.5690 0.9715 25 14
3.8320 0.6007 -0.5736 0.9637 25 14
3.8419 0.7618 -0.5793 0.9543 25 14
6.1435 1.4773 -0.9345 0.4365 0 1
6.1385 1.7402 -0.9436 0.4372 0 1
6.1299 2.0076 -0.9540 0.4325 0 1
6.1177 2.2800 -0.9656 0.4274 0 1
6.1018 2.5582 -0.9785 0.4218 0 1
6.0750 2.8396 -0.9918 0.4119 0 1
6.0432 3.1270 -1.0063 0.4060 0 1
6.0070 3.4215 -1.0224 0.3996 0 1
5.9662 3.7239 -1.0401 0.3928 0 1
5.9203 4.0351 -1.0596 0.3856 0 1
5.8641 4.3524 -1.0800 0.3932 0 1
5.7936 4.6731 -1.1008 0.3855 0 1
5.7205 5.0072 -1.1243 0.3774 0 1
5.6407 5.3532 -1.1501 0.3690 0 1
5.5535 5.7124 -1.1783 0.3601 0 1
5.4582 6.0864 -1.2091 0.3510 0 1
5.3510 6.4731 -1.2421 0.3721 0 1
5.2113 6.8476 -1.2726 0.3632 0 1
5.0611 7.2371 -1.3061 0.3539 0 1
4.8994 7.6432 -1.3427 0.3442 0 1
4.7264 8.0708 -1.3832 0.3256 0 1
4.5544 8.5484 -1.4325 0.3144 0 1
4.3628 9.0484 -1.4856 0.3087 0 1
4.1960 9.6799 -1.5603 0.2795 0 2
3.9274 10.1629 -1.6114 0.9286 0 2
3.5794 10.5006 -1.6407 0.8822 0 2
3.2860 11.0815 -1.7094 0.2281 0 2
2.9978 11.8381 -1.8060 0.2159 0 2
2.6715 12.6727 -1.9154 0.2036 0 2
2.2999 13.6006 -2.0400 0.1911 0 2
1.8734 14.6411 -2.1830 0.1786 0 2
1.3828 15.8516 -2.3533 0.1760 0 2
0.8489 18.1417 -2.6860 0.1534 0 2
0.1283 19.7053 -2.9143 0.1392 0 1
-0.7372 21.8396 -3.2318 0.1280 0 1
-1.7983 24.2591 -3.5976 0.1196 0 1
-3.0819 26.8588 -3.9983 0.1146 0 1
-4.6893 30.1099 -4.5067 0.0956 0 1
-6.7922 34.4345 -5.1908 0.0787 0 1
-9.7012 40.5191 -6.1619 0.0647 0 1
-15.1553 46.4308 -7.2234 0.2049 0 15
-27.6282 37.3008 -6.8650 0.5994 0 3
-29.3686 36.4840 -6.9267 0.6294 0 3
-28.5184 32.6459 -6.4109 0.4997 0 3
-29.5243 31.1713 -6.3497 0.6866 0 3
-28.6575 27.9150 -5.9167 0.9796 0 3
-18.3988 16.5326 -3.6582 0.6995 0 22
-19.9631 16.5358 -3.8337 0.6196 0 22
-29.7360 22.6769 -5.5306 0.7883 0 3
-32.3381 22.6629 -5.8401 0.5732 0 3
-34.6065 22.2314 -6.0832 0.8320 0 3
-30.0163 17.6179 -5.1474 0.9898 0 3
-30.0434 16.0447 -5.0372 0.7222 0 3
-34.7819 16.8129 -5.7135 0.8563 0 3
-40.7481 17.7109 -6.5710 0.4004 0 3
-43.0674 16.6923 -6.8311 0.2616 0 3
-28.0542 7.1337 -4.2811 0.8485 0 6
-26.0318 -17.6674 -4.6529 0.9122 15 6
-35.5613 -33.6157 -7.2372 0.5362 0 20
-32.6470 -33.4491 -6.9126 0.9050 0 20
-31.8462 -35.3706 -7.0390 0.8883 0 20
-11.1339 -43.6051 -6.6558 0.0642 0 1
-7.6767 -36.0624 -5.4529 0.0712 0 24
-5.3366 -31.1837 -4.6789 0.0831 0 1
-3.5067 -26.9817 -4.0240 0.0875 0 1
-2.1332 -23.9083 -3.5499 0.1092 0 1
-1.0497 -21.5200 -3.1865 0.1110 0 1
-0.1671 -19.6920 -2.9124 0.1359 0 1
0.5750 -18.0942 -2.6774 0.1317 0 1
1.1930 -16.5364 -2.4520 0.1688 0 1
1.7361 -15.3988 -2.2918 0.1806 0 1
2.1905 -14.2503 -2.1323 0.2013 0 1
2.5989 -13.3143 -2.0063 0.2084 0 1
2.9536 -12.4450 -1.8917 0.2211 0 1
3.2658 -11.6517 -1.7896 0.2308 0 1
3.5462 -10.9375 -1.7005 0.2403 0 1
3.7982 -10.2845 -1.6214 0.2515 0 1
4.0246 -9.6797 -1.5504 0.2649 0 1
4.2298 -9.1196 -1.4867 0.2762 0 1
4.4155 -8.5958 -1.4292 0.2868 0 1
4.5833 -8.1027 -1.3768 0.2978 0 1
4.7361 -7.6382 -1.3292 0.3084 0 1
4.8777 -7.2023 -1.2865 0.3216 0 1
4.9998 -6.7782 -1.2457 0.3234 0 1
5.0984 -6.3593 -1.2054 0.3342 0 1
5.1876 -5.9621 -1.1688 0.3447 0 1
5.2683 -5.5842 -1.1354 0.3548 0 1
5.3440 -5.2262 -1.1055 0.3678 0 1
5.4132 -4.8835 -1.0782 0.3771 0 1
5.4760 -4.5541 -1.0533 0.3860 0 1
5.5329 -4.2367 -1.0306 0.3945 0 1
5.5860 -3.9312 -1.0102 0.3947 0 1
5.6460 -3.6428 -0.9937 0.4065 0 1
5.7017 -3.3617 -0.9789 0.4127 0 1
5.7527 -3.0868 -0.9655 0.4184 0 1
5.7993 -2.8174 -0.9535 0.4236 0 1
5.8419 -2.5529 -0.9429 0.4284 0 1
5.8808 -2.2927 -0.9335 0.4339 0 1
5.9176 -2.0368 -0.9256 0.4376 0 1
5.9508 -1.7838 -0.9188 0.4408 0 1
5.9806 -1.5333 -0.9131 0.4436 0 1
3.9087 -0.8361 -0.5911 0.3605 25 14
3.8299 -0.6593 -0.5747 0.9618 25 14
3.8213 -0.5005 -0.5700 0.9699 25 14
3.8125 -0.3440 -0.5661 0.9764 25 14
3.8036 -0.1893 -0.5632 0.9815 25 14
3.7952 -0.0360 -0.5613 0.9799 25 14
3.8005 0.1170 -0.5623 0.9781 25 14
3.8108 0.2711 -0.5650 0.9784 25 14
3.8210 0.4270 -0.5686 0.9722 25 14
3.8310 0.5850 -0.5732 0.9645 25 14
3.8410 0.7458 -0.5787 0.9553 25 14
4.1502 0.9807 -0.6307 0.3380 25 14
6.1392 1.7142 -0.9427 0.4376 0 1
6.1309 1.9811 -0.9529 0.4329 0 1
6.1191 2.2530 -0.9644 0.4280 0 1
6.1035 2.5306 -0.9772 0.4223 0 1
6.0779 2.8117 -0.9904 0.4125 0 1
6.0465 3.0984 -1.0048 0.4066 0 1
6.0108 3.3922 -1.0207 0.4002 0 1
5.9704 3.6938 -1.0383 0.3935 0 1
5.9251 4.0041 -1.0576 0.3863 0 1
5.8709 4.3216 -1.0781 0.3939 0 1
5.8004 4.6409 -1.0986 0.3863 0 1
5.7280 4.9739 -1.1219 0.3782 0 1
5.6488 5.3187 -1.1475 0.3698 0 1
5.5624 5.6765 -1.1754 0.3610 0 1
5.4680 6.0490 -1.2059 0.3519 0 1
5.3642 6.4371 -1.2392 0.3730 0 1
5.2255 6.8102 -1.2695 0.3641 0 1
5.0764 7.1981 -1.3027 0.3548 0 1
4.9158 7.6025 -1.3389 0.3452 0 1
4.7426 8.0255 -1.3787 0.3352 0 1
4.5720 8.5002 -1.4274 0.3155 0 1
4.3825 8.9982 -1.4802 0.3098 0 1
4.2169 9.6237 -1.5539 0.2807 0 2
3.9621 10.1331 -1.6091 0.9299 0 2
3.6139 10.4661 -1.6375 0.8839 0 2
3.0277 11.7605 -1.7960 0.2171 0 2
2.7054 12.5869 -1.9040 0.2048 0 2
2.3386 13.5049 -2.0270 0.1924 0 2
1.9180 14.5332 -2.1680 0.1799 0 2
1.4318 15.6964 -2.3310 0.1673 0 2
0.9129 17.9853 -2.6633 0.1547 0 2
0.2042 19.5164 -2.8865 0.1405 0 1
-0.6441 21.6151 -3.1982 0.1293 0 1
-1.6851 24.0193 -3.5610 0.1208 0 1
-2.9442 26.5860 -3.9559 0.1158 0 1
-4.4939 29.6253 -4.4315 0.0967 0 24
-6.5561 33.9440 -5.1129 0.0799 0 1
-9.3616 39.7944 -6.0460 0.0638 0 1
-14.9711 46.4888 -7.2231 0.6641 0 15
-27.5767 37.5406 -6.8890 0.6761 0 3
-29.3599 36.7696 -6.9589 0.6265 0 3
-28.5205 32.9100 -6.4406 0.9896 0 3
-29.5176 31.4120 -6.3749 0.6839 0 3
-33.2569 32.6525 -6.8929 0.6979 0 3
-18.2654 16.5436 -3.6447 0.7374 0 22
-19.8198 16.5497 -3.8187 0.7570 0 22
-29.7344 22.8621 -5.5471 0.7860 0 3
-32.0702 22.6647 -5.8079 0.5764 0 3
-34.6028 22.4228 -6.0981 0.8300 0 3
-30.0239 17.7824 -5.1607 0.5099 0 3
-30.0996 16.2279 -5.0573 0.2697 0 3
-39.8063 19.4360 -6.5514 0.8864 0 3
-40.3178 17.7138 -6.5129 0.4040 0 3
-45.0844 17.6795 -7.1620 0.3673 0 3
2.8360 11.3882 -1.8688 0.7276 0 2
2.5054 12.1221 -1.9711 0.2126 0 2
2.1407 12.9709 -2.0934 0.2002 0 2
1.7247 13.9156 -2.2328 0.1877 0 2
1.2852 15.4375 -2.4667 0.1990 0 2
0.7325 17.1005 -2.7255 0.1594 0 1
0.0472 18.4841 -2.9433 0.1481 0 1
-0.7681 20.3675 -3.2456 0.1358 0 1
-1.7556 22.4772 -3.5901 0.1265 0 1
-2.9438 24.7897 -3.9752 0.1163 0 1
-4.3830 27.4296 -4.4232 0.1068 0 1
-6.2032 30.8067 -5.0040 0.0933 0 1
-8.6227 35.3960 -5.8012 0.0732 0 1
-12.0248 41.9432 -6.9480 0.0649 0 1
-29.1113 38.9799 -7.7470 0.6049 0 3
-28.2487 34.8101 -7.1386 0.0487 0 3
-28.1387 31.9554 -6.7801 0.9971 0 3
-29.3790 30.7733 -6.7748 0.6917 0 3
-29.4476 28.4587 -6.5210 0.7187 0 3
-18.5460 16.5328 -3.9563 0.6770 0 22
-20.1185 16.5309 -4.1463 0.7230 0 22
-29.6064 22.3935 -5.9111 0.7927 0 3
-32.6078 22.6601 -6.3230 0.5691 0 3
-34.4627 21.9471 -6.5060 0.8362 0 3
-30.5650 17.7779 -5.6305 0.5023 0 3
-30.6732 16.2255 -5.5255 0.4974 0 3
-39.6527 18.9743 -6.9998 0.8917 0 3
-41.1834 17.7070 -7.1384 0.3962 0 3
-20.1395 -4.8851 -3.2999 0.1658 16 6
-15.7215 -4.4905 -2.6036 0.2960 16 6
-26.4775 -16.5992 -4.9762 0.6311 15 6
-25.8777 -17.7126 -4.9935 0.9179 15 6
-35.5135 -33.8375 -7.8110 0.3832 0 20
-32.4469 -33.5081 -7.4273 0.9053 0 20
-31.5260 -35.2946 -7.5358 0.9536 0 20
-17.5713 -45.7370 -7.8020 0.7736 0 20
-12.8503 -43.6521 -7.2459 0.0566 0 1
-9.0919 -36.2042 -5.9440 0.0702 0 1
-6.5114 -31.1931 -5.0742 0.0864 0 1
-4.5188 -27.0478 -4.3667 0.0878 0 1
-3.0061 -23.8679 -3.8307 0.1088 0 1
-1.8265 -21.4276 -3.4244 0.1223 0 24
-0.8803 -19.6444 -3.1312 0.1359 0 1
-0.0823 -18.1583 -2.8915 0.1549 0 1
0.5939 -16.6210 -2.6484 0.1700 0 1
1.1757 -15.4454 -2.4666 0.1804 0 1
1.6779 -14.3718 -2.3041 0.2002 0 1
2.1218 -13.4493 -2.1681 0.2128 0 1
2.5089 -12.5881 -2.0439 0.2199 0 1
2.8484 -11.7939 -1.9320 0.2279 0 1
3.1504 -11.0713 -1.8329 0.2422 0 1
3.4212 -10.4117 -1.7451 0.2517 0 1
3.6671 -9.8100 -1.6677 0.2647 0 1
3.8899 -9.2524 -1.5982 0.2762 0 1
4.0917 -8.7313 -1.5354 0.2875 0 1
4.2746 -8.2412 -1.4783 0.2981 0 1
4.4407 -7.7786 -1.4263 0.3089 0 1
4.5938 -7.3438 -1.3793 0.3224 0 1
4.7346 -6.9319 -1.3367 0.3326 0 1
4.8517 -6.5233 -1.2945 0.3345 0 1
4.9513 -6.1260 -1.2543 0.3452 0 1
5.0415 -5.7482 -1.2175 0.3556 0 1
5.1246 -5.3891 -1.1842 0.3691 0 1
5.2018 -5.0471 -1.1541 0.3787 0 1
5.2720 -4.7185 -1.1266 0.3879 0 1
5.3359 -4.4021 -1.1015 0.3968 0 1
5.3938 -4.0965 -1.0785 0.4052 0 1
5.4487 -3.8025 -1.0580 0.4192 0 1
5.5095 -3.5240 -1.0414 0.4259 0 1
5.5654 -3.2518 -1.0264 0.4321 0 1
5.6167 -2.9853 -1.0129 0.4379 0 1
5.6636 -2.7239 -1.0007 0.4432 0 1
5.7065 -2.4669 -0.9900 0.4480 0 1
5.7455 -2.2138 -0.9805 0.4524 0 1
5.7808 -1.9641 -0.9722 0.4563 0 1
5.8135 -1.7176 -0.9653 0.4510 0 1
5.8431 -1.4735 -0.9596 0.4537 0 1
3.8598 -0.8097 -0.6280 0.5605 25 14
3.8362 -0.6448 -0.6194 0.9668 25 14
3.8281 -0.4860 -0.6145 0.8602 25 14
3.8143 -0.3289 -0.6096 0.8671 25 14
3.8011 -0.1741 -0.6059 0.8724 25 14
3.7884 -0.0209 -0.6033 0.8762 25 14
3.7942 0.1318 -0.6045 0.8744 25 14
3.8031 0.2857 -0.6073 0.8704 25 14
3.8124 0.4413 -0.6111 0.8649 25 14
3.8223 0.5991 -0.6161 0.8580 25 14
3.8315 0.7597 -0.6220 0.9628 25 14
4.1191 0.9905 -0.6746 0.3397 25 14
5.9929 1.6989 -0.9919 0.4471 0 1
5.9830 1.9594 -1.0025 0.4423 0 1
5.9694 2.2247 -1.0144 0.4373 0 1
5.9507 2.4949 -1.0275 0.4274 0 1
5.9217 2.7679 -1.0409 0.4219 0 1
5.8885 3.0469 -1.0558 0.4159 0 1
5.8509 3.3325 -1.0722 0.4096 0 1
5.8085 3.6255 -1.0903 0.4028 0 1
5.7610 3.9265 -1.1102 0.3956 0 1
5.7081 4.2367 -1.1319 0.3879 0 1
5.6380 4.5477 -1.1534 0.3954 0 1
5.5637 4.8700 -1.1774 0.3874 0 1
5.4826 5.2032 -1.2036 0.3748 0 1
5.3931 5.5475 -1.2320 0.3662 0 1
5.2956 5.9051 -1.2630 0.3572 0 1
5.1903 6.2787 -1.2972 0.3462 0 1
5.0633 6.6530 -1.3313 0.3732 0 1
4.9137 7.0262 -1.3653 0.3639 0 1
4.7527 7.4145 -1.4024 0.3542 0 1
4.5793 7.8197 -1.4430 0.3443 0 1
4.4063 8.2704 -1.4922 0.3244 0 1
4.2185 8.7491 -1.5467 0.3187 0 1
4.0094 9.2496 -1.6053 0.3071 0 1
3.8207 9.8866 -1.6878 0.2774 0 2
3.5761 10.4909 -1.7649 0.2647 0 2
3.2310 10.8960 -1.8097 0.8122 0 2
2.8709 11.3370 -1.8623 0.7302 0 2
2.5388 12.0433 -1.9599 0.2139 0 2
2.1786 12.8835 -2.0807 0.2014 0 2
1.3212 15.1457 -2.4209 0.2028 0 2
0.7968 17.0277 -2.7144 0.1600 0 1
0.1192 18.3181 -2.9170 0.1495 0 1
-0.6807 20.1657 -3.2130 0.1336 0 1
-1.6508 22.2687 -3.5557 0.1283 0 1
-2.8162 24.5434 -3.9338 0.1175 0 1
-4.2279 27.1477 -4.3750 0.1125 0 1
-6.0043 30.4401 -4.9406 0.0945 0 1
-8.3413 34.8393 -5.7045 0.0744 0 1
-11.6354 41.1987 -6.8170 0.0627 0 1
-29.1006 39.2886 -7.7854 0.6019 0 3
-28.9752 35.9952 -7.3581 0.6319 0 3
-29.2929 33.5325 -7.0901 0.6610 0 3
-29.3718 31.0102 -6.8013 0.6890 0 3
-29.4413 28.6785 -6.5447 0.7161 0 3
-18.3906 16.5252 -3.9370 0.6674 0 22
-19.9742 16.5451 -4.1301 0.6825 0 22
-29.6020 22.5747 -5.9280 0.7905 0 3
-32.3368 22.6619 -6.2878 0.5723 0 3
-29.5697 18.9957 -5.5964 0.7397 0 3
-30.2920 17.7798 -5.5931 0.5057 0 3
-29.9339 15.9862 -5.4037 0.6323 0 3
-39.6498 19.1659 -7.0126 0.8901 0 3
-40.7456 17.7099 -7.0746 0.3998 0 3
-45.6023 17.6749 -7.7879 0.3631 0 3
-20.6073 -4.9123 -3.3734 0.1089 16 6
-35.6473 -33.6970 -7.8111 0.0778 0 20
-32.5244 -33.3235 -7.4148 0.9069 0 20
-31.6308 -35.1313 -7.5276 0.9548 0 20
-13.3011 -44.5329 -7.4008 0.0585 0 1
-9.3989 -36.8099 -6.0495 0.0681 0 1
-6.7298 -31.6141 -5.1469 0.0852 0 1
-4.6914 -27.4135 -4.4287 0.0865 0 1
-3.1350 -24.1221 -3.8734 0.1050 0 1
-1.9400 -21.7432 -3.4761 0.1161 0 1
-0.9661 -19.8076 -3.1578 0.1347 0 1
-0.1552 -18.2933 -2.9131 0.1537 0 1
0.5321 -16.7448 -2.6677 0.1687 0 1
1.1218 -15.5498 -2.4825 0.1792 0 1
1.6316 -14.4719 -2.3191 0.1690 0 1
2.0806 -13.5357 -2.1807 0.2115 0 1
2.4731 -12.6696 -2.0555 0.2187 0 1
2.8170 -11.8694 -1.9425 0.2266 0 1
3.1222 -11.1394 -1.8422 0.2410 0 1
3.3956 -10.4732 -1.7532 0.2506 0 1
3.6440 -9.8670 -1.6749 0.2635 0 1
3.8690 -9.3055 -1.6048 0.2751 0 1
4.0727 -8.7810 -1.5413 0.2864 0 1
4.2574 -8.2881 -1.4837 0.2970 0 1
4.4251 -7.8229 -1.4312 0.3079 0 1
4.5793 -7.3854 -1.3837 0.3213 0 1
4.7213 -6.9715 -1.3407 0.3316 0 1
4.8414 -6.5634 -1.2987 0.3334 0 1
4.9419 -6.1641 -1.2581 0.3442 0 1
5.0330 -5.7845 -1.2210 0.3546 0 1
5.1167 -5.4235 -1.1873 0.3681 0 1
5.1946 -5.0800 -1.1570 0.3777 0 1
5.2654 -4.7502 -1.1292 0.3870 0 1
5.3299 -4.4326 -1.1039 0.3959 0 1
5.3884 -4.1261 -1.0807 0.4044 0 1
5.4425 -3.8302 -1.0598 0.4184 0 1
5.5038 -3.5510 -1.0430 0.4252 0 1
5.5601 -3.2783 -1.0278 0.4315 0 1
5.6118 -3.0113 -1.0141 0.4373 0 1
5.6592 -2.7494 -1.0019 0.4427 0 1
5.7024 -2.4920 -0.9910 0.4475 0 1
5.7418 -2.2385 -0.9813 0.4520 0 1
5.7775 -1.9885 -0.9730 0.4559 0 1
5.8104 -1.7417 -0.9659 0.4507 0 1
5.8403 -1.4974 -0.9601 0.4535 0 1
3.8790 -0.8297 -0.6317 0.5573 25 14
3.8365 -0.6605 -0.6199 0.9661 25 14
3.8295 -0.5016 -0.6150 0.8595 25 14
3.8157 -0.3442 -0.6101 0.8665 25 14
3.8024 -0.1892 -0.6062 0.8719 25 14
3.7896 -0.0359 -0.6035 0.8759 25 14
3.7934 0.1168 -0.6043 0.8747 25 14
3.8022 0.2705 -0.6070 0.8709 25 14
3.8115 0.4259 -0.6107 0.8655 25 14
3.8213 0.5835 -0.6155 0.8587 25 14
3.8314 0.7439 -0.6215 0.9636 25 14
4.0840 0.9650 -0.6682 0.3429 25 14
5.9937 1.6736 -0.9909 0.4475 0 1
5.9841 1.9336 -1.0014 0.4428 0 1
5.9709 2.1984 -1.0132 0.4378 0 1
5.9533 2.4683 -1.0262 0.4279 0 1
5.9248 2.7409 -1.0395 0.4224 0 1
5.8920 3.0193 -1.0542 0.4165 0 1
5.8548 3.3042 -1.0705 0.4102 0 1
5.8128 3.5963 -1.0884 0.4034 0 1
5.7659 3.8966 -1.1081 0.3963 0 1
5.7135 4.2058 -1.1297 0.3887 0 1
5.6450 4.5166 -1.1512 0.3962 0 1
5.5713 4.8378 -1.1749 0.3882 0 1
5.4909 5.1700 -1.2009 0.3798 0 1
5.4023 5.5132 -1.2291 0.3671 0 1
5.3056 5.8694 -1.2599 0.3581 0 1
5.2007 6.2408 -1.2936 0.3472 0 1
5.0774 6.6171 -1.3281 0.3740 0 1
4.9288 6.9889 -1.3618 0.3648 0 1
4.7691 7.3756 -1.3986 0.3552 0 1
4.5970 7.7791 -1.4388 0.3453 0 1
4.4238 8.2247 -1.4871 0.3255 0 1
4.2380 8.7015 -1.5412 0.3199 0 1
4.0308 9.1991 -1.5993 0.3082 0 1
3.8435 9.8298 -1.6807 0.2785 0 2
3.6012 10.4294 -1.7570 0.2659 0 2
3.2654 10.8546 -1.8050 0.8143 0 2
2.9059 11.2876 -1.8560 0.7919 0 2
2.5718 11.9653 -1.9488 0.2151 0 2
2.2161 12.7971 -2.0681 0.2027 0 2
1.3559 14.8646 -2.3768 0.2066 0 2
0.8545 16.8345 -2.6841 0.1650 0 2
0.1900 18.1547 -2.8910 0.1508 0 1
-0.5950 19.9671 -3.1809 0.1350 0 1
-1.5480 22.0645 -3.5221 0.1296 0 1
-2.6912 24.3017 -3.8934 0.1188 0 1
-4.0762 26.8720 -4.3280 0.1137 0 1
-5.8100 30.0813 -4.8786 0.0949 0 1
-8.0683 34.2971 -5.6104 0.0783 0 1
-11.2559 40.4662 -6.6883 0.0639 0 1
-29.0898 39.6004 -7.8243 0.5989 0 3
-29.1937 36.5615 -7.4502 0.6290 0 3
-29.2846 33.7917 -7.1203 0.6582 0 3
-29.3645 31.2491 -6.8282 0.6863 0 3
-29.4348 28.8999 -6.5686 0.7134 0 3
-18.2593 16.5381 -3.9229 0.7404 0 22
-19.8007 16.5338 -4.1077 0.6029 0 22
-29.4491 22.6428 -5.9153 0.7494 0 3
-32.0689 22.6637 -6.2531 0.5754 0 3
-34.4548 22.3269 -6.5377 0.8321 0 3
-30.0225 17.7816 -5.5563 0.5090 0 3
-30.7041 16.5538 -5.5545 0.4948 0 3
-39.6468 19.3582 -7.0256 0.8884 0 3
-39.9237 17.5407 -6.9438 0.5720 0 3
-44.6499 17.5091 -7.6370 0.5390 0 3
-46.0515 15.9521 -7.7606 0.3295 0 3
2.8396 11.4027 -2.0049 0.7254 0 2
2.4696 11.9487 -2.0818 0.6301 0 2
2.0876 12.6494 -2.1874 0.5239 0 2
1.6912 13.6455 -2.3460 0.4086 0 2
1.2400 14.8953 -2.5502 0.1883 0 2
0.6833 15.9529 -2.7244 0.1653 0 1
0.0441 17.2391 -2.9413 0.1597 0 1
-0.7114 18.8637 -3.2208 0.1426 0 1
-1.6196 20.7357 -3.5487 0.1375 0 1
-2.6969 22.7103 -3.9021 0.1245 0 1
-3.9981 25.0211 -4.3233 0.1149 0 1
-5.5721 27.6726 -4.8163 0.1049 0 1
-7.5552 31.0138 -5.4463 0.0913 0 1
-10.2991 35.9237 -6.3762 0.0743 0 1
-14.0296 42.4129 -7.6221 0.0645 0 1
-23.1595 40.3821 -7.9427 0.5126 0 5
-28.9404 38.7511 -8.2520 0.6074 0 3
-29.0490 35.7962 -7.8656 0.6372 0 3
-28.9791 32.9098 -7.4817 0.9674 0 3
-27.5861 28.8953 -6.8161 0.6404 0 3
-29.3019 28.3179 -6.9526 0.7209 0 3
-29.3673 26.1794 -6.7125 0.7467 0 3
-20.1119 16.5254 -4.4413 0.6462 0 22
-29.4736 22.2930 -6.3052 0.7949 0 3
-29.3738 20.4128 -6.1031 0.7725 0 3
-29.5583 18.8238 -5.9791 0.8382 0 3
-30.5635 17.7771 -6.0327 0.5014 0 3
-31.1602 16.4831 -6.0146 0.5013 0 3
-35.4478 16.9622 -6.7049 0.1328 0 3
-44.5007 19.1332 -8.2647 0.9095 0 3
-25.8051 -17.6629 -5.3355 0.9163 15 6
-35.6335 -33.9518 -8.3976 0.3816 0 20
-32.4743 -33.5363 -7.9650 0.9651 0 20
-31.4288 -35.1858 -8.0496 0.9548 0 20
-14.9687 -44.1987 -7.9619 0.0614 0 1
-10.7944 -36.6684 -6.5218 0.0682 0 1
-7.9217 -31.5445 -5.5492 0.0842 0 1
-5.7226 -27.4144 -4.7783 0.0854 0 1
-4.0317 -24.1320 -4.1745 0.0988 0 1
-2.7232 -21.6221 -3.7183 0.1207 0 24
-1.6879 -19.8012 -3.3907 0.1320 0 1
-0.8179 -18.2503 -3.1170 0.1537 0 1
-0.0763 -16.8255 -2.8708 0.1412 0 1
0.5587 -15.6353 -2.6694 0.1790 0 1
1.1097 -14.5782 -2.4945 0.1907 0 1
1.5932 -13.6462 -2.3441 0.2105 0 1
2.0130 -12.7598 -2.2040 0.2193 0 24
2.3925 -12.0044 -2.0885 0.2255 0 1
2.7221 -11.2711 -1.9784 0.2400 0 1
3.0179 -10.6057 -1.8814 0.2524 0 1
3.2833 -9.9919 -1.7945 0.2646 0 1
3.5250 -9.4299 -1.7177 0.2749 0 1
3.7452 -8.9082 -1.6488 0.2863 0 1
3.9452 -8.4188 -1.5863 0.2976 0 1
4.1269 -7.9564 -1.5293 0.3082 0 1
4.2932 -7.5202 -1.4775 0.3219 0 1
4.4467 -7.1085 -1.4306 0.3324 0 1
4.5875 -6.7165 -1.3878 0.3427 0 1
4.7027 -6.3229 -1.3445 0.3444 0 1
4.8037 -5.9435 -1.3039 0.3552 0 1
4.8956 -5.5818 -1.2668 0.3656 0 1
4.9816 -5.2387 -1.2334 0.3790 0 1
5.0602 -4.9096 -1.2030 0.3886 0 1
5.1318 -4.5930 -1.1751 0.3978 0 1
5.1970 -4.2875 -1.1495 0.4066 0 1
5.2542 -3.9905 -1.1257 0.4049 0 1
5.3139 -3.7084 -1.1056 0.4290 0 1
5.3753 -3.4381 -1.0887 0.4357 0 1
5.4317 -3.1737 -1.0734 0.4419 0 1
5.4835 -2.9146 -1.0595 0.4477 0 1
5.5309 -2.6601 -1.0472 0.4530 0 1
5.5742 -2.4097 -1.0361 0.4578 0 1
5.6135 -2.1630 -1.0264 0.4622 0 1
5.6491 -1.9194 -1.0180 0.4660 0 1
5.6811 -1.6785 -1.0107 0.4694 0 1
5.7095 -1.4398 -1.0046 0.4722 0 1
3.8539 -0.8085 -0.6719 0.5604 25 14
3.8374 -0.6450 -0.6639 0.9648 25 14
3.8348 -0.4868 -0.6595 0.9712 25 14
3.8308 -0.3304 -0.6560 0.8617 25 14
3.8174 -0.1749 -0.6520 0.8671 25 14
3.8046 -0.0210 -0.6491 0.8709 25 14
3.8106 0.1324 -0.6506 0.8690 25 14
3.8196 0.2869 -0.6535 0.8651 25 14
3.8291 0.4432 -0.6577 0.8596 25 14
3.8315 0.6006 -0.6617 0.9680 25 14
3.8327 0.7599 -0.6667 0.9608 25 14
4.0536 0.9748 -0.7113 0.3445 25 14
5.8523 1.6591 -1.0379 0.4518 0 1
5.8424 1.9134 -1.0489 0.4521 0 1
5.8275 2.1719 -1.0611 0.4471 0 1
5.8056 2.4340 -1.0741 0.4373 0 1
5.7755 2.6996 -1.0877 0.4318 0 1
5.7411 2.9706 -1.1029 0.4258 0 1
5.7021 3.2478 -1.1196 0.4195 0 1
5.6584 3.5318 -1.1381 0.4127 0 1
5.6095 3.8233 -1.1583 0.4055 0 1
5.5551 4.1231 -1.1804 0.3979 0 1
5.4898 4.4281 -1.2034 0.4010 0 1
5.4137 4.7387 -1.2275 0.3931 0 1
5.3307 5.0590 -1.2539 0.3848 0 1
5.2403 5.3903 -1.2827 0.3762 0 1
5.1419 5.7337 -1.3140 0.3672 0 1
5.0353 6.0912 -1.3484 0.3563 0 1
4.9229 6.4686 -1.3869 0.3831 0 1
4.7741 6.8265 -1.4213 0.3738 0 1
4.6141 7.1982 -1.4588 0.3642 0 1
4.4420 7.5852 -1.4998 0.3543 0 1
4.2670 8.0090 -1.5483 0.3344 0 1
4.0809 8.4638 -1.6032 0.3229 0 1
3.8759 8.9415 -1.6627 0.3171 0 1
3.6503 9.4458 -1.7278 0.3011 0 1
3.4074 9.9960 -1.8019 0.2887 0 1
3.1717 10.6960 -1.9035 0.2617 0 2
2.8745 11.3514 -1.9979 0.7279 0 2
2.5067 11.8911 -2.0735 0.7014 0 2
2.1261 12.5731 -2.1757 0.6030 0 2
1.7304 13.5238 -2.3262 0.4121 0 2
1.2901 14.7889 -2.5329 0.1911 0 2
0.7438 15.8956 -2.7151 0.1659 0 1
0.1113 17.0978 -2.9173 0.1610 0 1
-0.6310 18.6932 -3.1912 0.1461 0 1
-1.5240 20.5592 -3.5174 0.1388 0 1
-2.5818 22.5004 -3.8642 0.1257 0 1
-3.8586 24.7759 -4.2782 0.1161 0 1
-5.4007 27.3801 -4.7616 0.1105 0 1
-7.3374 30.6461 -5.3766 0.0924 0 1
-9.9929 35.3832 -6.2732 0.0754 0 1
-13.6112 41.7001 -7.4843 0.0657 0 1
-23.1474 40.7333 -7.9937 0.4728 0 5
-28.9289 39.0568 -8.2927 0.6044 0 3
-29.0389 36.0744 -7.9014 0.6343 0 3
-29.1354 33.3522 -7.5560 0.6633 0 3
-27.5777 29.1161 -6.8424 0.6913 0 3
-28.3666 27.6317 -6.7566 0.8397 0 3
-18.4007 16.5343 -4.2208 0.6658 0 22
-19.9555 16.5295 -4.4211 0.6491 0 22
-29.4688 22.4731 -6.3232 0.7926 0 3
-32.3354 22.6610 -6.7370 0.5712 0 3
-29.4916 18.9456 -5.9807 0.9720 0 3
-27.8075 16.3215 -5.5014 0.9381 0 3
-31.1765 16.6498 -6.0304 0.5000 0 3
-34.7637 16.8041 -6.5880 0.6007 0 3
-44.4977 19.3407 -8.2783 0.9080 0 3
-45.5993 17.6737 -8.3441 0.3625 0 3
-31.5874 -16.2654 -6.0620 0.8016 0 6
-26.3317 -14.9291 -5.1645 0.6682 15 6
-32.5765 -33.3769 -7.9576 0.9660 0 20
-31.5320 -35.0217 -8.0405 0.9559 0 20
-15.4318 -44.9801 -8.1136 0.0603 0 1
-11.1360 -37.2840 -6.6391 0.0663 0 1
-8.1639 -31.9732 -5.6303 0.0830 0 1
-5.9155 -27.7887 -4.8475 0.0842 0 1
-4.1789 -24.4192 -4.2270 0.0975 0 1
-2.8504 -21.9324 -3.7736 0.1144 0 1
-1.7824 -19.9773 -3.4221 0.1308 0 1
-0.8967 -18.3839 -3.1404 0.1525 0 1
-0.1440 -16.9728 -2.8960 0.1400 0 1
0.5004 -15.7462 -2.6880 0.1777 0 1
1.0587 -14.6749 -2.5103 0.1903 0 1
1.5483 -13.7330 -2.3580 0.2092 0 1
1.9737 -12.8402 -2.2165 0.2181 0 24
2.3581 -12.0804 -2.1001 0.2242 0 1
2.6913 -11.3395 -1.9885 0.2388 0 1
2.9903 -10.6687 -1.8904 0.2512 0 1
3.2585 -10.0501 -1.8026 0.2634 0 1
3.5022 -9.4830 -1.7248 0.2737 0 1
3.7245 -8.9580 -1.6552 0.2852 0 1
3.9264 -8.4655 -1.5922 0.2965 0 1
4.1098 -8.0007 -1.5346 0.3071 0 1
4.2774 -7.5618 -1.4823 0.3208 0 1
4.4322 -7.1481 -1.4350 0.3314 0 1
4.5742 -6.7542 -1.3918 0.3417 0 1
4.6922 -6.3612 -1.3487 0.3434 0 1
4.7942 -5.9799 -1.3077 0.3541 0 1
4.8870 -5.6166 -1.2703 0.3646 0 1
4.9734 -5.2717 -1.2366 0.3780 0 1
5.0528 -4.9414 -1.2058 0.3876 0 1
5.1251 -4.6236 -1.1777 0.3969 0 1
5.1909 -4.3170 -1.1519 0.4058 0 1
5.2491 -4.0194 -1.1280 0.4040 0 1
5.3077 -3.7354 -1.1074 0.4283 0 1
5.3695 -3.4644 -1.0903 0.4351 0 1
5.4264 -3.1994 -1.0748 0.4413 0 1
5.4786 -2.9398 -1.0608 0.4471 0 1
5.5264 -2.6849 -1.0483 0.4525 0 1
5.5701 -2.4341 -1.0371 0.4573 0 1
5.6098 -2.1871 -1.0273 0.4618 0 1
5.6458 -1.9432 -1.0187 0.4657 0 1
5.6781 -1.7020 -1.0114 0.4691 0 1
5.7068 -1.4632 -1.0052 0.4720 0 1
3.8730 -0.8285 -0.6758 0.5571 25 14
3.8376 -0.6607 -0.6644 0.9640 25 14
3.8350 -0.5023 -0.6599 0.9706 25 14
3.8322 -0.3457 -0.6565 0.8611 25 14
3.8187 -0.1900 -0.6524 0.8666 25 14
3.8058 -0.0361 -0.6494 0.8706 25 14
3.8098 0.1173 -0.6503 0.8693 25 14
3.8187 0.2717 -0.6532 0.8655 25 14
3.8281 0.4278 -0.6572 0.8602 25 14
3.8313 0.5851 -0.6613 0.9686 25 14
3.8326 0.7442 -0.6661 0.9616 25 14
4.0197 0.9498 -0.7047 0.3478 25 14
5.8529 1.6343 -1.0368 0.4523 0 1
5.8437 1.8883 -1.0478 0.4526 0 1
5.8292 2.1463 -1.0598 0.4477 0 1
5.8083 2.4082 -1.0728 0.4378 0 1
5.7786 2.6733 -1.0863 0.4323 0 1
5.7447 2.9438 -1.1013 0.4264 0 1
5.7062 3.2203 -1.1179 0.4201 0 1
5.6629 3.5036 -1.1362 0.4134 0 1
5.6145 3.7943 -1.1562 0.4062 0 1
5.5607 4.0933 -1.1781 0.3987 0 1
5.4970 4.3981 -1.2011 0.4017 0 1
5.4215 4.7077 -1.2251 0.3939 0 1
5.3392 5.0271 -1.2512 0.3856 0 1
5.2495 5.3573 -1.2797 0.3770 0 1
5.1519 5.6994 -1.3108 0.3681 0 1
5.0458 6.0549 -1.3448 0.3572 0 1
4.9350 6.4315 -1.3832 0.3473 0 1
4.7891 6.7908 -1.4178 0.3748 0 1
4.6304 7.1611 -1.4550 0.3652 0 1
4.4595 7.5465 -1.4956 0.3553 0 1
4.2844 7.9656 -1.5432 0.3355 0 1
4.0999 8.4180 -1.5976 0.3241 0 1
3.8970 8.8937 -1.6567 0.3182 0 1
3.6730 9.3937 -1.7209 0.3023 0 1
3.4323 9.9402 -1.7943 0.2899 0 1
3.1990 10.6338 -1.8947 0.2629 0 2
2.9067 11.2905 -1.9892 0.2494 0 2
2.5441 11.8363 -2.0656 0.7040 0 2
2.1650 12.5024 -2.1649 0.6060 0 2
1.7690 13.4041 -2.3068 0.4155 0 2
1.3395 14.6844 -2.5158 0.1924 0 2
0.8039 15.8384 -2.7058 0.1664 0 1
0.1774 16.9586 -2.8936 0.1623 0 1
-0.5520 18.5260 -3.1623 0.1475 0 1
-1.4302 20.3854 -3.4867 0.1400 0 1
-2.4689 22.2941 -3.8271 0.1269 0 1
-3.7218 24.5352 -4.2341 0.1173 0 1
-5.2349 27.1036 -4.7099 0.1117 0 1
-7.1250 30.2870 -5.3086 0.0936 0 1
-9.6935 34.8493 -6.1717 0.0736 0 1
-13.2018 40.9948 -7.3483 0.0653 0 1
-23.1512 41.1175 -8.0511 0.4695 0 5
-28.9173 39.3655 -8.3339 0.6014 0 3
-29.0288 36.3550 -7.9377 0.6314 0 3
-29.1265 33.6093 -7.5881 0.6605 0 3
-27.5703 29.3397 -6.8693 0.6886 0 3
-29.2881 28.7559 -7.0031 0.7157 0 3
-18.2587 16.5376 -4.2032 0.7536 0 22
-19.7891 16.5241 -4.3987 0.5388 0 22
-29.4640 22.6543 -6.3413 0.7903 0 3
-29.3991 20.7769 -6.1423 0.7878 0 3
-34.3075 22.2314 -6.9751 0.8342 0 3
-29.7585 17.6252 -5.9011 0.9925 0 3
-31.1109 16.7732 -6.0304 0.4737 0 3
-34.4930 16.8417 -6.5492 0.7877 0 3
-38.2838 16.8202 -7.1346 0.4026 0 3
-44.7101 17.5327 -8.1940 0.9749 0 3
2.7284 10.9561 -2.0554 0.2581 0 2
2.4038 11.6304 -2.1620 0.2444 0 2
2.0416 12.3704 -2.2824 0.2303 0 2
1.6347 13.1893 -2.4194 0.2160 0 2
1.1743 14.1055 -2.5767 0.2000 0 2
0.6418 14.9832 -2.7301 0.1857 0 1
0.0413 16.1656 -2.9429 0.1699 0 1
-0.6625 17.5652 -3.1999 0.1507 0 1
-1.5001 19.2065 -3.5071 0.1433 0 1
-2.4840 20.9171 -3.8346 0.1355 0 1
-3.6577 22.8910 -4.2201 0.1254 0 1
-5.0703 25.1805 -4.6760 0.1187 0 1
-6.7723 27.7998 -5.2088 0.1034 0 1
-8.9665 31.2757 -5.9230 0.0793 0 1
-12.0053 36.2934 -6.9591 0.0723 0 1
-16.0410 42.6543 -8.2960 0.0609 0 1
-16.2478 28.3305 -5.9454 0.5368 0 15
-28.7708 38.5240 -8.7531 0.6098 0 3
-28.8867 35.5962 -8.3454 0.6396 0 3
-28.9884 32.9204 -7.9853 0.6684 0 3
-29.0780 30.4580 -7.6659 0.6963 0 3
-28.9483 27.9761 -7.3287 0.6861 0 3
-29.2271 26.0545 -7.1279 0.7488 0 3
-20.0783 16.4979 -4.7308 0.6066 0 22
-29.3414 22.1931 -6.6973 0.7969 0 3
-29.3899 20.4239 -6.5154 0.8191 0 3
-29.4326 18.7437 -6.3523 0.8402 0 3
-30.5643 17.7775 -6.4368 0.3231 0 3
-31.6594 16.7472 -6.5201 0.4925 0 3
-39.3369 18.8232 -7.9387 0.8955 0 3
-44.3263 19.0582 -8.7836 0.9112 0 3
-27.7543 9.3689 -5.3327 0.9629 0 22
-27.7309 8.1336 -5.2610 0.9229 0 22
-31.4110 -17.9733 -6.5882 0.8300 0 22
-32.3692 -33.4278 -8.4709 0.9662 0 20
-31.2102 -34.9411 -8.5289 0.9922 0 20
-16.5024 -42.9548 -8.3770 0.4083 0 2
-12.5171 -36.9598 -7.1037 0.0661 0 1
-9.3558 -31.7814 -6.0311 0.0810 0 1
-6.9622 -27.7235 -5.2037 0.0853 0 1
-5.0907 -24.3871 -4.5353 0.0968 0 1
-3.6364 -21.7662 -4.0174 0.1189 0 24
-2.5132 -19.9549 -3.6614 0.1301 0 1
-1.5661 -18.3726 -3.3568 0.1495 0 1
-0.7630 -17.0265 -3.1027 0.1391 0 1
-0.0717 -15.8137 -2.8788 0.1781 0 1
0.5273 -14.7549 -2.6878 0.1893 0 1
1.0525 -13.8267 -2.5244 0.2081 0 1
1.5116 -12.9478 -2.3731 0.2177 0 24
1.9197 -12.1682 -2.2426 0.2264 0 24
2.2846 -11.4630 -2.1278 0.2356 0 1
2.6064 -10.7920 -2.0211 0.2502 0 1
2.8957 -10.1761 -1.9261 0.2625 0 1
3.1563 -9.6053 -1.8406 0.2755 0 1
3.3930 -9.0768 -1.7641 0.2850 0 1
3.6104 -8.5876 -1.6959 0.2965 0 1
3.8084 -8.1268 -1.6338 0.3077 0 1
3.9885 -7.6897 -1.5770 0.3182 0 1
4.1552 -7.2785 -1.5257 0.3319 0 1
4.3082 -6.8871 -1.4789 0.3424 0 1
4.4488 -6.5134 -1.4359 0.3527 0 1
4.5620 -6.1337 -1.3916 0.3544 0 1
4.6643 -5.7709 -1.3508 0.3651 0 1
4.7583 -5.4253 -1.3137 0.3789 0 1
4.8457 -5.0958 -1.2801 0.3888 0 1
4.9255 -4.7790 -1.2494 0.3984 0 1
4.9983 -4.4735 -1.2211 0.4076 0 1
5.0632 -4.1771 -1.1949 0.4062 0 1
5.1198 -3.8884 -1.1704 0.4315 0 1
5.1852 -3.6186 -1.1511 0.4388 0 1
5.2470 -3.3561 -1.1339 0.4455 0 1
5.3038 -3.0990 -1.1183 0.4517 0 1
5.3560 -2.8468 -1.1042 0.4574 0 1
5.4038 -2.5989 -1.0916 0.4627 0 1
5.4474 -2.3549 -1.0804 0.4675 0 1
5.4870 -2.1142 -1.0705 0.4719 0 1
5.5228 -1.8765 -1.0619 0.4758 0 1
5.5550 -1.6412 -1.0545 0.4791 0 1
4.1855 -1.0555 -0.7858 0.8668 25 14
3.8474 -0.8071 -0.7156 0.6498 25 14
3.8371 -0.6450 -0.7083 0.9752 25 14
3.8354 -0.4869 -0.7038 0.9815 25 14
3.8334 -0.3306 -0.7004 0.9738 25 14
3.8309 -0.1755 -0.6981 0.9770 25 14
3.8210 -0.0211 -0.6956 0.8655 25 14
3.8272 0.1330 -0.6972 0.8635 25 14
3.8303 0.2877 -0.6992 0.9755 25 14
3.8314 0.4435 -0.7022 0.9714 25 14
3.8326 0.6008 -0.7062 0.9658 25 14
3.8339 0.7602 -0.7115 0.9586 25 14
4.0024 0.9625 -0.7494 0.5350 25 14
5.7172 1.6208 -1.0818 0.4616 0 1
5.7072 1.8691 -1.0933 0.4567 0 1
5.6918 2.1213 -1.1058 0.4569 0 1
5.6668 2.3759 -1.1186 0.4471 0 1
5.6358 2.6343 -1.1325 0.4416 0 1
5.6003 2.8978 -1.1479 0.4357 0 1
5.5603 3.1670 -1.1649 0.4293 0 1
5.5153 3.4425 -1.1836 0.4220 0 1
5.4651 3.7249 -1.2040 0.4148 0 1
5.4094 4.0150 -1.2264 0.4073 0 1
5.3471 4.3130 -1.2506 0.4109 0 1
5.2702 4.6131 -1.2750 0.4030 0 1
5.1865 4.9222 -1.3017 0.3947 0 1
5.0954 5.2412 -1.3307 0.3861 0 1
4.9963 5.5714 -1.3623 0.3772 0 1
4.8887 5.9139 -1.3968 0.3662 0 1
4.7762 6.2759 -1.4357 0.3563 0 1
4.6417 6.6373 -1.4744 0.3837 0 1
4.4829 6.9935 -1.5123 0.3741 0 1
4.3123 7.3636 -1.5535 0.3642 0 1
4.1358 7.7627 -1.6012 0.3443 0 1
3.9511 8.1946 -1.6561 0.3329 0 1
3.7498 8.6506 -1.7164 0.3212 0 1
3.5271 9.1269 -1.7813 0.3152 0 1
3.2868 9.6424 -1.8545 0.2987 0 1
3.0233 10.1957 -1.9360 0.2862 0 1
2.7324 10.7902 -2.0263 0.2734 0 1
2.4373 11.5616 -2.1510 0.2456 0 2
2.0790 12.2945 -2.2699 0.2316 0 2
1.6769 13.1052 -2.4052 0.2173 0 2
1.2222 14.0104 -2.5602 0.2013 0 2
0.6962 14.8779 -2.7114 0.1870 0 1
0.1044 16.0413 -2.9203 0.1712 0 1
-0.5878 17.4138 -3.1719 0.1521 0 1
-1.4121 19.0496 -3.4774 0.1446 0 1
-2.3799 20.7407 -3.8005 0.1367 0 1
-3.5329 22.6851 -4.1795 0.1238 0 1
-4.9197 24.9416 -4.6280 0.1143 0 1
-6.5873 27.5131 -5.1502 0.1046 0 1
-8.7161 30.8620 -5.8381 0.0863 0 1
-11.6682 35.7474 -6.8456 0.0735 0 1
-15.5782 41.9259 -8.1423 0.0620 0 1
-16.2222 28.5468 -5.9773 0.5340 0 15
-17.6645 28.3633 -6.0829 0.0207 0 15
-27.8575 37.6103 -8.5204 0.9979 0 3
-28.8760 35.8720 -8.3832 0.6367 0 3
-28.9790 33.1732 -8.0188 0.6656 0 3
-29.0697 30.6913 -7.6956 0.6936 0 3
-28.6555 27.9131 -7.2825 0.9529 0 3
-18.4013 16.5349 -4.5036 0.6882 0 22
-19.9139 16.4951 -4.7074 0.6415 0 22
-29.3363 22.3721 -6.7163 0.7946 0 3
-29.3854 20.5936 -6.5324 0.8170 0 3
-29.4286 18.9051 -6.3676 0.8381 0 3
-30.2891 17.7781 -6.3936 0.5038 0 3
-33.3435 17.8071 -6.8814 0.8766 0 3
-39.3334 19.0130 -7.9531 0.8939 0 3
-44.3229 19.2647 -8.7980 0.9098 0 3
-27.7481 9.4892 -5.3386 0.9571 0 22
-27.7185 8.2491 -5.2647 0.8773 0 22
-31.4100 -17.8083 -6.5731 0.8297 0 22
-32.4698 -33.2675 -8.4627 0.9671 0 20
-31.3346 -34.8024 -8.5252 0.9926 0 20
-16.8115 -43.2479 -8.4470 0.0565 0 2
-12.9114 -37.6335 -7.2430 0.0598 0 1
-9.6223 -32.2159 -6.1208 0.0798 0 1
-7.1741 -28.0969 -5.2790 0.0841 0 1
-5.2529 -24.6763 -4.5929 0.0955 0 1
-3.7611 -21.9777 -4.0591 0.1161 0 24
-2.6160 -20.1286 -3.6951 0.1311 0 1
-1.6522 -18.5179 -3.3845 0.1483 0 1
-0.8376 -17.1719 -3.1298 0.1630 0 1
-0.1351 -15.9235 -2.8989 0.1768 0 1
0.4720 -14.8537 -2.7054 0.1880 0 1
1.0037 -13.9131 -2.5394 0.2068 0 1
1.4732 -13.0669 -2.3939 0.2195 0 1
1.8819 -12.2428 -2.2549 0.2252 0 24
2.2511 -11.5327 -2.1391 0.2344 0 1
2.5763 -10.8551 -2.0310 0.2490 0 1
2.8686 -10.2346 -1.9350 0.2613 0 1
3.1317 -9.6593 -1.8485 0.2743 0 1
3.3707 -9.1269 -1.7712 0.2863 0 1
3.5899 -8.6343 -1.7023 0.2953 0 1
3.7898 -8.1709 -1.6397 0.3066 0 1
3.9716 -7.7316 -1.5823 0.3172 0 1
4.1395 -7.3180 -1.5306 0.3309 0 1
4.2937 -6.9247 -1.4833 0.3414 0 1
4.4355 -6.5493 -1.4400 0.3517 0 1
4.5514 -6.1703 -1.3958 0.3533 0 1
4.6546 -5.8058 -1.3547 0.3640 0 1
4.7493 -5.4584 -1.3172 0.3779 0 1
4.8375 -5.1276 -1.2833 0.3879 0 1
4.9180 -4.8096 -1.2523 0.3975 0 1
4.9915 -4.5031 -1.2238 0.4067 0 1
5.0574 -4.2060 -1.1975 0.4053 0 1
5.1143 -3.9162 -1.1726 0.4139 0 1
5.1790 -3.6448 -1.1529 0.4381 0 1
5.2411 -3.3816 -1.1355 0.4448 0 1
5.2985 -3.1240 -1.1197 0.4511 0 1
5.3511 -2.8714 -1.1055 0.4569 0 1
5.3993 -2.6231 -1.0928 0.4622 0 1
5.4433 -2.3787 -1.0814 0.4671 0 1
5.4833 -2.1377 -1.0714 0.4715 0 1
5.5195 -1.8997 -1.0626 0.4754 0 1
5.5520 -1.6642 -1.0551 0.4788 0 1
5.5808 -1.4309 -1.0488 0.4817 0 1
3.8616 -0.8260 -0.7189 0.6469 25 14
3.8373 -0.6606 -0.7088 0.9745 25 14
3.8356 -0.5023 -0.7042 0.9809 25 14
3.8336 -0.3459 -0.7007 0.9734 25 14
3.8311 -0.1907 -0.6983 0.9768 25 14
3.8222 -0.0362 -0.6958 0.8652 25 14
3.8264 0.1178 -0.6969 0.8639 25 14
3.8301 0.2725 -0.6990 0.9758 25 14
3.8313 0.4281 -0.7018 0.9719 25 14
3.8325 0.5852 -0.7058 0.9664 25 14
3.8338 0.7444 -0.7110 0.9594 25 14
3.9818 0.9409 -0.7448 0.5383 25 14
5.7180 1.5966 -1.0807 0.4620 0 1
5.7084 1.8445 -1.0921 0.4572 0 1
5.6936 2.0963 -1.1045 0.4574 0 1
5.6697 2.3507 -1.1173 0.4476 0 1
5.6390 2.6087 -1.1311 0.4422 0 1
5.6040 2.8717 -1.1463 0.4363 0 1
5.5644 3.1403 -1.1632 0.4300 0 1
5.5199 3.4151 -1.1817 0.4227 0 1
5.4703 3.6968 -1.2019 0.4156 0 1
5.4152 3.9861 -1.2241 0.4080 0 1
5.3543 4.2840 -1.2483 0.4116 0 1
5.2781 4.5832 -1.2725 0.4038 0 1
5.1950 4.8914 -1.2990 0.3956 0 1
5.1047 5.2094 -1.3278 0.3870 0 1
5.0064 5.5384 -1.3591 0.3781 0 1
4.8996 5.8795 -1.3933 0.3688 0 1
4.7877 6.2396 -1.4318 0.3573 0 1
4.6567 6.6030 -1.4709 0.3847 0 1
4.4990 6.9579 -1.5084 0.3751 0 1
4.3296 7.3266 -1.5493 0.3652 0 1
4.1531 7.7215 -1.5961 0.3454 0 1
3.9700 8.1512 -1.6505 0.3340 0 1
3.7703 8.6046 -1.7102 0.3224 0 1
3.5499 9.0790 -1.7746 0.3164 0 1
3.3114 9.5901 -1.8470 0.2999 0 1
3.0504 10.1397 -1.9276 0.2874 0 1
2.7623 10.7298 -2.0170 0.2747 0 1
2.4704 11.4934 -2.1401 0.2469 0 2
2.1160 12.2194 -2.2576 0.2329 0 2
1.7186 13.0218 -2.3911 0.2186 0 2
1.2694 13.9168 -2.5440 0.2041 0 2
0.7499 14.7738 -2.6930 0.1883 0 1
0.1666 15.9187 -2.8981 0.1726 0 1
-0.5145 17.2647 -3.1444 0.1534 0 1
-1.3249 18.8855 -3.4465 0.1419 0 1
-2.2777 20.5671 -3.7670 0.1380 0 1
-3.4098 22.4788 -4.1390 0.1250 0 1
-4.7710 24.7015 -4.5799 0.1155 0 1
-6.4079 27.2389 -5.0941 0.1099 0 1
-8.4738 30.4644 -5.7565 0.0876 0 1
-11.3413 35.2175 -6.7354 0.0747 0 1
-15.1410 41.2482 -7.9990 0.0672 0 1
-16.1963 28.7653 -6.0096 0.5311 0 15
-17.0264 27.5810 -5.9007 0.0473 0 15
-27.8457 37.9067 -8.5625 0.9981 0 3
-28.8935 36.1855 -8.4298 0.0253 0 3
-28.9694 33.4281 -8.0526 0.6628 0 3
-29.0613 30.9265 -7.7257 0.6909 0 3
-29.1424 28.6127 -7.4349 0.7179 0 3
-18.2621 16.5407 -4.4855 0.6909 0 22
-19.7496 16.4911 -4.6839 0.5962 0 22
-29.3312 22.5521 -6.7355 0.7924 0 3
-29.3808 20.7640 -6.5495 0.8149 0 3
-29.4246 19.0673 -6.3830 0.8361 0 3
-30.0196 17.7799 -6.3515 0.5071 0 3
-29.6717 15.9973 -6.1367 0.9901 0 3
-39.3298 19.2034 -7.9677 0.8922 0 3
-36.4882 16.0313 -7.2554 0.3201 0 3
-45.0756 17.6760 -8.8142 0.3654 0 3
-27.7458 9.6111 -5.3455 0.9450 0 22
-27.7335 8.3731 -5.2739 0.9206 0 22
2.6002 10.4414 -2.0823 0.2799 0 1
2.2826 11.0441 -2.1824 0.2563 0 1
1.9341 11.7193 -2.2986 0.2434 0 1
1.5438 12.4561 -2.4289 0.2303 0 1
1.1052 13.2751 -2.5779 0.2156 0 1
0.6070 14.1704 -2.7447 0.1960 0 1
0.0388 15.1941 -2.9403 0.1830 0 1
-0.6192 16.4197 -3.1798 0.1668 0 1
-1.3956 17.8679 -3.4683 0.1509 0 1
-2.2995 19.3634 -3.7735 0.1413 0 1
-3.3643 21.0548 -4.1262 0.1330 0 1
-4.6311 22.9994 -4.5401 0.1227 0 1
-6.1539 25.2616 -5.0315 0.1166 0 1
-7.9452 27.7131 -5.5790 0.1002 0 24
-10.4525 31.5990 -6.4408 0.0799 0 1
-13.6997 36.4287 -7.5316 0.0724 0 1
-17.3796 41.1112 -8.6375 0.0586 0 2
-15.8910 30.4894 -6.6535 0.5061 0 15
-16.1037 28.0792 -6.2640 0.5453 0 15
-16.4461 26.1757 -5.9823 0.8937 0 15
-28.6025 38.2987 -9.2503 0.6121 0 3
-30.5631 37.6620 -9.3862 0.7667 0 3
-28.8337 32.7446 -8.4432 0.6706 0 3
-28.9290 30.3019 -8.1072 0.6984 0 3
-28.8697 27.9002 -7.7694 0.8154 0 3
-29.0878 25.9303 -7.5409 0.7508 0 3
-20.0945 16.5112 -5.0330 0.5851 0 22
-29.2099 22.0936 -7.0875 0.7988 0 3
-29.2617 20.3349 -6.8957 0.8210 0 3
-29.3074 18.6640 -6.7239 0.8420 0 3
-30.5606 17.7754 -6.8417 0.4994 0 3
-33.5648 17.7551 -7.3482 0.4650 0 3
-39.1799 18.7481 -8.4054 0.8972 0 3
-44.1524 18.9835 -9.3006 0.9129 0 3
-27.6652 9.3388 -5.6505 0.9132 0 22
-27.6519 8.1105 -5.5766 0.9661 0 22
-31.3415 -16.2958 -6.8360 0.8783 0 22
-31.2701 -17.8927 -6.9719 0.9122 0 22
-32.3883 -33.4475 -9.0100 0.9959 0 20
-30.9887 -34.6931 -9.0021 0.9974 0 20
-18.3057 -42.4603 -8.9479 0.0566 0 2
-14.3219 -37.2789 -7.7282 0.0624 0 1
-10.7994 -31.8879 -6.5152 0.0789 0 1
-8.2246 -27.9387 -5.6360 0.0850 0 1
-6.1781 -24.6012 -4.9086 0.0939 0 1
-4.5822 -21.9511 -4.3395 0.1146 0 24
-3.3500 -20.0520 -3.9342 0.1278 0 1
-2.3294 -18.4951 -3.6074 0.1522 0 1
-1.4614 -17.1443 -3.3298 0.1599 0 1
-0.7153 -15.9628 -3.0922 0.1759 0 1
-0.0676 -14.9120 -2.8858 0.1870 0 1
0.4997 -13.9831 -2.7077 0.2065 0 1
1.0010 -13.1506 -2.5522 0.2183 0 1
1.4458 -12.3838 -2.4128 0.2251 0 1
1.8322 -11.6138 -2.2753 0.2333 0 24
2.1858 -10.9671 -2.1641 0.2479 0 1
2.4997 -10.3503 -2.0606 0.2603 0 1
2.7824 -9.7782 -1.9674 0.2722 0 1
3.0385 -9.2468 -1.8836 0.2856 0 1
3.2714 -8.7513 -1.8080 0.2975 0 1
3.4844 -8.2880 -1.7399 0.3065 0 1
3.6801 -7.8529 -1.6783 0.3172 0 1
3.8598 -7.4414 -1.6222 0.3312 0 1
4.0253 -7.0510 -1.5712 0.3419 0 1
4.1775 -6.6782 -1.5244 0.3524 0 1
4.3159 -6.3188 -1.4808 0.3533 0 1
4.4290 -5.9549 -1.4362 0.3643 0 1
4.5321 -5.6074 -1.3953 0.3749 0 1
4.6283 -5.2771 -1.3583 0.3887 0 1
4.7166 -4.9601 -1.3246 0.3986 0 1
4.7974 -4.6546 -1.2935 0.4082 0 1
4.8701 -4.3587 -1.2648 0.4070 0 1
4.9336 -4.0702 -1.2377 0.4160 0 1
4.9963 -3.7946 -1.2141 0.4413 0 1
5.0621 -3.5327 -1.1946 0.4485 0 1
5.1242 -3.2775 -1.1771 0.4552 0 1
5.1814 -3.0274 -1.1613 0.4614 0 1
5.2339 -2.7819 -1.1470 0.4671 0 1
5.2819 -2.5403 -1.1342 0.4724 0 1
5.3258 -2.3023 -1.1228 0.4773 0 1
5.3656 -2.0675 -1.1128 0.4816 0 1
5.4016 -1.8353 -1.1040 0.4854 0 1
5.4339 -1.6055 -1.0965 0.4887 0 1
4.1524 -1.0472 -0.8287 0.8719 25 14
3.8447 -0.8065 -0.7602 0.6489 25 14
3.8351 -0.6446 -0.7526 0.9737 25 14
3.8334 -0.4867 -0.7478 0.9799 25 14
3.8317 -0.3304 -0.7443 0.9846 25 14
3.8299 -0.1754 -0.7419 0.9877 25 14
3.8267 -0.0211 -0.7405 0.9978 25 14
3.8289 0.1330 -0.7414 0.9884 25 14
3.8299 0.2877 -0.7432 0.9859 25 14
3.8308 0.4434 -0.7463 0.9819 25 14
3.8318 0.6006 -0.7506 0.9763 25 14
3.8326 0.7599 -0.7561 0.9691 25 14
3.9902 0.9595 -0.7942 0.5389 25 14
5.5877 1.5840 -1.1239 0.4713 0 1
5.5766 1.8263 -1.1356 0.4665 0 1
5.5618 2.0728 -1.1486 0.4685 0 1
5.5340 2.3202 -1.1613 0.4563 0 1
5.5021 2.5718 -1.1753 0.4508 0 1
5.4656 2.8281 -1.1909 0.4449 0 1
5.4246 3.0897 -1.2081 0.4386 0 1
5.3786 3.3571 -1.2270 0.4318 0 1
5.3273 3.6310 -1.2476 0.4247 0 1
5.2706 3.9119 -1.2702 0.4171 0 1
5.2085 4.2012 -1.2950 0.4092 0 1
5.1336 4.4935 -1.3203 0.4128 0 1
5.0493 4.7920 -1.3471 0.4046 0 1
4.9577 5.0996 -1.3764 0.3960 0 1
4.8582 5.4173 -1.4082 0.3871 0 1
4.7501 5.7462 -1.4427 0.3778 0 1
4.6369 6.0928 -1.4817 0.3662 0 1
4.5137 6.4543 -1.5242 0.3560 0 1
4.3585 6.7994 -1.5629 0.3840 0 1
4.1894 7.1538 -1.6043 0.3741 0 1
4.0119 7.5302 -1.6511 0.3542 0 1
3.8288 7.9410 -1.7060 0.3428 0 1
3.6296 8.3735 -1.7661 0.3311 0 1
3.4121 8.8292 -1.8318 0.3251 0 1
3.1741 9.3117 -1.9038 0.3087 0 1
2.9153 9.8313 -1.9844 0.2962 0 1
2.6298 10.3851 -2.0731 0.2811 0 1
2.3150 10.9814 -2.1718 0.2663 0 1
1.9701 11.6504 -2.2866 0.2446 0 1
1.5842 12.3807 -2.4154 0.2316 0 1
1.1446 13.1217 -2.5489 0.2107 0 24
0.6587 14.0760 -2.7269 0.1973 0 1
0.0982 15.0882 -2.9199 0.1842 0 1
-0.5500 16.2941 -3.1550 0.1681 0 1
-1.3135 17.7193 -3.4384 0.1488 0 1
-2.2039 19.2070 -3.7413 0.1425 0 1
-3.2515 20.8782 -4.0890 0.1342 0 1
-4.4818 22.7217 -4.4818 0.1227 0 24
-5.9936 25.0335 -4.9813 0.1131 0 1
-7.7788 27.5432 -5.5386 0.1032 0 1
-10.1740 31.1698 -6.3451 0.0785 0 1
-13.3410 35.9051 -7.4124 0.0736 0 1
-16.8892 40.3959 -8.4731 0.0598 0 2
-15.7096 30.4342 -6.6279 0.5142 0 15
-16.0820 28.3001 -6.2991 0.5423 0 15
-16.3255 26.2134 -5.9761 0.6240 0 15
-26.8287 39.4466 -9.2319 0.1174 0 3
-28.5895 38.5986 -9.2953 0.6091 0 3
-30.3182 37.6636 -9.3566 0.7691 0 3
-28.8236 32.9953 -8.4784 0.6678 0 3
-28.9201 30.5334 -8.1385 0.6957 0 3
-29.0054 28.2539 -7.8359 0.7226 0 3
-29.0808 26.1312 -7.5659 0.7484 0 3
-19.9158 16.4966 -5.0045 0.5398 0 22
-29.2045 22.2715 -7.1075 0.7966 0 3
-29.2569 20.5036 -6.9137 0.8189 0 3
-29.3032 18.8245 -6.7400 0.8400 0 3
-30.2876 17.7772 -6.7962 0.5028 0 3
-33.0341 17.6418 -7.2472 0.5703 0 3
-39.1761 18.9370 -8.4205 0.8956 0 3
-40.1648 17.4574 -8.4751 0.4106 0 3
-27.6698 9.4624 -5.6590 0.9118 0 22
-31.3481 -16.1421 -6.8235 0.8967 0 22
-31.2918 -17.7412 -6.9611 0.9412 0 22
-32.5125 -33.3113 -9.0079 0.9962 0 20
-31.1341 -34.5797 -9.0045 0.9971 0 20
-18.8504 -43.2527 -9.1306 0.0555 0 2
-14.7389 -37.9162 -7.8723 0.0656 0 1
-11.0879 -32.3184 -6.6120 0.0786 0 1
-8.4529 -28.3009 -5.7158 0.0838 0 1
-6.3576 -24.8989 -4.9730 0.0924 0 1
-4.7193 -22.1696 -4.3863 0.1135 0 24
-3.4627 -20.2336 -3.9725 0.1266 0 1
-2.4217 -18.6333 -3.6362 0.1509 0 1
-1.5409 -17.2703 -3.3554 0.1586 0 1
-0.7839 -16.0722 -3.1140 0.1746 0 1
-0.1274 -15.0107 -2.9049 0.1858 0 1
0.4471 -14.0689 -2.7240 0.2052 0 1
0.9544 -13.2290 -2.5667 0.2171 0 1
1.4046 -12.4588 -2.4263 0.2238 0 1
1.8008 -11.7153 -2.2937 0.2319 0 1
2.1531 -11.0306 -2.1749 0.2446 0 1
2.4704 -10.4087 -2.0702 0.2591 0 1
2.7560 -9.8326 -1.9761 0.2710 0 1
3.0143 -9.2972 -1.8914 0.2844 0 1
3.2495 -8.7986 -1.8151 0.2964 0 1
3.4642 -8.3320 -1.7462 0.3054 0 1
3.6617 -7.8948 -1.6841 0.3161 0 1
3.8428 -7.4808 -1.6275 0.3301 0 1
4.0097 -7.0885 -1.5760 0.3409 0 1
4.1631 -6.7141 -1.5288 0.3514 0 1
4.3042 -6.3555 -1.4854 0.3522 0 1
4.4183 -5.9899 -1.4404 0.3632 0 1
4.5224 -5.6409 -1.3991 0.3739 0 1
4.6192 -5.3089 -1.3618 0.3877 0 1
4.7083 -4.9907 -1.3277 0.3977 0 1
4.7898 -4.6841 -1.2965 0.4073 0 1
4.8635 -4.3876 -1.2676 0.4062 0 1
4.9277 -4.0981 -1.2403 0.4151 0 1
4.9895 -3.8207 -1.2161 0.4405 0 1
5.0559 -3.5581 -1.1964 0.4478 0 1
5.1183 -3.3023 -1.1787 0.4546 0 1
5.1760 -3.0518 -1.1628 0.4608 0 1
5.2289 -2.8058 -1.1484 0.4666 0 1
5.2774 -2.5639 -1.1354 0.4719 0 1
5.3216 -2.3255 -1.1239 0.4768 0 1
5.3619 -2.0904 -1.1137 0.4812 0 1
5.3982 -1.8580 -1.1048 0.4851 0 1
5.4308 -1.6279 -1.0972 0.4884 0 1
5.4598 -1.3998 -1.0907 0.4913 0 1
3.8590 -0.8255 -0.7637 0.6460 25 14
3.8353 -0.6603 -0.7531 0.9730 25 14
3.8336 -0.5021 -0.7482 0.9794 25 14
3.8319 -0.3457 -0.7445 0.9842 25 14
3.8301 -0.1906 -0.7421 0.9874 25 14
3.8272 -0.0363 -0.7407 0.9977 25 14
3.8288 0.1179 -0.7413 0.9885 25 14
3.8298 0.2725 -0.7430 0.9862 25 14
3.8307 0.4281 -0.7459 0.9824 25 14
3.8317 0.5851 -0.7501 0.9769 25 14
3.8326 0.7442 -0.7555 0.9699 25 14
3.9700 0.9381 -0.7894 0.5421 25 14
5.5886 1.5604 -1.1229 0.4717 0 1
5.5778 1.8024 -1.1344 0.4670 0 1
5.5634 2.0484 -1.1473 0.4617 0 1
5.5370 2.2957 -1.1599 0.4568 0 1
5.5054 2.5469 -1.1739 0.4514 0 1
5.4694 2.8027 -1.1893 0.4455 0 1
5.4288 3.0638 -1.2063 0.4392 0 1
5.3833 3.3306 -1.2250 0.4325 0 1
5.3326 3.6038 -1.2455 0.4254 0 1
5.2764 3.8840 -1.2679 0.4179 0 1
5.2148 4.1724 -1.2924 0.4100 0 1
5.1415 4.4647 -1.3177 0.4136 0 1
5.0579 4.7623 -1.3444 0.4054 0 1
4.9670 5.0690 -1.3734 0.3969 0 1
4.8683 5.3857 -1.4049 0.3880 0 1
4.7611 5.7134 -1.4392 0.3787 0 1
4.6484 6.0581 -1.4777 0.3672 0 1
4.5263 6.4181 -1.5198 0.3571 0 1
4.3744 6.7653 -1.5590 0.3850 0 1
4.2065 7.1184 -1.6001 0.3751 0 1
4.0291 7.4909 -1.6460 0.3553 0 1
3.8475 7.8998 -1.7004 0.3439 0 1
3.6500 8.3299 -1.7600 0.3323 0 1
3.4345 8.7840 -1.8252 0.3263 0 1
3.1983 9.2625 -1.8963 0.3099 0 1
2.9418 9.7787 -1.9761 0.2974 0 1
2.6592 10.3291 -2.0640 0.2824 0 1
2.3472 10.9203 -2.1615 0.2676 0 1
2.0056 11.5821 -2.2747 0.2459 0 1
1.6241 12.3060 -2.4021 0.2329 0 1
1.1894 13.0397 -2.5339 0.2141 0 24
0.7098 13.9836 -2.7096 0.2057 0 1
0.1568 14.9835 -2.8997 0.1855 0 1
-0.4818 16.1701 -3.1306 0.1695 0 1
-1.2325 17.5678 -3.4080 0.1501 0 1
-2.1100 19.0530 -3.7096 0.1438 0 1
-3.1408 20.7051 -4.0526 0.1360 0 1
-4.3638 22.5933 -4.4530 0.1223 0 1
-5.8344 24.8008 -4.9304 0.1130 0 1
-7.5857 27.2713 -5.4778 0.1084 0 1
-9.8970 30.7327 -6.2481 0.0797 0 1
-12.9930 35.3964 -7.2967 0.0748 0 1
-16.8203 40.6820 -8.5191 0.4167 0 2
-16.0600 28.5233 -6.3346 0.5392 0 15
-16.2858 26.3814 -5.9997 0.5724 0 15
-17.7080 26.2589 -6.1291 0.6810 0 15
-30.0749 37.6652 -9.3274 0.7715 0 3
-28.8135 33.2481 -8.5140 0.6650 0 3
-28.9112 30.7667 -8.1701 0.6930 0 3
-28.9975 28.4705 -7.8641 0.7200 0 3
-18.2521 16.5317 -4.7656 0.6630 0 22
-19.7434 16.4859 -4.9775 0.6126 0 22
-29.1990 22.4505 -7.1277 0.7943 0 3
-29.2520 20.6730 -6.9318 0.8167 0 3
-29.2989 18.9859 -6.7562 0.8380 0 3
-27.5722 16.3303 -6.2014 0.7428 0 3
-32.6888 17.6239 -7.1867 0.2668 0 3
-34.4602 16.8257 -7.4211 0.9620 0 3
-40.3082 17.7096 -8.5200 0.4011 0 3
-45.0726 17.6749 -9.3690 0.3647 0 3
-27.6701 9.5849 -5.6668 0.9631 0 22
-27.6564 7.1491 -5.5279 0.9583 0 22
2.5048 10.0584 -2.1254 0.2899 0 1
2.1943 10.6166 -2.2228 0.2751 0 1
1.8530 11.2277 -2.3333 0.2535 0 1
1.4755 11.9053 -2.4597 0.2404 0 1
1.0466 12.5713 -2.5865 0.2291 0 24
0.5764 13.4574 -2.7618 0.2134 0 1
0.0367 14.3562 -2.9436 0.1932 0 1
-0.5816 15.4202 -3.1640 0.1712 0 1
-1.3022 16.6720 -3.4288 0.1578 0 1
-2.1371 17.9961 -3.7158 0.1510 0 1
-3.1109 19.4687 -4.0425 0.1412 0 1
-4.2536 21.1244 -4.4183 0.1322 0 1
-5.6140 23.0451 -4.8633 0.1211 0 1
-7.2328 25.2282 -5.3812 0.1153 0 1
-9.2332 27.9128 -6.0282 0.0924 0 1
-11.9098 31.6692 -6.9374 0.0790 0 1
-15.3073 36.2092 -8.0605 0.0743 0 1
-19.2641 40.8970 -9.2692 0.0578 0 2
-15.7646 30.2468 -6.9936 0.5010 0 15
-15.9750 27.8547 -6.5839 0.5532 0 15
-16.4073 26.1140 -6.3235 0.8962 0 15
-28.3013 37.8953 -9.6978 0.6540 0 3
-30.5621 37.6608 -9.9447 0.7650 0 3
-28.6799 32.5700 -8.8982 0.6727 0 3
-31.1809 32.6607 -9.2585 0.7133 0 3
-28.8701 27.9005 -8.2321 0.7271 0 3
-18.5190 16.5088 -5.0869 0.9821 0 6
-29.0193 23.8444 -7.7011 0.7773 0 3
-29.0790 21.9946 -7.4758 0.8006 0 3
-28.0320 19.4803 -6.9993 0.0657 0 3
-29.1828 18.5847 -7.0940 0.8437 0 3
-30.5591 17.7745 -7.2486 0.4984 0 3
-33.5631 17.7542 -7.7853 0.4640 0 3
-39.0235 18.6732 -8.8702 0.8988 0 3
-39.0104 16.7727 -8.7067 0.5639 0 3
-44.2233 16.9396 -9.7100 0.9288 0 3
-27.5171 9.2889 -5.9549 0.9304 0 22
-27.5470 8.0797 -5.8862 0.9554 0 22
-25.6292 -13.3257 -5.9229 0.7205 15 6
-31.2012 -17.8532 -7.3707 0.9393 0 22
-32.3932 -33.4526 -9.5479 0.9942 0 20
-30.9201 -34.6163 -9.5169 0.9983 0 20
-20.2523 -42.2163 -9.6005 0.0558 0 2
-16.2495 -37.6910 -8.4158 0.0746 0 2
-12.2234 -31.8168 -6.9886 0.0775 0 1
-9.4886 -28.0175 -6.0652 0.0853 0 1
-7.2884 -24.7584 -5.2918 0.0921 0 1
-5.5449 -22.0798 -4.6678 0.1133 0 24
-4.2131 -20.1828 -4.2275 0.1258 0 1
-3.1022 -18.5686 -3.8601 0.1503 0 1
-2.1730 -17.2535 -3.5656 0.1578 0 1
-1.3708 -16.0813 -3.3093 0.1740 0 1
-0.6742 -15.0449 -3.0879 0.1862 0 1
-0.0640 -14.1173 -2.8946 0.2042 0 1
0.4749 -13.2910 -2.7269 0.2160 0 1
0.9541 -12.5351 -2.5776 0.2285 0 1
1.3793 -11.8140 -2.4388 0.2306 0 1
1.7566 -11.1347 -2.3113 0.2433 0 1
2.0953 -10.5132 -2.1980 0.2580 0 1
2.4010 -9.9416 -2.0970 0.2700 0 1
2.6772 -9.4084 -2.0057 0.2823 0 1
2.9287 -8.9127 -1.9236 0.2957 0 1
3.1578 -8.4474 -1.8491 0.3076 0 1
3.3668 -8.0083 -1.7812 0.3193 0 1
3.5601 -7.5970 -1.7202 0.3302 0 1
3.7386 -7.2078 -1.6649 0.3411 0 1
3.9028 -6.8364 -1.6141 0.3519 0 1
4.0540 -6.4808 -1.5674 0.3623 0 1
4.1894 -6.1336 -1.5230 0.3631 0 1
4.3030 -5.7855 -1.4784 0.3741 0 1
4.4075 -5.4533 -1.4377 0.3883 0 1
4.5047 -5.1361 -1.4008 0.3985 0 1
4.5937 -4.8308 -1.3668 0.4084 0 1
4.6745 -4.5354 -1.3354 0.4076 0 1
4.7454 -4.2472 -1.3058 0.4168 0 1
4.8100 -3.9682 -1.2785 0.4257 0 1
4.8781 -3.7048 -1.2560 0.4510 0 1
4.9442 -3.4504 -1.2362 0.4582 0 1
5.0065 -3.2022 -1.2185 0.4649 0 1
5.0639 -2.9588 -1.2026 0.4711 0 1
5.1167 -2.7196 -1.1881 0.4768 0 1
5.1649 -2.4840 -1.1751 0.4821 0 1
5.2090 -2.2518 -1.1636 0.4869 0 1
5.2490 -2.0225 -1.1534 0.4912 0 1
5.2851 -1.7957 -1.1445 0.4950 0 1
5.3174 -1.5711 -1.1369 0.4983 0 1
4.1349 -1.0427 -0.8744 0.9700 25 14
3.8421 -0.8060 -0.8049 0.6479 25 14
3.8331 -0.6443 -0.7970 0.9720 25 14
3.8315 -0.4864 -0.7919 0.9783 25 14
3.8297 -0.3303 -0.7882 0.9829 25 14
3.8262 -0.1753 -0.7853 0.9947 25 14
3.8206 -0.0211 -0.7834 0.9972 25 14
3.8251 0.1329 -0.7848 0.9955 25 14
3.8279 0.2876 -0.7871 0.9842 25 14
3.8289 0.4432 -0.7903 0.9802 25 14
3.8298 0.6003 -0.7948 0.9746 25 14
3.8307 0.7595 -0.8007 0.9675 25 14
3.9779 0.9566 -0.8389 0.5393 25 14
