ply
format ascii 1.0
element vertex 1397
property float32 x
property float32 y
property float32 z
property float32 CosAngle
property uint32 ObjIdx
property uint32 ObjTag
end_header
2.9948 -3.1985 -1.9189 0.5987 0 1
3.0763 -3.0312 -1.8914 0.6074 0 1
3.1524 -2.8656 -1.8657 0.6157 0 1
3.2235 -2.7015 -1.8419 0.6237 0 1
3.2897 -2.5388 -1.8199 0.6313 0 1
3.3513 -2.3774 -1.7995 0.6384 0 1
3.4084 -2.2174 -1.7808 0.6352 0 1
3.4631 -2.0595 -1.7646 0.6446 0 1
3.5139 -1.9026 -1.7500 0.6500 0 1
3.5606 -1.7464 -1.7368 0.6549 0 1
3.6033 -1.5908 -1.7250 0.6594 0 1
3.6421 -1.4358 -1.7145 0.6635 0 1
3.6772 -1.2811 -1.7053 0.6670 0 1
3.7085 -1.1269 -1.6974 0.6701 0 1
3.7362 -0.9729 -1.6908 0.6728 0 1
3.7602 -0.8192 -1.6854 0.6749 0 1
3.7808 -0.6655 -1.6812 0.6766 0 1
3.7978 -0.5119 -1.6783 0.6778 0 1
3.8113 -0.3583 -1.6765 0.6785 0 1
3.8213 -0.2046 -1.6759 0.6787 0 1
3.8283 -0.0507 -1.6767 0.6777 0 1
3.8341 0.1036 -1.6797 0.6765 0 1
3.8365 0.2585 -1.6840 0.6748 0 1
3.8353 0.4140 -1.6894 0.6726 0 1
3.8268 0.5696 -1.6944 0.6607 0 1
3.8146 0.7258 -1.7005 0.6583 0 1
3.7986 0.8825 -1.7079 0.6555 0 1
3.7789 1.0398 -1.7165 0.6522 0 1
3.7554 1.1979 -1.7263 0.6485 0 1
3.7280 1.3567 -1.7374 0.6443 0 1
3.6966 1.5164 -1.7498 0.6398 0 1
3.6611 1.6770 -1.7636 0.6348 0 1
3.6215 1.8386 -1.7787 0.6294 0 1
3.5775 2.0013 -1.7953 0.6236 0 1
3.5292 2.1652 -1.8133 0.6170 0 1
3.4764 2.3304 -1.8329 0.6104 0 1
3.4192 2.4972 -1.8543 0.6034 0 1
3.3572 2.6654 -1.8773 0.5960 0 1
3.2901 2.8354 -1.9021 0.5926 0 1
3.2182 3.0074 -1.9290 0.5844 0 1
3.1408 3.1813 -1.9578 0.5758 0 1
3.0576 3.3571 -1.9886 0.5669 0 1
2.9683 3.5349 -2.0215 0.5576 0 1
2.8726 3.7148 -2.0565 0.5481 0 1
2.7700 3.8967 -2.0938 0.5427 0 1
2.6577 4.0766 -2.1312 0.5331 0 1
2.5380 4.2583 -2.1710 0.5234 0 1
2.4107 4.4419 -2.2133 0.5139 0 1
2.2752 4.6272 -2.2582 0.5037 0 1
2.1311 4.8145 -2.3058 0.4933 0 1
1.9664 4.9740 -2.3424 0.4835 0 24
1.8057 5.1666 -2.3969 0.4726 0 24
1.6429 5.3879 -2.4669 0.4615 0 1
1.4596 5.5828 -2.5272 0.4505 0 1
1.2650 5.7797 -2.5911 0.4393 0 1
1.0553 5.9613 -2.6513 0.4270 0 24
0.8393 6.1807 -2.7317 0.4169 0 1
0.6066 6.3854 -2.8091 0.4062 0 1
0.3593 6.5914 -2.8909 0.3947 0 1
0.0966 6.7992 -2.9780 0.3823 0 1
-0.1826 7.0089 -3.0706 0.3708 0 1
-0.4794 7.2201 -3.1690 0.3593 0 1
-0.7948 7.4309 -3.2729 0.3507 0 1
-1.1297 7.6402 -3.3824 0.3393 0 1
-1.4851 7.8468 -3.4975 0.3290 0 1
-1.8624 8.0516 -3.6193 0.3179 0 1
-2.2629 8.2549 -3.7486 0.3070 0 1
-2.6882 8.4558 -3.8858 0.2962 0 1
-3.1398 8.6536 -4.0316 0.2855 0 1
-3.6192 8.8470 -4.1862 0.2751 0 1
-4.1296 9.0387 -4.3520 0.2619 0 1
-4.6717 9.2238 -4.5281 0.2544 0 1
-5.2464 9.3999 -4.7144 0.2444 0 1
-5.8567 9.5671 -4.9126 0.2355 0 1
-6.4952 9.7097 -5.1160 0.2261 0 1
-7.1695 9.8367 -5.3308 0.2170 0 1
-7.8824 9.9478 -5.5584 0.2069 0 1
-8.6472 10.0537 -5.8076 0.1942 0 1
-9.4641 10.1473 -6.0768 0.1856 0 1
-10.3288 10.2171 -6.3626 0.1780 0 1
-11.2359 10.2534 -6.6616 0.1701 0 1
-12.2006 10.2652 -6.9828 0.1618 0 1
-13.2113 10.2367 -7.3194 0.1546 0 1
-14.2729 10.1671 -7.6745 0.1470 0 1
-15.4503 10.0940 -8.0824 0.1283 0 1
-16.6474 9.9440 -8.4923 0.1249 0 1
-17.8539 9.7120 -8.9010 0.1207 0 1
-19.0704 9.3997 -9.3112 0.1196 0 1
-20.3976 9.0527 -9.7733 0.8047 0 2
-21.4297 8.4959 -10.0957 0.6486 0 2
-22.9160 8.0339 -10.6348 0.4586 0 2
-23.7879 7.2788 -10.8946 0.1007 0 1
-24.8895 6.5330 -11.2695 0.0986 0 1
-16.4497 3.6170 -7.3762 0.9592 26 14
-16.4674 2.9317 -7.3252 0.8554 26 14
-16.9203 2.3143 -7.4792 0.1069 26 14
-28.1832 2.7049 -12.3994 0.0797 0 1
-28.5762 1.5856 -12.5341 0.0789 0 1
-28.7640 0.4366 -12.5985 0.0785 0 1
-28.7013 -0.7198 -12.5736 0.0802 0 1
-28.3969 -1.8577 -12.4629 0.0826 0 1
-26.8095 -2.8411 -11.8068 0.0908 0 25
-26.2488 -3.8552 -11.6189 0.0923 0 25
-5.8333 -9.0625 -4.8630 0.2432 0 1
-5.2477 -8.9224 -4.6706 0.2527 0 1
-4.6940 -8.7705 -4.4885 0.2620 0 1
-4.1708 -8.6088 -4.3163 0.2724 0 1
-3.6773 -8.4398 -4.1540 0.2831 0 1
-3.2120 -8.2651 -4.0011 0.2940 0 1
-2.7717 -8.0813 -3.8549 0.3009 0 1
-2.3571 -7.8945 -3.7175 0.3146 0 1
-1.9602 -7.6799 -3.5764 0.3273 0 24
-1.5939 -7.4911 -3.4558 0.3392 0 24
-1.2531 -7.3265 -3.3539 0.3516 0 1
-0.9267 -7.1355 -3.2467 0.3623 0 1
-0.6188 -6.9430 -3.1452 0.3739 0 1
-0.3286 -6.7507 -3.0497 0.3857 0 1
-0.0549 -6.5426 -2.9523 0.3978 0 24
0.2030 -6.3682 -2.8749 0.4090 0 1
0.4463 -6.1784 -2.7951 0.4207 0 1
0.6759 -5.9898 -2.7199 0.4323 0 1
0.8925 -5.8024 -2.6489 0.4423 0 1
1.0968 -5.6161 -2.5819 0.4539 0 1
1.2893 -5.4300 -2.5182 0.4656 0 1
1.4707 -5.2451 -2.4579 0.4770 0 1
1.6418 -5.0620 -2.4012 0.4883 0 1
1.7945 -4.8574 -2.3365 0.4973 0 24
1.9440 -4.6742 -2.2842 0.5076 0 24
2.0970 -4.5200 -2.2483 0.5031 0 1
2.2261 -4.3326 -2.1979 0.5147 0 1
2.3470 -4.1482 -2.1505 0.5260 0 1
2.4601 -3.9666 -2.1061 0.5371 0 1
2.5686 -3.7919 -2.0666 0.5699 0 1
2.6723 -3.6220 -2.0310 0.5799 0 1
2.7697 -3.4539 -1.9976 0.5896 0 1
2.8610 -3.2875 -1.9665 0.5989 0 1
2.9467 -3.1228 -1.9374 0.6079 0 1
3.0270 -2.9596 -1.9102 0.6166 0 1
3.1020 -2.7979 -1.8849 0.6249 0 1
3.1721 -2.6375 -1.8614 0.6327 0 1
3.2373 -2.4784 -1.8397 0.6402 0 1
3.2980 -2.3205 -1.8196 0.6473 0 1
3.3541 -2.1635 -1.8010 0.6546 0 1
3.4075 -2.0086 -1.7848 0.6534 0 1
3.4575 -1.8548 -1.7704 0.6587 0 1
3.5035 -1.7016 -1.7574 0.6636 0 1
3.5455 -1.5489 -1.7458 0.6680 0 1
3.5837 -1.3967 -1.7355 0.6720 0 1
3.6181 -1.2448 -1.7265 0.6755 0 1
3.6488 -1.0933 -1.7187 0.6785 0 1
3.6759 -0.9420 -1.7122 0.6811 0 1
3.6994 -0.7909 -1.7070 0.6832 0 1
3.7194 -0.6399 -1.7029 0.6848 0 1
3.7359 -0.4889 -1.7001 0.6860 0 1
3.7489 -0.3378 -1.6984 0.6866 0 1
3.7585 -0.1866 -1.6980 0.6868 0 1
3.7651 -0.0352 -1.6990 0.6857 0 1
3.7704 0.1165 -1.7021 0.6844 0 1
3.7723 0.2688 -1.7064 0.6827 0 1
3.7690 0.4216 -1.7113 0.6707 0 1
3.7600 0.5746 -1.7163 0.6687 0 1
3.7474 0.7281 -1.7225 0.6663 0 1
3.7311 0.8821 -1.7299 0.6634 0 1
3.7110 1.0367 -1.7386 0.6601 0 1
3.6871 1.1919 -1.7485 0.6564 0 1
3.6594 1.3479 -1.7596 0.6522 0 1
3.6277 1.5046 -1.7721 0.6476 0 1
3.5920 1.6622 -1.7859 0.6426 0 1
3.5521 1.8208 -1.8011 0.6372 0 1
3.5080 1.9803 -1.8177 0.6314 0 1
3.4594 2.1409 -1.8357 0.6252 0 1
3.4066 2.3028 -1.8553 0.6182 0 1
3.3493 2.4661 -1.8767 0.6112 0 1
3.2873 2.6309 -1.8998 0.6083 0 1
3.2207 2.7974 -1.9249 0.6004 0 1
3.1488 2.9655 -1.9517 0.5922 0 1
3.0715 3.1353 -1.9804 0.5836 0 1
2.9884 3.3068 -2.0111 0.5747 0 1
2.8993 3.4801 -2.0438 0.5655 0 1
2.8040 3.6553 -2.0787 0.5560 0 1
2.7019 3.8322 -2.1157 0.5506 0 1
2.5902 4.0070 -2.1529 0.5411 0 1
2.4714 4.1834 -2.1924 0.5314 0 1
2.3451 4.3613 -2.2343 0.5214 0 1
2.2108 4.5408 -2.2788 0.5117 0 1
2.0682 4.7218 -2.3260 0.5014 0 1
1.9058 4.8759 -2.3622 0.4916 0 24
1.7470 5.0615 -2.4160 0.4806 0 24
1.5859 5.2742 -2.4851 0.4697 0 1
1.4052 5.4612 -2.5445 0.4587 0 1
1.2136 5.6497 -2.6074 0.4476 0 1
1.0104 5.8396 -2.6741 0.4365 0 1
0.7935 6.0184 -2.7391 0.4240 0 24
0.5672 6.2276 -2.8216 0.4138 0 1
0.3251 6.4229 -2.9018 0.4031 0 1
0.0684 6.6191 -2.9868 0.3917 0 1
-0.2040 6.8163 -3.0770 0.3793 0 1
-0.4930 7.0144 -3.1728 0.3679 0 1
-0.7997 7.2126 -3.2744 0.3593 0 1
-1.1246 7.4073 -3.3806 0.3481 0 1
-1.4687 7.5985 -3.4921 0.3379 0 1
-1.8330 7.7870 -3.6097 0.3268 0 1
-2.2189 7.9729 -3.7342 0.3159 0 1
-2.6276 8.1553 -3.8661 0.3052 0 1
-3.0603 8.3335 -4.0057 0.2946 0 1
-3.5183 8.5062 -4.1535 0.2843 0 1
-4.0031 8.6726 -4.3100 0.2711 0 1
-4.5178 8.8348 -4.4774 0.2610 0 1
-5.0622 8.9877 -4.6544 0.2511 0 1
-5.6376 9.1295 -4.8415 0.2414 0 1
-6.2377 9.2470 -5.0330 0.2356 0 1
-6.8682 9.3470 -5.2337 0.2266 0 1
-7.5302 9.4280 -5.4444 0.2178 0 1
-8.2312 9.4953 -5.6701 0.2039 0 1
-8.9843 9.5582 -5.9190 0.1953 0 1
-9.7758 9.5954 -6.1808 0.1871 0 1
-10.6026 9.6004 -6.4539 0.1800 0 1
-11.4744 9.5784 -6.7443 0.1717 0 1
-12.3830 9.5182 -7.0473 0.1644 0 1
-13.3280 9.4163 -7.3633 0.1571 0 1
-14.3073 9.2683 -7.6919 0.1504 0 1
-15.3439 9.0848 -8.0460 0.1352 0 1
-16.3980 8.8377 -8.4052 0.1322 0 1
-17.4611 8.5225 -8.7671 0.1276 0 1
-18.5221 8.1345 -9.1280 0.1224 0 1
-19.5535 7.6644 -9.4764 0.1216 0 1
-20.5513 7.1155 -9.8132 0.1169 0 1
-21.5067 6.4897 -10.1364 0.1154 0 1
-16.6215 4.2939 -7.7461 0.6218 26 14
-16.3290 3.5241 -7.5376 0.9085 26 14
-16.3645 2.8479 -7.4949 0.9529 26 14
-16.8372 2.2364 -7.6640 0.2683 26 14
-24.7803 2.2813 -11.2286 0.0988 0 1
-25.0531 1.2926 -11.3194 0.0983 0 1
-25.2003 0.2847 -11.3715 0.0962 0 1
-25.1710 -0.7290 -11.3624 0.0963 0 1
-24.9474 -1.7293 -11.2837 0.0972 0 1
-23.7520 -2.6103 -10.7819 0.1020 0 2
-23.2835 -3.5120 -10.6248 0.1035 0 25
-22.3857 -4.3043 -10.2858 0.1655 16 6
-21.9899 -5.1537 -10.1911 0.1079 0 25
-21.7821 -6.0393 -10.1992 0.1124 0 1
-20.8976 -6.7106 -9.9036 0.1187 0 1
-19.9757 -7.3136 -9.5985 0.1225 0 1
-19.0118 -7.8420 -9.2796 0.1255 0 1
-17.9805 -8.2783 -8.9317 0.1293 0 1
-16.9337 -8.6385 -8.5776 0.1347 0 1
-15.8765 -8.9219 -8.2174 0.1374 0 1
-14.8301 -9.1380 -7.8599 0.1433 0 1
-13.8074 -9.2945 -7.5102 0.1496 0 1
-12.8151 -9.3974 -7.1705 0.1565 0 1
-11.8721 -9.4635 -6.8505 0.1689 0 1
-10.9800 -9.4996 -6.5513 0.1765 0 1
-10.1258 -9.4993 -6.2648 0.1846 0 1
-9.3351 -9.4921 -6.0072 0.2000 0 1
-8.5808 -9.4581 -5.7622 0.2085 0 1
-7.8614 -9.3990 -5.5289 0.2173 0 1
-7.1697 -9.3090 -5.3018 0.2235 0 1
-6.5133 -9.2001 -5.0862 0.2326 0 1
-5.8914 -9.0752 -4.8821 0.2423 0 1
-5.3028 -8.9365 -4.6887 0.2517 0 1
-4.7461 -8.7857 -4.5057 0.2610 0 1
-4.2199 -8.6247 -4.3325 0.2714 0 1
-3.7236 -8.4564 -4.1692 0.2820 0 1
-3.2556 -8.2822 -4.0154 0.2929 0 1
-2.8130 -8.0993 -3.8687 0.2999 0 1
-2.3960 -7.9125 -3.7304 0.3135 0 1
-1.9966 -7.6980 -3.5884 0.3261 0 24
-1.6283 -7.5093 -3.4671 0.3381 0 24
-1.2856 -7.3447 -3.3645 0.3505 0 1
-0.9573 -7.1541 -3.2568 0.3611 0 1
-0.6477 -6.9615 -3.1547 0.3728 0 1
-0.3558 -6.7692 -3.0586 0.3845 0 1
-0.0805 -6.5611 -2.9607 0.3967 0 24
0.1788 -6.3865 -2.8828 0.4079 0 1
0.4235 -6.1966 -2.8025 0.4196 0 1
0.6544 -6.0079 -2.7269 0.4312 0 1
0.8722 -5.8205 -2.6556 0.4412 0 1
1.0776 -5.6339 -2.5882 0.4528 0 1
1.2712 -5.4479 -2.5242 0.4645 0 1
1.4537 -5.2628 -2.4636 0.4759 0 1
1.6257 -5.0795 -2.4065 0.4872 0 1
1.7796 -4.8752 -2.3417 0.4962 0 24
1.9300 -4.6918 -2.2891 0.5065 0 24
2.0841 -4.5382 -2.2533 0.5020 0 1
2.2141 -4.3505 -2.2026 0.5136 0 1
2.3357 -4.1658 -2.1550 0.5249 0 1
2.4495 -3.9840 -2.1102 0.5360 0 1
2.5583 -3.8084 -2.0701 0.5689 0 1
2.6626 -3.6383 -2.0343 0.5790 0 1
2.7605 -3.4700 -2.0008 0.5887 0 1
2.8525 -3.3035 -1.9694 0.5981 0 1
2.9387 -3.1386 -1.9401 0.6071 0 1
3.0195 -2.9753 -1.9127 0.6158 0 1
3.0950 -2.8134 -1.8873 0.6241 0 1
3.1655 -2.6529 -1.8636 0.6320 0 1
3.2312 -2.4937 -1.8417 0.6395 0 1
3.2924 -2.3356 -1.8214 0.6466 0 1
3.3488 -2.1786 -1.8027 0.6496 0 1
3.4025 -2.0234 -1.7862 0.6529 0 1
3.4529 -1.8696 -1.7717 0.6582 0 1
3.4992 -1.7163 -1.7586 0.6632 0 1
3.5416 -1.5636 -1.7468 0.6676 0 1
3.5801 -1.4113 -1.7364 0.6716 0 1
3.6149 -1.2595 -1.7273 0.6752 0 1
3.6460 -1.1079 -1.7194 0.6783 0 1
3.6734 -0.9566 -1.7128 0.6809 0 1
3.6973 -0.8055 -1.7074 0.6830 0 1
3.7176 -0.6544 -1.7032 0.6847 0 1
3.7345 -0.5034 -1.7003 0.6859 0 1
3.7478 -0.3524 -1.6985 0.6866 0 1
3.7577 -0.2012 -1.6980 0.6868 0 1
3.7644 -0.0498 -1.6987 0.6858 0 1
3.7701 0.1019 -1.7017 0.6846 0 1
3.7722 0.2541 -1.7060 0.6829 0 1
3.7697 0.4069 -1.7108 0.6708 0 1
3.7611 0.5599 -1.7158 0.6689 0 1
3.7488 0.7133 -1.7219 0.6666 0 1
3.7328 0.8672 -1.7292 0.6637 0 1
3.7131 1.0217 -1.7377 0.6605 0 1
3.6896 1.1769 -1.7475 0.6568 0 1
3.6623 1.3328 -1.7585 0.6527 0 1
3.6310 1.4895 -1.7709 0.6481 0 1
3.5956 1.6470 -1.7845 0.6431 0 1
3.5562 1.8055 -1.7996 0.6378 0 1
3.5124 1.9649 -1.8160 0.6320 0 1
3.4643 2.1254 -1.8339 0.6258 0 1
3.4118 2.2871 -1.8534 0.6189 0 1
3.3550 2.4503 -1.8746 0.6119 0 1
3.2935 2.6149 -1.8975 0.6091 0 1
3.2274 2.7813 -1.9224 0.6012 0 1
3.1560 2.9493 -1.9491 0.5930 0 1
3.0792 3.1189 -1.9776 0.5844 0 1
2.9967 3.2902 -2.0081 0.5755 0 1
2.9082 3.4633 -2.0406 0.5664 0 1
2.8134 3.6383 -2.0752 0.5569 0 1
2.7121 3.8152 -2.1121 0.5472 0 1
2.6013 3.9901 -2.1492 0.5420 0 1
2.4832 4.1663 -2.1885 0.5323 0 1
2.3576 4.3441 -2.2302 0.5223 0 1
2.2241 4.5234 -2.2744 0.5127 0 1
2.0823 4.7042 -2.3213 0.5024 0 1
1.9206 4.8581 -2.3571 0.4927 0 24
1.7627 5.0435 -2.4107 0.4817 0 24
1.6028 5.2563 -2.4795 0.4707 0 1
1.4231 5.4431 -2.5386 0.4598 0 1
1.2325 5.6315 -2.6012 0.4487 0 1
1.0305 5.8213 -2.6675 0.4375 0 1
0.8147 5.9995 -2.7319 0.4251 0 24
0.5898 6.2088 -2.8141 0.4149 0 1
0.3491 6.4040 -2.8939 0.4042 0 1
0.0938 6.6001 -2.9784 0.3928 0 1
-0.1771 6.7973 -3.0681 0.3805 0 1
-0.4644 6.9953 -3.1633 0.3690 0 1
-0.7694 7.1936 -3.2644 0.3576 0 1
-1.0925 7.3885 -3.3701 0.3491 0 1
-1.4347 7.5803 -3.4811 0.3389 0 1
-1.7970 7.7689 -3.5980 0.3279 0 1
-2.1807 7.9551 -3.7219 0.3170 0 1
-2.5871 8.1379 -3.8531 0.3062 0 1
-3.0175 8.3165 -3.9919 0.2956 0 1
-3.4731 8.4899 -4.1389 0.2853 0 1
-3.9550 8.6565 -4.2943 0.2721 0 1
-4.4669 8.8195 -4.4608 0.2620 0 1
-5.0084 8.9734 -4.6369 0.2520 0 1
-5.5807 9.1163 -4.8230 0.2423 0 1
-6.1786 9.2364 -5.0141 0.2365 0 1
-6.8061 9.3382 -5.2139 0.2275 0 1
-7.4651 9.4211 -5.4237 0.2187 0 1
-8.1614 9.4889 -5.6474 0.2047 0 1
-8.9100 9.5531 -5.8944 0.1962 0 1
-9.6979 9.5931 -6.1550 0.1879 0 1
-10.5215 9.6015 -6.4271 0.1807 0 1
-11.3887 9.5821 -6.7157 0.1725 0 1
-12.2939 9.5258 -7.0176 0.1651 0 1
-13.2352 9.4279 -7.3322 0.1578 0 1
-14.2117 9.2848 -7.6598 0.1510 0 1
-15.2433 9.1053 -8.0117 0.1357 0 1
-16.2954 8.8642 -8.3702 0.1299 0 1
-17.3587 8.5561 -8.7323 0.1281 0 1
-18.4199 8.1750 -9.0931 0.1229 0 1
-19.4561 7.7134 -9.4437 0.1221 0 1
-20.4561 7.1715 -9.7809 0.1173 0 1
-21.4181 6.5537 -10.1065 0.1157 0 1
-22.2973 5.8526 -10.4017 0.1106 0 1
-16.3276 3.5901 -7.5433 0.9078 26 14
-16.3613 2.9128 -7.4986 0.9524 26 14
-16.6162 2.2727 -7.5673 0.4188 26 14
-24.7474 2.3751 -11.2178 0.0989 0 1
-25.0321 1.3889 -11.3123 0.0983 0 1
-25.1929 0.3824 -11.3688 0.0962 0 1
-25.1841 -0.6316 -11.3671 0.0962 0 1
-24.9756 -1.6339 -11.2935 0.0971 0 1
-24.1437 -2.5586 -10.9551 0.1019 0 2
-23.3343 -3.4272 -10.6418 0.1033 0 25
-5.5677 -8.6499 -4.7795 0.2529 0 1
-5.0173 -8.5306 -4.5982 0.2620 0 1
-4.4951 -8.3988 -4.4260 0.2722 0 1
-4.0006 -8.2573 -4.2631 0.2826 0 1
-3.5326 -8.1077 -4.1091 0.2932 0 1
-3.0892 -7.9492 -3.9625 0.3024 0 1
-2.6696 -7.7837 -3.8233 0.3134 0 1
-2.2658 -7.5887 -3.6797 0.3257 0 24
-1.8992 -7.4410 -3.5681 0.3358 0 1
-1.5463 -7.2674 -3.4522 0.3500 0 1
-1.2131 -7.0927 -3.3433 0.3614 0 1
-0.8980 -6.9145 -3.2396 0.3719 0 1
-0.6002 -6.7345 -3.1414 0.3836 0 1
-0.3190 -6.5540 -3.0487 0.3951 0 1
-0.0533 -6.3577 -2.9540 0.4073 0 24
0.1974 -6.1929 -2.8788 0.4184 0 1
0.4344 -6.0129 -2.8010 0.4301 0 1
0.6583 -5.8335 -2.7276 0.4401 0 1
0.8697 -5.6544 -2.6581 0.4516 0 1
1.0695 -5.4764 -2.5925 0.4632 0 1
1.2581 -5.2984 -2.5302 0.4748 0 1
1.4359 -5.1210 -2.4711 0.4861 0 1
1.6038 -4.9449 -2.4153 0.4973 0 1
1.7623 -4.7703 -2.3628 0.5084 0 1
1.9119 -4.5971 -2.3133 0.5193 0 1
2.0502 -4.4192 -2.2634 0.5120 0 1
2.1775 -4.2380 -2.2138 0.5235 0 1
2.2969 -4.0595 -2.1671 0.5348 0 1
2.4089 -3.8840 -2.1235 0.5682 0 1
2.5179 -3.7170 -2.0859 0.5785 0 1
2.6204 -3.5517 -2.0507 0.5884 0 1
2.7167 -3.3879 -2.0177 0.5980 0 1
2.8072 -3.2257 -1.9868 0.6073 0 1
2.8921 -3.0649 -1.9579 0.6163 0 1
2.9716 -2.9055 -1.9310 0.6249 0 1
3.0460 -2.7474 -1.9059 0.6331 0 1
3.1155 -2.5905 -1.8826 0.6410 0 1
3.1803 -2.4347 -1.8609 0.6484 0 1
3.2404 -2.2800 -1.8409 0.6517 0 1
3.2962 -2.1262 -1.8225 0.6628 0 1
3.3491 -1.9742 -1.8063 0.6687 0 1
3.3979 -1.8228 -1.7916 0.6669 0 1
3.4435 -1.6725 -1.7787 0.6717 0 1
3.4852 -1.5226 -1.7671 0.6761 0 1
3.5231 -1.3731 -1.7568 0.6801 0 1
3.5573 -1.2239 -1.7479 0.6836 0 1
3.5877 -1.0750 -1.7402 0.6866 0 1
3.6146 -0.9263 -1.7337 0.6892 0 1
3.6379 -0.7777 -1.7285 0.6912 0 1
3.6577 -0.6293 -1.7244 0.6929 0 1
3.6741 -0.4808 -1.7216 0.6940 0 1
3.6869 -0.3322 -1.7200 0.6947 0 1
3.6964 -0.1835 -1.7195 0.6948 0 1
3.7028 -0.0347 -1.7205 0.6937 0 1
3.7079 0.1146 -1.7236 0.6925 0 1
3.7095 0.2644 -1.7279 0.6907 0 1
3.7049 0.4144 -1.7321 0.6788 0 1
3.6958 0.5648 -1.7371 0.6769 0 1
3.6832 0.7156 -1.7433 0.6745 0 1
3.6669 0.8669 -1.7507 0.6716 0 1
3.6468 1.0187 -1.7593 0.6684 0 1
3.6230 1.1712 -1.7691 0.6646 0 1
3.5954 1.3243 -1.7802 0.6605 0 1
3.5638 1.4781 -1.7926 0.6559 0 1
3.5283 1.6327 -1.8063 0.6509 0 1
3.4886 1.7882 -1.8214 0.6456 0 1
3.4446 1.9445 -1.8379 0.6398 0 1
3.3963 2.1018 -1.8558 0.6336 0 1
3.3438 2.2603 -1.8752 0.6267 0 1
3.2871 2.4203 -1.8966 0.6243 0 1
3.2259 2.5817 -1.9197 0.6168 0 1
3.1598 2.7445 -1.9446 0.6089 0 1
3.0885 2.9087 -1.9712 0.6007 0 1
3.0117 3.0743 -1.9996 0.5921 0 1
2.9294 3.2415 -2.0300 0.5833 0 1
2.8412 3.4103 -2.0623 0.5741 0 1
2.7468 3.5807 -2.0968 0.5647 0 1
2.6459 3.7528 -2.1334 0.5550 0 1
2.5358 3.9228 -2.1703 0.5499 0 1
2.4185 4.0939 -2.2092 0.5402 0 1
2.2940 4.2663 -2.2506 0.5303 0 1
2.1617 4.4400 -2.2944 0.5207 0 1
2.0089 4.5864 -2.3264 0.5114 0 24
1.8726 4.7910 -2.3900 0.4999 0 1
1.7148 4.9684 -2.4421 0.4892 0 1
1.5476 5.1469 -2.4971 0.4788 0 1
1.3705 5.3263 -2.5553 0.4679 0 1
1.1829 5.5068 -2.6169 0.4569 0 1
0.9843 5.6885 -2.6823 0.4460 0 1
0.7743 5.8727 -2.7522 0.4346 0 1
0.5518 6.0577 -2.8262 0.4233 0 1
0.3160 6.2431 -2.9044 0.4126 0 1
0.0664 6.4286 -2.9870 0.4012 0 1
-0.1980 6.6142 -3.0745 0.3898 0 1
-0.4780 6.7999 -3.1672 0.3776 0 1
-0.7745 6.9853 -3.2654 0.3662 0 1
-1.0883 7.1680 -3.3686 0.3579 0 1
-1.4198 7.3457 -3.4761 0.3477 0 1
-1.7700 7.5195 -3.5892 0.3368 0 1
-2.1401 7.6898 -3.7087 0.3259 0 1
-2.5311 7.8560 -3.8349 0.3152 0 1
-2.9441 8.0170 -3.9681 0.3047 0 1
-3.3800 8.1718 -4.1088 0.2942 0 1
-3.8398 8.3187 -4.2569 0.2842 0 1
-4.3252 8.4581 -4.4138 0.2712 0 1
-4.8382 8.5901 -4.5807 0.2614 0 1
-5.3786 8.7100 -4.7563 0.2517 0 1
-5.9450 8.8131 -4.9393 0.2445 0 1
-6.5336 8.8916 -5.1266 0.2385 0 1
-7.1490 8.9507 -5.3224 0.2297 0 1
-7.7914 8.9880 -5.5267 0.2212 0 1
-8.4801 9.0218 -5.7528 0.2046 0 1
-9.2045 9.0347 -5.9925 0.1964 0 1
-9.9589 9.0176 -6.2421 0.1886 0 1
-10.7469 8.9711 -6.5043 0.1797 0 1
-11.5639 8.8885 -6.7766 0.1725 0 1
-12.4070 8.7656 -7.0581 0.1653 0 1
-13.2750 8.5995 -7.3489 0.1588 0 1
-14.1609 8.3843 -7.6462 0.1517 0 1
-15.0787 8.1267 -7.9586 0.1430 0 1
-16.0077 7.8131 -8.2762 0.1382 0 1
-16.9238 7.4325 -8.5881 0.1334 0 1
-17.8228 6.9860 -8.8943 0.1287 0 1
-18.6941 6.4725 -9.1916 0.1245 0 1
-19.4938 5.8823 -9.4606 0.1221 0 1
-16.4303 4.2445 -7.8845 0.9692 26 14
-16.2018 3.4966 -7.7010 0.9742 26 14
-16.2273 2.8241 -7.6529 0.9911 26 14
-16.6203 2.2076 -7.7900 0.1265 26 14
-22.2154 2.0452 -10.3654 0.1126 0 1
-22.4246 1.1570 -10.4328 0.1120 0 1
-22.5217 0.2545 -10.4648 0.1091 0 1
-22.4896 -0.6513 -10.4535 0.1092 0 1
-22.3104 -1.5465 -10.3908 0.1097 0 1
-22.0029 -2.4181 -10.2846 0.1109 0 1
-21.3130 -3.2148 -10.0145 0.9160 0 2
-21.0406 -4.0457 -9.9550 0.9973 0 2
-20.4421 -4.7910 -9.7552 0.1227 0 1
-19.7666 -5.4805 -9.5305 0.1256 0 1
-19.0264 -6.1098 -9.2847 0.1285 0 1
-18.2228 -6.6719 -9.0164 0.1296 0 1
-17.3157 -7.1425 -8.7028 0.1310 0 24
-16.4855 -7.5900 -8.4323 0.1376 0 1
-15.5676 -7.9416 -8.1199 0.1415 0 1
-14.6432 -8.2288 -7.8042 0.1482 0 1
-13.7207 -8.4544 -7.4880 0.1537 0 1
-12.8165 -8.6275 -7.1783 0.1603 0 1
-11.9429 -8.7578 -6.8810 0.1723 0 1
-11.1099 -8.8560 -6.6012 0.1796 0 1
-10.3038 -8.9146 -6.3304 0.1871 0 1
-9.5162 -8.9275 -6.0625 0.2033 0 24
-8.8224 -8.9709 -5.8460 0.2105 0 1
-8.1278 -8.9588 -5.6202 0.2190 0 1
-7.4582 -8.9169 -5.4012 0.2248 0 1
-6.8157 -8.8494 -5.1898 0.2335 0 1
-6.2038 -8.7629 -4.9885 0.2429 0 1
-5.6222 -8.6605 -4.7974 0.2526 0 1
-5.0692 -8.5427 -4.6153 0.2610 0 1
-4.5442 -8.4119 -4.4422 0.2712 0 1
-4.0470 -8.2713 -4.2784 0.2816 0 1
-3.5766 -8.1225 -4.1235 0.2922 0 1
-3.1309 -7.9649 -3.9763 0.3013 0 1
-2.7090 -7.7999 -3.8364 0.3123 0 1
-2.3029 -7.6051 -3.6919 0.3244 0 24
-1.9282 -7.4340 -3.5683 0.3361 0 24
-1.5794 -7.2841 -3.4630 0.3489 0 1
-1.2444 -7.1096 -3.3535 0.3603 0 1
-0.9276 -6.9319 -3.2494 0.3708 0 1
-0.6282 -6.7518 -3.1506 0.3824 0 1
-0.3454 -6.5714 -3.0574 0.3940 0 1
-0.0782 -6.3752 -2.9623 0.4062 0 24
0.1738 -6.2103 -2.8866 0.4173 0 1
0.4121 -6.0302 -2.8083 0.4289 0 1
0.6372 -5.8508 -2.7345 0.4405 0 1
0.8499 -5.6716 -2.6646 0.4505 0 1
1.0474 -5.4761 -2.5904 0.4628 0 24
1.2404 -5.3156 -2.5361 0.4737 0 1
1.4192 -5.1380 -2.4766 0.4850 0 1
1.5880 -4.9618 -2.4206 0.4963 0 1
1.7474 -4.7871 -2.3677 0.5073 0 1
1.8979 -4.6138 -2.3179 0.5182 0 1
2.0375 -4.4368 -2.2684 0.5109 0 1
2.1656 -4.2554 -2.2185 0.5224 0 1
2.2857 -4.0766 -2.1715 0.5337 0 1
2.3981 -3.9004 -2.1274 0.5447 0 1
2.5076 -3.7330 -2.0894 0.5775 0 1
2.6108 -3.5675 -2.0540 0.5875 0 1
2.7077 -3.4036 -2.0208 0.5971 0 1
2.7988 -3.2413 -1.9897 0.6064 0 1
2.8842 -3.0803 -1.9606 0.6154 0 1
2.9642 -2.9208 -1.9335 0.6241 0 1
3.0391 -2.7626 -1.9082 0.6323 0 1
3.1090 -2.6056 -1.8847 0.6402 0 1
3.1743 -2.4497 -1.8629 0.6477 0 1
3.2349 -2.2949 -1.8428 0.6510 0 1
3.2909 -2.1409 -1.8241 0.6622 0 1
3.3442 -1.9888 -1.8078 0.6681 0 1
3.3934 -1.8374 -1.7929 0.6737 0 1
3.4393 -1.6869 -1.7799 0.6713 0 1
3.4814 -1.5370 -1.7682 0.6757 0 1
3.5196 -1.3875 -1.7578 0.6797 0 1
3.5541 -1.2383 -1.7487 0.6833 0 1
3.5850 -1.0894 -1.7409 0.6863 0 1
3.6122 -0.9406 -1.7343 0.6889 0 1
3.6358 -0.7921 -1.7289 0.6911 0 1
3.6560 -0.6436 -1.7248 0.6927 0 1
3.6726 -0.4951 -1.7218 0.6939 0 1
3.6858 -0.3465 -1.7201 0.6946 0 1
3.6956 -0.1979 -1.7195 0.6948 0 1
3.7021 -0.0490 -1.7202 0.6938 0 1
3.7075 0.1002 -1.7232 0.6926 0 1
3.7095 0.2499 -1.7274 0.6909 0 1
3.7056 0.4000 -1.7317 0.6790 0 1
3.6969 0.5503 -1.7366 0.6771 0 1
3.6846 0.7011 -1.7426 0.6747 0 1
3.6686 0.8523 -1.7499 0.6719 0 1
3.6489 1.0041 -1.7584 0.6687 0 1
3.6255 1.1565 -1.7681 0.6650 0 1
3.5982 1.3095 -1.7791 0.6609 0 1
3.5670 1.4633 -1.7914 0.6564 0 1
3.5319 1.6178 -1.8049 0.6514 0 1
3.4926 1.7732 -1.8199 0.6461 0 1
3.4490 1.9294 -1.8362 0.6404 0 1
3.4012 2.0866 -1.8540 0.6342 0 1
3.3490 2.2450 -1.8733 0.6273 0 1
3.2927 2.4048 -1.8945 0.6250 0 1
3.2320 2.5661 -1.9174 0.6175 0 1
3.1664 2.7287 -1.9421 0.6097 0 1
3.0956 2.8928 -1.9685 0.6015 0 1
3.0194 3.0583 -1.9968 0.5930 0 1
2.9376 3.2253 -2.0269 0.5841 0 1
2.8499 3.3939 -2.0591 0.5750 0 1
2.7561 3.5642 -2.0934 0.5656 0 1
2.6559 3.7361 -2.1298 0.5559 0 1
2.5467 3.9063 -2.1666 0.5508 0 1
2.4301 4.0773 -2.2054 0.5412 0 1
2.3063 4.2496 -2.2465 0.5313 0 1
2.1748 4.4232 -2.2901 0.5217 0 1
2.0353 4.5979 -2.3362 0.5114 0 1
1.8873 4.7740 -2.3851 0.5009 0 1
1.7304 4.9513 -2.4369 0.4903 0 1
1.5642 5.1296 -2.4917 0.4799 0 1
1.3880 5.3090 -2.5496 0.4690 0 1
1.2014 5.4894 -2.6108 0.4580 0 1
1.0039 5.6708 -2.6757 0.4471 0 1
0.7950 5.8549 -2.7453 0.4357 0 1
0.5726 6.0273 -2.8130 0.4231 0 24
0.3394 6.2253 -2.8967 0.4137 0 1
0.0911 6.4107 -2.9789 0.4023 0 1
-0.1718 6.5964 -3.0659 0.3909 0 1
-0.4503 6.7820 -3.1580 0.3787 0 1
-0.7452 6.9674 -3.2557 0.3673 0 1
-1.0573 7.1506 -3.3585 0.3589 0 1
-1.3871 7.3288 -3.4656 0.3488 0 1
-1.7354 7.5028 -3.5780 0.3378 0 1
-2.1035 7.6736 -3.6969 0.3270 0 1
-2.4925 7.8402 -3.8224 0.3163 0 1
-2.9033 8.0017 -3.9549 0.3057 0 1
-3.3370 8.1572 -4.0949 0.2952 0 1
-3.7944 8.3049 -4.2423 0.2851 0 1
-4.2771 8.4449 -4.3982 0.2722 0 1
-4.7876 8.5778 -4.5642 0.2623 0 1
-5.3253 8.6990 -4.7390 0.2526 0 1
-5.8894 8.8042 -4.9215 0.2454 0 1
-6.4757 8.8849 -5.1082 0.2393 0 1
-7.0885 8.9459 -5.3031 0.2305 0 1
-7.7284 8.9854 -5.5066 0.2220 0 1
-8.4119 9.0191 -5.7302 0.2054 0 1
-9.1334 9.0347 -5.9690 0.1972 0 1
-9.8849 9.0206 -6.2177 0.1893 0 1
-10.6696 8.9771 -6.4786 0.1804 0 1
-11.4840 8.8983 -6.7500 0.1732 0 1
-12.3243 8.7791 -7.0304 0.1659 0 1
-13.1906 8.6176 -7.3206 0.1594 0 1
-14.0738 8.4067 -7.6167 0.1523 0 1
-14.9892 8.1536 -7.9280 0.1436 0 1
-15.9189 7.8464 -8.2460 0.1387 0 1
-16.8362 7.4721 -8.5583 0.1339 0 1
-17.7371 7.0319 -8.8651 0.1291 0 1
-18.6118 6.5250 -9.1635 0.1249 0 1
-19.4200 5.9423 -9.4359 0.1224 0 1
-16.4271 4.3118 -7.8909 0.9684 26 14
-16.2012 3.5623 -7.7072 0.9734 26 14
-16.2230 2.8882 -7.6561 0.9907 26 14
-16.5432 2.2627 -7.7579 0.8789 26 14
-22.1894 2.1296 -10.3571 0.1127 0 1
-22.4098 1.2434 -10.4281 0.1121 0 1
-22.5172 0.3418 -10.4632 0.1091 0 1
-22.4998 -0.5643 -10.4572 0.1092 0 1
-22.3334 -1.4610 -10.3988 0.1097 0 1
-22.0378 -2.3354 -10.2966 0.1107 0 1
-21.3679 -3.1384 -10.0345 0.8610 0 2
-5.3223 -8.2686 -4.7020 0.2623 0 1
-4.8036 -8.1672 -4.5307 0.2722 0 1
-4.3104 -8.0538 -4.3679 0.2805 0 1
-3.8299 -7.9050 -4.2002 0.2921 0 24
-3.3973 -7.7971 -4.0669 0.3038 0 1
-2.9746 -7.6544 -3.9267 0.3124 0 1
-2.5740 -7.5048 -3.7938 0.3233 0 1
-2.1946 -7.3503 -3.6680 0.3344 0 1
-1.8358 -7.1924 -3.5494 0.3485 0 1
-1.4965 -7.0332 -3.4383 0.3598 0 1
-1.1752 -6.8711 -3.3332 0.3711 0 1
-0.8707 -6.7047 -3.2329 0.3816 0 1
-0.5825 -6.5361 -3.1377 0.3932 0 1
-0.3099 -6.3664 -3.0478 0.4046 0 1
-0.0519 -6.1812 -2.9557 0.4168 0 24
0.1921 -6.0253 -2.8826 0.4278 0 1
0.4229 -5.8545 -2.8067 0.4394 0 1
0.6413 -5.6832 -2.7348 0.4493 0 1
0.8454 -5.4961 -2.6590 0.4625 0 24
1.0433 -5.3421 -2.6027 0.4723 0 1
1.2280 -5.1718 -2.5418 0.4838 0 1
1.4024 -5.0014 -2.4837 0.4951 0 1
1.5672 -4.8320 -2.4290 0.5063 0 1
1.7229 -4.6637 -2.3773 0.5173 0 1
1.8592 -4.4705 -2.3151 0.5255 0 24
1.9954 -4.3009 -2.2671 0.5372 0 24
2.1306 -4.1466 -2.2292 0.5322 0 1
2.2483 -3.9738 -2.1832 0.5434 0 1
2.3609 -3.8067 -2.1419 0.5768 0 1
2.4686 -3.6443 -2.1047 0.5869 0 1
2.5700 -3.4833 -2.0699 0.5968 0 1
2.6653 -3.3238 -2.0372 0.6064 0 1
2.7549 -3.1655 -2.0066 0.6156 0 1
2.8389 -3.0086 -1.9780 0.6246 0 1
2.9177 -2.8528 -1.9512 0.6331 0 1
2.9915 -2.6982 -1.9263 0.6413 0 1
3.0604 -2.5447 -1.9032 0.6491 0 1
3.1247 -2.3921 -1.8817 0.6565 0 1
3.1840 -2.2402 -1.8616 0.6598 0 1
3.2397 -2.0898 -1.8434 0.6708 0 1
3.2922 -1.9406 -1.8274 0.6767 0 1
3.3407 -1.7921 -1.8127 0.6822 0 1
3.3852 -1.6441 -1.7995 0.6872 0 1
3.4264 -1.4969 -1.7879 0.6842 0 1
3.4640 -1.3500 -1.7777 0.6881 0 1
3.4979 -1.2035 -1.7688 0.6916 0 1
3.5281 -1.0571 -1.7611 0.6946 0 1
3.5547 -0.9110 -1.7547 0.6971 0 1
3.5778 -0.7649 -1.7495 0.6992 0 1
3.5975 -0.6189 -1.7455 0.7008 0 1
3.6136 -0.4729 -1.7426 0.7019 0 1
3.6263 -0.3268 -1.7410 0.7026 0 1
3.6356 -0.1805 -1.7406 0.7028 0 1
3.6418 -0.0341 -1.7415 0.7017 0 1
3.6467 0.1127 -1.7446 0.7004 0 1
3.6478 0.2600 -1.7487 0.6884 0 1
3.6422 0.4074 -1.7525 0.6869 0 1
3.6332 0.5552 -1.7574 0.6850 0 1
3.6205 0.7034 -1.7636 0.6826 0 1
3.6042 0.8521 -1.7709 0.6798 0 1
3.5842 1.0013 -1.7795 0.6765 0 1
3.5605 1.1510 -1.7893 0.6728 0 1
3.5329 1.3013 -1.8003 0.6687 0 1
3.5015 1.4523 -1.8126 0.6641 0 1
3.4661 1.6040 -1.8262 0.6592 0 1
3.4266 1.7564 -1.8412 0.6538 0 1
3.3829 1.9097 -1.8575 0.6481 0 1
3.3349 2.0638 -1.8753 0.6419 0 1
3.2830 2.2192 -1.8948 0.6397 0 1
3.2269 2.3760 -1.9162 0.6326 0 1
3.1662 2.5339 -1.9391 0.6251 0 1
3.1005 2.6930 -1.9637 0.6173 0 1
3.0297 2.8534 -1.9901 0.6091 0 1
2.9537 3.0150 -2.0182 0.6006 0 1
2.8721 3.1781 -2.0483 0.5918 0 1
2.7847 3.3425 -2.0803 0.5827 0 1
2.6913 3.5084 -2.1143 0.5733 0 1
2.5916 3.6757 -2.1505 0.5637 0 1
2.4830 3.8412 -2.1871 0.5587 0 1
2.3673 4.0072 -2.2255 0.5490 0 1
2.2445 4.1743 -2.2663 0.5391 0 1
2.1143 4.3425 -2.3095 0.5291 0 1
1.9642 4.4843 -2.3409 0.5204 0 24
1.8195 4.6553 -2.3900 0.5096 0 24
1.6748 4.8526 -2.4547 0.4983 0 1
1.5108 5.0243 -2.5087 0.4880 0 1
1.3371 5.1966 -2.5658 0.4771 0 1
1.1534 5.3695 -2.6261 0.4662 0 1
0.9592 5.5435 -2.6901 0.4553 0 1
0.7540 5.7192 -2.7584 0.4440 0 1
0.5370 5.8953 -2.8306 0.4327 0 1
0.3074 6.0715 -2.9069 0.4221 0 1
0.0645 6.2470 -2.9872 0.4107 0 1
-0.1922 6.4220 -3.0722 0.3994 0 1
-0.4637 6.5964 -3.1619 0.3880 0 1
-0.7506 6.7696 -3.2568 0.3759 0 1
-1.0539 6.9416 -3.3573 0.3676 0 1
-1.3736 7.1068 -3.4611 0.3575 0 1
-1.7106 7.2672 -3.5699 0.3466 0 1
-2.0660 7.4236 -3.6846 0.3358 0 1
-2.4406 7.5751 -3.8055 0.3252 0 1
-2.8353 7.7207 -3.9329 0.3147 0 1
-3.2508 7.8595 -4.0669 0.3043 0 1
-3.6880 7.9900 -4.2079 0.2943 0 1
-4.1475 8.1107 -4.3559 0.2843 0 1
-4.6312 8.2225 -4.5125 0.2716 0 1
-5.1400 8.3237 -4.6778 0.2620 0 1
-5.6735 8.4106 -4.8511 0.2527 0 1
-6.2274 8.4750 -5.0288 0.2458 0 1
-6.8024 8.5167 -5.2119 0.2401 0 1
-7.3999 8.5363 -5.4019 0.2317 0 1
-8.0229 8.5354 -5.6013 0.2152 0 1
-8.6888 8.5284 -5.8216 0.2070 0 1
-9.3790 8.4924 -6.0500 0.1992 0 1
-10.0929 8.4252 -6.2866 0.1916 0 1
-10.8321 8.3261 -6.5328 0.1832 0 1
-11.5899 8.1883 -6.7855 0.1759 0 1
-12.3678 8.0118 -7.0463 0.1694 0 1
-13.1551 7.7888 -7.3102 0.1634 0 1
-13.9559 7.5216 -7.5807 0.1567 0 1
-14.7620 7.2051 -7.8546 0.1484 0 1
-15.5645 6.8356 -8.1285 0.1440 0 1
-16.3440 6.4064 -8.3941 0.1390 0 1
-17.0332 5.8974 -8.6191 0.1344 0 24
-17.7845 5.3665 -8.8827 0.1307 0 1
-16.3642 4.2275 -8.0817 0.9219 26 14
-16.1424 3.4838 -7.8965 0.9594 26 14
-16.1600 2.8124 -7.8433 0.9658 26 14
-16.6101 2.2063 -8.0121 0.1260 26 14
-20.1188 1.8521 -9.6608 0.1222 0 1
-20.3043 1.0476 -9.7217 0.1214 0 1
-20.3760 0.2302 -9.7437 0.1217 0 1
-20.3392 -0.5891 -9.7296 0.1220 0 1
-20.1964 -1.3999 -9.6804 0.1237 0 1
-19.9429 -2.1917 -9.5934 0.1249 0 1
-19.5923 -2.9553 -9.4744 0.1264 0 1
-19.1646 -3.6850 -9.3317 0.1300 0 1
-18.6544 -4.3720 -9.1616 0.1310 0 1
-18.0685 -5.0097 -8.9657 0.1339 0 1
-17.4190 -5.5936 -8.7481 0.1370 0 1
-16.7192 -6.1214 -8.5136 0.1398 0 1
-15.9726 -6.5884 -8.2618 0.1438 0 1
-15.1936 -6.9952 -7.9981 0.1470 0 1
-14.3849 -7.3383 -7.7217 0.1522 0 1
-13.5175 -7.5962 -7.4143 0.1574 0 24
-12.7536 -7.8585 -7.1631 0.1636 0 1
-11.9576 -8.0493 -6.8925 0.1749 0 1
-11.1865 -8.2032 -6.6331 0.1829 0 1
-10.4332 -8.3165 -6.3798 0.1902 0 1
-9.7121 -8.4026 -6.1408 0.2052 0 1
-9.0243 -8.4660 -5.9167 0.2130 0 1
-8.3587 -8.4993 -5.7001 0.2211 0 1
-7.6945 -8.4812 -5.4757 0.2276 0 24
-7.0901 -8.4768 -5.2842 0.2348 0 1
-6.4915 -8.4284 -5.0870 0.2439 0 1
-5.9196 -8.3615 -4.8987 0.2533 0 1
-5.3737 -8.2777 -4.7190 0.2614 0 1
-4.8525 -8.1776 -4.5468 0.2713 0 1
-4.3569 -8.0652 -4.3833 0.2795 0 1
-3.8738 -7.9173 -4.2146 0.2912 0 24
-3.4390 -7.8101 -4.0805 0.3028 0 1
-3.0144 -7.6685 -3.9399 0.3113 0 1
-2.6029 -7.4943 -3.7935 0.3231 0 24
-2.2303 -7.3654 -3.6798 0.3333 0 1
-1.8694 -7.2076 -3.5605 0.3474 0 1
-1.5284 -7.0487 -3.4488 0.3587 0 1
-1.2054 -6.8868 -3.3431 0.3700 0 1
-0.8994 -6.7209 -3.2424 0.3805 0 1
-0.6096 -6.5524 -3.1467 0.3920 0 1
-0.3355 -6.3828 -3.0563 0.4035 0 1
-0.0760 -6.1977 -2.9637 0.4156 0 24
0.1691 -6.0418 -2.8901 0.4267 0 1
0.4012 -5.8709 -2.8138 0.4383 0 1
0.6208 -5.6997 -2.7415 0.4482 0 1
0.8260 -5.5126 -2.6654 0.4614 0 24
1.0249 -5.3585 -2.6087 0.4712 0 1
1.2107 -5.1883 -2.5475 0.4827 0 1
1.3860 -5.0178 -2.4892 0.4941 0 1
1.5517 -4.8483 -2.4341 0.5052 0 1
1.7083 -4.6799 -2.3822 0.5163 0 1
1.8457 -4.4869 -2.3199 0.5244 0 24
1.9826 -4.3172 -2.2716 0.5362 0 24
2.1188 -4.1634 -2.2338 0.5311 0 1
2.2373 -3.9903 -2.1875 0.5424 0 1
2.3502 -3.8224 -2.1456 0.5758 0 1
2.4585 -3.6599 -2.1082 0.5860 0 1
2.5605 -3.4988 -2.0731 0.5959 0 1
2.6564 -3.3391 -2.0402 0.6055 0 1
2.7465 -3.1807 -2.0094 0.6148 0 1
2.8311 -3.0236 -1.9806 0.6237 0 1
2.9104 -2.8678 -1.9537 0.6323 0 1
2.9846 -2.7130 -1.9286 0.6405 0 1
3.0540 -2.5594 -1.9053 0.6484 0 1
3.1187 -2.4068 -1.8837 0.6558 0 1
3.1784 -2.2548 -1.8634 0.6591 0 1
3.2344 -2.1042 -1.8451 0.6702 0 1
3.2873 -1.9550 -1.8288 0.6762 0 1
3.3362 -1.8064 -1.8141 0.6817 0 1
3.3811 -1.6584 -1.8007 0.6867 0 1
3.4226 -1.5111 -1.7890 0.6838 0 1
3.4605 -1.3642 -1.7786 0.6877 0 1
3.4948 -1.2176 -1.7696 0.6912 0 1
3.5253 -1.0712 -1.7618 0.6943 0 1
3.5523 -0.9251 -1.7553 0.6969 0 1
3.5758 -0.7790 -1.7499 0.6990 0 1
3.5957 -0.6330 -1.7458 0.7007 0 1
3.6122 -0.4869 -1.7429 0.7018 0 1
3.6253 -0.3408 -1.7411 0.7025 0 1
3.6349 -0.1946 -1.7406 0.7028 0 1
3.6412 -0.0482 -1.7413 0.7017 0 1
3.6464 0.0985 -1.7442 0.7005 0 1
3.6481 0.2458 -1.7483 0.6885 0 1
3.6429 0.3932 -1.7520 0.6871 0 1
3.6342 0.5410 -1.7569 0.6852 0 1
3.6219 0.6891 -1.7629 0.6828 0 1
3.6059 0.8377 -1.7702 0.6800 0 1
3.5863 0.9868 -1.7786 0.6768 0 1
3.5629 1.1365 -1.7883 0.6732 0 1
3.5358 1.2868 -1.7992 0.6691 0 1
3.5047 1.4377 -1.8114 0.6646 0 1
3.4697 1.5893 -1.8249 0.6597 0 1
3.4306 1.7417 -1.8397 0.6543 0 1
3.3873 1.8949 -1.8559 0.6486 0 1
3.3397 2.0489 -1.8735 0.6425 0 1
3.2881 2.2042 -1.8928 0.6404 0 1
3.2325 2.3608 -1.9140 0.6333 0 1
3.1722 2.5186 -1.9368 0.6259 0 1
3.1071 2.6776 -1.9613 0.6181 0 1
3.0368 2.8379 -1.9874 0.6099 0 1
2.9612 2.9994 -2.0154 0.6015 0 1
2.8802 3.1623 -2.0453 0.5927 0 1
2.7934 3.3266 -2.0771 0.5836 0 1
2.7006 3.4923 -2.1109 0.5742 0 1
2.6015 3.6595 -2.1469 0.5646 0 1
2.4938 3.8253 -2.1835 0.5596 0 1
2.3788 3.9912 -2.2217 0.5500 0 1
2.2567 4.1582 -2.2622 0.5401 0 1
2.1272 4.3262 -2.3052 0.5300 0 1
1.9777 4.4678 -2.3363 0.5214 0 24
1.8338 4.6387 -2.3851 0.5107 0 24
1.6902 4.8361 -2.4496 0.4993 0 1
1.5270 5.0078 -2.5034 0.4890 0 1
1.3543 5.1800 -2.5601 0.4782 0 1
1.1716 5.3528 -2.6201 0.4672 0 1
0.9784 5.5266 -2.6837 0.4563 0 1
0.7743 5.7022 -2.7516 0.4451 0 1
0.5584 5.8783 -2.8235 0.4337 0 1
0.3301 6.0545 -2.8994 0.4232 0 1
0.0885 6.2301 -2.9793 0.4118 0 1
-0.1669 6.4052 -3.0638 0.4005 0 1
-0.4368 6.5796 -3.1531 0.3891 0 1
-0.7223 6.7529 -3.2474 0.3778 0 1
-1.0240 6.9251 -3.3473 0.3658 0 1
-1.3421 7.0911 -3.4509 0.3586 0 1
-1.6774 7.2519 -3.5592 0.3477 0 1
-2.0309 7.4087 -3.6733 0.3369 0 1
-2.4036 7.5607 -3.7936 0.3262 0 1
-2.7963 7.7070 -3.9203 0.3157 0 1
-3.2099 7.8465 -4.0537 0.3053 0 1
-3.6449 7.9778 -4.1940 0.2953 0 1
-4.1022 8.0995 -4.3413 0.2853 0 1
-4.5834 8.2120 -4.4969 0.2726 0 1
-5.0899 8.3145 -4.6615 0.2629 0 1
-5.6210 8.4029 -4.8341 0.2535 0 1
-6.1730 8.4695 -5.0114 0.2467 0 1
-6.7460 8.5136 -5.1940 0.2410 0 1
-7.3413 8.5354 -5.3833 0.2325 0 1
-7.9601 8.5347 -5.5805 0.2160 0 1
-8.6235 8.5303 -5.8000 0.2078 0 1
-9.3114 8.4973 -6.0277 0.1999 0 1
-10.0231 8.4331 -6.2635 0.1923 0 1
-10.7600 8.3372 -6.5088 0.1839 0 1
-11.5159 8.2032 -6.7608 0.1770 0 1
-12.2923 8.0308 -7.0210 0.1700 0 1
-13.0789 7.8124 -7.2847 0.1640 0 1
-13.8784 7.5494 -7.5545 0.1572 0 1
-14.6835 7.2374 -7.8277 0.1489 0 1
-15.4881 6.8738 -8.1025 0.1445 0 1
-16.2702 6.4504 -8.3690 0.1394 0 1
-16.9639 5.9472 -8.5956 0.1347 0 24
-17.7193 5.4219 -8.8606 0.1311 0 1
-16.3636 4.2951 -8.0896 0.9210 26 14
-16.1434 3.5496 -7.9036 0.9585 26 14
-16.1582 2.8767 -7.8478 0.9652 26 14
-16.3963 2.2426 -7.9132 0.9886 26 14
-20.0954 1.9286 -9.6531 0.1220 0 1
-20.2911 1.1259 -9.7175 0.1215 0 1
-20.3740 0.3093 -9.7433 0.1217 0 1
-20.3471 -0.5103 -9.7324 0.1220 0 1
-20.2154 -1.3225 -9.6870 0.1237 0 1
-19.9717 -2.1165 -9.6033 0.1247 0 1
-19.6301 -2.8831 -9.4872 0.1263 0 1
-5.0940 -7.9139 -4.6291 0.2708 0 1
-4.6044 -7.8285 -4.4671 0.2806 0 1
-4.1375 -7.7308 -4.3127 0.2906 0 1
-3.6820 -7.5997 -4.1536 0.3013 0 24
-3.2707 -7.5065 -4.0273 0.3116 0 1
-2.8672 -7.3779 -3.8932 0.3223 0 1
-2.4840 -7.2426 -3.7660 0.3332 0 1
-2.1204 -7.1016 -3.6453 0.3443 0 1
-1.7761 -6.9585 -3.5323 0.3583 0 1
-1.4493 -6.8114 -3.4252 0.3695 0 1
-1.1392 -6.6608 -3.3237 0.3808 0 1
-0.8448 -6.5052 -3.2265 0.3912 0 1
-0.5657 -6.3472 -3.1343 0.4026 0 1
-0.3012 -6.1875 -3.0470 0.4141 0 1
-0.0504 -6.0125 -2.9574 0.4262 0 24
0.1869 -5.8649 -2.8861 0.4372 0 1
0.4119 -5.7021 -2.8119 0.4471 0 1
0.6233 -5.5239 -2.7342 0.4603 0 24
0.8269 -5.3759 -2.6752 0.4701 0 1
1.0181 -5.2130 -2.6125 0.4814 0 1
1.1990 -5.0499 -2.5529 0.4929 0 1
1.3700 -4.8861 -2.4960 0.5041 0 1
1.5318 -4.7230 -2.4422 0.5152 0 1
1.6849 -4.5607 -2.3914 0.5262 0 1
1.8190 -4.3737 -2.3299 0.5348 0 24
1.9531 -4.2099 -2.2826 0.5471 0 24
2.0851 -4.0581 -2.2441 0.5409 0 1
2.2014 -3.8909 -2.1988 0.5748 0 1
2.3143 -3.7316 -2.1597 0.5852 0 1
2.4207 -3.5736 -2.1230 0.5953 0 1
2.5209 -3.4169 -2.0885 0.6052 0 1
2.6152 -3.2613 -2.0562 0.6147 0 1
2.7039 -3.1070 -2.0258 0.6239 0 1
2.7871 -2.9537 -1.9975 0.6328 0 1
2.8652 -2.8015 -1.9710 0.6413 0 1
2.9383 -2.6502 -1.9462 0.6494 0 1
3.0067 -2.5000 -1.9233 0.6572 0 1
3.0700 -2.3503 -1.9017 0.6608 0 1
3.1289 -2.2015 -1.8817 0.6678 0 1
3.1845 -2.0542 -1.8639 0.6788 0 1
3.2366 -1.9079 -1.8479 0.6846 0 1
3.2847 -1.7621 -1.8334 0.6901 0 1
3.3289 -1.6168 -1.8202 0.6951 0 1
3.3693 -1.4719 -1.8084 0.6996 0 1
3.4062 -1.3275 -1.7981 0.6960 0 1
3.4398 -1.1835 -1.7892 0.6995 0 1
3.4698 -1.0397 -1.7816 0.7025 0 1
3.4962 -0.8960 -1.7752 0.7050 0 1
3.5191 -0.7523 -1.7700 0.7071 0 1
3.5385 -0.6087 -1.7660 0.7087 0 1
3.5545 -0.4651 -1.7632 0.7098 0 1
3.5671 -0.3214 -1.7616 0.7104 0 1
3.5762 -0.1776 -1.7612 0.7106 0 1
3.5823 -0.0335 -1.7620 0.7095 0 1
3.5870 0.1108 -1.7651 0.7083 0 1
3.5866 0.2556 -1.7686 0.6964 0 1
3.5810 0.4006 -1.7723 0.6949 0 1
3.5720 0.5459 -1.7773 0.6930 0 1
3.5593 0.6915 -1.7834 0.6906 0 1
3.5430 0.8376 -1.7907 0.6878 0 1
3.5231 0.9842 -1.7992 0.6845 0 1
3.4994 1.1312 -1.8089 0.6809 0 1
3.4720 1.2788 -1.8199 0.6768 0 1
3.4407 1.4270 -1.8321 0.6722 0 1
3.4054 1.5759 -1.8456 0.6673 0 1
3.3661 1.7254 -1.8605 0.6620 0 1
3.3227 1.8757 -1.8767 0.6675 0 1
3.2760 2.0274 -1.8949 0.6611 0 1
3.2240 2.1794 -1.9141 0.6480 0 1
3.1683 2.3328 -1.9352 0.6409 0 1
3.1080 2.4873 -1.9580 0.6334 0 1
3.0428 2.6429 -1.9823 0.6256 0 1
2.9726 2.7996 -2.0084 0.6175 0 1
2.8972 2.9574 -2.0363 0.6090 0 1
2.8164 3.1165 -2.0660 0.6003 0 1
2.7299 3.2767 -2.0977 0.5912 0 1
2.6375 3.4382 -2.1313 0.5819 0 1
2.5389 3.6010 -2.1671 0.5723 0 1
2.4319 3.7621 -2.2034 0.5674 0 1
2.3178 3.9233 -2.2413 0.5578 0 1
2.1967 4.0854 -2.2815 0.5479 0 1
2.0684 4.2482 -2.3240 0.5379 0 1
1.9210 4.3855 -2.3549 0.5292 0 24
1.7787 4.5507 -2.4032 0.5186 0 24
1.6363 4.7409 -2.4668 0.5073 0 1
1.4753 4.9062 -2.5199 0.4970 0 1
1.3050 5.0718 -2.5758 0.4862 0 1
1.1251 5.2376 -2.6349 0.4753 0 1
0.9351 5.4043 -2.6976 0.4645 0 1
0.7346 5.5720 -2.7643 0.4533 0 1
0.5228 5.7397 -2.8348 0.4420 0 1
0.2990 5.9071 -2.9092 0.4307 0 1
0.0627 6.0735 -2.9874 0.4202 0 1
-0.1867 6.2388 -3.0700 0.4089 0 1
-0.4501 6.4028 -3.1570 0.3976 0 1
-0.7279 6.5652 -3.2489 0.3864 0 1
-1.0211 6.7253 -3.3458 0.3752 0 1
-1.3299 6.8806 -3.4469 0.3673 0 1
-1.6545 7.0289 -3.5517 0.3565 0 1
-1.9961 7.1726 -3.6619 0.3457 0 1
-2.3555 7.3108 -3.7779 0.3351 0 1
-2.7332 7.4428 -3.8998 0.3246 0 1
-3.1300 7.5673 -4.0278 0.3144 0 1
-3.5464 7.6831 -4.1621 0.3044 0 1
-3.9828 7.7887 -4.3027 0.2945 0 1
-4.4400 7.8830 -4.4500 0.2847 0 1
-4.9195 7.9665 -4.6053 0.2723 0 1
-5.4214 8.0369 -4.7683 0.2630 0 1
-5.9431 8.0881 -4.9366 0.2562 0 1
-6.4836 8.1176 -5.1099 0.2475 0 1
-7.0422 8.1237 -5.2880 0.2422 0 1
-7.6186 8.1052 -5.4713 0.2340 0 1
-8.2231 8.0713 -5.6673 0.2176 0 1
-8.8577 8.0204 -5.8773 0.2098 0 1
-9.5111 7.9395 -6.0938 0.2023 0 1
-10.1809 7.8256 -6.3159 0.1939 0 1
-10.8677 7.6781 -6.5448 0.1871 0 1
-11.5682 7.4939 -6.7794 0.1802 0 1
-12.2754 7.2680 -7.0166 0.1741 0 1
-12.9861 6.9989 -7.2559 0.1675 0 1
-13.6989 6.6862 -7.4976 0.1621 0 1
-14.3961 6.3224 -7.7335 0.1568 0 1
-15.0271 5.8902 -7.9387 0.1499 0 24
-15.7272 5.4453 -8.1861 0.1467 0 1
-16.3291 4.9273 -8.3892 0.1432 0 1
-16.5373 4.2722 -8.4010 0.0557 26 14
-17.3685 3.7484 -8.7394 0.1372 0 1
-17.7859 3.0953 -8.8795 0.1350 0 1
-16.5998 2.2049 -8.2364 0.1254 26 14
-18.3625 1.6905 -9.0699 0.1335 0 1
-18.5219 0.9556 -9.1222 0.1332 0 1
-18.5869 0.2100 -9.1427 0.1329 0 1
-18.5605 -0.5375 -9.1329 0.1331 0 1
-18.4401 -1.2782 -9.0916 0.1343 0 1
-18.2286 -2.0033 -9.0198 0.1354 0 1
-17.9343 -2.7052 -8.9209 0.1369 0 1
-17.5639 -3.3772 -8.7971 0.1394 0 1
-17.1233 -4.0132 -8.6504 0.1418 0 1
-16.6130 -4.6061 -8.4795 0.1444 0 1
-16.0460 -5.1527 -8.2892 0.1477 0 1
-15.3761 -5.6296 -8.0538 0.1520 0 24
-14.7704 -6.0926 -7.8587 0.1547 0 1
-14.0742 -6.4798 -7.6209 0.1578 0 1
-13.3070 -6.7884 -7.3476 0.1629 0 24
-12.6316 -7.0984 -7.1267 0.1683 0 1
-11.9130 -7.3405 -6.8825 0.1793 0 1
-11.2072 -7.5442 -6.6449 0.1856 0 1
-10.4583 -7.6692 -6.3788 0.2001 0 24
-9.8331 -7.8382 -6.1850 0.2068 0 1
-9.1846 -7.9463 -5.9736 0.2141 0 1
-8.5517 -8.0227 -5.7674 0.2217 0 1
-7.9366 -8.0702 -5.5672 0.2297 0 1
-7.3343 -8.0842 -5.3688 0.2334 0 1
-6.7524 -8.0731 -5.1767 0.2421 0 1
-6.1931 -8.0410 -4.9921 0.2510 0 1
-5.6568 -7.9903 -4.8153 0.2622 0 1
-5.1424 -7.9214 -4.6451 0.2698 0 1
-4.6506 -7.8373 -4.4824 0.2796 0 1
-4.1815 -7.7407 -4.3273 0.2897 0 1
-3.7238 -7.6108 -4.1675 0.3003 0 24
-3.3106 -7.5185 -4.0406 0.3106 0 1
-2.9052 -7.3906 -3.9058 0.3213 0 1
-2.5201 -7.2559 -3.7780 0.3322 0 1
-2.1546 -7.1154 -3.6567 0.3432 0 1
-1.8085 -6.9724 -3.5429 0.3572 0 1
-1.4800 -6.8257 -3.4353 0.3684 0 1
-1.1684 -6.6755 -3.3333 0.3797 0 1
-0.8725 -6.5204 -3.2357 0.3901 0 1
-0.5920 -6.3625 -3.1430 0.4016 0 1
-0.3261 -6.2030 -3.0552 0.4130 0 1
-0.0740 -6.0281 -2.9652 0.4251 0 24
0.1646 -5.8805 -2.8935 0.4361 0 1
0.3908 -5.7178 -2.8189 0.4460 0 1
0.6034 -5.5396 -2.7408 0.4594 0 24
0.8079 -5.3916 -2.6815 0.4691 0 1
1.0001 -5.2287 -2.6184 0.4804 0 1
1.1821 -5.0657 -2.5585 0.4918 0 1
1.3540 -4.9019 -2.5013 0.5030 0 1
1.5166 -4.7387 -2.4472 0.5141 0 1
1.6705 -4.5763 -2.3962 0.5251 0 1
1.8056 -4.3896 -2.3345 0.5337 0 24
1.9405 -4.2256 -2.2871 0.5449 0 24
2.0735 -4.0744 -2.2486 0.5398 0 1
2.1904 -3.9067 -2.2030 0.5510 0 1
2.3037 -3.7469 -2.1634 0.5842 0 1
2.4108 -3.5888 -2.1265 0.5944 0 1
2.5116 -3.4319 -2.0917 0.6042 0 1
2.6064 -3.2763 -2.0592 0.6138 0 1
2.6956 -3.1218 -2.0287 0.6230 0 1
2.7793 -2.9684 -2.0001 0.6319 0 1
2.8579 -2.8161 -1.9734 0.6405 0 1
2.9315 -2.6648 -1.9486 0.6486 0 1
3.0003 -2.5144 -1.9254 0.6564 0 1
3.0641 -2.3647 -1.9037 0.6601 0 1
3.1234 -2.2158 -1.8836 0.6671 0 1
3.1793 -2.0683 -1.8655 0.6782 0 1
3.2318 -1.9219 -1.8494 0.6841 0 1
3.2803 -1.7761 -1.8347 0.6896 0 1
3.3248 -1.6308 -1.8214 0.6946 0 1
3.3656 -1.4859 -1.8095 0.6992 0 1
3.4028 -1.3414 -1.7990 0.6956 0 1
3.4367 -1.1974 -1.7900 0.6991 0 1
3.4671 -1.0535 -1.7823 0.7022 0 1
3.4938 -0.9098 -1.7758 0.7048 0 1
3.5171 -0.7662 -1.7705 0.7069 0 1
3.5368 -0.6226 -1.7663 0.7085 0 1
3.5531 -0.4790 -1.7634 0.7097 0 1
3.5660 -0.3353 -1.7617 0.7104 0 1
3.5755 -0.1914 -1.7612 0.7106 0 1
3.5816 -0.0474 -1.7618 0.7096 0 1
3.5867 0.0969 -1.7648 0.7084 0 1
3.5869 0.2416 -1.7683 0.6965 0 1
3.5817 0.3866 -1.7719 0.6951 0 1
3.5730 0.5319 -1.7768 0.6932 0 1
3.5607 0.6775 -1.7828 0.6908 0 1
3.5447 0.8235 -1.7899 0.6881 0 1
3.5252 0.9700 -1.7983 0.6849 0 1
3.5019 1.1170 -1.8079 0.6812 0 1
3.4748 1.2646 -1.8188 0.6772 0 1
3.4439 1.4127 -1.8309 0.6727 0 1
3.4090 1.5615 -1.8443 0.6678 0 1
3.3701 1.7110 -1.8590 0.6625 0 1
3.3271 1.8612 -1.8751 0.6568 0 1
3.2807 2.0127 -1.8931 0.6617 0 1
3.2292 2.1647 -1.9121 0.6550 0 1
3.1739 2.3180 -1.9331 0.6416 0 1
3.1140 2.4724 -1.9557 0.6342 0 1
3.0493 2.6279 -1.9799 0.6264 0 1
2.9796 2.7844 -2.0059 0.6183 0 1
2.9047 2.9422 -2.0336 0.6099 0 1
2.8244 3.1011 -2.0631 0.6011 0 1
2.7385 3.2612 -2.0946 0.5921 0 1
2.6466 3.4226 -2.1280 0.5828 0 1
2.5486 3.5852 -2.1636 0.5732 0 1
2.4426 3.7466 -2.1998 0.5683 0 1
2.3291 3.9077 -2.2375 0.5587 0 1
2.2087 4.0697 -2.2775 0.5489 0 1
2.0811 4.2325 -2.3198 0.5389 0 1
1.9342 4.3697 -2.3504 0.5302 0 24
1.7927 4.5347 -2.3984 0.5196 0 24
1.6513 4.7250 -2.4618 0.5083 0 1
1.4912 4.8903 -2.5147 0.4977 0 1
1.3218 5.0558 -2.5703 0.4873 0 1
1.1428 5.2216 -2.6291 0.4764 0 1
0.9539 5.3881 -2.6914 0.4656 0 1
0.7544 5.5558 -2.7577 0.4543 0 1
0.5437 5.7236 -2.8278 0.4431 0 1
0.3211 5.8910 -2.9018 0.4318 0 1
0.0861 6.0575 -2.9797 0.4213 0 1
-0.1621 6.2229 -3.0618 0.4100 0 1
-0.4241 6.3871 -3.1484 0.3987 0 1
-0.7005 6.5496 -3.2398 0.3875 0 1
-0.9922 6.7100 -3.3362 0.3763 0 1
-1.2995 6.8661 -3.4371 0.3684 0 1
-1.6225 7.0148 -3.5413 0.3575 0 1
-1.9625 7.1589 -3.6511 0.3468 0 1
-2.3201 7.2978 -3.7665 0.3361 0 1
-2.6960 7.4304 -3.8878 0.3256 0 1
-3.0909 7.5556 -4.0152 0.3154 0 1
-3.5054 7.6724 -4.1489 0.3054 0 1
-3.9399 7.7790 -4.2889 0.2954 0 1
-4.3950 7.8744 -4.4355 0.2857 0 1
-4.8722 7.9590 -4.5899 0.2732 0 1
-5.3721 8.0308 -4.7523 0.2639 0 1
-5.8921 8.0842 -4.9203 0.2571 0 1
-6.4307 8.1157 -5.0929 0.2484 0 1
-6.9876 8.1242 -5.2706 0.2430 0 1
-7.5623 8.1081 -5.4533 0.2348 0 1
-8.1629 8.0747 -5.6474 0.2183 0 1
-8.7957 8.0266 -5.8568 0.2105 0 1
-9.4474 7.9487 -6.0727 0.2030 0 1
-10.1156 7.8380 -6.2942 0.1958 0 1
-10.8010 7.6940 -6.5226 0.1877 0 1
-11.5003 7.5134 -6.7567 0.1808 0 1
-12.2072 7.2917 -6.9938 0.1746 0 1
-12.9170 7.0265 -7.2325 0.1680 0 1
-13.6306 6.7185 -7.4744 0.1626 0 1
-14.3300 6.3599 -7.7113 0.1573 0 1
-14.9631 5.9322 -7.9170 0.1503 0 24
-15.6665 5.4924 -8.1655 0.1462 0 1
-16.2731 4.9794 -8.3703 0.1435 0 1
-16.7689 4.4015 -8.5273 0.1400 0 24
-17.2588 3.7949 -8.6916 0.1376 0 24
-17.7489 3.1599 -8.8672 0.1352 0 1
-16.3539 2.2368 -8.1186 0.7460 26 14
-18.3421 1.7604 -9.0631 0.1336 0 1
-18.5107 1.0271 -9.1186 0.1332 0 1
-18.5848 0.2821 -9.1421 0.1329 0 1
-18.5668 -0.4656 -9.1351 0.1330 0 1
-18.4557 -1.2074 -9.0969 0.1343 0 1
-18.2528 -1.9343 -9.0280 0.1353 0 1
-17.9661 -2.6387 -8.9315 0.1367 0 1
-4.8654 -7.5588 -4.5458 0.2821 0 24
-4.4188 -7.5130 -4.4077 0.2908 0 1
-3.9764 -7.4297 -4.2614 0.3033 0 1
-3.5549 -7.3376 -4.1231 0.3134 0 1
-3.1516 -7.2332 -3.9899 0.3216 0 1
-2.7661 -7.1179 -3.8617 0.3323 0 1
-2.3993 -6.9954 -3.7398 0.3431 0 1
-2.0507 -6.8684 -3.6248 0.3570 0 1
-1.7195 -6.7370 -3.5160 0.3680 0 1
-1.4045 -6.6009 -3.4128 0.3792 0 1
-1.1050 -6.4609 -3.3147 0.3904 0 1
-0.8201 -6.3153 -3.2204 0.4007 0 1
-0.5496 -6.1670 -3.1310 0.4121 0 1
-0.2929 -6.0166 -3.0461 0.4235 0 1
-0.0491 -5.8511 -2.9590 0.4356 0 24
0.1820 -5.7107 -2.8893 0.4449 0 1
0.4004 -5.5420 -2.8099 0.4584 0 24
0.6094 -5.4004 -2.7483 0.4678 0 1
0.8067 -5.2446 -2.6834 0.4793 0 1
0.9938 -5.0886 -2.6219 0.4905 0 1
1.1711 -4.9323 -2.5636 0.5018 0 1
1.3388 -4.7749 -2.5077 0.5130 0 1
1.4977 -4.6177 -2.4549 0.5241 0 1
1.6481 -4.4611 -2.4050 0.5349 0 1
1.7801 -4.2802 -2.3442 0.5440 0 24
1.9123 -4.1218 -2.2978 0.5557 0 24
2.0411 -3.9724 -2.2585 0.5495 0 1
2.1576 -3.8135 -2.2157 0.5832 0 1
2.2691 -3.6586 -2.1771 0.5936 0 1
2.3742 -3.5049 -2.1408 0.6037 0 1
2.4733 -3.3522 -2.1067 0.6134 0 1
2.5665 -3.2006 -2.0746 0.6229 0 1
2.6543 -3.0499 -2.0446 0.6321 0 1
2.7367 -2.9002 -2.0165 0.6409 0 1
2.8140 -2.7514 -1.9902 0.6493 0 1
2.8865 -2.6035 -1.9657 0.6574 0 1
2.9539 -2.4561 -1.9427 0.6614 0 1
3.0167 -2.3095 -1.9213 0.6688 0 1
3.0751 -2.1636 -1.9014 0.6757 0 1
3.1306 -2.0194 -1.8839 0.6866 0 1
3.1823 -1.8758 -1.8680 0.6925 0 1
3.2300 -1.7328 -1.8536 0.6979 0 1
3.2739 -1.5901 -1.8405 0.7028 0 1
3.3139 -1.4477 -1.8288 0.7074 0 1
3.3503 -1.3057 -1.8184 0.7114 0 1
3.3831 -1.1640 -1.8092 0.7150 0 1
3.4128 -1.0226 -1.8016 0.7102 0 1
3.4390 -0.8813 -1.7953 0.7128 0 1
3.4617 -0.7401 -1.7901 0.7148 0 1
3.4809 -0.5988 -1.7861 0.7164 0 1
3.4967 -0.4576 -1.7833 0.7175 0 1
3.5091 -0.3162 -1.7817 0.7182 0 1
3.5182 -0.1747 -1.7813 0.7184 0 1
3.5240 -0.0330 -1.7821 0.7173 0 1
3.5285 0.1090 -1.7852 0.7160 0 1
3.5268 0.2513 -1.7880 0.7043 0 1
3.5212 0.3939 -1.7918 0.7028 0 1
3.5121 0.5367 -1.7967 0.7009 0 1
3.4995 0.6799 -1.8028 0.6985 0 1
3.4832 0.8235 -1.8100 0.6957 0 1
3.4634 0.9675 -1.8185 0.6925 0 1
3.4398 1.1119 -1.8281 0.6888 0 1
3.4125 1.2569 -1.8390 0.6848 0 1
3.3813 1.4024 -1.8511 0.6803 0 1
3.3462 1.5485 -1.8646 0.6754 0 1
3.3076 1.6954 -1.8796 0.6814 0 1
3.2653 1.8433 -1.8962 0.6755 0 1
3.2189 1.9920 -1.9143 0.6691 0 1
3.1669 2.1408 -1.9331 0.6624 0 1
3.1112 2.2908 -1.9538 0.6490 0 1
3.0513 2.4420 -1.9763 0.6416 0 1
2.9867 2.5941 -2.0005 0.6339 0 1
2.9170 2.7472 -2.0263 0.6258 0 1
2.8423 2.9014 -2.0539 0.6174 0 1
2.7622 3.0565 -2.0833 0.6087 0 1
2.6766 3.2128 -2.1146 0.5997 0 1
2.5852 3.3700 -2.1479 0.5904 0 1
2.4877 3.5284 -2.1832 0.5808 0 1
2.3823 3.6854 -2.2192 0.5760 0 1
2.2697 3.8420 -2.2566 0.5664 0 1
2.1504 3.9992 -2.2962 0.5567 0 1
2.0114 4.1311 -2.3235 0.5484 0 24
1.8902 4.3153 -2.3824 0.5365 0 1
1.7392 4.4496 -2.4159 0.5274 0 24
1.5991 4.6331 -2.4785 0.5163 0 1
1.4410 4.7923 -2.5306 0.5056 0 1
1.2740 4.9515 -2.5855 0.4953 0 1
1.0978 5.1106 -2.6434 0.4845 0 1
0.9120 5.2705 -2.7048 0.4736 0 1
0.7160 5.4307 -2.7700 0.4625 0 1
0.5092 5.5906 -2.8388 0.4513 0 1
0.2911 5.7497 -2.9113 0.4400 0 1
0.0610 5.9077 -2.9876 0.4296 0 1
-0.1815 6.0639 -3.0678 0.4184 0 1
-0.4371 6.2184 -3.1524 0.4072 0 1
-0.7064 6.3707 -3.2414 0.3960 0 1
-0.9900 6.5204 -3.3351 0.3849 0 1
-1.2885 6.6660 -3.4334 0.3750 0 1
-1.6014 6.8033 -3.5344 0.3663 0 1
-1.9302 6.9355 -3.6405 0.3556 0 1
-2.2752 7.0618 -3.7519 0.3450 0 1
-2.6372 7.1813 -3.8687 0.3346 0 1
-3.0166 7.2931 -3.9911 0.3244 0 1
-3.4138 7.3959 -4.1193 0.3143 0 1
-3.8291 7.4881 -4.2531 0.3046 0 1
-4.2630 7.5688 -4.3928 0.2949 0 1
-4.7156 7.6364 -4.5386 0.2854 0 1
-5.1884 7.6915 -4.6917 0.2733 0 1
-5.6809 7.7313 -4.8516 0.2666 0 1
-6.1880 7.7475 -5.0142 0.2579 0 1
-6.7124 7.7433 -5.1822 0.2496 0 1
-7.2519 7.7151 -5.3545 0.2445 0 1
-7.8044 7.6604 -5.5301 0.2368 0 1
-8.3864 7.5937 -5.7212 0.2204 0 1
-8.9874 7.5023 -5.9202 0.2129 0 1
-9.6009 7.3797 -6.1236 0.2058 0 1
-10.2239 7.2232 -6.3303 0.1978 0 1
-10.8586 7.0342 -6.5426 0.1909 0 1
-11.4977 6.8075 -6.7570 0.1848 0 1
-12.1354 6.5404 -6.9713 0.1799 0 1
-12.7678 6.2318 -7.1846 0.1721 0 1
-13.3420 5.8595 -7.3690 0.1666 0 24
-13.9873 5.4826 -7.5972 0.1632 0 1
-14.5544 5.0392 -7.7887 0.1592 0 1
-15.0893 4.5532 -7.9704 0.1541 0 1
-15.5737 4.0233 -8.1341 0.1512 0 1
