ply
format ascii 1.0
element vertex 1384
property float32 x
property float32 y
property float32 z
property float32 CosAngle
property uint32 ObjIdx
property uint32 ObjTag
end_header
3.4510 -3.1884 -1.7545 0.5622 0 1
3.5274 -3.0050 -1.7303 0.5701 0 1
3.5984 -2.8237 -1.7080 0.5775 0 1
3.6644 -2.6443 -1.6874 0.5846 0 1
3.7255 -2.4666 -1.6684 0.5912 0 1
3.7827 -2.2910 -1.6514 0.5974 0 1
3.8356 -2.1169 -1.6359 0.6032 0 1
3.8842 -1.9441 -1.6219 0.6084 0 1
3.9286 -1.7723 -1.6094 0.6131 0 1
3.9693 -1.6016 -1.5983 0.6206 0 1
4.0064 -1.4319 -1.5887 0.6244 0 1
4.0396 -1.2629 -1.5804 0.6276 0 1
4.0691 -1.0944 -1.5734 0.6304 0 1
4.0949 -0.9264 -1.5677 0.6327 0 1
4.1170 -0.7586 -1.5632 0.6345 0 1
4.1356 -0.5911 -1.5600 0.6359 0 1
4.1507 -0.4236 -1.5580 0.6367 0 1
4.1622 -0.2560 -1.5572 0.6370 0 1
4.1704 -0.0883 -1.5576 0.6361 0 1
4.1781 0.0797 -1.5604 0.6350 0 1
4.1823 0.2485 -1.5645 0.6334 0 1
4.1830 0.4180 -1.5698 0.6312 0 1
4.1802 0.5885 -1.5763 0.6286 0 1
4.1733 0.7599 -1.5840 0.6163 0 1
4.1582 0.9315 -1.5912 0.6135 0 1
4.1393 1.1040 -1.5997 0.6102 0 1
4.1166 1.2775 -1.6095 0.6065 0 1
4.0898 1.4521 -1.6206 0.6024 0 1
4.0590 1.6280 -1.6330 0.5978 0 1
4.0240 1.8052 -1.6469 0.5927 0 1
3.9847 1.9839 -1.6621 0.5873 0 1
3.9409 2.1643 -1.6789 0.5811 0 1
3.8927 2.3465 -1.6973 0.5748 0 1
3.8398 2.5307 -1.7172 0.5681 0 1
3.7820 2.7171 -1.7389 0.5610 0 1
3.7193 2.9060 -1.7625 0.5535 0 1
3.6511 3.0973 -1.7879 0.5457 0 1
3.5773 3.2912 -1.8151 0.5375 0 1
3.4974 3.4879 -1.8444 0.5289 0 1
3.4113 3.6876 -1.8758 0.5201 0 1
3.3186 3.8904 -1.9095 0.5109 0 1
3.2194 4.0973 -1.9458 0.5052 0 1
3.1121 4.3069 -1.9842 0.4994 0 1
2.9943 4.5163 -2.0234 0.4902 0 1
2.8682 4.7290 -2.0653 0.4803 0 1
2.7335 4.9455 -2.1100 0.4701 0 1
2.5895 5.1658 -2.1578 0.4597 0 1
2.4357 5.3902 -2.2087 0.4491 0 1
2.2714 5.6190 -2.2631 0.4383 0 1
2.0957 5.8519 -2.3211 0.4277 0 1
1.9080 6.0896 -2.3829 0.4166 0 1
1.7074 6.3322 -2.4490 0.4054 0 1
1.4929 6.5800 -2.5195 0.3940 0 1
1.2620 6.8249 -2.5917 0.4057 0 1
1.0179 7.0902 -2.6747 0.3719 0 1
0.7558 7.3600 -2.7628 0.3594 0 1
0.4745 7.6344 -2.8563 0.3476 0 1
0.1726 7.9158 -2.9565 0.3358 0 1
-0.1514 8.2020 -3.0633 0.3267 0 1
-0.4993 8.4934 -3.1770 0.3150 0 1
-0.8730 8.7920 -3.2992 0.3033 0 1
-1.2750 9.0977 -3.4304 0.2991 0 1
-1.7055 9.3996 -3.5672 0.2876 0 1
-2.1684 9.7080 -3.7144 0.2762 0 1
-2.6669 10.0243 -3.8734 0.2576 0 1
-3.2095 10.3651 -4.0517 0.2463 0 1
-3.7807 10.6695 -4.2269 0.2336 0 24
-4.4292 11.0636 -4.4500 0.2219 0 1
-5.1197 11.4319 -4.6774 0.2111 0 1
-5.8503 11.7689 -4.9077 0.1990 0 24
-6.6664 12.1571 -5.1773 0.1879 0 24
-7.5097 12.4759 -5.4375 0.1789 0 24
-8.4589 12.8520 -5.7453 0.1732 0 24
-9.5228 13.2724 -6.0998 0.1669 0 1
-10.6505 13.6489 -6.4647 0.1547 0 1
-11.9005 14.0463 -6.8744 0.1402 0 1
-13.3432 14.5213 -7.3640 0.1199 0 1
-15.2820 15.3430 -8.0863 0.0536 0 1
-16.7532 15.5176 -8.5271 0.8190 0 2
-18.0397 15.4076 -8.8588 0.1052 0 2
-20.0965 15.8108 -9.5483 0.0976 0 2
-22.3710 16.1861 -10.3108 0.0904 0 2
-24.8839 16.5204 -11.1533 0.0836 0 25
-27.6553 16.7971 -12.0824 0.0772 0 25
-30.7024 16.9953 -13.1039 0.0712 0 25
-32.1016 16.1173 -13.4131 0.3219 0 3
-30.3011 13.7153 -12.4199 0.4061 0 5
-41.5695 16.8343 -16.7470 0.0557 0 25
-43.4812 13.6535 -17.0180 0.3279 0 5
-6.9462 -11.5506 -5.2039 0.1998 0 1
-6.1551 -11.2356 -4.9463 0.2100 0 1
-5.4237 -10.9221 -4.7082 0.2205 0 1
-4.7460 -10.6092 -4.4873 0.2298 0 1
-4.1178 -10.2980 -4.2821 0.2408 0 1
-3.5360 -9.9920 -4.0923 0.2516 0 1
-2.9959 -9.6896 -3.9158 0.2630 0 1
-2.4947 -9.3929 -3.7522 0.2745 0 1
-2.0287 -9.1001 -3.5997 0.2822 0 1
-1.5944 -8.8079 -3.4559 0.2940 0 1
-1.1908 -8.5223 -3.3223 0.3058 0 1
-0.8150 -8.2419 -3.1977 0.3174 0 1
-0.4651 -7.9676 -3.0815 0.3293 0 1
-0.1390 -7.7032 -2.9746 0.3463 0 1
0.1654 -7.4447 -2.8750 0.3582 0 1
0.4499 -7.1918 -2.7821 0.3701 0 1
0.7160 -6.9442 -2.6953 0.3820 0 1
0.9650 -6.7018 -2.6142 0.3939 0 1
1.1980 -6.4640 -2.5382 0.4058 0 1
1.4161 -6.2295 -2.4665 0.4176 0 1
1.6202 -5.9992 -2.3992 0.4282 0 1
1.8047 -5.7516 -2.3274 0.4383 0 24
1.9818 -5.5268 -2.2669 0.4479 0 24
2.1586 -5.3337 -2.2215 0.4622 0 1
2.3162 -5.1201 -2.1697 0.4732 0 1
2.4641 -4.9104 -2.1212 0.4841 0 1
2.5958 -4.6917 -2.0702 0.4785 0 1
2.7176 -4.4766 -2.0219 0.4899 0 1
2.8310 -4.2662 -1.9768 0.5011 0 1
2.9365 -4.0603 -1.9347 0.5120 0 1
3.0356 -3.8601 -1.8960 0.5440 0 1
3.1329 -3.6697 -1.8629 0.5537 0 1
3.2239 -3.4821 -1.8322 0.5630 0 1
3.3089 -3.2972 -1.8035 0.5719 0 1
3.3883 -3.1148 -1.7770 0.5716 0 1
3.4638 -2.9359 -1.7531 0.5794 0 1
3.5340 -2.7589 -1.7310 0.5868 0 1
3.5992 -2.5836 -1.7106 0.5938 0 1
3.6597 -2.4099 -1.6918 0.6003 0 1
3.7163 -2.2381 -1.6749 0.6065 0 1
3.7686 -2.0676 -1.6596 0.6122 0 1
3.8167 -1.8983 -1.6458 0.6173 0 1
3.8607 -1.7300 -1.6334 0.6253 0 1
3.9012 -1.5628 -1.6226 0.6294 0 1
3.9378 -1.3963 -1.6131 0.6331 0 1
3.9706 -1.2304 -1.6049 0.6364 0 1
3.9996 -1.0650 -1.5980 0.6391 0 1
4.0250 -0.8999 -1.5924 0.6414 0 1
4.0467 -0.7352 -1.5880 0.6431 0 1
4.0649 -0.5706 -1.5848 0.6444 0 1
4.0796 -0.4060 -1.5829 0.6452 0 1
4.0907 -0.2413 -1.5821 0.6455 0 1
4.0987 -0.0765 -1.5827 0.6446 0 1
4.1059 0.0887 -1.5856 0.6434 0 1
4.1096 0.2545 -1.5897 0.6418 0 1
4.1099 0.4211 -1.5951 0.6396 0 1
4.1065 0.5886 -1.6017 0.6370 0 1
4.0973 0.7568 -1.6087 0.6248 0 1
4.0820 0.9252 -1.6160 0.6220 0 1
4.0628 1.0945 -1.6246 0.6187 0 1
4.0398 1.2648 -1.6344 0.6150 0 1
4.0128 1.4361 -1.6455 0.6108 0 1
3.9817 1.6086 -1.6580 0.6062 0 1
3.9465 1.7823 -1.6719 0.6012 0 1
3.9069 1.9574 -1.6872 0.5957 0 1
3.8630 2.1341 -1.7039 0.5899 0 1
3.8146 2.3125 -1.7223 0.5832 0 1
3.7615 2.4927 -1.7422 0.5765 0 1
3.7037 2.6750 -1.7639 0.5695 0 1
3.6409 2.8595 -1.7874 0.5620 0 1
3.5727 3.0462 -1.8127 0.5541 0 1
3.4989 3.2354 -1.8399 0.5459 0 1
3.4192 3.4271 -1.8691 0.5374 0 1
3.3333 3.6215 -1.9003 0.5286 0 1
3.2413 3.8192 -1.9340 0.5233 0 1
3.1429 4.0207 -1.9703 0.5137 0 1
3.0362 4.2243 -2.0085 0.5079 0 1
2.9193 4.4273 -2.0475 0.4988 0 1
2.7943 4.6333 -2.0890 0.4889 0 1
2.6608 4.8426 -2.1333 0.4787 0 1
2.5183 5.0553 -2.1806 0.4683 0 1
2.3662 5.2716 -2.2309 0.4578 0 1
2.2039 5.4917 -2.2847 0.4470 0 1
2.0306 5.7154 -2.3418 0.4365 0 1
1.8362 5.9123 -2.3902 0.4250 0 24
1.6484 6.1751 -2.4676 0.4142 0 1
1.4378 6.4115 -2.5369 0.4029 0 1
1.2129 6.6526 -2.6109 0.3915 0 1
0.9727 6.8986 -2.6899 0.3800 0 1
0.7163 7.1519 -2.7751 0.3684 0 1
0.4419 7.4107 -2.8663 0.3566 0 1
0.1481 7.6751 -2.9638 0.3449 0 1
-0.1666 7.9448 -3.0681 0.3359 0 1
-0.5037 8.2166 -3.1783 0.3242 0 1
-0.8650 8.4940 -3.2964 0.3126 0 1
-1.2525 8.7769 -3.4230 0.3018 0 1
-1.6676 9.0608 -3.5570 0.2905 0 1
-2.1118 9.3441 -3.6987 0.2856 0 1
-2.5881 9.6310 -3.8504 0.2744 0 1
-3.1022 9.9303 -4.0167 0.2558 0 1
-3.6576 10.2406 -4.1984 0.2464 0 1
-4.2541 10.5493 -4.3917 0.2355 0 1
-4.8843 10.8332 -4.5881 0.2206 0 24
-5.5820 11.1588 -4.8173 0.2096 0 24
-6.3486 11.5087 -5.0746 0.2035 0 1
-7.1519 11.8143 -5.3321 0.1934 0 1
-8.0197 12.1183 -5.6105 0.1802 0 1
-8.9736 12.4410 -5.9225 0.1707 0 1
-9.9912 12.7379 -6.2503 0.1677 0 1
-11.1125 13.0497 -6.6176 0.1556 0 1
-12.3267 13.3476 -7.0148 0.1468 0 1
-13.7021 13.6878 -7.4776 0.1276 0 1
-15.4471 14.2360 -8.1105 0.0567 0 1
-16.9245 14.3818 -8.5750 0.8966 0 2
-18.1306 14.1906 -8.8893 0.1080 0 2
-20.0155 14.4054 -9.5211 0.1008 0 2
-22.0619 14.5673 -10.2072 0.0940 0 2
-23.8972 14.4325 -10.7786 0.4334 0 21
-26.6604 14.6705 -11.7488 0.0817 0 25
-29.2111 14.5743 -12.6039 0.0762 0 25
-31.9168 14.3502 -13.5110 0.0711 0 25
-34.7554 13.9733 -14.4626 0.0664 0 2
-37.6912 13.4180 -15.4469 0.0621 0 2
-40.6722 12.6594 -16.4462 0.0584 0 2
-43.6285 11.6757 -17.4373 0.0551 0 2
-44.5786 8.1565 -17.4971 0.9833 0 6
-32.5868 -4.6294 -12.7078 0.9678 0 20
-25.2728 -4.6349 -9.9203 0.9857 0 20
-42.7340 -13.3204 -17.2821 0.0599 0 1
-39.5144 -14.0855 -16.1964 0.0621 0 1
-36.3324 -14.6248 -15.1214 0.0675 0 1
-33.3746 -15.0222 -14.1308 0.0737 0 1
-30.4859 -15.2261 -13.1567 0.0705 0 1
-27.7273 -15.2725 -12.2218 0.0707 0 1
-25.1539 -15.2057 -11.3483 0.0713 0 1
-22.6573 -14.9738 -10.4855 0.0693 0 1
-20.2936 -14.6183 -9.6563 0.0774 0 1
-18.3361 -14.3637 -8.9929 0.1138 0 1
-16.5935 -14.1123 -8.4102 0.1185 0 1
-14.9686 -13.8063 -7.8622 0.1270 0 1
-13.4734 -13.4705 -7.3559 0.1336 0 1
-12.0796 -13.0908 -6.8773 0.1386 0 24
-10.8969 -12.8071 -6.4923 0.1508 0 1
-9.7778 -12.4765 -6.1201 0.1643 0 1
-8.7799 -12.1830 -5.7979 0.1814 0 1
-7.8578 -11.8843 -5.5007 0.1912 0 1
-6.9754 -11.5333 -5.2040 0.1990 0 24
-6.2027 -11.2553 -4.9617 0.2093 0 1
-5.4677 -10.9416 -4.7225 0.2198 0 1
-4.7868 -10.6287 -4.5006 0.2291 0 1
-4.1556 -10.3173 -4.2944 0.2401 0 1
-3.5710 -10.0110 -4.1037 0.2518 0 1
-3.0284 -9.7083 -3.9264 0.2623 0 1
-2.5249 -9.4112 -3.7621 0.2738 0 1
-2.0569 -9.1186 -3.6090 0.2815 0 1
-1.6206 -8.8260 -3.4646 0.2932 0 1
-1.2151 -8.5399 -3.3304 0.3051 0 1
-0.8376 -8.2593 -3.2052 0.3166 0 1
-0.4862 -7.9846 -3.0885 0.3286 0 1
-0.1587 -7.7195 -2.9811 0.3455 0 1
0.1471 -7.4607 -2.8811 0.3575 0 1
0.4327 -7.2074 -2.7877 0.3694 0 1
0.6999 -6.9595 -2.7005 0.3813 0 1
0.9499 -6.7167 -2.6191 0.3932 0 1
1.1840 -6.4787 -2.5428 0.4051 0 1
1.4029 -6.2439 -2.4708 0.4169 0 1
1.6079 -6.0134 -2.4033 0.4275 0 1
1.7932 -5.7657 -2.3313 0.4375 0 24
1.9711 -5.5407 -2.2706 0.4477 0 24
2.1485 -5.3471 -2.2249 0.4615 0 1
2.3067 -5.1333 -2.1728 0.4726 0 1
2.4551 -4.9234 -2.1241 0.4834 0 1
2.5879 -4.7053 -2.0733 0.4778 0 1
2.7103 -4.4898 -2.0248 0.4892 0 1
2.8242 -4.2792 -1.9795 0.5004 0 1
2.9301 -4.0730 -1.9372 0.5114 0 1
3.0293 -3.8720 -1.8981 0.5434 0 1
3.1270 -3.6815 -1.8649 0.5531 0 1
3.2184 -3.4937 -1.8340 0.5624 0 1
3.3038 -3.3087 -1.8053 0.5714 0 1
3.3835 -3.1261 -1.7785 0.5799 0 1
3.4592 -2.9470 -1.7545 0.5789 0 1
3.5298 -2.7699 -1.7323 0.5863 0 1
3.5953 -2.5945 -1.7118 0.5933 0 1
3.6561 -2.4207 -1.6929 0.5999 0 1
3.7129 -2.2487 -1.6759 0.6061 0 1
3.7655 -2.0782 -1.6605 0.6118 0 1
3.8138 -1.9088 -1.6466 0.6170 0 1
3.8581 -1.7405 -1.6341 0.6250 0 1
3.8988 -1.5732 -1.6232 0.6292 0 1
3.9356 -1.4067 -1.6136 0.6329 0 1
3.9686 -1.2407 -1.6054 0.6362 0 1
3.9979 -1.0753 -1.5984 0.6390 0 1
4.0235 -0.9102 -1.5927 0.6412 0 1
4.0455 -0.7454 -1.5882 0.6431 0 1
4.0639 -0.5808 -1.5850 0.6444 0 1
4.0788 -0.4163 -1.5830 0.6452 0 1
4.0901 -0.2516 -1.5822 0.6455 0 1
4.0981 -0.0868 -1.5826 0.6447 0 1
4.1055 0.0783 -1.5854 0.6435 0 1
4.1095 0.2442 -1.5894 0.6419 0 1
4.1099 0.4107 -1.5947 0.6398 0 1
4.1068 0.5782 -1.6012 0.6371 0 1
4.0982 0.7463 -1.6083 0.6249 0 1
4.0831 0.9147 -1.6155 0.6222 0 1
4.0641 1.0840 -1.6240 0.6189 0 1
4.0414 1.2542 -1.6337 0.6152 0 1
4.0146 1.4254 -1.6448 0.6111 0 1
3.9838 1.5978 -1.6572 0.6065 0 1
3.9488 1.7714 -1.6710 0.6015 0 1
3.9095 1.9465 -1.6862 0.5961 0 1
3.8658 2.1230 -1.7028 0.5902 0 1
3.8177 2.3013 -1.7211 0.5836 0 1
3.7649 2.4814 -1.7409 0.5770 0 1
3.7074 2.6635 -1.7625 0.5699 0 1
3.6449 2.8479 -1.7859 0.5625 0 1
3.5771 3.0345 -1.8111 0.5546 0 1
3.5037 3.2235 -1.8382 0.5465 0 1
3.4244 3.4151 -1.8672 0.5380 0 1
3.3389 3.6093 -1.8983 0.5291 0 1
3.2472 3.8068 -1.9318 0.5239 0 1
3.1492 4.0080 -1.9680 0.5143 0 1
3.0433 4.2117 -2.0062 0.5085 0 1
2.9269 4.4146 -2.0450 0.4994 0 1
2.8023 4.6204 -2.0864 0.4895 0 1
2.6694 4.8294 -2.1305 0.4794 0 1
2.5274 5.0419 -2.1775 0.4690 0 1
2.3760 5.2580 -2.2277 0.4584 0 1
2.2143 5.4778 -2.2812 0.4477 0 1
2.0418 5.7014 -2.3381 0.4371 0 1
1.8576 5.9288 -2.3988 0.4261 0 1
1.6611 6.1605 -2.4635 0.4149 0 1
1.4513 6.3967 -2.5325 0.4036 0 1
1.2274 6.6374 -2.6061 0.3922 0 1
0.9881 6.8829 -2.6847 0.3815 0 1
0.7328 7.1360 -2.7696 0.3691 0 1
0.4595 7.3944 -2.8604 0.3574 0 1
0.1670 7.6585 -2.9576 0.3456 0 1
-0.1463 7.9280 -3.0615 0.3366 0 1
-0.4820 8.1994 -3.1712 0.3249 0 1
-0.8417 8.4765 -3.2888 0.3133 0 1
-1.2275 8.7592 -3.4149 0.3017 0 1
-1.6408 9.0429 -3.5484 0.2912 0 1
-2.0832 9.3263 -3.6895 0.2863 0 1
-2.5574 9.6130 -3.8406 0.2751 0 1
-3.0689 9.9110 -4.0058 0.2565 0 1
-3.6219 10.2214 -4.1868 0.2470 0 1
-4.2156 10.5300 -4.3792 0.2362 0 1
-4.8426 10.8131 -4.5744 0.2213 0 24
-5.5368 11.1383 -4.8024 0.2102 0 24
-6.3004 11.4896 -5.0592 0.2041 0 1
-7.1000 11.7953 -5.3154 0.1940 0 1
-7.9363 12.0580 -5.5734 0.1807 0 24
-8.8755 12.3702 -5.8782 0.1741 0 24
-9.8839 12.6665 -6.2031 0.1682 0 24
-11.0400 13.0307 -6.5939 0.1562 0 1
-12.2481 13.3294 -6.9891 0.1473 0 1
-13.6113 13.6656 -7.4468 0.1281 0 1
-15.3097 14.1806 -8.0570 0.0571 0 1
-16.9065 14.4398 -8.5842 0.8957 0 2
-18.0183 14.1758 -8.8516 0.1085 0 2
-19.8933 14.3934 -9.4802 0.1013 0 2
-21.9295 14.5590 -10.1628 0.0945 0 2
-24.1331 14.6578 -10.9016 0.0881 0 25
-26.5067 14.6728 -11.6973 0.0821 0 25
-29.0473 14.5838 -12.5490 0.0765 0 25
-31.7438 14.3683 -13.4530 0.0714 0 25
-34.5751 14.0018 -14.4022 0.0667 0 25
-37.5061 13.4584 -15.3848 0.0624 0 2
-40.4862 12.7131 -16.3839 0.0586 0 2
-43.4464 11.7439 -17.3763 0.0552 0 2
-44.5609 8.2689 -17.4982 0.9985 0 6
-6.5733 -10.9304 -5.0876 0.2100 0 1
-5.8401 -10.6605 -4.8485 0.2203 0 1
-5.1582 -10.3873 -4.6260 0.2293 0 1
-4.5232 -10.1112 -4.4183 0.2406 0 1
-3.9332 -9.8363 -4.2255 0.2516 0 1
-3.3722 -9.5294 -4.0320 0.2616 0 24
-2.8723 -9.2898 -3.8786 0.2732 0 1
-2.3959 -9.0208 -3.7230 0.2846 0 1
-1.9420 -8.7113 -3.5601 0.2929 0 24
-1.5354 -8.4816 -3.4381 0.3040 0 1
-1.1483 -8.2183 -3.3100 0.3157 0 1
-0.7870 -7.9587 -3.1900 0.3321 0 1
-0.4498 -7.7069 -3.0793 0.3441 0 1
-0.1346 -7.4597 -2.9760 0.3560 0 1
0.1604 -7.2170 -2.8794 0.3680 0 1
0.4366 -6.9787 -2.7891 0.3798 0 1
0.6954 -6.7446 -2.7045 0.3916 0 1
0.9380 -6.5148 -2.6254 0.4034 0 1
1.1656 -6.2890 -2.5513 0.4153 0 1
1.3788 -6.0655 -2.4811 0.4271 0 1
1.5786 -5.8451 -2.4150 0.4376 0 1
1.7661 -5.6285 -2.3530 0.4489 0 1
1.9333 -5.3914 -2.2846 0.4581 0 24
2.1072 -5.2065 -2.2404 0.4714 0 1
2.2623 -5.0009 -2.1894 0.4824 0 1
2.4071 -4.7968 -2.1407 0.4760 0 1
2.5364 -4.5843 -2.0898 0.4876 0 1
2.6568 -4.3764 -2.0422 0.4990 0 1
2.7691 -4.1728 -1.9976 0.5101 0 1
2.8735 -3.9733 -1.9559 0.5210 0 1
2.9743 -3.7821 -1.9192 0.5528 0 1
3.0707 -3.5968 -1.8864 0.5624 0 1
3.1610 -3.4141 -1.8559 0.5717 0 1
3.2453 -3.2338 -1.8274 0.5806 0 1
3.3241 -3.0557 -1.8010 0.5891 0 1
3.3976 -2.8798 -1.7766 0.5881 0 1
3.4674 -2.7068 -1.7546 0.5954 0 1
3.5322 -2.5354 -1.7343 0.6024 0 1
3.5922 -2.3654 -1.7156 0.6090 0 1
3.6484 -2.1972 -1.6988 0.6151 0 1
3.7004 -2.0302 -1.6836 0.6207 0 1
3.7481 -1.8642 -1.6698 0.6292 0 1
3.7923 -1.6994 -1.6576 0.6338 0 1
3.8326 -1.5353 -1.6468 0.6379 0 1
3.8689 -1.3719 -1.6374 0.6416 0 1
3.9014 -1.2090 -1.6292 0.6448 0 1
3.9303 -1.0465 -1.6223 0.6476 0 1
3.9554 -0.8844 -1.6167 0.6498 0 1
3.9770 -0.7225 -1.6123 0.6516 0 1
3.9950 -0.5608 -1.6092 0.6529 0 1
4.0095 -0.3990 -1.6072 0.6536 0 1
4.0205 -0.2372 -1.6065 0.6539 0 1
4.0282 -0.0752 -1.6070 0.6530 0 1
4.0352 0.0871 -1.6099 0.6519 0 1
4.0387 0.2501 -1.6140 0.6502 0 1
4.0387 0.4138 -1.6194 0.6481 0 1
4.0351 0.5784 -1.6260 0.6454 0 1
4.0243 0.7433 -1.6324 0.6334 0 1
4.0089 0.9087 -1.6396 0.6306 0 1
3.9897 1.0748 -1.6482 0.6273 0 1
3.9667 1.2419 -1.6579 0.6236 0 1
3.9396 1.4099 -1.6690 0.6194 0 1
3.9086 1.5790 -1.6815 0.6149 0 1
3.8734 1.7493 -1.6953 0.6099 0 1
3.8340 1.9209 -1.7105 0.6044 0 1
3.7901 2.0938 -1.7272 0.5986 0 1
3.7418 2.2684 -1.7454 0.5920 0 1
3.6889 2.4446 -1.7652 0.5853 0 1
3.6314 2.6228 -1.7868 0.5783 0 1
3.5689 2.8029 -1.8101 0.5708 0 1
3.5011 2.9852 -1.8352 0.5630 0 1
3.4278 3.1696 -1.8622 0.5549 0 1
3.3486 3.3563 -1.8911 0.5464 0 1
3.2636 3.5457 -1.9222 0.5416 0 1
3.1728 3.7385 -1.9558 0.5323 0 1
3.0752 3.9341 -1.9918 0.5227 0 1
2.9699 4.1320 -2.0297 0.5170 0 1
2.8544 4.3288 -2.0683 0.5074 0 1
2.7309 4.5283 -2.1093 0.4980 0 1
2.5992 4.7305 -2.1530 0.4879 0 1
2.4587 4.9358 -2.1995 0.4776 0 1
2.3090 5.1441 -2.2491 0.4671 0 1
2.1494 5.3558 -2.3019 0.4564 0 1
1.9678 5.5385 -2.3445 0.4461 0 24
1.7885 5.7590 -2.4054 0.4344 0 24
1.5973 5.9837 -2.4704 0.4232 0 24
1.3984 6.2360 -2.5492 0.4124 0 1
1.1787 6.4653 -2.6214 0.4011 0 1
0.9446 6.6989 -2.6985 0.3905 0 1
0.6949 6.9385 -2.7815 0.3780 0 1
0.4283 7.1825 -2.8700 0.3664 0 1
0.1434 7.4310 -2.9646 0.3547 0 1
-0.1611 7.6841 -3.0657 0.3430 0 1
-0.4867 7.9388 -3.1726 0.3341 0 1
-0.8347 8.1966 -3.2864 0.3225 0 1
-1.2070 8.4584 -3.4081 0.3110 0 1
-1.6049 8.7199 -3.5366 0.3006 0 1
-2.0305 8.9842 -3.6740 0.2893 0 1
-2.4853 9.2483 -3.8198 0.2845 0 1
-2.9714 9.5117 -3.9748 0.2734 0 1
-3.4966 9.7896 -4.1465 0.2566 0 1
-4.0585 10.0644 -4.3286 0.2458 0 1
-4.6623 10.3409 -4.5246 0.2311 0 1
-5.3159 10.6270 -4.7397 0.2206 0 1
-5.9956 10.8689 -4.9512 0.2094 0 24
-6.7504 11.1510 -5.1994 0.1983 0 24
-7.5174 11.3592 -5.4333 0.1890 0 24
-8.4144 11.6657 -5.7374 0.1812 0 1
-9.3503 11.9208 -6.0432 0.1721 0 1
-10.3482 12.1521 -6.3666 0.1638 0 1
-11.3773 12.3195 -6.6890 0.1565 0 24
-12.5500 12.5370 -7.0758 0.1494 0 24
-13.9129 12.8221 -7.5469 0.1300 0 1
-15.3965 13.0834 -8.0592 0.1140 0 1
-17.1639 13.4340 -8.6940 0.9551 0 2
-17.9964 12.9523 -8.8443 0.1116 0 2
-19.6933 13.0033 -9.4132 0.1049 0 2
-21.5020 12.9860 -10.0195 0.0986 0 2
-23.4184 12.8865 -10.6620 0.0926 0 2
-25.4338 12.6897 -11.3376 0.0871 0 2
-27.5334 12.3793 -12.0415 0.0820 0 2
-29.6949 11.9388 -12.7661 0.0774 0 2
-31.8873 11.3519 -13.5011 0.0731 0 2
-34.0698 10.6044 -14.2328 0.0694 0 2
-36.1922 9.6856 -14.9443 0.0661 0 2
-16.9701 3.8167 -6.9381 0.8656 26 14
-16.9520 3.1017 -6.8741 0.9417 26 14
-18.4907 2.6191 -7.4492 0.1346 26 14
-45.0997 4.5454 -18.0805 0.0582 0 1
-46.1877 2.7832 -18.4567 0.0557 0 1
-46.3299 -0.9423 -18.4839 0.0527 0 1
-45.6779 -2.7714 -18.2535 0.0545 0 1
-44.7032 -4.5240 -17.9223 0.0565 0 1
-32.5024 -4.6174 -13.0947 0.9668 0 20
-25.1759 -4.6171 -10.2096 0.9852 0 20
-40.2781 -9.0764 -16.4690 0.0611 0 1
-38.0501 -10.1997 -15.7132 0.0624 0 1
-35.7430 -11.1413 -14.9337 0.0684 0 1
-33.4784 -11.9339 -14.1769 0.0752 0 1
-31.0156 -12.4846 -13.3361 0.0648 0 1
-28.4076 -12.7865 -12.4261 0.0726 0 1
-26.0021 -12.9867 -11.5933 0.0736 0 1
-23.8456 -13.1344 -10.8589 0.0795 0 1
-21.8493 -13.2080 -10.1839 0.0856 0 1
-20.0145 -13.2272 -9.5693 0.1098 0 1
-18.2808 -13.1684 -8.9867 0.1173 0 1
-16.6775 -13.0644 -8.4504 0.1214 0 1
-15.1499 -12.8846 -7.9329 0.1293 0 1
-13.7347 -12.6683 -7.4531 0.1356 0 1
-12.4236 -12.4209 -7.0074 0.1442 0 1
-11.2410 -12.1820 -6.6118 0.1573 0 1
-10.1509 -11.9304 -6.2483 0.1665 0 1
-9.1363 -11.6579 -5.9080 0.1829 0 24
-8.2631 -11.4659 -5.6374 0.1919 0 1
-7.4139 -11.2129 -5.3618 0.1995 0 1
-6.6208 -10.9472 -5.1031 0.2094 0 1
-5.8842 -10.6774 -4.8629 0.2197 0 1
-5.1993 -10.4046 -4.6395 0.2286 0 1
-4.5615 -10.1283 -4.4308 0.2399 0 1
-3.9687 -9.8534 -4.2371 0.2509 0 1
-3.4053 -9.5465 -4.0429 0.2609 0 24
-2.9031 -9.3067 -3.8887 0.2725 0 1
-2.4247 -9.0375 -3.7324 0.2839 0 1
-1.9688 -8.7281 -3.5689 0.2921 0 24
-1.5604 -8.4981 -3.4464 0.3032 0 1
-1.1716 -8.2346 -3.3177 0.3150 0 1
-0.8088 -7.9745 -3.1972 0.3314 0 1
-0.4702 -7.7224 -3.0860 0.3433 0 1
-0.1536 -7.4750 -2.9822 0.3553 0 1
0.1426 -7.2320 -2.8852 0.3672 0 1
0.4199 -6.9934 -2.7945 0.3790 0 1
0.6797 -6.7591 -2.7097 0.3909 0 1
0.9234 -6.5290 -2.6302 0.4027 0 1
1.1519 -6.3030 -2.5558 0.4144 0 1
1.3659 -6.0793 -2.4854 0.4263 0 1
1.5665 -5.8588 -2.4190 0.4369 0 1
1.7547 -5.6419 -2.3568 0.4482 0 1
1.9228 -5.4048 -2.2882 0.4574 0 24
2.0972 -5.2195 -2.2437 0.4707 0 1
2.2529 -5.0136 -2.1924 0.4818 0 1
2.3987 -4.8103 -2.1440 0.4753 0 1
2.5286 -4.5974 -2.0929 0.4869 0 1
2.6496 -4.3893 -2.0450 0.4983 0 1
2.7623 -4.1854 -2.0003 0.5094 0 1
2.8672 -3.9857 -1.9584 0.5203 0 1
2.9680 -3.7938 -1.9213 0.5522 0 1
3.0649 -3.6083 -1.8884 0.5618 0 1
3.1555 -3.4255 -1.8577 0.5711 0 1
3.2402 -3.2450 -1.8292 0.5800 0 1
3.3193 -3.0668 -1.8026 0.5886 0 1
3.3931 -2.8907 -1.7780 0.5876 0 1
3.4632 -2.7176 -1.7559 0.5950 0 1
3.5283 -2.5461 -1.7355 0.6020 0 1
3.5886 -2.3760 -1.7167 0.6086 0 1
3.6450 -2.2076 -1.6998 0.6147 0 1
3.6973 -2.0406 -1.6845 0.6204 0 1
3.7453 -1.8745 -1.6706 0.6256 0 1
3.7897 -1.7096 -1.6583 0.6335 0 1
3.8302 -1.5455 -1.6475 0.6377 0 1
3.8667 -1.3820 -1.6379 0.6414 0 1
3.8995 -1.2191 -1.6297 0.6446 0 1
3.9286 -1.0566 -1.6227 0.6474 0 1
3.9540 -0.8945 -1.6170 0.6497 0 1
3.9758 -0.7326 -1.6126 0.6515 0 1
3.9940 -0.5708 -1.6093 0.6528 0 1
4.0087 -0.4091 -1.6073 0.6536 0 1
4.0199 -0.2473 -1.6065 0.6539 0 1
4.0277 -0.0853 -1.6069 0.6531 0 1
4.0349 0.0770 -1.6097 0.6519 0 1
4.0386 0.2399 -1.6137 0.6503 0 1
4.0388 0.4036 -1.6190 0.6482 0 1
4.0354 0.5681 -1.6255 0.6456 0 1
4.0251 0.7330 -1.6319 0.6335 0 1
4.0100 0.8983 -1.6391 0.6307 0 1
3.9910 1.0645 -1.6476 0.6275 0 1
3.9682 1.2315 -1.6573 0.6238 0 1
3.9414 1.3994 -1.6683 0.6197 0 1
3.9107 1.5684 -1.6807 0.6152 0 1
3.8757 1.7387 -1.6944 0.6102 0 1
3.8365 1.9101 -1.7095 0.6048 0 1
3.7930 2.0830 -1.7261 0.5990 0 1
3.7450 2.2574 -1.7442 0.5924 0 1
3.6923 2.4336 -1.7639 0.5857 0 1
3.6351 2.6116 -1.7854 0.5787 0 1
3.5729 2.7916 -1.8086 0.5713 0 1
3.5055 2.9737 -1.8336 0.5635 0 1
3.4325 3.1580 -1.8605 0.5554 0 1
3.3537 3.3446 -1.8893 0.5469 0 1
3.2691 3.5338 -1.9202 0.5422 0 1
3.1786 3.7264 -1.9537 0.5329 0 1
3.0815 3.9218 -1.9895 0.5233 0 1
2.9769 4.1198 -2.0274 0.5176 0 1
2.8618 4.3165 -2.0658 0.5080 0 1
2.7389 4.5157 -2.1066 0.4987 0 1
2.6077 4.7178 -2.1502 0.4886 0 1
2.4678 4.9229 -2.1965 0.4783 0 1
2.3186 5.1311 -2.2459 0.4677 0 1
2.1596 5.3425 -2.2985 0.4570 0 1
1.9786 5.5248 -2.3408 0.4468 0 24
1.8001 5.7451 -2.4015 0.4352 0 24
1.6096 5.9696 -2.4662 0.4240 0 24
1.4116 6.2218 -2.5448 0.4131 0 1
1.1929 6.4508 -2.6167 0.4018 0 1
0.9596 6.6841 -2.6935 0.3912 0 1
0.7109 6.9234 -2.7761 0.3788 0 1
0.4454 7.1671 -2.8643 0.3671 0 1
0.1617 7.4153 -2.9585 0.3554 0 1
-0.1415 7.6682 -3.0592 0.3437 0 1
-0.4657 7.9229 -3.1657 0.3348 0 1
-0.8123 8.1804 -3.2790 0.3232 0 1
-1.1831 8.4419 -3.4002 0.3117 0 1
-1.5793 8.7036 -3.5284 0.3012 0 1
-2.0031 8.9677 -3.6652 0.2900 0 1
-2.4561 9.2319 -3.8105 0.2852 0 1
-2.9401 9.4952 -3.9648 0.2741 0 1
-3.4628 9.7725 -4.1355 0.2573 0 1
-4.0223 10.0472 -4.3169 0.2465 0 1
-4.6232 10.3231 -4.5118 0.2318 0 1
-5.2738 10.6091 -4.7258 0.2213 0 1
-5.9504 10.8513 -4.9364 0.2100 0 24
-6.7016 11.1334 -5.1834 0.1993 0 24
-7.5003 11.3955 -5.4416 0.1952 0 1
-8.3583 11.6494 -5.7190 0.1818 0 1
-9.2899 11.9052 -6.0234 0.1726 0 1
-10.2826 12.1367 -6.3450 0.1644 0 1
-11.3713 12.3753 -6.7037 0.1556 0 1
-12.4744 12.5242 -7.0509 0.1500 0 24
-13.7273 12.7149 -7.4635 0.1423 0 24
-15.2969 13.0650 -8.0242 0.1145 0 1
-17.1414 13.4859 -8.6998 0.9545 0 2
-17.8943 12.9471 -8.8101 0.1121 0 2
-19.5842 13.0020 -9.3766 0.1053 0 2
-21.3859 12.9893 -9.9806 0.0989 0 2
-23.2958 12.8954 -10.6209 0.0930 0 2
-25.3054 12.7051 -11.2946 0.0874 0 2
-27.4003 12.4023 -11.9969 0.0823 0 2
-29.5588 11.9704 -12.7205 0.0776 0 2
-31.7504 11.3930 -13.4552 0.0734 0 2
-33.9349 10.6559 -14.1876 0.0696 0 2
-36.0627 9.7480 -14.9009 0.0663 0 2
-38.0747 8.6638 -15.5754 0.0634 0 2
-16.9436 3.1441 -6.8738 0.9417 26 14
-18.2095 2.6259 -7.3385 0.1515 26 14
-44.9980 4.6493 -18.0443 0.0583 0 1
-46.1495 2.8971 -18.4443 0.0557 0 1
-6.2354 -10.3686 -4.9822 0.2204 0 1
-5.5531 -10.1367 -4.7594 0.2295 0 1
-4.9147 -9.8971 -4.5503 0.2401 0 1
-4.3044 -9.6220 -4.3405 0.2511 0 24
-3.7627 -9.4099 -4.1731 0.2609 0 1
-3.2429 -9.1639 -4.0028 0.2720 0 1
-2.7575 -8.9185 -3.8440 0.2833 0 1
-2.3029 -8.6708 -3.6943 0.2907 0 1
-1.8775 -8.4220 -3.5532 0.3023 0 1
-1.4800 -8.1759 -3.4214 0.3139 0 1
-1.1085 -7.9336 -3.2986 0.3310 0 1
-0.7610 -7.6955 -3.1843 0.3419 0 1
-0.4355 -7.4606 -3.0774 0.3538 0 1
-0.1304 -7.2291 -2.9773 0.3657 0 1
0.1556 -7.0009 -2.8836 0.3775 0 1
0.4239 -6.7760 -2.7957 0.3894 0 1
0.6758 -6.5546 -2.7134 0.4012 0 1
0.9124 -6.3364 -2.6361 0.4129 0 1
1.1346 -6.1216 -2.5637 0.4246 0 1
1.3431 -5.9084 -2.4950 0.4353 0 1
1.5388 -5.6975 -2.4302 0.4467 0 1
1.7160 -5.4689 -2.3602 0.4561 0 24
1.8867 -5.2615 -2.3017 0.4675 0 24
2.0577 -5.0843 -2.2586 0.4806 0 1
2.2103 -4.8861 -2.2083 0.4916 0 1
2.3514 -4.6860 -2.1589 0.4851 0 1
2.4791 -4.4808 -2.1087 0.4966 0 1
2.5982 -4.2798 -2.0617 0.5079 0 1
2.7092 -4.0827 -2.0177 0.5190 0 1
2.8129 -3.8895 -1.9766 0.5517 0 1
2.9149 -3.7066 -1.9417 0.5616 0 1
3.0104 -3.5262 -1.9092 0.5711 0 1
3.0999 -3.3482 -1.8789 0.5803 0 1
3.1836 -3.1723 -1.8507 0.5892 0 1
3.2617 -2.9984 -1.8244 0.5977 0 1
3.3346 -2.8264 -1.8000 0.6058 0 1
3.4026 -2.6563 -1.7775 0.6040 0 1
3.4670 -2.4886 -1.7573 0.6110 0 1
3.5266 -2.3222 -1.7388 0.6175 0 1
3.5824 -2.1574 -1.7220 0.6237 0 1
3.6340 -1.9938 -1.7068 0.6292 0 1
3.6819 -1.8312 -1.6933 0.6376 0 1
3.7258 -1.6695 -1.6812 0.6422 0 1
3.7657 -1.5085 -1.6704 0.6463 0 1
3.8018 -1.3481 -1.6610 0.6500 0 1
3.8341 -1.1881 -1.6529 0.6532 0 1
3.8627 -1.0285 -1.6460 0.6559 0 1
3.8877 -0.8693 -1.6404 0.6582 0 1
3.9091 -0.7102 -1.6360 0.6599 0 1
3.9269 -0.5512 -1.6329 0.6612 0 1
3.9412 -0.3922 -1.6309 0.6620 0 1
3.9521 -0.2332 -1.6302 0.6623 0 1
3.9595 -0.0739 -1.6307 0.6614 0 1
3.9663 0.0857 -1.6336 0.6602 0 1
3.9695 0.2458 -1.6377 0.6586 0 1
3.9693 0.4067 -1.6430 0.6564 0 1
3.9649 0.5683 -1.6494 0.6442 0 1
3.9532 0.7301 -1.6554 0.6419 0 1
3.9378 0.8925 -1.6626 0.6391 0 1
3.9185 1.0557 -1.6711 0.6358 0 1
3.8955 1.2196 -1.6809 0.6321 0 1
3.8685 1.3845 -1.6919 0.6280 0 1
3.8375 1.5503 -1.7043 0.6234 0 1
3.8024 1.7172 -1.7180 0.6185 0 1
3.7630 1.8853 -1.7332 0.6131 0 1
3.7193 2.0547 -1.7497 0.6073 0 1
3.6712 2.2256 -1.7678 0.6006 0 1
3.6185 2.3979 -1.7875 0.5940 0 1
3.5613 2.5721 -1.8089 0.5870 0 1
3.4991 2.7481 -1.8321 0.5796 0 1
3.4317 2.9260 -1.8570 0.5718 0 1
3.3588 3.1058 -1.8838 0.5637 0 1
3.2804 3.2879 -1.9125 0.5594 0 1
3.1966 3.4729 -1.9436 0.5505 0 1
3.1065 3.6604 -1.9769 0.5412 0 1
3.0098 3.8505 -2.0125 0.5317 0 1
2.9059 4.0429 -2.0502 0.5260 0 1
2.7917 4.2337 -2.0883 0.5164 0 1
2.6699 4.4270 -2.1288 0.5072 0 1
2.5399 4.6226 -2.1719 0.4971 0 1
2.4014 4.8208 -2.2178 0.4868 0 1
2.2540 5.0216 -2.2666 0.4763 0 1
2.0970 5.2253 -2.3185 0.4657 0 1
1.9189 5.4008 -2.3602 0.4555 0 24
1.7430 5.6122 -2.4199 0.4441 0 24
1.5624 5.8531 -2.4946 0.4331 0 1
1.3608 6.0683 -2.5609 0.4219 0 1
1.1462 6.2866 -2.6314 0.4106 0 1
0.9178 6.5090 -2.7068 0.3994 0 1
0.6746 6.7357 -2.7875 0.3877 0 1
0.4154 6.9660 -2.8736 0.3761 0 1
0.1389 7.1999 -2.9653 0.3644 0 1
-0.1559 7.4373 -3.0632 0.3528 0 1
-0.4706 7.6771 -3.1672 0.3439 0 1
-0.8062 7.9169 -3.2769 0.3324 0 1
-1.1644 8.1595 -3.3940 0.3210 0 1
-1.5462 8.4011 -3.5175 0.3105 0 1
-1.9535 8.6435 -3.6490 0.2994 0 1
-2.3882 8.8870 -3.7893 0.2883 0 1
-2.8524 9.1307 -3.9391 0.2835 0 1
-3.3473 9.3716 -4.0978 0.2650 0 1
-3.8787 9.6183 -4.2706 0.2560 0 1
-4.4463 9.8617 -4.4545 0.2455 0 1
-5.0550 10.1054 -4.6528 0.2310 0 1
-5.7101 10.3514 -4.8680 0.2255 0 1
-6.3979 10.5687 -5.0873 0.2158 0 1
-7.1332 10.7787 -5.3224 0.2051 0 1
-7.8866 10.9340 -5.5514 0.1904 0 24
-8.7398 11.1425 -5.8313 0.1824 0 24
-9.6490 11.3310 -6.1284 0.1761 0 24
-10.6155 11.4946 -6.4430 0.1704 0 24
-11.6582 11.6460 -6.7856 0.1587 0 24
-12.7808 11.7787 -7.1570 0.1515 0 24
-14.0462 11.9360 -7.5902 0.1402 0 1
-15.3774 12.0357 -8.0411 0.1123 0 24
-16.9488 12.1983 -8.5988 0.1187 0 1
-17.9147 11.8289 -8.8399 0.9971 0 2
-19.2792 11.6435 -9.2743 0.1094 0 2
-20.8593 11.4783 -9.8040 0.1035 0 2
-22.4986 11.2253 -10.3536 0.0980 0 2
-24.1827 10.8728 -10.9182 0.0929 0 2
-25.8915 10.4096 -11.4911 0.0883 0 2
-27.5996 9.8254 -12.0637 0.0841 0 2
-29.2753 9.1120 -12.6255 0.0804 0 2
-30.8817 8.2644 -13.1640 0.0771 0 2
-16.7971 3.7778 -7.0895 0.8706 26 14
-16.8106 3.0758 -7.0372 0.9453 26 14
-17.8053 2.5220 -7.4051 0.1543 26 14
-37.8346 3.8131 -15.6585 0.0666 0 1
-38.4963 2.3197 -15.8808 0.0659 0 1
-38.8045 0.7732 -15.9821 0.0654 0 1
-38.7660 -0.7885 -15.9664 0.0694 0 1
-38.2696 -2.3219 -15.7877 0.0706 0 24
-35.8484 -3.6279 -14.8371 0.0686 0 25
-32.4819 -4.6145 -13.5098 0.7770 0 20
-25.0789 -4.5994 -10.4993 0.9846 0 20
-33.9485 -7.6500 -14.3299 0.0743 0 1
-32.3840 -8.6808 -13.8059 0.0687 0 1
-30.5144 -9.5115 -13.1616 0.0709 0 1
-28.5564 -10.1794 -12.4838 0.0751 0 1
-26.5828 -10.7003 -11.7998 0.0816 0 1
-24.6640 -11.1015 -11.1376 0.0933 0 1
-22.8623 -11.4185 -10.5232 0.1031 0 1
-21.1655 -11.6582 -9.9502 0.1146 0 1
-19.6313 -11.8673 -9.4461 0.1216 0 1
-18.1262 -11.9793 -8.9468 0.1211 0 1
-16.6647 -12.0042 -8.4572 0.1238 0 1
-15.1928 -11.9013 -7.9471 0.1313 0 24
-13.9192 -11.8379 -7.5242 0.1381 0 1
-12.6253 -11.6451 -7.0727 0.1463 0 24
-11.4714 -11.4689 -6.6796 0.1550 0 24
-10.4840 -11.3616 -6.3660 0.1679 0 1
-9.4854 -11.1482 -6.0274 0.1841 0 24
-8.6325 -11.0151 -5.7628 0.1928 0 1
-7.7998 -10.8230 -5.4935 0.2001 0 1
-7.0135 -10.6075 -5.2364 0.2097 0 1
-6.2795 -10.3828 -4.9966 0.2197 0 1
-5.5944 -10.1514 -4.7729 0.2294 0 1
-4.9532 -9.9121 -4.5629 0.2394 0 1
-4.3550 -9.6699 -4.3671 0.2502 0 1
-3.7963 -9.4252 -4.1841 0.2602 0 1
-3.2743 -9.1792 -4.0131 0.2713 0 1
-2.7868 -8.9337 -3.8536 0.2826 0 1
-2.3305 -8.6864 -3.7034 0.2900 0 1
-1.8953 -8.4024 -3.5469 0.3049 0 24
-1.5040 -8.1912 -3.4294 0.3132 0 1
-1.1309 -7.9483 -3.3059 0.3303 0 1
-0.7820 -7.7103 -3.1912 0.3412 0 1
-0.4551 -7.4752 -3.0838 0.3531 0 1
-0.1489 -7.2434 -2.9833 0.3650 0 1
0.1383 -7.0150 -2.8892 0.3769 0 1
0.4077 -6.7900 -2.8010 0.3886 0 1
0.6606 -6.5683 -2.7183 0.4005 0 1
0.8980 -6.3500 -2.6408 0.4122 0 1
1.1211 -6.1349 -2.5681 0.4239 0 1
1.3305 -5.9216 -2.4992 0.4346 0 1
1.5269 -5.7105 -2.4341 0.4460 0 1
1.7050 -5.4819 -2.3640 0.4554 0 24
1.8764 -5.2744 -2.3053 0.4667 0 24
2.0479 -5.0967 -2.2618 0.4799 0 1
2.2011 -4.8983 -2.2113 0.4909 0 1
2.3432 -4.6989 -2.1622 0.4843 0 1
2.4714 -4.4935 -2.1117 0.4959 0 1
2.5910 -4.2922 -2.0645 0.5072 0 1
2.7025 -4.0949 -2.0203 0.5183 0 1
2.8065 -3.9012 -1.9789 0.5292 0 1
2.9087 -3.7179 -1.9438 0.5609 0 1
3.0047 -3.5374 -1.9112 0.5705 0 1
3.0945 -3.3592 -1.8807 0.5798 0 1
3.1785 -3.1832 -1.8524 0.5886 0 1
3.2570 -3.0092 -1.8260 0.5972 0 1
3.3302 -2.8371 -1.8015 0.6053 0 1
3.3985 -2.6668 -1.7788 0.6036 0 1
3.4631 -2.4990 -1.7586 0.6106 0 1
3.5230 -2.3326 -1.7399 0.6171 0 1
3.5790 -2.1677 -1.7230 0.6233 0 1
3.6309 -2.0039 -1.7077 0.6289 0 1
3.6790 -1.8413 -1.6941 0.6373 0 1
3.7232 -1.6796 -1.6819 0.6419 0 1
3.7633 -1.5185 -1.6711 0.6461 0 1
3.7997 -1.3581 -1.6616 0.6498 0 1
3.8322 -1.1981 -1.6534 0.6530 0 1
3.8610 -1.0385 -1.6464 0.6558 0 1
3.8862 -0.8792 -1.6407 0.6581 0 1
3.9079 -0.7201 -1.6363 0.6598 0 1
3.9259 -0.5611 -1.6330 0.6611 0 1
3.9405 -0.4021 -1.6310 0.6620 0 1
3.9515 -0.2431 -1.6302 0.6623 0 1
3.9591 -0.0839 -1.6306 0.6621 0 1
3.9660 0.0757 -1.6334 0.6603 0 1
3.9694 0.2358 -1.6374 0.6587 0 1
3.9694 0.3967 -1.6427 0.6566 0 1
3.9655 0.5583 -1.6490 0.6443 0 1
3.9540 0.7200 -1.6550 0.6420 0 1
3.9388 0.8824 -1.6621 0.6393 0 1
3.9199 1.0455 -1.6705 0.6360 0 1
3.8970 1.2094 -1.6802 0.6324 0 1
3.8703 1.3742 -1.6912 0.6283 0 1
3.8396 1.5399 -1.7035 0.6237 0 1
3.8047 1.7068 -1.7171 0.6188 0 1
3.7656 1.8748 -1.7322 0.6134 0 1
3.7222 2.0441 -1.7486 0.6076 0 1
3.6743 2.2149 -1.7666 0.6010 0 1
3.6219 2.3871 -1.7862 0.5945 0 1
3.5650 2.5612 -1.8076 0.5875 0 1
3.5031 2.7371 -1.8306 0.5801 0 1
3.4361 2.9149 -1.8554 0.5723 0 1
3.3635 3.0946 -1.8821 0.5642 0 1
3.2854 3.2765 -1.9106 0.5600 0 1
3.2020 3.4613 -1.9416 0.5511 0 1
3.1123 3.6486 -1.9748 0.5418 0 1
3.0160 3.8385 -2.0102 0.5323 0 1
2.9128 4.0311 -2.0479 0.5266 0 1
2.7990 4.2218 -2.0858 0.5171 0 1
2.6777 4.4149 -2.1262 0.5078 0 1
2.5482 4.6103 -2.1691 0.4977 0 1
2.4103 4.8083 -2.2148 0.4875 0 1
2.2635 5.0090 -2.2634 0.4770 0 1
2.1071 5.2125 -2.3152 0.4663 0 1
1.9295 5.3878 -2.3566 0.4562 0 24
1.7543 5.5989 -2.4161 0.4448 0 24
1.5746 5.8397 -2.4906 0.4338 0 1
1.3686 6.0320 -2.5470 0.4219 0 24
1.1600 6.2729 -2.6269 0.4113 0 1
0.9324 6.4949 -2.7019 0.4001 0 1
0.6902 6.7214 -2.7823 0.3884 0 1
0.4320 6.9516 -2.8680 0.3768 0 1
0.1567 7.1852 -2.9594 0.3652 0 1
-0.1370 7.4224 -3.0569 0.3535 0 1
-0.4504 7.6622 -3.1606 0.3447 0 1
-0.7847 7.9019 -3.2699 0.3331 0 1
-1.1414 8.1443 -3.3864 0.3217 0 1
-1.5216 8.3860 -3.5096 0.3112 0 1
-1.9273 8.6283 -3.6405 0.3001 0 1
-2.3603 8.8718 -3.7803 0.2890 0 1
-2.8226 9.1158 -3.9295 0.2780 0 1
-3.3152 9.3558 -4.0873 0.2657 0 1
-3.8445 9.6031 -4.2595 0.2567 0 1
-4.4098 9.8466 -4.4427 0.2461 0 1
-5.0156 10.0898 -4.6398 0.2316 0 1
-5.6682 10.3367 -4.8544 0.2214 0 1
-6.3537 10.5554 -5.0732 0.2164 0 1
-7.0859 10.7659 -5.3072 0.2057 0 1
-7.8353 10.9205 -5.5346 0.1902 0 24
-8.6850 11.1300 -5.8133 0.1830 0 24
-9.5907 11.3200 -6.1094 0.1772 0 24
-10.5535 11.4853 -6.4229 0.1710 0 24
-11.5904 11.6367 -6.7631 0.1589 0 24
-12.7087 11.7714 -7.1332 0.1520 0 24
-13.9684 11.9304 -7.5644 0.1407 0 1
-15.2816 12.0227 -8.0067 0.1123 0 24
-16.8560 12.1959 -8.5673 0.1183 0 1
-17.8859 11.8744 -8.8404 0.9971 0 2
-19.1829 11.6512 -9.2420 0.1098 0 2
-20.7588 11.4910 -9.7704 0.1039 0 2
-22.3949 11.2438 -10.3188 0.0983 0 2
-24.0767 10.8979 -10.8826 0.0933 0 2
-25.7847 10.4419 -11.4553 0.0886 0 2
-27.4936 9.8656 -12.0282 0.0844 0 2
-29.1724 9.1604 -12.5910 0.0806 0 2
-30.7843 8.3213 -13.1314 0.0773 0 2
-16.7969 3.8221 -7.0935 0.8701 26 14
-16.8022 3.1179 -7.0370 0.9454 26 14
-17.5650 2.5330 -7.3078 0.1565 26 14
-37.7708 3.9026 -15.6361 0.0685 0 1
-38.4645 2.4147 -15.8702 0.0657 0 1
-38.7964 0.8705 -15.9797 0.0654 0 1
-5.9277 -9.8569 -4.8861 0.2301 0 1
-5.2721 -9.6238 -4.6615 0.2404 0 24
-4.6914 -9.4474 -4.4809 0.2504 0 1
-4.1306 -9.2335 -4.2970 0.2601 0 1
-3.6048 -9.0151 -4.1244 0.2710 0 1
-3.1122 -8.7945 -3.9629 0.2821 0 1
-2.6502 -8.5715 -3.8113 0.2894 0 1
-2.2159 -8.3432 -3.6671 0.3007 0 1
-1.8092 -8.1155 -3.5321 0.3122 0 1
-1.4283 -7.8899 -3.4061 0.3264 0 1
-1.0715 -7.6686 -3.2893 0.3399 0 1
-0.7364 -7.4471 -3.1790 0.3517 0 1
-0.4219 -7.2276 -3.0755 0.3635 0 1
-0.1265 -7.0104 -2.9785 0.3754 0 1
0.1510 -6.7956 -2.8875 0.3871 0 1
0.4119 -6.5832 -2.8020 0.3989 0 1
0.6571 -6.3733 -2.7218 0.4107 0 1
0.8878 -6.1661 -2.6464 0.4224 0 1
1.1049 -5.9615 -2.5756 0.4340 0 1
1.3089 -5.7577 -2.5083 0.4444 0 1
1.4953 -5.5367 -2.4363 0.4560 0 24
1.6808 -5.3567 -2.3849 0.4674 0 1
1.8420 -5.1368 -2.3182 0.4768 0 24
1.9991 -4.9394 -2.2636 0.4879 0 24
2.1603 -4.7754 -2.2265 0.5006 0 1
2.2978 -4.5792 -2.1764 0.4941 0 1
2.4239 -4.3810 -2.1269 0.5056 0 1
2.5416 -4.1866 -2.0805 0.5169 0 1
2.6514 -3.9956 -2.0371 0.5279 0 1
2.7563 -3.8113 -1.9981 0.5604 0 1
2.8573 -3.6334 -1.9636 0.5702 0 1
2.9520 -3.4577 -1.9313 0.5797 0 1
3.0406 -3.2841 -1.9012 0.5889 0 1
3.1236 -3.1125 -1.8732 0.5977 0 1
3.2011 -2.9427 -1.8471 0.6062 0 1
3.2735 -2.7746 -1.8229 0.6142 0 1
3.3408 -2.6081 -1.8004 0.6219 0 1
3.4036 -2.4431 -1.7798 0.6195 0 1
3.4628 -2.2802 -1.7613 0.6260 0 1
3.5181 -2.1187 -1.7446 0.6321 0 1
3.5697 -1.9585 -1.7297 0.6410 0 1
3.6173 -1.7991 -1.7162 0.6460 0 1
3.6609 -1.6405 -1.7042 0.6506 0 1
3.7006 -1.4824 -1.6935 0.6547 0 1
3.7364 -1.3249 -1.6841 0.6583 0 1
3.7685 -1.1678 -1.6760 0.6615 0 1
3.7969 -1.0110 -1.6691 0.6642 0 1
3.8216 -0.8545 -1.6635 0.6665 0 1
3.8428 -0.6981 -1.6592 0.6682 0 1
3.8605 -0.5419 -1.6560 0.6695 0 1
3.8747 -0.3856 -1.6541 0.6703 0 1
3.8853 -0.2292 -1.6534 0.6706 0 1
3.8926 -0.0727 -1.6539 0.6696 0 1
3.8991 0.0842 -1.6567 0.6685 0 1
3.9021 0.2417 -1.6608 0.6668 0 1
3.9017 0.3998 -1.6661 0.6647 0 1
3.8957 0.5584 -1.6718 0.6526 0 1
3.8839 0.7173 -1.6778 0.6503 0 1
3.8685 0.8768 -1.6850 0.6475 0 1
3.8493 1.0370 -1.6935 0.6443 0 1
3.8262 1.1979 -1.7032 0.6406 0 1
3.7993 1.3597 -1.7142 0.6365 0 1
3.7683 1.5224 -1.7265 0.6320 0 1
3.7333 1.6860 -1.7401 0.6270 0 1
3.6941 1.8508 -1.7552 0.6216 0 1
3.6505 2.0167 -1.7717 0.6158 0 1
3.6025 2.1839 -1.7896 0.6093 0 1
3.5501 2.3526 -1.8092 0.6027 0 1
3.4932 2.5229 -1.8305 0.5957 0 1
3.4314 2.6949 -1.8535 0.5883 0 1
3.3644 2.8686 -1.8782 0.5806 0 1
3.2921 3.0441 -1.9047 0.5768 0 1
3.2148 3.2222 -1.9336 0.5682 0 1
3.1317 3.4024 -1.9644 0.5593 0 1
3.0424 3.5848 -1.9973 0.5501 0 1
2.9466 3.7696 -2.0325 0.5406 0 1
2.8440 3.9568 -2.0700 0.5308 0 1
2.7311 4.1419 -2.1076 0.5255 0 1
2.6109 4.3292 -2.1476 0.5157 0 1
2.4827 4.5185 -2.1901 0.5062 0 1
2.3463 4.7100 -2.2353 0.4960 0 1
2.2011 4.9038 -2.2834 0.4855 0 1
2.0467 5.1000 -2.3344 0.4749 0 1
1.8825 5.2985 -2.3887 0.4645 0 1
1.7079 5.4992 -2.4461 0.4536 0 1
1.5222 5.7023 -2.5072 0.4425 0 1
1.3249 5.9080 -2.5720 0.4314 0 1
1.1151 6.1161 -2.6410 0.4201 0 1
0.8922 6.3278 -2.7147 0.4089 0 1
0.6553 6.5430 -2.7934 0.3981 0 1
0.4031 6.7605 -2.8770 0.3857 0 1
0.1347 6.9809 -2.9660 0.3741 0 1
-0.1510 7.2037 -3.0608 0.3625 0 1
-0.4554 7.4290 -3.1618 0.3510 0 1
-0.7794 7.6534 -3.2680 0.3423 0 1
-1.1243 7.8786 -3.3807 0.3309 0 1
-1.4911 8.1021 -3.4996 0.3205 0 1
-1.8814 8.3249 -3.6256 0.3093 0 1
-2.2969 8.5472 -3.7597 0.2984 0 1
-2.7393 8.7687 -3.9025 0.2874 0 1
-3.2104 8.9883 -4.0545 0.2767 0 1
-3.7126 9.2066 -4.2170 0.2663 0 1
-4.2481 9.4222 -4.3906 0.2557 0 1
-4.8187 9.6330 -4.5755 0.2454 0 1
-5.4291 9.8419 -4.7748 0.2311 0 1
-6.0749 10.0352 -4.9832 0.2262 0 1
-6.7558 10.2084 -5.2002 0.2168 0 1
-7.4797 10.3699 -5.4315 0.2064 0 1
-8.2535 10.5224 -5.6809 0.1935 0 1
-9.0838 10.6673 -5.9519 0.1847 0 1
-9.9723 10.7982 -6.2440 0.1760 0 1
-10.9185 10.9072 -6.5560 0.1684 0 1
-11.9200 10.9854 -6.8861 0.1603 0 1
-12.9918 11.0400 -7.2425 0.1523 0 1
-14.1241 11.0547 -7.6192 0.1447 0 1
-15.3289 11.0324 -8.0229 0.1222 0 24
-16.7652 11.0699 -8.5343 0.1230 0 1
-18.3338 11.0726 -9.0984 0.9901 0 2
-18.9087 10.4049 -9.1683 0.9569 0 2
-20.1517 10.0543 -9.5668 0.1089 0 2
-21.5376 9.6836 -10.0314 0.1039 0 2
-22.9279 9.2181 -10.4975 0.0993 0 2
-24.3019 8.6515 -10.9582 0.0951 0 2
-25.6404 7.9807 -11.4075 0.0842 0 2
-28.4036 7.6013 -12.4905 0.0923 0 2
-16.6217 3.7384 -7.2373 0.8052 26 14
-16.6509 3.0466 -7.1907 0.9017 26 14
-17.1938 2.4354 -7.3769 0.1492 26 14
-32.6712 3.2928 -13.9491 0.0878 0 1
-33.1533 1.9977 -14.1091 0.0868 0 1
-33.3899 0.6654 -14.1869 0.0817 0 1
-33.3263 -0.6779 -14.1600 0.0818 0 1
-32.9731 -2.0005 -14.0328 0.0794 0 1
-30.7338 -3.1103 -13.1225 0.0796 0 25
-30.0474 -4.2686 -12.8923 0.0811 0 25
-24.9818 -4.5816 -10.7893 0.9836 0 20
-28.9684 -6.5278 -12.6144 0.0770 0 24
-27.8149 -7.4560 -12.2330 0.0836 0 1
-26.4289 -8.2381 -11.7598 0.0868 0 1
-24.9607 -8.8976 -11.2569 0.0957 0 1
-23.4746 -9.4492 -10.7496 0.0991 0 1
-22.0230 -9.9127 -10.2594 0.1075 0 1
-20.6065 -10.2919 -9.7848 0.1197 0 1
-19.2468 -10.6014 -9.3343 0.1264 0 1
-17.8859 -10.8122 -8.8784 0.1250 0 1
-16.5590 -10.9435 -8.4317 0.1275 0 1
-15.2049 -10.9527 -7.9604 0.1345 0 24
-14.0267 -10.9879 -7.5691 0.1410 0 1
-12.8582 -10.9356 -7.1705 0.1488 0 1
-11.7725 -10.8584 -6.8034 0.1614 0 1
-10.7649 -10.7626 -6.4664 0.1698 0 1
-9.8248 -10.6473 -6.1544 0.1854 0 1
-8.9620 -10.5331 -5.8749 0.1942 0 1
-8.1487 -10.3977 -5.6118 0.2033 0 1
-7.3780 -10.2377 -5.3607 0.2101 0 1
-6.6508 -10.0589 -5.1226 0.2199 0 1
-5.9688 -9.8691 -4.8995 0.2299 0 1
-5.3284 -9.6688 -4.6897 0.2392 0 1
-4.7276 -9.4606 -4.4927 0.2497 0 1
-4.1646 -9.2471 -4.3082 0.2595 0 1
-3.6366 -9.0288 -4.1349 0.2704 0 1
-3.1420 -8.8083 -3.9727 0.2814 0 1
-2.6783 -8.5858 -3.8206 0.2887 0 1
-2.2422 -8.3574 -3.6758 0.3000 0 1
-1.8338 -8.1297 -3.5403 0.3115 0 1
-1.4513 -7.9039 -3.4137 0.3257 0 1
-1.0931 -7.6825 -3.2964 0.3392 0 1
-0.7567 -7.4608 -3.1856 0.3510 0 1
-0.4409 -7.2412 -3.0818 0.3628 0 1
-0.1444 -7.0239 -2.9844 0.3746 0 1
0.1342 -6.8089 -2.8930 0.3864 0 1
0.3961 -6.5963 -2.8072 0.3982 0 1
0.6423 -6.3863 -2.7266 0.4100 0 1
0.8738 -6.1789 -2.6509 0.4217 0 1
1.0918 -5.9742 -2.5799 0.4333 0 1
1.2965 -5.7704 -2.5124 0.4437 0 1
1.4838 -5.5493 -2.4402 0.4552 0 24
1.6699 -5.3690 -2.3885 0.4667 0 1
1.8319 -5.1492 -2.3217 0.4761 0 24
1.9896 -4.9517 -2.2669 0.4872 0 24
2.1512 -4.7873 -2.2295 0.4999 0 1
2.2897 -4.5917 -2.1796 0.4934 0 1
2.4163 -4.3933 -2.1299 0.5049 0 1
2.5345 -4.1986 -2.0833 0.5162 0 1
2.6448 -4.0074 -2.0397 0.5272 0 1
2.7498 -3.8225 -2.0003 0.5597 0 1
2.8512 -3.6444 -1.9657 0.5696 0 1
2.9462 -3.4686 -1.9333 0.5792 0 1
3.0353 -3.2949 -1.9031 0.5883 0 1
3.1186 -3.1232 -1.8749 0.5972 0 1
3.1964 -2.9532 -1.8487 0.6057 0 1
3.2691 -2.7850 -1.8243 0.6137 0 1
3.3368 -2.6184 -1.8018 0.6214 0 1
3.3997 -2.4533 -1.7810 0.6191 0 1
3.4592 -2.2903 -1.7624 0.6256 0 1
3.5148 -2.1288 -1.7456 0.6318 0 1
3.5666 -1.9684 -1.7305 0.6406 0 1
3.6145 -1.8090 -1.7170 0.6457 0 1
3.6583 -1.6503 -1.7049 0.6503 0 1
3.6982 -1.4923 -1.6941 0.6544 0 1
3.7343 -1.3347 -1.6846 0.6581 0 1
3.7666 -1.1775 -1.6764 0.6613 0 1
3.7952 -1.0208 -1.6695 0.6641 0 1
3.8202 -0.8642 -1.6638 0.6663 0 1
3.8416 -0.7079 -1.6594 0.6681 0 1
3.8595 -0.5516 -1.6562 0.6694 0 1
3.8739 -0.3953 -1.6542 0.6702 0 1
3.8848 -0.2390 -1.6534 0.6705 0 1
3.8922 -0.0824 -1.6538 0.6704 0 1
3.8988 0.0744 -1.6565 0.6686 0 1
3.9020 0.2318 -1.6605 0.6670 0 1
3.9018 0.3899 -1.6657 0.6649 0 1
3.8963 0.5485 -1.6715 0.6528 0 1
3.8848 0.7074 -1.6774 0.6504 0 1
3.8696 0.8669 -1.6845 0.6477 0 1
3.8506 1.0270 -1.6929 0.6445 0 1
3.8278 1.1879 -1.7025 0.6408 0 1
3.8011 1.3496 -1.7135 0.6368 0 1
3.7704 1.5122 -1.7257 0.6322 0 1
3.7356 1.6758 -1.7393 0.6273 0 1
3.6966 1.8405 -1.7542 0.6220 0 1
3.6534 2.0063 -1.7706 0.6162 0 1
3.6057 2.1735 -1.7884 0.6097 0 1
3.5535 2.3420 -1.8079 0.6031 0 1
3.4969 2.5123 -1.8291 0.5962 0 1
3.4354 2.6842 -1.8520 0.5888 0 1
3.3687 2.8577 -1.8766 0.5811 0 1
3.2967 3.0331 -1.9030 0.5773 0 1
3.2198 3.2111 -1.9317 0.5688 0 1
3.1370 3.3911 -1.9624 0.5599 0 1
3.0481 3.5734 -1.9952 0.5507 0 1
2.9528 3.7580 -2.0302 0.5412 0 1
2.8506 3.9450 -2.0676 0.5314 0 1
2.7384 4.1303 -2.1052 0.5261 0 1
2.6186 4.3175 -2.1450 0.5163 0 1
2.4910 4.5066 -2.1874 0.5068 0 1
2.3550 4.6980 -2.2324 0.4966 0 1
2.2104 4.8916 -2.2803 0.4862 0 1
2.0566 5.0877 -2.3311 0.4756 0 1
1.8931 5.2861 -2.3852 0.4648 0 1
1.7191 5.4866 -2.4424 0.4543 0 1
1.5341 5.6896 -2.5033 0.4432 0 1
1.3375 5.8951 -2.5679 0.4321 0 1
1.1286 6.1030 -2.6365 0.4208 0 1
0.9065 6.3145 -2.7099 0.4096 0 1
0.6705 6.5295 -2.7883 0.3988 0 1
0.4193 6.7468 -2.8716 0.3864 0 1
0.1520 6.9670 -2.9603 0.3748 0 1
-0.1327 7.1898 -3.0547 0.3633 0 1
-0.4359 7.4149 -3.1553 0.3517 0 1
-0.7586 7.6394 -3.2612 0.3430 0 1
-1.1021 7.8645 -3.3735 0.3316 0 1
-1.4676 8.0882 -3.4920 0.3212 0 1
-1.8564 8.3110 -3.6175 0.3100 0 1
-2.2702 8.5334 -3.7511 0.2990 0 1
-2.7109 8.7549 -3.8933 0.2881 0 1
-3.1801 8.9747 -4.0447 0.2773 0 1
-3.6803 9.1930 -4.2065 0.2669 0 1
-4.2137 9.4088 -4.3794 0.2564 0 1
-4.7820 9.6200 -4.5636 0.2460 0 1
-5.3897 9.8287 -4.7618 0.2317 0 1
-6.0338 10.0240 -4.9701 0.2268 0 1
-6.7121 10.1980 -5.1863 0.2174 0 1
-7.4333 10.3602 -5.4167 0.2070 0 1
-8.2033 10.5128 -5.6646 0.1940 0 1
-9.0306 10.6589 -5.9345 0.1852 0 1
-9.8853 10.7580 -6.2064 0.1784 0 24
-10.8158 10.8590 -6.5107 0.1725 0 24
-11.8152 10.9438 -6.8414 0.1612 0 24
-12.9232 11.0377 -7.2196 0.1528 0 1
-14.0517 11.0551 -7.5951 0.1452 0 1
-15.2444 11.0298 -7.9931 0.1229 0 24
-16.6176 11.0324 -8.4733 0.1177 0 24
-18.3003 11.1151 -9.0956 0.9904 0 2
-18.8693 10.4451 -9.1619 0.9576 0 2
-20.0658 10.0745 -9.5380 0.1093 0 2
-21.4508 9.7094 -10.0023 0.1042 0 2
-22.8415 9.2501 -10.4686 0.0995 0 2
-24.2171 8.6899 -10.9297 0.0953 0 2
-25.5669 8.0282 -11.3837 0.0843 0 2
-28.3143 7.6536 -12.4596 0.0925 0 2
-16.6209 3.7821 -7.2411 0.8048 26 14
-16.6463 3.0890 -7.1921 0.9016 26 14
-16.9803 2.4486 -7.2879 0.3847 26 14
-32.6340 3.3718 -13.9368 0.0879 0 1
-33.1296 2.0798 -14.1012 0.0869 0 1
-33.3858 0.7491 -14.1859 0.0817 0 1
-5.6459 -9.3883 -4.7978 0.2405 0 1
-5.0481 -9.2148 -4.6015 0.2501 0 1
-4.4856 -9.0329 -4.4168 0.2597 0 1
-3.9560 -8.8433 -4.2427 0.2703 0 1
-3.4583 -8.6487 -4.0793 0.2812 0 1
-2.9905 -8.4506 -3.9258 0.2922 0 1
-2.5492 -8.2447 -3.7794 0.2994 0 1
-2.1345 -8.0367 -3.6417 0.3107 0 1
-1.7454 -7.8294 -3.5130 0.3247 0 1
-1.3753 -7.5976 -3.3814 0.3382 0 24
-1.0365 -7.4185 -3.2804 0.3497 0 1
-0.7131 -7.2120 -3.1739 0.3614 0 1
-0.4090 -7.0067 -3.0738 0.3732 0 1
-0.1227 -6.8027 -2.9797 0.3850 0 1
0.1467 -6.6001 -2.8912 0.3967 0 1
0.4004 -6.3993 -2.8080 0.4084 0 1
0.6393 -6.2003 -2.7298 0.4201 0 1
0.8644 -6.0032 -2.6562 0.4318 0 1
1.0765 -5.8080 -2.5869 0.4418 0 1
1.2760 -5.6131 -2.5210 0.4537 0 1
1.4638 -5.4198 -2.4586 0.4652 0 1
1.6406 -5.2287 -2.3999 0.4765 0 1
1.7990 -5.0168 -2.3341 0.4867 0 24
1.9534 -4.8265 -2.2803 0.4964 0 24
2.1120 -4.6687 -2.2441 0.5096 0 1
2.2462 -4.4762 -2.1933 0.5030 0 1
2.3706 -4.2847 -2.1445 0.5145 0 1
2.4869 -4.0965 -2.0987 0.5257 0 1
2.5956 -3.9114 -2.0558 0.5367 0 1
2.7015 -3.7355 -2.0189 0.5690 0 1
2.8015 -3.5624 -1.9848 0.5788 0 1
2.8952 -3.3912 -1.9528 0.5883 0 1
2.9830 -3.2219 -1.9229 0.5974 0 1
3.0653 -3.0544 -1.8951 0.6062 0 1
3.1422 -2.8885 -1.8692 0.6146 0 1
3.2140 -2.7242 -1.8451 0.6226 0 1
3.2809 -2.5613 -1.8228 0.6302 0 1
3.3431 -2.3997 -1.8022 0.6374 0 1
3.4007 -2.2393 -1.7832 0.6442 0 1
3.4558 -2.0812 -1.7667 0.6439 0 1
3.5072 -1.9242 -1.7519 0.6493 0 1
3.5544 -1.7678 -1.7386 0.6543 0 1
3.5977 -1.6121 -1.7266 0.6588 0 1
3.6371 -1.4570 -1.7159 0.6629 0 1
3.6726 -1.3023 -1.7065 0.6666 0 1
3.7045 -1.1479 -1.6985 0.6697 0 1
3.7326 -0.9939 -1.6916 0.6724 0 1
3.7572 -0.8401 -1.6861 0.6747 0 1
3.7782 -0.6864 -1.6817 0.6764 0 1
3.7957 -0.5328 -1.6786 0.6777 0 1
3.8097 -0.3791 -1.6767 0.6784 0 1
3.8202 -0.2254 -1.6760 0.6787 0 1
3.8273 -0.0715 -1.6764 0.6785 0 1
3.8335 0.0828 -1.6793 0.6767 0 1
3.8364 0.2376 -1.6833 0.6750 0 1
3.8357 0.3930 -1.6886 0.6729 0 1
3.8282 0.5488 -1.6937 0.6610 0 1
3.8165 0.7049 -1.6997 0.6586 0 1
3.8010 0.8615 -1.7068 0.6559 0 1
3.7818 1.0188 -1.7153 0.6526 0 1
3.7587 1.1768 -1.7249 0.6490 0 1
3.7318 1.3356 -1.7359 0.6449 0 1
3.7010 1.4952 -1.7481 0.6404 0 1
3.6661 1.6557 -1.7617 0.6354 0 1
3.6270 1.8172 -1.7766 0.6301 0 1
3.5836 1.9798 -1.7930 0.6243 0 1
3.5358 2.1435 -1.8108 0.6182 0 1
3.4836 2.3085 -1.8302 0.6112 0 1
3.4271 2.4752 -1.8514 0.6043 0 1
3.3656 2.6433 -1.8742 0.5969 0 1
3.2991 2.8130 -1.8987 0.5937 0 1
3.2279 2.9848 -1.9254 0.5855 0 1
3.1512 3.1585 -1.9540 0.5769 0 1
3.0688 3.3341 -1.9845 0.5680 0 1
2.9803 3.5116 -2.0171 0.5589 0 1
2.8854 3.6913 -2.0519 0.5494 0 1
2.7839 3.8731 -2.0889 0.5396 0 1
2.6726 4.0532 -2.1262 0.5344 0 1
2.5539 4.2347 -2.1658 0.5246 0 1
2.4276 4.4181 -2.2077 0.5152 0 1
2.2931 4.6032 -2.2523 0.5050 0 1
2.1502 4.7903 -2.2995 0.4947 0 1
1.9863 4.9494 -2.3356 0.4849 0 24
1.8269 5.1418 -2.3897 0.4740 0 24
1.6656 5.3632 -2.4594 0.4629 0 1
1.4836 5.5579 -2.5193 0.4519 0 1
1.2904 5.7545 -2.5828 0.4408 0 1
1.0821 5.9354 -2.6422 0.4280 0 24
0.8678 6.1549 -2.7222 0.4184 0 1
0.6369 6.3595 -2.7990 0.4077 0 1
0.3915 6.5652 -2.8803 0.3961 0 1
0.1307 6.7728 -2.9667 0.3838 0 1
-0.1464 6.9824 -3.0586 0.3722 0 1
-0.4410 7.1935 -3.1563 0.3607 0 1
-0.7541 7.4047 -3.2596 0.3521 0 1
-1.0865 7.6139 -3.3683 0.3407 0 1
-1.4394 7.8211 -3.4828 0.3304 0 1
-1.8139 8.0261 -3.6037 0.3193 0 1
-2.2116 8.2297 -3.7320 0.3084 0 1
-2.6338 8.4310 -3.8683 0.2975 0 1
-3.0821 8.6292 -4.0130 0.2868 0 1
-3.5581 8.8233 -4.1665 0.2764 0 1
-4.0646 9.0152 -4.3309 0.2632 0 1
-4.6029 9.2015 -4.5058 0.2557 0 1
-5.1736 9.3787 -4.6908 0.2456 0 1
-5.7804 9.5486 -4.8883 0.2366 0 1
-6.4147 9.6930 -5.0904 0.2272 0 1
-7.0846 9.8221 -5.3038 0.2181 0 1
-7.7929 9.9352 -5.5299 0.2080 0 1
-8.5512 10.0419 -5.7763 0.1952 0 1
-9.3615 10.1368 -6.0429 0.1866 0 1
-10.2212 10.2106 -6.3272 0.1790 0 1
-11.1230 10.2509 -6.6244 0.1710 0 1
-12.0807 10.2658 -6.9429 0.1627 0 1
-13.0863 10.2425 -7.2778 0.1555 0 1
-14.1417 10.1780 -7.6305 0.1479 0 1
-15.3017 10.1035 -8.0303 0.1291 0 1
-16.5021 9.9663 -8.4428 0.1256 0 1
-17.7068 9.7436 -8.8512 0.1214 0 1
-18.9256 9.4425 -9.2627 0.1202 0 1
-20.2876 9.1215 -9.7416 0.8073 0 2
-21.2908 8.5599 -10.0496 0.7219 0 2
-22.6853 8.0760 -10.5457 0.5456 0 2
-23.6504 7.3613 -10.8477 0.1011 0 1
-24.7668 6.6280 -11.2282 0.0989 0 1
-16.4526 3.7003 -7.3853 0.9580 26 14
-16.4571 3.0111 -7.3270 0.8552 26 14
-16.7855 2.3775 -7.4245 0.4617 26 14
-28.1233 2.8344 -12.3789 0.0798 0 1
-28.5397 1.7197 -12.5215 0.0790 0 1
-28.7536 0.5730 -12.5950 0.0785 0 1
-28.7231 -0.5842 -12.5818 0.0802 0 1
-28.4445 -1.7258 -12.4800 0.0808 0 1
-26.8662 -2.7189 -11.8260 0.0914 0 2
-26.3228 -3.7395 -11.6437 0.0921 0 25
-25.0409 -4.5924 -11.1494 0.8059 0 20
-24.7982 -5.5881 -11.1326 0.0963 0 25
-24.3959 -6.5395 -11.0613 0.0999 0 24
-23.4285 -7.3028 -10.7473 0.1037 0 1
-22.3122 -7.9535 -10.3738 0.1075 0 1
-21.1180 -8.5006 -9.9697 0.1177 0 1
-19.9418 -8.9760 -9.5773 0.1231 0 1
-18.7676 -9.3734 -9.1873 0.1226 0 1
-17.5598 -9.6721 -8.7796 0.1283 0 1
-16.3700 -9.8958 -8.3773 0.1312 0 1
-15.1934 -10.0410 -7.9757 0.1378 0 1
-14.0603 -10.1282 -7.5889 0.1442 0 1
-12.9731 -10.1625 -7.2172 0.1516 0 1
-11.9485 -10.1619 -6.8693 0.1642 0 1
-10.9915 -10.1380 -6.5486 0.1722 0 1
-10.0839 -10.0818 -6.2448 0.1806 0 1
-9.2510 -10.0255 -5.9743 0.1961 0 1
-8.4611 -9.9444 -5.7182 0.2049 0 1
-7.6877 -9.8095 -5.4581 0.2153 0 24
-6.9956 -9.7071 -5.2401 0.2206 0 1
-6.3021 -9.5314 -5.0042 0.2299 0 24
-5.6843 -9.3987 -4.8104 0.2398 0 1
-5.0843 -9.2259 -4.6134 0.2495 0 1
-4.5197 -9.0446 -4.4281 0.2590 0 1
-3.9881 -8.8553 -4.2533 0.2697 0 1
-3.4884 -8.6610 -4.0892 0.2805 0 1
-3.0188 -8.4630 -3.9351 0.2915 0 1
-2.5759 -8.2576 -3.7883 0.2987 0 1
-2.1596 -8.0497 -3.6500 0.3100 0 1
