ply
format ascii 1.0
element vertex 1400
property float32 x
property float32 y
property float32 z
property float32 CosAngle
property uint32 ObjIdx
property uint32 ObjTag
end_header
6.0930 0.9274 0.3932 0.9606 25 14
11.1921 2.1665 0.7274 0.2369 0 1
11.2777 2.6570 0.7393 0.2331 0 1
11.3731 3.1665 0.7533 0.2268 0 1
11.4802 3.6991 0.7696 0.2219 0 1
11.5828 4.2527 0.7873 0.2306 0 1
11.6119 4.8010 0.8017 0.2304 0 1
11.6396 5.3694 0.8179 0.2258 0 1
11.2346 5.7405 0.8050 0.4212 0 14
10.2556 5.7709 0.7508 0.7221 0 14
9.9432 6.1335 0.7454 0.7602 0 14
9.8788 6.6558 0.7600 0.7248 0 14
11.2832 8.2797 0.8930 0.6088 0 2
11.0831 8.8389 0.9045 0.1876 0 2
11.2055 9.6977 0.9455 0.1795 0 2
11.3462 10.6458 0.9927 0.1710 0 2
11.5089 11.7022 1.0472 0.1621 0 2
11.6983 12.8917 1.1107 0.1528 0 2
11.9205 14.2467 1.1852 0.1432 0 2
11.3258 14.6970 1.1839 0.7864 0 3
10.4084 14.6911 1.1488 0.8105 0 3
8.9573 13.7848 1.0489 0.8404 0 21
8.7213 14.6802 1.0895 0.8546 0 3
7.9518 14.6987 1.0663 0.4764 0 3
7.9143 16.1472 1.1474 0.4427 0 3
7.8700 17.8354 1.2438 0.4084 0 3
7.6633 19.4460 1.3336 0.3734 0 3
8.3983 24.1074 1.6288 0.9402 0 3
7.5172 24.7337 1.6494 0.3018 0 3
7.5715 29.0592 1.9160 0.2653 0 3
2.6006 14.7473 0.9555 0.7744 0 9
1.9441 14.3798 0.9258 0.2349 0 9
1.3136 13.9009 0.8909 0.4036 0 9
0.8325 15.3867 0.9832 0.7280 0 9
0.3658 26.3529 1.6816 0.1474 0 9
-1.0091 15.1630 0.9696 0.7165 0 9
-30.5918 27.9979 2.6460 0.6216 0 3
-30.7559 25.9572 2.5679 0.3028 0 3
-30.9790 24.0836 2.5036 0.6174 0 3
-31.3029 22.3782 2.4552 0.7456 0 3
-31.3023 20.5299 2.3885 0.3256 0 3
-31.4474 18.8640 2.3398 0.3324 0 3
-31.7569 17.3550 2.3091 0.3387 0 3
-36.4387 -33.6110 3.1630 0.8686 0 20
-35.2400 -35.2275 3.1793 0.3755 0 20
0.6919 -38.9055 2.4827 0.9943 0 22
9.4084 -42.3475 2.7679 0.5491 0 3
8.0169 -30.2839 1.9988 0.2560 0 20
8.5082 -27.6069 1.8432 0.9557 0 3
10.4676 -29.6741 2.0077 0.9434 0 3
10.0495 -2.8224 0.5499 0.2557 0 25
10.0292 -2.3867 0.5432 0.2589 0 25
10.3910 -2.0357 0.5579 0.2611 0 1
10.3949 -1.6060 0.5542 0.2634 0 1
4.3392 -0.4930 0.2301 0.2023 25 14
4.2588 -0.3112 0.2250 0.2069 25 14
4.2365 -0.1389 0.2233 0.3278 25 14
4.2260 0.0312 0.2227 0.3288 25 14
4.2634 0.2029 0.2249 0.3256 25 14
4.3521 0.3827 0.2302 0.2023 25 14
4.4725 0.5751 0.2376 0.2684 25 14
6.0825 1.0319 0.3250 0.9603 25 14
10.7459 2.2704 0.5787 0.2460 0 1
10.8228 2.7449 0.5883 0.2420 0 1
10.9062 3.2374 0.5994 0.2375 0 1
11.0005 3.7523 0.6124 0.2305 0 1
11.0836 4.2848 0.6261 0.2396 0 1
11.1053 4.8143 0.6377 0.2352 0 1
11.1287 5.3652 0.6509 0.2345 0 1
10.7833 5.7433 0.6437 0.5083 0 14
10.1485 5.9402 0.6195 0.6743 0 14
10.0527 6.4396 0.6290 0.4675 0 14
10.8777 7.6010 0.6991 0.2579 0 1
10.8759 8.2691 0.7198 0.6240 0 2
10.5315 8.6961 0.7196 0.1949 0 2
10.6271 9.5181 0.7516 0.1866 0 2
10.7367 10.4229 0.7884 0.1779 0 2
10.8630 11.4279 0.8307 0.1688 0 2
11.0093 12.5552 0.8798 0.1594 0 2
11.1804 13.8336 0.9371 0.1496 0 2
10.9234 14.6849 0.9643 0.7973 0 3
6.2863 9.2007 0.5871 0.5564 22 7
8.6077 13.7533 0.8548 0.8510 0 21
8.3854 14.6776 0.8906 0.8638 0 3
7.9977 15.4040 0.9144 0.4590 0 3
7.9621 16.9690 0.9875 0.4250 0 3
7.9196 18.8078 1.0752 0.3904 0 3
8.4833 22.6490 1.2742 0.9107 0 3
7.9400 24.1038 1.3370 0.9464 0 3
7.7304 27.0825 1.4838 0.2831 0 3
2.7801 13.8778 0.7457 0.2405 0 9
1.6339 13.8561 0.7351 0.1870 0 9
1.0543 13.6283 0.7202 0.2611 0 9
0.5922 15.9810 0.8425 0.4977 0 9
-0.0538 17.2050 0.9065 0.2280 0 9
-31.2395 35.1793 2.4787 0.2606 0 3
-31.7262 30.4157 2.3156 0.2790 0 3
-31.7691 28.0975 2.2345 0.7161 0 3
-32.3176 24.2537 2.1288 0.7365 0 3
-32.2797 22.2566 2.0657 0.7589 0 3
-32.2475 20.3739 2.0097 0.7801 0 3
-32.2181 18.5885 1.9597 0.8000 0 3
-32.6255 17.1155 1.9411 0.3310 0 3
-35.2841 -33.6747 2.5697 0.7955 0 20
1.3528 -38.8678 2.0490 0.7777 0 6
5.4974 -47.5394 2.5213 0.9931 0 3
4.9061 -24.7796 1.3309 0.9570 0 6
8.8949 -37.0482 2.0074 0.5100 0 3
8.2745 -29.2375 1.6009 0.9628 0 20
9.7028 -29.6797 1.6451 0.9513 0 3
10.3179 -27.7365 1.5591 0.9043 0 3
11.7490 -28.0781 1.6036 0.0726 0 3
12.5897 -26.9891 1.5690 0.0843 0 3
12.7538 -24.7001 1.4646 0.0957 0 2
10.4590 -18.4031 1.1152 0.7480 0 9
10.3394 -16.6030 1.0305 0.5271 0 20
11.6378 -17.1158 1.0905 0.1286 0 2
11.9423 -16.1302 1.0574 0.8199 0 2
11.6989 -14.5420 0.9833 0.1520 0 1
11.4897 -13.1626 0.9205 0.1597 0 24
11.4186 -12.0666 0.8753 0.1639 0 1
11.2633 -10.9834 0.8289 0.1656 0 1
11.1183 -10.0031 0.7880 0.1726 0 1
10.9530 -9.0857 0.7498 0.1727 0 1
10.8065 -8.2547 0.7164 0.1843 0 1
6.1740 -4.3349 0.3975 0.3333 14 6
10.6159 -6.8341 0.6652 0.2106 0 1
10.5071 -6.1819 0.6423 0.2182 0 24
10.2334 -5.4800 0.6116 0.2299 0 25
10.1885 -4.9402 0.5966 0.2357 0 25
8.9332 -3.8965 0.5135 0.9812 0 9
10.1148 -3.9364 0.5718 0.2459 0 25
10.0849 -3.4653 0.5618 0.2503 0 25
10.0592 -3.0106 0.5532 0.2542 0 25
10.0374 -2.5698 0.5459 0.2576 0 25
10.3212 -2.2050 0.5561 0.2614 0 2
10.3924 -1.7871 0.5556 0.2627 0 1
4.3750 -0.5726 0.2325 0.2003 25 14
4.2922 -0.3872 0.2271 0.2050 25 14
4.2425 -0.2114 0.2238 0.3271 25 14
4.2286 -0.0407 0.2228 0.3286 25 14
4.2473 0.1297 0.2239 0.3270 25 14
4.3006 0.3046 0.2271 0.2050 25 14
4.4249 0.4926 0.2346 0.1985 25 14
6.1140 0.9306 0.3258 0.9580 25 14
10.7150 2.0742 0.5750 0.2471 0 1
10.7895 2.5420 0.5840 0.2438 0 1
10.8700 3.0265 0.5945 0.2395 0 1
10.9593 3.5313 0.6066 0.2326 0 1
11.0590 4.0605 0.6207 0.2274 0 1
11.0956 4.5875 0.6326 0.2372 0 1
11.1200 5.1297 0.6452 0.2325 0 1
11.1416 5.6930 0.6592 0.2315 0 1
11.1323 6.2643 0.6730 0.2544 0 1
10.0836 6.2201 0.6242 0.4710 0 14
10.0457 6.7683 0.6382 0.4270 0 14
10.9933 8.0670 0.7184 0.2159 0 2
10.4946 8.3696 0.7072 0.1983 0 2
10.5850 9.1607 0.7375 0.1901 0 2
10.6884 10.0286 0.7722 0.1816 0 2
10.8073 10.9888 0.8120 0.1727 0 2
10.9446 12.0612 0.8581 0.1634 0 2
11.1046 13.2715 0.9117 0.1538 0 2
11.2869 14.6465 0.9742 0.7437 0 3
10.4081 14.6906 0.9485 0.8110 0 3
8.9388 13.7563 0.8643 0.8427 0 21
8.7211 14.6798 0.8996 0.8551 0 3
8.0111 14.8084 0.8870 0.4731 0 3
7.9779 16.2768 0.9550 0.4395 0 3
7.9386 17.9908 1.0360 0.4051 0 3
7.7403 19.6415 1.1123 0.3701 0 3
8.3995 24.1108 1.3452 0.9408 0 3
7.7670 25.5553 1.4072 0.2985 0 3
2.4944 14.1447 0.7567 0.3270 0 9
3.3697 24.9238 1.3251 0.1507 0 9
2.5493 26.9774 1.4277 0.6628 0 9
0.8694 16.0704 0.8479 0.1746 0 9
0.3522 25.3703 1.3368 0.5193 0 9
-0.3904 14.8482 0.7826 0.0707 0 9
-30.8194 38.9832 2.6182 0.5652 0 3
-31.1223 36.2717 2.5180 0.2566 0 3
-31.3906 33.7424 2.4281 0.2661 0 3
-31.4855 31.2299 2.3364 0.6508 0 3
-30.4967 27.9108 2.1781 0.5336 0 3
-32.2969 23.0888 2.0917 0.7496 0 3
-32.2608 21.1585 2.0326 0.7713 0 3
-32.2302 19.3335 1.9801 0.7917 0 3
-32.5375 17.7816 1.9535 0.4844 0 3
-32.3765 16.0401 1.9036 0.0871 0 3
-36.3240 -33.5052 2.6036 0.7765 0 20
-35.1666 -35.1542 2.6198 0.5284 0 20
5.9415 -42.6914 2.2709 0.9896 0 3
9.3779 -42.2103 2.2781 0.9752 0 3
8.0145 -30.2750 1.6500 0.2386 0 20
8.5084 -27.6075 1.5220 0.9563 0 3
10.4678 -29.6748 1.6579 0.9440 0 3
9.6525 -2.7109 0.4169 0.2664 0 25
9.6378 -2.2935 0.4119 0.2696 0 2
9.9884 -1.9568 0.4232 0.2718 0 1
9.9955 -1.5443 0.4205 0.2740 0 1
4.1356 -0.4698 0.1731 0.3340 25 14
4.1209 -0.3012 0.1718 0.2609 25 14
4.1022 -0.1345 0.1707 0.2626 25 14
4.0950 0.0302 0.1703 0.3119 25 14
4.1334 0.1967 0.1721 0.3360 25 14
4.1699 0.3667 0.1741 0.3321 25 14
4.2506 0.5466 0.1782 0.2063 25 14
10.2416 1.7375 0.4319 0.2661 0 1
10.3044 2.1771 0.4379 0.2567 0 1
10.3711 2.6304 0.4449 0.2527 0 1
10.4428 3.0998 0.4529 0.2482 0 1
10.5199 3.5883 0.4622 0.2432 0 1
10.6068 4.1005 0.4728 0.2357 0 1
10.6286 4.6076 0.4817 0.2459 0 1
10.6444 5.1317 0.4913 0.2411 0 1
10.6618 5.6786 0.5023 0.2399 0 1
10.6490 6.2332 0.5131 0.2635 0 1
10.5512 6.7590 0.5210 0.2595 0 1
10.4527 7.3040 0.5302 0.2550 0 1
10.4893 7.9751 0.5479 0.2235 0 2
10.0268 8.2794 0.5407 0.6560 0 2
10.0601 9.0102 0.5615 0.1972 0 2
10.1374 9.8411 0.5875 0.1885 0 2
10.2259 10.7578 0.6171 0.1794 0 2
10.3280 11.7781 0.6513 0.1700 0 2
10.4463 12.9253 0.6910 0.1602 0 2
10.5846 14.2294 0.7374 0.1502 0 2
9.3554 13.6927 0.6895 0.8331 0 21
8.7382 13.9618 0.6848 0.8112 0 21
8.3851 14.6772 0.7028 0.8643 0 3
8.0596 15.5233 0.7273 0.4557 0 3
8.0287 17.1109 0.7859 0.4217 0 3
7.9918 18.9792 0.8563 0.3870 0 3
8.5155 22.7348 1.0094 0.4112 0 3
7.9398 24.1032 1.0552 0.9469 0 3
7.8279 27.4241 1.1858 0.2797 0 3
1.6212 13.7485 0.5756 0.2042 0 9
1.0507 13.5814 0.5664 0.6295 0 9
0.8349 22.5307 0.9375 0.6648 0 6
-0.0546 17.4369 0.7250 0.8293 0 9
-32.3701 36.4525 2.0270 0.6108 0 3
-32.3198 33.5773 1.9378 0.6389 0 3
-32.2746 30.9414 1.8590 0.6660 0 3
-31.2241 27.6155 1.7332 0.9387 0 3
-32.1972 26.2490 1.7273 0.7168 0 3
-30.2227 22.6815 1.5712 0.8441 0 3
-32.1304 22.1537 1.6227 0.7629 0 3
-32.1024 20.2822 1.5789 0.7841 0 3
-32.0767 18.5069 1.5398 0.8040 0 3
-31.0594 16.2939 1.4584 0.6212 0 3
-33.8979 16.0816 1.5600 0.4339 0 3
-35.0439 -33.4455 2.0142 0.6797 0 20
5.4975 -47.5404 1.9899 0.9936 0 3
3.6831 -18.6024 0.7885 0.9659 0 6
8.6176 -35.8933 1.5348 0.8116 0 3
8.2747 -29.2382 1.2635 0.9632 0 20
9.7031 -29.6805 1.2984 0.9517 0 3
10.8117 -29.0641 1.2894 0.0713 0 3
11.3295 -27.0755 1.2204 0.8956 0 3
11.8666 -25.4388 1.1672 0.0949 0 2
11.4916 -22.2558 1.0415 0.1063 0 2
10.4529 -18.3924 0.8796 0.9755 0 9
10.3235 -16.5776 0.8120 0.6977 0 20
10.9830 -16.1528 0.8122 0.8428 0 2
11.0671 -14.9480 0.7733 0.1526 0 1
10.9144 -13.5668 0.7240 0.1646 0 1
10.8181 -12.3932 0.6840 0.1656 0 1
10.7041 -11.3115 0.6475 0.1659 0 1
10.5831 -10.3201 0.6146 0.1747 0 1
10.4576 -9.4087 0.5849 0.1782 0 1
10.3323 -8.5708 0.5582 0.1867 0 1
10.2211 -7.8075 0.5348 0.1949 0 1
10.1579 -7.1320 0.5161 0.2144 0 1
10.1098 -6.5083 0.4999 0.2213 0 1
10.0688 -5.9240 0.4857 0.2293 0 1
9.7858 -5.2403 0.4616 0.2406 0 25
9.4101 -4.5627 0.4348 0.2719 0 9
8.9653 -3.9105 0.4067 0.9526 0 9
9.4252 -3.6680 0.4205 0.3663 0 9
9.6783 -3.3256 0.4255 0.2610 0 25
9.6596 -2.8910 0.4192 0.2649 0 25
9.6437 -2.4690 0.4139 0.2683 0 25
9.9878 -2.1337 0.4247 0.2708 0 1
9.9557 -1.7120 0.4200 0.2753 0 24
4.1541 -0.5437 0.1742 0.2110 25 14
4.1272 -0.3723 0.1723 0.3355 25 14
4.1100 -0.2048 0.1711 0.2620 25 14
4.0953 -0.0394 0.1703 0.3118 25 14
4.1162 0.1257 0.1712 0.2618 25 14
4.1542 0.2942 0.1732 0.3338 25 14
4.2009 0.4677 0.1757 0.2092 25 14
6.1499 0.9360 0.2587 0.8524 25 14
10.2767 1.9893 0.4352 0.2578 0 1
10.3423 2.4366 0.4418 0.2545 0 1
10.4118 2.8989 0.4494 0.2502 0 1
10.4865 3.3790 0.4581 0.2454 0 1
10.5689 3.8805 0.4681 0.2380 0 1
10.6229 4.3921 0.4780 0.2478 0 1
10.6373 4.9070 0.4871 0.2432 0 1
10.6551 5.4444 0.4975 0.2381 0 1
10.6702 6.0043 0.5091 0.2367 0 1
10.5927 6.5341 0.5175 0.2612 0 1
10.4945 7.0706 0.5262 0.2569 0 1
10.3844 7.6201 0.5356 0.2658 0 1
10.3628 8.2645 0.5511 0.6435 0 2
10.0303 8.6806 0.5516 0.2008 0 2
10.1034 9.4797 0.5761 0.1922 0 2
10.1869 10.3581 0.6041 0.1833 0 2
10.2830 11.3320 0.6363 0.1740 0 2
10.3940 12.4223 0.6735 0.1644 0 2
10.5233 13.6557 0.7168 0.1545 0 2
6.4560 9.1124 0.4643 0.6854 22 6
8.9204 13.7281 0.6807 0.8448 0 21
8.7208 14.6793 0.7099 0.8556 0 3
8.0712 14.9195 0.7053 0.4699 0 3
8.0424 16.4085 0.7598 0.4362 0 3
8.0083 18.1487 0.8248 0.4018 0 3
7.8108 19.8203 0.8858 0.3668 0 3
8.3979 24.1061 1.0614 0.9413 0 3
7.8598 25.8608 1.1238 0.2951 0 3
1.8630 13.7793 0.5781 0.2493 0 9
1.3163 13.9300 0.5818 0.3655 0 9
1.2835 23.7234 0.9878 0.7050 0 9
0.3789 27.2904 1.1348 0.1529 0 9
-32.2626 37.6008 2.0600 0.9064 0 3
-32.3404 34.7633 1.9742 0.6271 0 3
-32.2932 32.0310 1.8912 0.6546 0 3
-32.2507 29.5161 1.8178 0.6811 0 3
-32.2123 27.1864 1.7526 0.7064 0 3
-32.1775 25.0153 1.6947 0.7306 0 3
-32.1457 22.9807 1.6430 0.7535 0 3
-32.1140 21.0622 1.5968 0.7752 0 3
-32.0873 19.2478 1.5558 0.7957 0 3
-32.2498 17.6243 1.5281 0.9468 0 3
-33.8123 16.7514 1.5690 0.4492 0 3
-36.2991 -33.4823 2.0533 0.7861 0 20
-35.0461 -35.0337 2.0604 0.6603 0 20
5.9416 -42.6923 1.7922 0.9901 0 3
8.8906 -40.0167 1.7044 0.9816 0 3
7.8710 -29.7329 1.2789 0.9676 0 20
8.5192 -27.6426 1.2027 0.2858 0 3
10.4399 -29.5957 1.3049 0.9444 0 3
9.2861 -2.6080 0.2940 0.2770 0 25
9.3515 -2.2254 0.2930 0.2872 0 2
9.6168 -1.8840 0.2987 0.2829 0 1
9.6265 -1.4873 0.2969 0.2851 0 1
3.9814 -0.4523 0.1221 0.3189 25 14
3.9739 -0.2904 0.1215 0.3207 25 14
3.9670 -0.1301 0.1210 0.3219 25 14
3.9634 0.0293 0.1208 0.3224 25 14
3.9927 0.1900 0.1218 0.3196 25 14
4.0232 0.3538 0.1231 0.3164 25 14
4.0695 0.5233 0.1251 0.2628 25 14
9.8525 1.6715 0.3046 0.2772 0 1
9.9008 2.0919 0.3085 0.2730 0 1
9.9573 2.5254 0.3131 0.2689 0 1
10.0175 2.9736 0.3185 0.2588 0 1
10.0832 3.4394 0.3248 0.2539 0 1
10.1535 3.9252 0.3318 0.2485 0 1
10.1915 4.4182 0.3386 0.2566 0 1
10.1982 4.9166 0.3451 0.2517 0 1
10.2072 5.4364 0.3525 0.2464 0 1
10.2176 5.9806 0.3609 0.2449 0 1
10.1403 6.4958 0.3671 0.2701 0 1
10.0388 7.0148 0.3733 0.2656 0 1
9.9354 7.5540 0.3805 0.2613 0 1
9.9971 8.2549 0.3952 0.6582 0 2
9.5509 8.5542 0.3908 0.2078 0 2
9.6019 9.3213 0.4079 0.1991 0 2
9.6600 10.1624 0.4274 0.1900 0 2
9.7265 11.0923 0.4497 0.1806 0 2
9.8032 12.1296 0.4754 0.1708 0 2
9.8922 13.2985 0.5052 0.1607 0 2
9.3359 13.6642 0.5045 0.8351 0 21
8.7564 13.9909 0.5031 0.8098 0 21
8.3849 14.6768 0.5153 0.8646 0 3
8.1224 15.6443 0.5373 0.4523 0 3
8.0963 17.2551 0.5810 0.4183 0 3
8.0450 19.1054 0.6319 0.9186 0 3
9.0304 24.1096 0.7848 0.9337 0 3
7.9396 24.1026 0.7736 0.9473 0 3
7.9278 27.7740 0.8805 0.2763 0 3
3.0119 15.0348 0.4674 0.0476 0 9
2.2477 14.1489 0.4367 0.4103 0 9
1.8468 15.6619 0.4807 0.8910 0 9
-32.1844 36.2434 1.4776 0.6145 0 3
-32.1425 33.3932 1.4129 0.6427 0 3
-32.1048 30.7786 1.3558 0.6697 0 3
-32.0707 28.3642 1.3051 0.6957 0 3
-32.0396 26.1206 1.2601 0.7206 0 3
-32.0113 24.0239 1.2201 0.7442 0 3
-31.9827 22.0519 1.1842 0.7667 0 3
-31.9588 20.1915 1.1524 0.7879 0 3
-31.9367 18.4262 1.1240 0.8078 0 3
-32.1095 16.8448 1.1053 0.8499 0 3
-35.1110 16.6571 1.1846 0.3159 0 3
-34.9623 -33.3676 1.4733 0.6902 0 20
-34.7269 -35.9162 1.5229 0.7658 0 20
5.4976 -47.5414 1.4589 0.9939 0 3
7.9229 -40.0166 1.2435 0.7408 0 3
8.8498 -36.8602 1.1556 0.9756 0 3
8.2749 -29.2389 0.9263 0.9635 0 20
9.6940 -29.6525 0.9510 0.9521 0 3
10.4481 -28.0867 0.9135 0.2260 0 3
10.9689 -26.2139 0.8662 0.0938 0 2
10.6829 -22.9014 0.7703 0.1054 0 2
10.4577 -20.2534 0.6948 0.1169 0 2
10.1654 -17.8865 0.6271 0.9911 0 9
10.1270 -16.2621 0.5840 0.1391 0 2
10.4435 -15.3593 0.5662 0.1529 0 1
10.3024 -13.9153 0.5278 0.1656 0 1
10.2328 -12.7196 0.4976 0.1669 0 1
10.1587 -11.6378 0.4709 0.1673 0 1
10.0641 -10.6353 0.4463 0.1836 0 1
9.9812 -9.7332 0.4250 0.1857 0 1
9.8792 -8.8883 0.4051 0.1949 0 1
9.7884 -8.1196 0.3877 0.2036 0 1
9.7346 -7.4359 0.3734 0.2294 0 1
9.6996 -6.8103 0.3613 0.2371 0 1
9.6247 -6.1960 0.3489 0.2435 0 24
9.4021 -5.5317 0.3325 0.5376 0 2
9.3762 -5.0209 0.3242 0.2512 0 25
8.9466 -4.3380 0.3031 0.3092 0 9
8.9638 -3.9099 0.2981 0.6107 0 9
8.9879 -3.4979 0.2940 0.2732 0 9
9.3036 -3.1968 0.2999 0.2716 0 25
9.2909 -2.7807 0.2956 0.2755 0 25
9.3030 -2.3817 0.2927 0.3789 0 2
9.6139 -2.0538 0.2997 0.2811 0 1
9.5893 -1.6490 0.2966 0.2857 0 24
4.0261 -0.5269 0.1238 0.2684 25 14
3.9770 -0.3588 0.1217 0.3200 25 14
3.9699 -0.1978 0.1212 0.3214 25 14
3.9634 -0.0382 0.1208 0.3224 25 14
3.9801 0.1216 0.1214 0.3209 25 14
4.0101 0.2840 0.1225 0.3178 25 14
4.0490 0.4508 0.1242 0.2647 25 14
4.4620 0.6791 0.1376 0.0896 25 14
9.8798 1.9125 0.3068 0.2753 0 1
9.9329 2.3402 0.3111 0.2707 0 1
9.9915 2.7819 0.3162 0.2664 0 1
10.0548 3.2398 0.3220 0.2560 0 1
10.1231 3.7168 0.3287 0.2508 0 1
10.1893 4.2128 0.3361 0.2585 0 1
10.1951 4.7031 0.3423 0.2538 0 1
10.2031 5.2135 0.3493 0.2487 0 1
10.2134 5.7472 0.3572 0.2432 0 1
10.1829 6.2814 0.3647 0.2719 0 1
10.0820 6.7927 0.3706 0.2676 0 1
9.9794 7.3229 0.3773 0.2628 0 1
10.0193 7.9905 0.3907 0.2299 0 2
9.5614 8.2749 0.3855 0.6748 0 2
9.5795 8.9882 0.4004 0.2028 0 2
9.6345 9.7963 0.4188 0.1939 0 2
9.6972 10.6866 0.4399 0.1846 0 2
9.7694 11.6758 0.4641 0.1750 0 2
9.8528 12.7856 0.4921 0.1650 0 2
6.4580 9.1152 0.3405 0.9061 22 6
8.9021 13.6999 0.4980 0.8469 0 21
8.7206 14.6789 0.5205 0.8560 0 3
8.1322 15.0323 0.5210 0.4665 0 3
8.1079 16.5421 0.5616 0.4328 0 3
8.0791 18.3093 0.6101 0.3984 0 3
8.8550 22.4701 0.7362 0.9128 0 3
8.3977 24.1055 0.7781 0.9417 0 3
7.9548 26.1733 0.8339 0.2917 0 3
3.1235 14.3226 0.4469 0.2533 0 9
2.4775 14.0492 0.4349 0.1759 0 9
0.7422 13.7188 0.4188 0.1699 0 9
0.2489 17.9322 0.5467 0.5865 0 9
-32.2036 37.5320 1.5075 0.6023 0 3
-31.2016 33.5392 1.3964 0.7197 0 3
-32.1203 31.8595 1.3791 0.6584 0 3
-30.1751 27.6165 1.2469 0.8000 0 3
-32.0524 27.0515 1.2785 0.7102 0 3
-32.0230 24.8952 1.2365 0.7344 0 3
-31.9961 22.8737 1.1990 0.7573 0 3
-31.9687 20.9669 1.1654 0.7791 0 3
-31.9459 19.1630 1.1356 0.7995 0 3
-32.5343 17.7798 1.1302 0.4849 0 3
-35.0741 17.3766 1.1932 0.3136 0 3
-36.1747 -33.3676 1.5002 0.6778 0 20
-34.8641 -34.8517 1.5027 0.6682 0 20
5.9417 -42.6933 1.3140 0.9905 0 3
8.1320 -45.0848 1.3965 0.5751 0 3
7.6279 -34.3337 1.0721 0.0762 0 3
7.8504 -29.6551 0.9351 0.2468 0 20
8.6256 -27.9877 0.8928 0.2824 0 3
10.1549 -28.7877 0.9305 0.2219 0 3
8.9467 -2.5126 0.1802 0.2876 0 25
9.2633 -2.2044 0.1847 0.2903 0 1
9.2722 -1.8165 0.1833 0.2935 0 1
4.7519 -0.7342 0.0933 0.0112 25 14
3.9680 -0.4508 0.0775 0.9575 25 14
3.9415 -0.2881 0.0766 0.9676 25 14
3.9155 -0.1284 0.0760 0.9761 25 14
3.8940 0.0287 0.0755 0.9820 25 14
3.9191 0.1865 0.0761 0.9746 25 14
3.9447 0.3469 0.0768 0.9657 25 14
3.9708 0.5106 0.0776 0.9552 25 14
9.4925 1.6104 0.1867 0.2878 0 1
9.5343 2.0144 0.1890 0.2844 0 1
9.5827 2.4304 0.1917 0.2795 0 1
9.6344 2.8599 0.1949 0.2750 0 1
9.6889 3.3049 0.1985 0.2700 0 1
9.7467 3.7680 0.2027 0.2645 0 1
9.7923 4.2451 0.2070 0.2706 0 1
9.7913 4.7204 0.2108 0.2657 0 1
9.7913 5.2150 0.2152 0.2604 0 1
9.7925 5.7318 0.2201 0.2545 0 1
9.7611 6.2529 0.2248 0.2814 0 1
9.6575 6.7483 0.2285 0.2768 0 1
9.5513 7.2619 0.2327 0.2718 0 1
9.5767 7.9077 0.2409 0.2373 0 2
9.2286 8.2655 0.2403 0.6890 0 2
9.1205 8.8539 0.2465 0.2096 0 2
9.1537 9.6298 0.2577 0.2006 0 2
9.1916 10.4823 0.2704 0.1911 0 2
9.2351 11.4266 0.2850 0.1814 0 2
9.2851 12.4824 0.3017 0.1713 0 2
9.3432 13.6749 0.3212 0.1609 0 2
8.7747 14.0202 0.3208 0.8083 0 21
8.3847 14.6764 0.3278 0.8649 0 3
8.1862 15.7670 0.3446 0.4489 0 3
8.1651 17.4016 0.3728 0.4149 0 3
8.0447 19.1049 0.4020 0.9189 0 3
9.0302 24.1090 0.4993 0.9340 0 3
7.9394 24.1020 0.4922 0.9476 0 3
8.0302 28.1327 0.5674 0.2728 0 3
8.7623 36.1377 0.7212 0.8935 0 6
2.8607 14.2803 0.2825 0.8367 0 9
2.2176 13.9594 0.2741 0.0562 0 9
1.8455 15.6511 0.3057 0.9938 0 9
1.0736 13.8774 0.2700 0.6370 0 9
-0.0456 14.5663 0.2825 0.0942 0 9
-31.0320 37.9085 0.9502 0.9739 0 3
-31.9672 33.2111 0.8940 0.6464 0 3
-34.0714 32.6640 0.9154 0.6965 0 3
-31.9091 28.2213 0.8262 0.6994 0 3
-33.9366 27.6671 0.8492 0.6367 0 3
-31.7258 23.8096 0.7693 0.6227 0 3
-31.8364 21.9510 0.7500 0.7704 0 3
-35.8575 22.6547 0.8226 0.5394 0 3
-31.7981 18.3462 0.7120 0.8116 0 3
-33.8740 17.7705 0.7419 0.4701 0 3
-36.3083 17.2252 0.7794 0.3055 0 3
-35.0141 -33.4171 0.9387 0.7962 0 20
-34.5677 -35.7516 0.9645 0.7750 0 20
8.8641 -36.9197 0.7364 0.9757 0 3
8.2751 -29.2396 0.5894 0.9638 0 20
9.2919 -28.4227 0.5800 0.2266 0 3
10.0123 -26.9150 0.5570 0.9138 0 3
9.8634 -23.5717 0.4956 0.1043 0 2
9.7145 -20.8254 0.4457 0.1160 0 2
9.5950 -18.5826 0.4056 0.1274 0 2
9.4971 -16.7106 0.3728 0.1386 0 2
9.9376 -15.9579 0.3646 0.1641 0 2
9.7205 -14.2960 0.3353 0.1505 0 1
9.6623 -13.0506 0.3149 0.1692 0 1
9.6284 -11.9683 0.2979 0.1789 0 1
9.5772 -10.9716 0.2825 0.1847 0 1
9.5189 -10.0591 0.2686 0.1942 0 1
9.4464 -9.2116 0.2559 0.1963 0 1
9.3733 -8.4332 0.2445 0.2054 0 1
9.3327 -7.7416 0.2352 0.2287 0 1
9.3092 -7.1110 0.2272 0.2399 0 1
9.2926 -6.5245 0.2202 0.2700 0 1
9.2899 -5.9805 0.2143 0.2325 0 1
9.0141 -5.3035 0.2028 0.2555 0 25
8.9997 -4.8193 0.1980 0.2618 0 25
8.6680 -4.2029 0.1868 0.3197 0 9
8.6567 -3.7759 0.1832 0.2800 0 9
8.9656 -3.4892 0.1866 0.2778 0 25
8.9570 -3.0777 0.1837 0.2822 0 25
8.9495 -2.6785 0.1812 0.2861 0 25
8.9451 -2.2901 0.1791 0.2856 0 2
9.2675 -1.9798 0.1838 0.2925 0 1
9.2789 -1.5957 0.1826 0.2946 0 1
3.9731 -0.5200 0.0777 0.9614 25 14
3.9527 -0.3566 0.0770 0.9635 25 14
3.9265 -0.1957 0.0762 0.9727 25 14
3.9007 -0.0376 0.0757 0.9803 25 14
3.9084 0.1194 0.0758 0.9779 25 14
3.9338 0.2786 0.0765 0.9697 25 14
3.9597 0.4408 0.0773 0.9598 25 14
4.2435 0.6459 0.0833 0.0943 25 14
9.4815 1.8354 0.1873 0.2843 0 24
9.5617 2.2527 0.1905 0.2813 0 1
9.6122 2.6762 0.1935 0.2770 0 1
9.6654 3.1144 0.1970 0.2721 0 1
9.7218 3.5695 0.2009 0.2668 0 1
9.7797 4.0435 0.2053 0.2591 0 1
9.7916 4.5169 0.2091 0.2678 0 1
9.7912 5.0030 0.2133 0.2627 0 1
9.7918 5.5100 0.2179 0.2571 0 1
9.7927 6.0407 0.2232 0.2506 0 1
9.7017 6.5365 0.2269 0.2788 0 1
9.5966 7.0420 0.2309 0.2740 0 1
9.4979 7.5747 0.2356 0.2667 0 1
9.5339 8.2511 0.2445 0.6770 0 2
9.1076 8.5454 0.2422 0.2134 0 2
9.1391 9.2926 0.2528 0.2045 0 2
9.1750 10.1110 0.2648 0.1952 0 2
9.2159 11.0143 0.2785 0.1856 0 2
9.2630 12.0203 0.2943 0.1756 0 2
6.4682 9.1296 0.2170 0.9862 22 6
8.8733 13.6556 0.3159 0.8489 0 21
8.7204 14.6785 0.3311 0.8562 0 3
8.1941 15.1466 0.3340 0.4631 0 3
8.1744 16.6779 0.3602 0.4294 0 3
8.1512 18.4726 0.3916 0.3950 0 3
8.8790 22.5311 0.4697 0.9106 0 3
8.3975 24.1049 0.4951 0.9420 0 3
8.0059 26.3415 0.5340 0.2883 0 3
11.5652 44.3866 0.8896 0.0615 0 1
3.2750 15.0173 0.2981 0.8882 0 9
2.5160 14.2675 0.2810 0.2906 0 9
2.0008 14.7988 0.2896 0.3808 0 9
1.4279 26.3923 0.5126 0.5363 0 9
0.2451 17.6585 0.3425 0.3679 0 9
-32.0163 37.3137 0.9536 0.6060 0 3
-31.4515 33.8078 0.8956 0.7714 0 3
-31.9493 31.6899 0.8728 0.6621 0 3
-35.6069 32.5878 0.9362 0.2528 0 3
-31.8942 26.9180 0.8095 0.7139 0 3
-30.9835 24.0871 0.7612 0.1441 0 3
-31.6770 22.6456 0.7552 0.9106 0 3
-34.5546 22.6630 0.8015 0.5536 0 3
-35.9726 21.5784 0.8136 0.2909 0 3
-29.8724 16.3251 0.6602 0.9012 0 3
-35.8440 17.7580 0.7758 0.4495 0 3
-36.3422 16.2212 0.7719 0.3086 0 3
-35.9973 -33.2038 0.9498 0.5373 0 20
-34.7597 -34.7474 0.9532 0.7841 0 20
5.3874 -38.7104 0.7580 0.8132 0 6
7.6207 -34.3013 0.6815 0.9109 0 3
7.9779 -30.1365 0.6046 0.9682 0 20
8.7346 -28.3413 0.5752 0.2789 0 3
9.7011 -27.5014 0.5656 0.2323 0 3
8.6313 -2.4241 0.0745 0.2981 0 25
8.9394 -2.1273 0.0764 0.3008 0 1
8.9222 -1.7479 0.0756 0.3042 0 24
4.2725 -0.6601 0.0359 0.0273 25 14
3.9607 -0.4500 0.0331 0.9666 25 14
3.9378 -0.2878 0.0328 0.9687 25 14
3.9118 -0.1283 0.0325 0.9772 25 14
3.8907 0.0287 0.0323 0.9830 25 14
3.9158 0.1863 0.0326 0.9756 25 14
3.9413 0.3466 0.0329 0.9666 25 14
3.9636 0.5097 0.0332 0.9642 25 14
9.1580 1.5537 0.0772 0.2984 0 1
9.1945 1.9426 0.0781 0.2949 0 1
9.2355 2.3424 0.0792 0.2901 0 1
9.2797 2.7546 0.0805 0.2855 0 1
9.3258 3.1810 0.0819 0.2805 0 1
9.3730 3.6235 0.0835 0.2729 0 1
9.4167 4.0823 0.0853 0.2672 0 1
9.4180 4.5405 0.0869 0.2763 0 1
9.4107 5.0122 0.0886 0.2709 0 1
9.4035 5.5041 0.0906 0.2651 0 1
9.3928 6.0169 0.0927 0.2586 0 1
9.3044 6.5016 0.0943 0.2874 0 1
9.1959 6.9917 0.0960 0.2824 0 1
9.1001 7.5142 0.0981 0.2746 0 1
9.1472 8.1926 0.1021 0.2400 0 2
8.6852 8.4313 0.1006 0.2202 0 2
8.6981 9.1504 0.1049 0.2111 0 2
8.7127 9.9361 0.1098 0.2017 0 2
8.7294 10.8010 0.1154 0.1919 0 2
6.7341 9.0530 0.0938 0.1867 22 6
8.7705 12.8367 0.1292 0.1714 0 2
8.7961 14.0544 0.1378 0.1607 0 2
8.3845 14.6760 0.1405 0.8651 0 3
8.2509 15.8917 0.1488 0.4455 0 3
8.2350 17.5506 0.1611 0.4115 0 3
8.0548 19.1287 0.1725 0.3768 0 3
9.0225 24.0886 0.2138 0.1036 0 2
8.0046 24.3000 0.2126 0.3057 0 3
8.1352 28.5007 0.2463 0.2693 0 3
8.7547 36.1065 0.3088 0.9721 0 6
1.8488 15.6785 0.1312 0.6958 0 9
0.8750 23.6115 0.1964 0.7822 0 9
-30.0760 31.2463 0.3605 0.2215 0 3
-30.1342 28.8894 0.3470 0.2457 0 3
-31.5657 27.9176 0.3502 0.9553 0 3
-33.9353 27.6661 0.3639 0.6368 0 3
-30.0131 22.5242 0.3119 0.2621 0 3
-30.2321 20.8449 0.3052 0.2675 0 3
-29.8633 18.8676 0.2936 0.2119 0 3
-29.8353 17.2137 0.2863 0.7443 0 3
-34.2499 17.9677 0.3215 0.2893 0 3
-37.0718 17.5873 0.3410 0.9489 0 3
-35.0856 -33.4852 0.4031 0.8801 0 20
-34.3061 -35.4810 0.4102 0.8649 0 20
7.2631 -36.6840 0.3108 0.0535 0 3
8.3027 -34.5815 0.2956 0.1204 0 3
8.2753 -29.2403 0.2526 0.9639 0 20
9.0252 -27.6070 0.2414 0.9524 0 3
9.0270 -24.2663 0.2152 0.1029 0 2
8.9606 -21.4143 0.1929 0.1148 0 2
8.9075 -19.0953 0.1751 0.1265 0 2
8.8641 -17.1670 0.1606 0.1379 0 2
9.1851 -16.1616 0.1545 0.8864 0 2
9.1425 -14.6811 0.1437 0.1504 0 1
9.1029 -13.3877 0.1346 0.1687 0 1
9.0957 -12.2853 0.1270 0.1798 0 1
9.0872 -11.2956 0.1205 0.1875 0 1
9.0612 -10.3805 0.1145 0.1952 0 1
9.0206 -9.5325 0.1091 0.1974 0 1
8.9661 -8.7433 0.1041 0.2069 0 1
8.9437 -8.0466 0.1000 0.2305 0 1
8.9284 -7.4063 0.0964 0.2423 0 1
8.9230 -6.8160 0.0933 0.2731 0 1
8.8730 -6.2299 0.0901 0.2641 0 24
6.4191 -4.1324 0.0635 0.4473 14 6
8.6581 -5.0940 0.0835 0.2661 0 25
8.6524 -4.6333 0.0816 0.2723 0 25
8.6473 -4.1929 0.0799 0.2781 0 25
8.6428 -3.7699 0.0784 0.2835 0 25
8.6389 -3.3620 0.0770 0.2883 0 25
8.6354 -2.9672 0.0759 0.2927 0 25
8.6325 -2.5836 0.0749 0.2966 0 25
8.7141 -2.2310 0.0748 0.3071 0 2
8.9460 -1.9111 0.0760 0.3032 0 1
8.9591 -1.5407 0.0756 0.3051 0 1
3.9645 -0.5188 0.0332 0.9636 25 14
3.9489 -0.3562 0.0330 0.9646 25 14
3.9227 -0.1955 0.0326 0.9738 25 14
3.8970 -0.0375 0.0324 0.9813 25 14
3.9051 0.1193 0.0325 0.9789 25 14
3.9305 0.2784 0.0327 0.9706 25 14
3.9563 0.4405 0.0331 0.9608 25 14
4.0822 0.6213 0.0343 0.2642 25 14
9.1448 1.7702 0.0774 0.2960 0 24
9.2173 2.1716 0.0787 0.2919 0 1
9.2607 2.5784 0.0799 0.2875 0 1
9.3060 2.9986 0.0813 0.2827 0 1
9.3534 3.4342 0.0828 0.2774 0 1
9.3979 3.8856 0.0845 0.2697 0 1
9.4212 4.3461 0.0862 0.2784 0 1
9.4138 4.8102 0.0879 0.2732 0 1
9.4065 5.2932 0.0897 0.2676 0 1
9.3976 5.7970 0.0918 0.2612 0 1
9.3494 6.2991 0.0937 0.2894 0 1
9.2423 6.7820 0.0953 0.2846 0 1
9.1387 7.2882 0.0972 0.2773 0 1
9.1572 7.9251 0.1007 0.2434 0 2
8.8058 8.2622 0.1004 0.7294 0 2
8.6924 8.8384 0.1030 0.2150 0 2
8.7063 9.5945 0.1077 0.2057 0 2
8.7220 10.4241 0.1130 0.1961 0 2
8.7401 11.3416 0.1190 0.1861 0 2
6.4295 9.0750 0.0924 0.9025 22 6
8.7848 13.5194 0.1340 0.1653 0 2
8.7201 14.6781 0.1419 0.8564 0 3
8.2569 15.2627 0.1442 0.4597 0 3
8.2388 16.8092 0.1556 0.4260 0 3
8.2245 18.6388 0.1693 0.3915 0 3
8.8976 22.5782 0.2017 0.1087 0 3
8.3973 24.1043 0.2121 0.9422 0 3
8.1516 26.8210 0.2330 0.2848 0 3
9.2995 35.6910 0.3065 0.0723 0 2
3.2475 14.8911 0.1267 0.4010 0 9
2.5068 26.5283 0.2215 0.9682 0 9
0.3647 26.2686 0.2183 0.6635 0 9
-29.9011 37.8217 0.4007 0.7332 0 3
-31.8313 37.0981 0.4063 0.6096 0 3
-30.0941 32.3487 0.3672 0.2164 0 3
-30.0914 29.8471 0.3523 0.2360 0 3
-35.6778 32.6527 0.4020 0.6798 0 3
-31.7376 26.7858 0.3452 0.7175 0 3
-35.5737 27.6557 0.3745 0.6187 0 3
-30.0344 21.4713 0.3069 0.1581 0 3
-30.2427 19.8349 0.3006 0.2737 0 3
-29.8442 17.9023 0.2892 0.5152 0 3
-29.7728 16.2707 0.2820 0.6463 0 3
-35.8421 17.7570 0.3324 0.4496 0 3
-37.5055 16.7405 0.3414 0.4134 0 3
-36.0466 -33.2493 0.4076 0.5471 0 20
-34.6395 -34.6273 0.4071 0.8715 0 20
5.9420 -42.6953 0.3583 0.9909 0 3
8.6433 -47.9197 0.4047 0.0478 0 3
5.4884 -24.7035 0.2103 0.2178 0 6
8.6333 -32.6126 0.2804 0.9723 0 3
8.6602 -28.0999 0.2444 0.6429 0 3
9.0603 -25.6847 0.2264 0.0979 0 2
8.3413 -2.3426 -0.0240 0.3009 0 2
8.6381 -2.0556 -0.0246 0.3122 0 1
8.6239 -1.6895 -0.0243 0.3143 0 24
4.0830 -0.6308 -0.0114 0.2639 25 14
3.9521 -0.4490 -0.0110 0.9687 25 14
3.9340 -0.2875 -0.0109 0.9696 25 14
3.9081 -0.1282 -0.0108 0.9781 25 14
3.8874 0.0287 -0.0108 0.9838 25 14
3.9125 0.1862 -0.0109 0.9765 25 14
3.9380 0.3463 -0.0110 0.9675 25 14
3.9551 0.5086 -0.0110 0.9662 25 14
4.7177 0.8004 -0.0133 0.0113 25 14
8.8780 1.8758 -0.0251 0.3054 0 1
8.9126 2.2605 -0.0255 0.3006 0 1
8.9502 2.6568 -0.0259 0.2961 0 1
8.9890 3.0661 -0.0263 0.2910 0 1
9.0248 3.4889 -0.0268 0.2834 0 1
9.0598 3.9275 -0.0274 0.2777 0 1
9.0723 4.3738 -0.0279 0.2868 0 1
9.0586 4.8247 -0.0284 0.2815 0 1
9.0442 5.2938 -0.0290 0.2752 0 1
9.0250 5.7813 -0.0297 0.2691 0 1
8.9763 6.2724 -0.0303 0.2979 0 1
8.8661 6.7409 -0.0309 0.2929 0 1
8.7654 7.2379 -0.0315 0.2851 0 1
8.7638 7.8492 -0.0326 0.2510 0 2
8.5124 8.2637 -0.0329 0.7426 0 2
8.2857 8.7166 -0.0333 0.2216 0 2
8.2813 9.4441 -0.0348 0.2122 0 2
8.2763 10.2403 -0.0365 0.2024 0 2
6.7101 9.0208 -0.0311 0.8168 22 6
8.2640 12.0954 -0.0406 0.1819 0 2
8.2565 13.1921 -0.0431 0.1713 0 2
8.2477 14.4366 -0.0461 0.1603 0 2
8.2374 15.8657 -0.0495 0.1491 0 2
8.2251 17.5295 -0.0536 0.1376 0 2
8.1308 19.3092 -0.0580 0.3733 0 3
8.1918 21.8707 -0.0647 0.1141 0 2
8.0953 24.5754 -0.0717 0.3021 0 3
8.1397 28.5165 -0.0822 0.0899 0 2
8.1010 33.4105 -0.0952 0.0775 0 2
2.9497 14.7244 -0.0416 0.6355 0 9
2.7736 23.5217 -0.0656 0.4202 0 9
1.9577 25.3063 -0.0703 0.9711 0 9
0.9434 25.4574 -0.0706 0.8090 0 9
-0.0753 24.0833 -0.0667 0.8953 0 9
-31.6599 38.6756 -0.1385 0.5962 0 3
-31.3425 32.5620 -0.1252 0.7561 0 3
-31.3982 30.1012 -0.1205 0.6806 0 3
-31.4477 27.8132 -0.1163 0.6037 0 3
-33.9341 27.6651 -0.1213 0.6368 0 3
-30.5618 22.9360 -0.1059 0.8587 0 3
-31.3198 21.5948 -0.1054 0.7776 0 3
-31.3078 19.7802 -0.1026 0.7988 0 3
-31.2964 18.0567 -0.1001 0.8187 0 3
-31.2855 16.4125 -0.0979 0.8373 0 3
-37.4064 17.7461 -0.1147 0.4344 0 3
-38.9835 16.6109 -0.1174 0.2898 0 3
-34.9589 -33.3643 -0.1339 0.8874 0 20
-34.0612 -35.2277 -0.1358 0.9321 0 20
7.2854 -36.7966 -0.1039 0.0642 0 3
7.9301 -33.0295 -0.0941 0.1937 0 3
8.1381 -28.7556 -0.0828 0.0892 0 2
8.1679 -24.9844 -0.0728 0.1014 0 2
8.1909 -22.0189 -0.0651 0.1134 0 2
8.2093 -19.6189 -0.0589 0.1253 0 2
8.2243 -17.6308 -0.0539 0.1370 0 2
8.3695 -16.2092 -0.0505 0.9481 0 2
8.5882 -15.1113 -0.0482 0.1434 0 1
8.5514 -13.7319 -0.0448 0.1689 0 1
8.5680 -12.6010 -0.0422 0.1793 0 1
8.5892 -11.6013 -0.0400 0.1883 0 1
8.6034 -10.6942 -0.0380 0.1980 0 1
8.5981 -9.8499 -0.0362 0.2057 0 1
8.5670 -9.0532 -0.0345 0.2225 0 1
8.5607 -8.3479 -0.0331 0.2319 0 1
8.5549 -7.6968 -0.0319 0.2443 0 1
8.5614 -7.1018 -0.0308 0.2757 0 1
8.5949 -6.5653 -0.0300 0.2835 0 1
6.2181 -4.3658 -0.0210 0.7988 14 6
6.3726 -4.1024 -0.0210 0.5771 14 6
8.3292 -4.9005 -0.0268 0.2766 0 25
8.3310 -4.4612 -0.0262 0.2828 0 25
8.3325 -4.0402 -0.0257 0.2886 0 25
8.3339 -3.6351 -0.0252 0.2940 0 25
8.3351 -3.2438 -0.0248 0.2988 0 25
8.3362 -2.8644 -0.0244 0.3032 0 25
8.3371 -2.4952 -0.0241 0.3071 0 25
8.6327 -2.2101 -0.0247 0.3102 0 1
8.6462 -1.8471 -0.0245 0.3138 0 1
8.6607 -1.4893 -0.0243 0.3157 0 1
3.9559 -0.5177 -0.0111 0.9658 25 14
3.9451 -0.3559 -0.0110 0.9655 25 14
3.9191 -0.1953 -0.0109 0.9747 25 14
3.8934 -0.0375 -0.0108 0.9823 25 14
3.9018 0.1192 -0.0108 0.9798 25 14
3.9271 0.2781 -0.0109 0.9715 25 14
3.9512 0.4399 -0.0110 0.9692 25 14
4.0165 0.6113 -0.0113 0.3067 25 14
8.8645 1.7160 -0.0250 0.3070 0 1
8.8969 2.0961 -0.0253 0.3024 0 1
8.9341 2.4875 -0.0257 0.2980 0 1
8.9724 2.8911 -0.0261 0.2932 0 1
9.0104 3.3083 -0.0266 0.2857 0 1
9.0448 3.7396 -0.0271 0.2802 0 1
9.0779 4.1877 -0.0277 0.2890 0 1
9.0645 4.6317 -0.0282 0.2838 0 1
9.0504 5.0928 -0.0288 0.2782 0 1
9.0332 5.5722 -0.0294 0.2717 0 1
9.0134 6.0728 -0.0301 0.2654 0 1
8.9132 6.5406 -0.0306 0.2951 0 1
8.8057 7.0226 -0.0312 0.2878 0 1
8.7094 7.5375 -0.0319 0.2814 0 1
8.7431 8.2034 -0.0332 0.2463 0 2
8.2895 8.4288 -0.0328 0.2248 0 2
8.2832 9.1283 -0.0341 0.2162 0 2
8.2785 9.8940 -0.0357 0.2066 0 2
8.2731 10.7357 -0.0375 0.1966 0 2
6.4287 9.0738 -0.0308 0.7636 22 6
8.2598 12.7114 -0.0420 0.1758 0 2
8.2516 13.8895 -0.0448 0.1650 0 2
8.2419 15.2351 -0.0480 0.1539 0 2
8.2305 16.7923 -0.0518 0.1425 0 2
8.2169 18.6215 -0.0564 0.1309 0 2
8.2000 20.8080 -0.0620 0.1192 0 2
8.1794 23.4788 -0.0689 0.1072 0 2
8.1531 26.8259 -0.0777 0.0951 0 2
8.1190 31.1603 -0.0892 0.0828 0 2
8.5007 38.9794 -0.1105 0.0533 0 24
8.3428 47.3090 -0.1331 0.0809 0 24
2.4884 26.3330 -0.0733 0.2785 0 9
1.2173 22.5006 -0.0624 0.9983 0 6
-29.7583 37.6411 -0.1329 0.4186 0 3
-31.6485 36.8850 -0.1346 0.6132 0 3
-30.6281 32.9227 -0.1246 0.7731 0 3
-31.4050 31.1500 -0.1225 0.6693 0 3
-31.3893 28.7278 -0.1179 0.6957 0 3
-31.5965 26.6667 -0.1145 0.7780 0 3
-35.5724 27.6546 -0.1248 0.6188 0 3
-31.3250 22.3940 -0.1067 0.7683 0 3
-31.3128 20.5368 -0.1037 0.7900 0 3
-31.3012 18.7763 -0.1011 0.8105 0 3
-31.2901 17.0999 -0.0988 0.8296 0 3
-35.8402 17.7561 -0.1108 0.4496 0 3
-35.8110 -33.0320 -0.1350 0.3979 0 20
-34.5119 -34.4997 -0.1352 0.8788 0 20
8.0121 -44.4201 -0.1250 0.0590 0 2
5.4784 -24.6585 -0.0700 0.9947 0 6
8.1228 -30.6840 -0.0879 0.0840 0 2
8.1562 -26.4648 -0.0767 0.0962 0 2
8.1818 -23.1944 -0.0681 0.1084 0 2
8.0630 -2.2645 -0.1160 0.3192 0 2
8.3566 -1.9886 -0.1190 0.3227 0 1
8.3725 -1.6402 -0.1182 0.3251 0 1
4.0177 -0.6207 -0.0563 0.3064 25 14
3.9436 -0.4480 -0.0550 0.9707 25 14
3.9303 -0.2872 -0.0546 0.9704 25 14
3.9045 -0.1281 -0.0541 0.9789 25 14
3.8842 0.0287 -0.0538 0.9846 25 14
3.9092 0.1860 -0.0542 0.9772 25 14
3.9346 0.3460 -0.0547 0.9682 25 14
3.9467 0.5075 -0.0551 0.9682 25 14
4.1915 0.7111 -0.0589 0.0279 25 14
8.5507 1.8066 -0.1211 0.3154 0 24
8.6114 2.1841 -0.1231 0.3111 0 1
8.6433 2.5657 -0.1249 0.3065 0 1
8.6747 2.9589 -0.1270 0.2992 0 1
8.7016 3.3639 -0.1292 0.2939 0 1
8.7289 3.7841 -0.1318 0.2882 0 1
8.7510 4.2189 -0.1346 0.2973 0 1
8.7319 4.6507 -0.1370 0.2920 0 1
8.7107 5.0986 -0.1398 0.2857 0 1
8.6849 5.5634 -0.1429 0.2796 0 1
8.6572 6.0494 -0.1463 0.2731 0 1
8.5591 6.5075 -0.1489 0.3034 0 1
8.4545 6.9811 -0.1519 0.2956 0 1
8.3528 7.4811 -0.1553 0.2890 0 1
8.3653 8.1208 -0.1615 0.2532 0 2
7.9116 8.3230 -0.1591 0.2312 0 2
7.8906 8.9985 -0.1658 0.2227 0 2
7.8679 9.7350 -0.1734 0.2129 0 2
6.6987 9.0054 -0.1555 0.8181 22 6
7.8128 11.4350 -0.1918 0.1924 0 2
7.7792 12.4295 -0.2031 0.1817 0 2
7.7403 13.5485 -0.2162 0.1708 0 2
7.6950 14.8211 -0.2313 0.1596 0 2
7.6417 16.2862 -0.2492 0.1481 0 2
7.5782 17.9969 -0.2705 0.1365 0 2
7.5014 20.0274 -0.2963 0.1246 0 2
7.4066 22.4846 -0.3279 0.1126 0 2
7.2877 25.5315 -0.3678 0.1004 0 2
7.1341 29.4227 -0.4194 0.0880 0 2
6.9277 34.5821 -0.4886 0.0756 0 2
6.9970 44.0454 -0.6178 0.0711 0 1
1.9581 25.3115 -0.3517 0.7722 0 9
0.9457 25.5217 -0.3538 0.9825 0 9
-31.4739 38.4484 -0.6883 0.5997 0 3
-31.4531 32.6769 -0.6283 0.6570 0 3
-34.0680 32.6607 -0.6538 0.6966 0 3
-31.2503 27.6386 -0.5779 0.5663 0 3
-33.9328 27.6640 -0.6065 0.6368 0 3
-31.4167 23.5776 -0.5441 0.7586 0 3
-31.4232 21.6661 -0.5287 0.7142 0 3
-35.8528 22.6517 -0.5875 0.5395 0 3
-31.3894 18.1104 -0.5020 0.8222 0 3
-32.6864 17.1475 -0.5113 0.2683 0 3
-37.4043 17.7451 -0.5735 0.4344 0 3
-35.0056 -33.4090 -0.6703 0.9469 0 20
-33.9496 -35.1123 -0.6766 0.9381 0 20
6.6173 -42.2679 -0.5927 0.0623 0 2
6.9141 -34.9213 -0.4931 0.0749 0 2
7.1241 -29.6728 -0.4227 0.0873 0 2
7.2804 -25.7247 -0.3704 0.0997 0 2
7.4009 -22.6384 -0.3299 0.1119 0 2
7.4966 -20.1524 -0.2979 0.1239 0 2
7.5743 -18.1012 -0.2718 0.1358 0 2
7.6385 -16.3749 -0.2503 0.1475 0 2
8.0024 -14.0805 -0.2244 0.1607 0 1
8.0493 -12.9255 -0.2109 0.1794 0 1
8.0945 -11.9046 -0.1994 0.1888 0 1
8.1338 -10.9861 -0.1894 0.1988 0 1
8.1685 -10.1535 -0.1805 0.2085 0 1
8.1710 -9.3607 -0.1721 0.2232 0 1
8.1815 -8.6459 -0.1649 0.2329 0 1
8.1905 -7.9870 -0.1585 0.2424 0 1
8.2058 -7.3827 -0.1529 0.2778 0 1
8.2494 -6.8430 -0.1485 0.2861 0 1
8.2075 -6.2694 -0.1431 0.2806 0 24
6.2347 -4.3775 -0.1055 0.7966 14 6
6.3578 -4.0929 -0.1047 0.5784 14 6
8.0244 -4.7211 -0.1290 0.2871 0 25
8.0326 -4.3014 -0.1262 0.2933 0 25
8.0399 -3.8983 -0.1238 0.2991 0 25
8.0463 -3.5097 -0.1216 0.3045 0 25
8.0520 -3.1336 -0.1197 0.3093 0 25
8.0570 -2.7685 -0.1180 0.3137 0 25
8.0614 -2.4127 -0.1166 0.3176 0 25
8.3500 -2.1378 -0.1194 0.3216 0 1
8.3658 -1.7872 -0.1185 0.3242 0 1
4.4973 -0.7734 -0.0632 0.0886 25 14
3.9473 -0.5166 -0.0551 0.9678 25 14
3.9385 -0.3553 -0.0548 0.9742 25 14
3.9154 -0.1951 -0.0543 0.9755 25 14
3.8898 -0.0375 -0.0539 0.9831 25 14
3.8985 0.1191 -0.0540 0.9805 25 14
3.9238 0.2779 -0.0545 0.9722 25 14
3.9428 0.4390 -0.0550 0.9712 25 14
3.9616 0.6030 -0.0555 0.3109 25 14
8.5710 1.6591 -0.1209 0.3174 0 1
8.5985 2.0258 -0.1224 0.3137 0 1
8.6298 2.4027 -0.1241 0.3085 0 1
8.6619 2.7910 -0.1261 0.3037 0 1
8.6902 3.1907 -0.1282 0.2962 0 1
8.7173 3.6042 -0.1307 0.2907 0 1
8.7448 4.0340 -0.1334 0.2848 0 1
8.7402 4.4660 -0.1360 0.2943 0 1
8.7203 4.9070 -0.1386 0.2887 0 1
8.6960 5.3642 -0.1415 0.2823 0 1
8.6692 5.8408 -0.1448 0.2759 0 1
8.6068 6.3157 -0.1479 0.3056 0 1
8.4961 6.7757 -0.1505 0.2982 0 1
8.3965 7.2667 -0.1538 0.2918 0 1
8.3854 7.8678 -0.1593 0.2568 0 2
8.1489 8.2858 -0.1610 0.8008 0 2
7.8994 8.7053 -0.1628 0.2267 0 2
7.8778 9.4151 -0.1701 0.2171 0 2
7.8534 10.1911 -0.1782 0.2071 0 2
6.4501 9.1040 -0.1546 0.5701 22 6
7.7940 11.9946 -0.1982 0.1863 0 2
7.7575 13.0578 -0.2104 0.1755 0 2
7.7151 14.2612 -0.2246 0.1644 0 2
7.6654 15.6393 -0.2413 0.1530 0 2
7.6065 17.2383 -0.2610 0.1414 0 2
7.5358 19.1225 -0.2847 0.1297 0 2
7.4492 21.3828 -0.3137 0.1177 0 2
7.3416 24.1557 -0.3497 0.1056 0 2
7.2042 27.6493 -0.3958 0.0933 0 2
7.0231 32.2038 -0.4566 0.0809 0 2
2.4687 13.9993 -0.1969 0.1806 0 9
2.1127 15.6267 -0.2184 0.8825 0 9
1.4844 27.4363 -0.3806 0.2897 0 9
0.2050 14.7680 -0.2046 0.9845 0 9
-31.4684 36.6751 -0.6694 0.7536 0 3
-31.4573 33.8141 -0.6398 0.6452 0 3
-16.5078 16.3737 -0.3221 0.6902 0 6
-31.4381 28.7724 -0.5904 0.6992 0 3
-31.5943 26.6648 -0.5727 0.6498 0 3
-29.5272 22.9549 -0.5181 0.6136 0 3
-31.4092 22.4542 -0.5349 0.7717 0 3
-34.5502 22.6601 -0.5724 0.5537 0 3
-31.3928 18.8312 -0.5071 0.8139 0 3
-32.0798 17.5315 -0.5064 0.5510 0 3
-32.5867 16.1442 -0.5038 0.4496 0 3
-39.7230 17.7303 -0.6026 0.4134 0 3
-40.2302 16.0519 -0.6000 0.4464 0 3
-35.4472 -32.6965 -0.6680 0.9501 0 20
-34.3993 -34.3871 -0.6738 0.9420 0 20
6.4512 -46.3542 -0.6483 0.0569 0 2
6.8017 -37.7097 -0.5308 0.0695 0 2
5.4977 -24.7452 -0.3511 0.2979 0 6
7.2194 -27.2714 -0.3908 0.0945 0 2
7.3534 -23.8598 -0.3459 0.1067 0 2
7.4586 -21.1441 -0.3106 0.1189 0 2
7.9548 -2.2341 -0.2061 0.3341 0 2
8.0929 -1.9259 -0.2075 0.3331 0 1
8.1102 -1.5888 -0.2061 0.3356 0 1
3.9569 -0.6113 -0.0998 0.3110 25 14
3.9351 -0.4471 -0.0988 0.9726 25 14
3.9264 -0.2870 -0.0982 0.9784 25 14
3.9008 -0.1279 -0.0973 0.9796 25 14
3.8809 0.0286 -0.0968 0.9852 25 14
3.9059 0.1859 -0.0975 0.9778 25 14
3.9292 0.3455 -0.0984 0.9766 25 14
3.9383 0.5064 -0.0990 0.9701 25 14
4.0905 0.6940 -0.1035 0.3002 25 14
8.2748 1.7483 -0.2109 0.3258 0 24
8.3299 2.1127 -0.2143 0.3215 0 1
8.3567 2.4806 -0.2174 0.3170 0 1
8.3798 2.8583 -0.2208 0.3097 0 1
8.4007 3.2476 -0.2246 0.3044 0 1
8.4212 3.6507 -0.2289 0.2987 0 1
8.4415 4.0697 -0.2337 0.2926 0 1
8.4279 4.4888 -0.2381 0.3024 0 1
8.4008 4.9172 -0.2428 0.2962 0 1
8.3694 5.3613 -0.2479 0.2901 0 1
8.3355 5.8246 -0.2536 0.2835 0 1
8.2725 6.2897 -0.2592 0.3138 0 1
8.1648 6.7419 -0.2641 0.3060 0 1
8.0603 7.2192 -0.2698 0.2994 0 1
7.8939 8.3044 -0.2857 0.8114 0 2
7.5349 8.5929 -0.2850 0.2331 0 2
7.4978 9.2771 -0.2975 0.2234 0 2
6.6873 8.9901 -0.2794 0.8193 22 6
7.4082 10.8428 -0.3275 0.2029 0 2
7.3539 11.7501 -0.3457 0.1922 0 2
7.2916 12.7631 -0.3666 0.1813 0 2
7.2196 13.9054 -0.3907 0.1701 0 2
7.1355 15.2073 -0.4189 0.1586 0 2
7.0363 16.7101 -0.4522 0.1470 0 2
6.9179 18.4697 -0.4919 0.1351 0 2
6.7744 20.5654 -0.5400 0.1231 0 2
6.5971 23.1122 -0.5994 0.1109 0 2
6.3732 26.2845 -0.6745 0.0985 0 2
6.0818 30.3595 -0.7722 0.0861 0 2
2.3595 14.8527 -0.3750 0.3564 0 9
3.9919 33.8536 -0.8501 0.6208 0 19
1.8712 24.1885 -0.6050 0.5425 0 9
-31.2901 38.2238 -1.2319 0.6031 0 3
-31.5292 35.5055 -1.1842 0.6322 0 3
-31.2853 32.5026 -1.1251 0.6604 0 3
-34.0668 32.6596 -1.1769 0.6965 0 3
-31.2790 27.6640 -1.0414 0.7134 0 3
-33.9315 27.6630 -1.0918 0.6367 0 3
-31.2715 23.4686 -0.9751 0.7620 0 3
-31.4216 21.6650 -0.9518 0.5728 0 3
-35.8512 22.6507 -1.0576 0.5394 0 3
-31.2555 18.0331 -0.8999 0.8255 0 3
-31.0735 16.3013 -0.8751 0.9630 0 3
-34.0088 16.1342 -0.9387 0.4343 0 3
-41.2935 17.5951 -1.1194 0.5064 0 3
-41.9166 15.9037 -1.1180 0.8212 0 3
-34.8971 -33.3054 -1.2030 0.9496 0 20
-33.7281 -34.8832 -1.2101 0.9726 0 20
5.0894 -44.0110 -1.1049 0.0601 0 2
5.6620 -36.1660 -0.9129 0.0728 0 2
6.0629 -30.6223 -0.7785 0.0854 0 2
6.3589 -26.4854 -0.6793 0.0978 0 2
6.5860 -23.2712 -0.6031 0.1102 0 2
6.7655 -20.6947 -0.5430 0.1224 0 2
6.9106 -18.5772 -0.4943 0.1344 0 2
7.0303 -16.8011 -0.4542 0.1463 0 2
7.5260 -16.1339 -0.4440 0.1744 0 2
7.4696 -14.4663 -0.4060 0.1479 0 1
7.4816 -13.1642 -0.3776 0.1800 0 24
7.5706 -12.1570 -0.3572 0.1919 0 24
7.6415 -11.2384 -0.3389 0.2009 0 24
7.7029 -10.4041 -0.3228 0.2103 0 24
7.7459 -9.6283 -0.3082 0.2191 0 24
7.7744 -8.9063 -0.2948 0.2308 0 24
7.7982 -8.2408 -0.2829 0.2443 0 24
7.8240 -7.6296 -0.2725 0.2591 0 24
7.8525 -7.0649 -0.2634 0.2712 0 24
7.9593 -6.6024 -0.2579 0.2964 0 1
8.0060 -6.1155 -0.2512 0.3043 0 1
6.2513 -4.3892 -0.1905 0.7943 14 6
6.3430 -4.0834 -0.1881 0.5796 14 6
7.7409 -4.5544 -0.2240 0.2975 0 25
7.7547 -4.1526 -0.2194 0.3038 0 25
7.7670 -3.7660 -0.2153 0.3096 0 25
7.7778 -3.3926 -0.2116 0.3149 0 25
7.7874 -3.0307 -0.2084 0.3198 0 25
7.7959 -2.6787 -0.2056 0.3242 0 25
7.8031 -2.3354 -0.2031 0.3281 0 2
8.0856 -2.0701 -0.2081 0.3320 0 1
8.0754 -1.7252 -0.2059 0.3346 0 24
4.1424 -0.7124 -0.1048 0.2594 25 14
3.9388 -0.5155 -0.0991 0.9697 25 14
3.9301 -0.3545 -0.0984 0.9761 25 14
3.9117 -0.1950 -0.0977 0.9762 25 14
3.8861 -0.0374 -0.0969 0.9838 25 14
3.8953 0.1190 -0.0972 0.9811 25 14
3.9204 0.2777 -0.0980 0.9728 25 14
3.9344 0.4380 -0.0987 0.9730 25 14
3.9436 0.6002 -0.0995 0.9656 25 14
8.2962 1.6059 -0.2107 0.3279 0 1
8.3196 1.9601 -0.2132 0.3242 0 1
8.3454 2.3235 -0.2160 0.3190 0 1
8.3709 2.6972 -0.2193 0.3117 0 1
8.3919 3.0812 -0.2229 0.3067 0 1
8.4126 3.4782 -0.2270 0.3012 0 1
8.4329 3.8902 -0.2316 0.2952 0 1
8.4382 4.3116 -0.2363 0.3048 0 1
8.4133 4.7343 -0.2408 0.2991 0 1
8.3830 5.1711 -0.2456 0.2927 0 1
8.3502 5.6259 -0.2511 0.2864 0 1
8.3147 6.1014 -0.2572 0.2796 0 1
8.2074 6.5455 -0.2618 0.3086 0 1
8.1052 7.0146 -0.2673 0.3023 0 1
7.9975 7.5038 -0.2735 0.2954 0 1
7.9996 8.1339 -0.2845 0.2595 0 2
7.5915 8.3660 -0.2817 0.8584 0 2
7.5140 8.9804 -0.2920 0.2275 0 2
6.9084 8.9648 -0.2822 0.9102 22 6
6.4742 9.1381 -0.2793 0.5679 22 6
7.3778 11.3541 -0.3377 0.1968 0 2
7.3191 12.3199 -0.3574 0.1859 0 2
7.2514 13.4041 -0.3801 0.1748 0 2
7.1727 14.6341 -0.4064 0.1635 0 2
7.0804 16.0460 -0.4374 0.1519 0 2
6.9708 17.6887 -0.4741 0.1401 0 2
6.8387 19.6305 -0.5184 0.1282 0 2
6.6770 21.9691 -0.5726 0.1160 0 2
6.4748 24.8501 -0.6404 0.1038 0 2
6.2152 28.4994 -0.7274 0.0913 0 2
5.8705 33.2896 -0.8430 0.0788 0 2
2.1108 15.6126 -0.3929 0.9532 0 9
1.6225 17.1698 -0.4301 0.4906 0 9
1.4499 26.7996 -0.6693 0.7257 0 20
0.1992 14.3507 -0.3579 0.4121 0 9
-18.4700 36.5295 -1.0208 0.3507 0 6
-31.4551 36.6596 -1.2046 0.7629 0 3
-30.3356 32.6083 -1.1107 0.5956 0 3
-32.9342 32.6668 -1.1568 0.7086 0 3
-31.2805 28.6282 -1.0575 0.7026 0 3
-32.7857 27.6704 -1.0699 0.6497 0 3
-35.5697 27.6525 -1.1236 0.6186 0 3
-31.2665 22.3521 -0.9585 0.7751 0 3
-34.5487 22.6591 -1.0304 0.5536 0 3
-31.2575 18.7500 -0.9090 0.8173 0 3
-36.2831 19.8285 -1.0311 0.8364 0 3
-33.8335 16.7619 -0.9416 0.2611 0 3
-39.7207 17.7292 -1.0848 0.4133 0 3
-41.9185 16.7255 -1.1255 0.8158 0 3
-35.5391 -32.7812 -1.2058 0.2324 0 20
-34.2799 -34.2678 -1.2088 0.9736 0 20
-18.1482 -27.4160 -0.8199 0.6910 0 6
4.7659 -48.4179 -1.2133 0.0548 0 2
5.4461 -39.1318 -0.9853 0.0674 0 2
5.9088 -32.7594 -0.8302 0.0800 0 2
4.1321 -18.5986 -0.4751 0.9619 0 6
6.4966 -24.5411 -0.6331 0.1050 0 2
6.6943 -21.7211 -0.5668 0.1172 0 2
6.8527 -19.4265 -0.5137 0.1293 0 2
7.8261 -2.1979 -0.2929 0.3408 0 1
7.8452 -1.8669 -0.2906 0.3438 0 1
7.8636 -1.5405 -0.2887 0.3460 0 1
3.9354 -0.6080 -0.1435 0.9670 25 14
3.9267 -0.4461 -0.1424 0.9744 25 14
3.9180 -0.2863 -0.1415 0.9802 25 14
3.8972 -0.1278 -0.1405 0.9802 25 14
3.8777 0.0286 -0.1397 0.9857 25 14
3.9026 0.1857 -0.1408 0.9783 25 14
3.9209 0.3448 -0.1418 0.9783 25 14
3.9300 0.5053 -0.1428 0.9718 25 14
4.0334 0.6843 -0.1474 0.3043 25 14
8.0471 1.7002 -0.2963 0.3378 0 1
8.0663 2.0458 -0.2998 0.3328 0 1
8.0877 2.4007 -0.3040 0.3249 0 1
8.1041 2.7643 -0.3085 0.3201 0 1
8.1197 3.1390 -0.3137 0.3148 0 1
8.1344 3.5264 -0.3194 0.3091 0 1
8.1481 3.9282 -0.3259 0.3030 0 1
8.1441 4.3377 -0.3325 0.3129 0 1
8.1120 4.7482 -0.3387 0.3066 0 1
8.0759 5.1733 -0.3456 0.3005 0 1
8.0367 5.6158 -0.3533 0.2940 0 1
7.9940 6.0779 -0.3618 0.2870 0 1
7.8941 6.5184 -0.3689 0.3164 0 1
7.7875 6.9748 -0.3767 0.3098 0 1
7.6746 7.4503 -0.3854 0.3028 0 1
7.6598 8.0581 -0.4006 0.2668 0 2
7.3643 8.3983 -0.4025 0.8679 0 2
7.1607 8.8601 -0.4105 0.2338 0 2
6.6601 8.9535 -0.4021 0.2237 22 6
7.0433 10.3086 -0.4498 0.2133 0 2
6.9726 11.1407 -0.4735 0.2027 0 2
6.8919 12.0635 -0.5006 0.1917 0 2
6.7992 13.0957 -0.5316 0.1805 0 2
6.6919 14.2620 -0.5676 0.1691 0 2
6.5666 15.5944 -0.6097 0.1574 0 2
6.4184 17.1361 -0.6593 0.1456 0 2
6.2412 18.9466 -0.7187 0.1335 0 2
6.0257 21.1101 -0.7910 0.1213 0 2
5.7586 23.7499 -0.8805 0.1090 0 2
5.4197 27.0542 -0.9941 0.0965 0 2
2.2386 14.0918 -0.5141 0.3832 0 9
2.5100 21.2864 -0.7723 0.4819 0 20
2.4113 31.1698 -1.1264 0.8117 0 20
0.6097 16.4535 -0.5932 0.2539 0 9
-31.1083 38.0018 -1.7695 0.6064 0 3
-29.2397 32.9273 -1.5866 0.7699 0 3
-31.1192 32.3301 -1.6168 0.6637 0 3
-31.1282 29.8423 -1.5537 0.4659 0 3
-31.1253 27.5280 -1.4971 0.7167 0 3
-33.9303 27.6620 -1.5773 0.6365 0 3
-30.1773 22.6475 -1.3594 0.4441 0 3
-32.8775 22.6689 -1.4389 0.5726 0 3
-35.8496 22.6497 -1.5279 0.5392 0 3
-31.1226 17.9564 -1.2946 0.8288 0 3
-36.1297 18.9538 -1.4700 0.8474 0 3
-35.2474 16.7218 -1.4056 0.2424 0 3
-41.5776 17.7162 -1.6284 0.3977 0 3
-43.6314 16.5543 -1.6814 0.2660 0 3
-34.9332 -33.3398 -1.7399 0.9786 0 20
-33.5001 -34.6474 -1.7365 0.9801 0 20
3.4434 -45.8509 -1.6567 0.0579 0 2
4.3320 -37.4621 -1.3588 0.0706 0 2
4.9474 -31.6014 -1.1525 0.0833 0 2
5.3980 -27.2640 -1.0014 0.0958 0 2
5.7418 -23.9151 -0.8862 0.1083 0 2
6.0122 -21.2439 -0.7955 0.1206 0 2
6.2302 -19.0574 -0.7224 0.1328 0 2
6.4094 -17.2297 -0.6624 0.1449 0 2
6.9034 -16.4980 -0.6444 0.9965 0 2
6.9229 -14.8409 -0.5900 0.1470 0 1
6.9578 -13.4752 -0.5464 0.1760 0 24
7.1125 -12.5148 -0.5186 0.1900 0 1
7.2071 -11.5733 -0.4912 0.2032 0 1
7.2896 -10.7209 -0.4671 0.2127 0 1
7.3613 -9.9427 -0.4457 0.2229 0 1
7.4125 -9.2139 -0.4261 0.2269 0 1
7.4554 -8.5409 -0.4085 0.2366 0 1
7.4973 -7.9228 -0.3930 0.2608 0 1
7.5588 -7.3709 -0.3804 0.2789 0 1
7.5619 -6.8035 -0.3665 0.2828 0 24
7.6014 -6.3055 -0.3558 0.2928 0 24
7.4095 -5.6598 -0.3359 0.2855 0 2
6.2681 -4.4010 -0.2760 0.7919 14 6
6.3283 -4.0740 -0.2712 0.5808 14 6
7.4767 -4.3990 -0.3126 0.3079 0 25
7.4953 -4.0137 -0.3063 0.3142 0 25
7.5118 -3.6423 -0.3008 0.3200 0 25
7.5265 -3.2830 -0.2959 0.3253 0 25
7.5395 -2.9342 -0.2915 0.3302 0 25
7.5510 -2.5946 -0.2877 0.3346 0 25
7.5616 -2.2631 -0.2844 0.3398 0 2
7.8372 -2.0065 -0.2915 0.3425 0 1
7.8292 -1.6726 -0.2885 0.3452 0 24
4.0749 -0.7007 -0.1490 0.3011 25 14
3.9303 -0.5144 -0.1428 0.9714 25 14
3.9217 -0.3538 -0.1419 0.9779 25 14
3.9080 -0.1948 -0.1410 0.9768 25 14
3.8825 -0.0374 -0.1399 0.9844 25 14
3.8920 0.1189 -0.1403 0.9816 25 14
3.9171 0.2774 -0.1415 0.9806 25 14
3.9261 0.4371 -0.1423 0.9747 25 14
3.9352 0.5989 -0.1434 0.9674 25 14
8.0391 1.5562 -0.2950 0.3393 0 1
8.0581 1.8985 -0.2983 0.3346 0 1
8.0790 2.2494 -0.3022 0.3294 0 1
8.0973 2.6091 -0.3065 0.3222 0 1
8.1132 2.9789 -0.3114 0.3171 0 1
8.1283 3.3606 -0.3169 0.3116 0 1
8.1424 3.7561 -0.3231 0.3057 0 1
8.1556 4.1673 -0.3300 0.2993 0 1
8.1265 4.5729 -0.3360 0.3091 0 1
8.0916 4.9913 -0.3425 0.3032 0 1
8.0537 5.4261 -0.3499 0.2968 0 1
8.0125 5.8796 -0.3581 0.2900 0 1
7.9376 6.3303 -0.3658 0.3190 0 1
7.8333 6.7793 -0.3733 0.3127 0 1
7.7232 7.2464 -0.3816 0.3058 0 1
7.5796 8.3528 -0.4064 0.8601 0 2
7.1828 8.5844 -0.4033 0.2385 0 2
6.8799 8.9277 -0.4061 0.7877 22 6
6.4985 9.1724 -0.4050 0.5655 22 6
7.0036 10.7782 -0.4631 0.2072 0 2
6.9274 11.6605 -0.4887 0.1964 0 2
6.8401 12.6438 -0.5180 0.1853 0 2
6.7394 13.7499 -0.5517 0.1739 0 2
6.6221 15.0074 -0.5910 0.1624 0 2
6.4843 16.4543 -0.6372 0.1506 0 2
6.3203 18.1424 -0.6922 0.1386 0 2
6.1223 20.1441 -0.7586 0.1265 0 2
5.8791 22.5637 -0.8401 0.1142 0 2
5.5737 25.5578 -0.9425 0.1018 0 2
5.1796 29.3719 -1.0746 0.0893 0 2
1.9166 14.1763 -0.5154 0.2135 0 9
2.8664 30.3332 -1.0978 0.7954 0 20
1.4497 26.7960 -0.9669 0.9976 0 20
0.2320 16.7134 -0.6022 0.1656 0 9
-31.1121 36.2598 -1.7215 0.6233 0 3
-31.1174 33.4487 -1.6460 0.6519 0 3
-31.1214 30.8688 -1.5794 0.6794 0 3
-30.1670 27.6091 -1.4734 0.8041 0 3
-32.7845 27.6693 -1.5457 0.6495 0 3
-35.5683 27.6514 -1.6232 0.6185 0 3
-31.1249 22.2510 -1.3785 0.7783 0 3
-34.5472 22.6581 -1.4886 0.5535 0 3
-31.1233 18.6695 -1.3077 0.8205 0 3
-36.1308 19.7453 -1.4835 0.8397 0 3
-35.3308 17.5037 -1.4206 0.4494 0 3
-39.9054 17.8117 -1.5745 0.2559 0 3
-43.5731 17.3857 -1.6903 0.2650 0 3
