ply
format ascii 1.0
element vertex 1411
property float32 x
property float32 y
property float32 z
property float32 CosAngle
property uint32 ObjIdx
property uint32 ObjTag
end_header
7.2513 -19.3229 2.4703 0.2021 0 9
12.4870 -29.6039 3.8457 0.9176 0 3
12.9584 -27.5746 3.6467 0.9016 0 3
14.8917 -28.6418 3.8639 0.8841 0 3
16.3791 -28.6322 3.9482 0.8652 0 3
17.9240 -28.6040 4.0403 0.4684 0 3
18.9469 -27.6993 4.0168 0.0653 0 3
19.7390 -26.5075 3.9558 0.8011 0 3
19.3936 -23.9714 3.6906 0.0858 0 2
18.2769 -20.8228 3.3162 0.0955 0 2
17.3946 -18.2820 3.0204 0.1049 0 2
16.6823 -16.1800 2.7816 0.1139 0 2
16.8690 -15.0952 2.7095 0.1420 0 1
16.5805 -13.6792 2.5728 0.1391 0 1
16.3064 -12.3874 2.4511 0.1390 0 1
6.0207 -4.2036 0.8789 0.9249 14 6
15.5309 -9.9407 2.2071 0.1408 0 1
15.1067 -8.8351 2.0947 0.1377 0 1
14.7214 -7.8342 1.9960 0.1445 0 1
8.6351 -4.1595 1.1472 0.5875 0 9
8.8525 -3.8343 1.1547 0.5550 0 9
13.6229 -5.2618 1.7480 0.1817 0 25
13.5017 -4.6011 1.7073 0.1861 0 25
13.3985 -3.9733 1.6727 0.1899 0 25
13.3118 -3.3726 1.6437 0.1933 0 25
13.2402 -2.7941 1.6197 0.1961 0 25
13.1826 -2.2334 1.6003 0.1985 0 2
13.6746 -1.7555 1.6502 0.2021 0 1
5.6708 -0.4976 0.6814 0.1745 25 14
5.5830 -0.2647 0.6690 0.1777 25 14
5.4750 -0.0395 0.6553 0.1569 25 14
5.5565 0.1830 0.6654 0.1545 25 14
5.7125 0.4182 0.6856 0.1734 25 14
14.1026 1.6038 1.6989 0.1876 0 1
14.2718 2.2065 1.7285 0.1856 0 1
14.4403 2.8302 1.7613 0.1814 0 1
14.6266 3.4818 1.7996 0.1850 0 1
14.8340 4.1669 1.8442 0.1795 0 1
14.8969 4.8376 1.8747 0.1897 0 1
14.9647 5.5330 1.9097 0.1862 0 1
13.9658 5.8111 1.8105 0.4818 0 14
12.3883 5.7485 1.6346 0.3864 0 14
11.0800 5.6927 1.4910 0.5038 0 14
10.1432 5.7373 1.3948 0.5857 0 14
9.8177 6.0858 1.3826 0.6224 0 14
9.7489 6.5992 1.4091 0.8068 0 14
9.8687 7.2746 1.4675 0.0871 0 14
15.4548 12.3797 2.3701 0.1336 0 2
15.9121 13.8304 2.5234 0.1255 0 2
15.4758 14.5821 2.5451 0.6760 0 3
14.3869 14.6902 2.4611 0.6995 0 0
13.2606 14.6748 2.3673 0.7272 0 0
12.2154 14.6606 2.2840 0.6455 0 3
11.2792 14.6989 2.2176 0.7836 0 3
10.3648 14.6929 2.1522 0.8074 0 3
6.0458 9.3454 1.3322 0.5547 0 8
8.6826 14.6820 2.0416 0.8512 0 3
7.9022 14.6769 1.9952 0.8710 0 3
7.6066 15.5971 2.0770 0.4564 0 3
7.5390 17.1763 2.2452 0.4222 0 3
7.4582 19.0340 2.4469 0.3874 0 3
7.5539 21.8188 2.7636 0.4941 0 3
7.2752 24.1031 3.0135 0.9484 0 3
3.4715 13.4277 1.6600 0.8147 0 9
2.5835 14.8116 1.7996 0.7954 0 9
2.0761 22.4090 2.6937 0.2863 0 9
0.9088 17.3847 2.0837 0.1339 0 9
0.2719 22.5135 2.6949 0.9695 0 6
-0.4035 14.3671 1.7203 0.1694 0 9
-1.0681 15.6309 1.8753 0.3305 0 9
2.5258 -18.0776 2.1848 0.5032 0 22
4.4609 -24.6581 2.9993 0.9928 0 6
4.3590 -19.5731 2.4001 0.5297 0 22
7.7275 -29.1329 3.6076 0.9510 0 3
9.1622 -29.6787 3.7177 0.9508 0 3
10.4534 -29.5904 3.7563 0.9386 0 3
11.8156 -29.6051 3.8153 0.9248 0 3
12.6909 -28.4269 3.7262 0.4154 0 3
13.9576 -28.1688 3.7628 0.6433 0 3
15.6516 -28.6369 3.9062 0.8745 0 3
17.1733 -28.6270 3.9957 0.8549 0 3
19.4052 -29.5866 4.2350 0.8340 0 3
19.3122 -27.0141 3.9747 0.3410 0 3
13.4204 1.7909 1.4686 0.1969 0 1
13.5684 2.3684 1.4940 0.1949 0 1
13.7200 2.9669 1.5226 0.1904 0 1
13.8928 3.5936 1.5565 0.1862 0 1
14.0748 4.2503 1.5947 0.1942 0 1
14.1273 4.8930 1.6217 0.1964 0 1
14.1851 5.5603 1.6526 0.1927 0 1
13.2565 5.8205 1.5704 0.2286 0 14
11.7343 5.7245 1.4162 0.3808 0 14
10.5526 5.6834 1.3001 0.5295 0 14
9.9666 5.8957 1.2560 0.9437 0 14
9.8242 6.3572 1.2692 0.8876 0 14
9.8172 6.9272 1.3032 0.7249 0 14
14.1605 10.8689 1.9362 0.1484 0 2
14.4863 12.0732 2.0454 0.1405 0 2
10.1469 9.1713 1.4835 0.9485 0 20
14.8811 14.5777 2.2595 0.6909 0 3
13.8302 14.6815 2.1878 0.7140 0 0
12.6327 14.5379 2.0890 0.7460 0 3
11.7735 14.7017 2.0430 0.7718 0 3
10.8053 14.6624 1.9756 0.5989 0 3
6.0990 9.0125 1.1804 0.5681 0 8
9.1000 14.6843 1.8738 0.8415 0 3
8.3004 14.6791 1.8291 0.8620 0 3
7.6948 14.9816 1.8268 0.4709 0 3
7.6368 16.4632 1.9685 0.4370 0 3
7.5679 18.1944 2.1374 0.4025 0 3
7.3411 19.8626 2.2969 0.2096 0 3
7.8249 24.1061 2.7490 0.9434 0 3
7.2600 25.8576 2.9131 0.2955 0 3
2.9985 15.3090 1.6921 0.3528 0 9
1.6075 14.1510 1.5448 0.1628 0 9
0.7752 23.6205 2.5634 0.4316 0 9
-0.1195 16.2717 1.7650 0.8754 0 9
-0.7959 16.7430 1.8181 0.4035 0 9
-2.2117 25.1682 2.7404 0.5897 0 9
-2.1772 16.9429 1.8528 0.1590 0 9
1.4691 -38.8598 4.2180 0.9995 0 22
2.9331 -18.3800 2.0188 0.5894 0 22
6.5571 -32.6154 3.6085 0.3361 0 3
7.8273 -32.1873 3.5930 0.9677 0 3
7.9000 -27.6080 3.1147 0.9578 0 3
9.7700 -29.5956 3.3805 0.9463 0 3
11.1118 -29.6104 3.4304 0.9332 0 3
12.4974 -29.6285 3.4879 0.9187 0 3
12.9587 -27.5753 3.3048 0.9027 0 3
14.8921 -28.6426 3.5016 0.8852 0 3
16.3795 -28.6329 3.5780 0.8663 0 3
17.8294 -28.4530 3.6421 0.0656 0 3
18.4993 -27.0450 3.5541 0.8252 0 3
18.2966 -24.5705 3.3228 0.0865 0 2
17.2674 -21.3433 2.9778 0.0965 0 2
16.4561 -18.7484 2.7058 0.1062 0 2
15.8021 -16.6083 2.4866 0.1156 0 2
16.1359 -15.6500 2.4382 0.1364 0 2
15.6469 -14.0016 2.2775 0.1461 0 1
15.3913 -12.6981 2.1643 0.1428 0 1
15.0861 -11.4604 2.0549 0.1339 0 1
6.0375 -4.2153 0.7987 0.9872 14 6
14.3901 -9.2104 1.8532 0.1450 0 1
14.0403 -8.2113 1.7642 0.1523 0 1
13.7734 -7.3297 1.6923 0.1694 0 1
8.6789 -4.1806 1.0449 0.7297 0 9
8.8601 -3.8376 1.0473 0.8375 0 9
12.8742 -4.9726 1.4970 0.1925 0 25
12.7760 -4.3538 1.4640 0.1969 0 25
12.6922 -3.7638 1.4359 0.2007 0 25
12.6216 -3.1978 1.4123 0.2041 0 25
12.5632 -2.6513 1.3927 0.2070 0 25
12.8692 -2.1803 1.4158 0.2104 0 2
12.9422 -1.6615 1.4153 0.2121 0 24
5.3454 -0.4691 0.5820 0.1854 25 14
5.2326 -0.2481 0.5682 0.1642 25 14
5.1462 -0.0372 0.5582 0.2413 25 14
5.1992 0.1713 0.5642 0.1654 25 14
5.3757 0.3936 0.5846 0.1596 25 14
5.5260 0.6284 0.6033 0.1789 25 14
13.5008 2.0873 1.4818 0.1951 0 1
13.6442 2.6742 1.5081 0.1930 0 1
13.8068 3.2866 1.5394 0.1883 0 1
13.9901 3.9299 1.5762 0.1839 0 1
14.1044 4.5803 1.6085 0.1980 0 1
14.1554 5.2338 1.6370 0.1945 0 1
13.9667 5.8115 1.6408 0.4913 0 14
12.3954 5.7518 1.4822 0.4395 0 14
11.0853 5.6953 1.3518 0.5110 0 14
10.1322 5.7310 1.2626 0.6654 0 14
9.8709 6.1188 1.2597 0.9305 0 14
9.8016 6.6348 1.2838 0.8024 0 14
9.9562 7.3391 1.3416 0.3658 0 14
14.3222 11.4725 1.9904 0.1444 0 2
14.6764 12.7564 2.1092 0.1363 0 2
15.0957 14.2239 2.2497 0.1278 0 2
14.2729 14.5737 2.2126 0.7056 0 3
13.2596 14.6737 2.1452 0.7282 0 0
12.2522 14.7048 2.0761 0.7595 0 3
11.2789 14.6985 2.0096 0.7846 0 3
10.3645 14.6925 1.9503 0.8085 0 3
6.0846 9.4055 1.2150 0.5519 0 8
8.6824 14.6815 1.8501 0.8523 0 3
7.9020 14.6765 1.8080 0.8721 0 3
7.6661 15.7191 1.8970 0.4535 0 3
7.6028 17.3216 2.0518 0.4192 0 3
7.4861 19.1052 2.2257 0.9231 0 3
8.3469 24.1095 2.7674 0.9371 0 3
7.2750 24.1025 2.7308 0.9497 0 3
3.6004 13.9264 1.5602 0.0374 0 9
2.3993 13.7560 1.5146 0.5249 0 9
2.1581 16.1879 1.7714 0.7277 0 9
1.3141 14.1840 1.5451 0.1999 0 9
0.7167 13.7097 1.4891 0.6622 0 9
0.1986 16.4475 1.7841 0.5418 0 9
-0.4286 15.2613 1.6560 0.8797 0 9
2.5190 -18.0286 1.9745 0.7434 0 22
4.4714 -24.7160 2.7244 0.6141 0 6
8.6055 -38.6413 4.2940 0.0335 0 3
7.8257 -29.5032 3.3108 0.2695 0 3
9.1625 -29.6795 3.3691 0.9520 0 3
10.4710 -29.6404 3.4097 0.9397 0 3
11.8159 -29.6059 3.4576 0.9259 0 3
12.8001 -28.6714 3.4057 0.4124 0 3
13.8026 -27.8559 3.3720 0.6307 0 3
10.0580 -18.4025 2.2747 0.7042 0 9
17.1124 -28.5254 3.6081 0.8560 0 3
18.0650 -27.5432 3.5728 0.8348 0 3
18.8993 -26.4365 3.5249 0.0815 0 2
12.7362 1.6996 1.2498 0.2077 0 1
12.8696 2.2464 1.2707 0.2057 0 1
13.0001 2.8112 1.2937 0.2020 0 1
13.1457 3.4003 1.3207 0.1970 0 1
13.3109 4.0196 1.3525 0.1924 0 1
13.3930 4.6387 1.3786 0.2017 0 1
13.4471 5.2710 1.4049 0.2035 0 1
13.5004 5.9276 1.4342 0.1993 0 1
11.7553 5.7348 1.2722 0.4444 0 14
10.5398 5.6765 1.1644 0.5565 0 14
9.9880 5.9084 1.1288 0.8797 0 14
9.8583 6.3793 1.1421 0.8817 0 14
9.8498 6.9502 1.1726 0.7612 0 14
13.2204 10.1473 1.6210 0.1592 0 2
13.4740 11.2296 1.7061 0.1512 0 2
13.7705 12.4466 1.8055 0.1429 0 2
14.1198 13.8319 1.9226 0.1342 0 2
13.7247 14.5696 1.9469 0.7199 0 3
12.6323 14.5374 1.8733 0.7469 0 3
11.7731 14.7012 1.8320 0.7727 0 3
10.8294 14.6951 1.7756 0.7972 0 3
6.1373 9.0690 1.0651 0.5652 0 8
9.0997 14.6838 1.6803 0.8424 0 3
8.3002 14.6787 1.6402 0.8630 0 3
7.7531 15.0951 1.6506 0.4679 0 3
7.6992 16.5976 1.7796 0.4339 0 3
7.6350 18.3558 1.9337 0.3994 0 3
8.3088 22.4808 2.3312 0.9159 0 3
7.8260 24.1095 2.4655 0.9445 0 3
7.3480 26.1710 2.6440 0.2923 0 3
2.6102 22.9782 2.2494 0.9370 0 9
1.1902 16.2847 1.5882 0.3620 0 9
0.4467 13.6112 1.3246 0.3516 0 9
-0.1871 25.4666 2.4771 0.5346 0 9
-0.8020 16.8720 1.6430 0.2419 0 9
-2.1822 24.8331 2.4248 0.1779 0 9
-35.7317 -34.3294 4.8197 0.9158 0 20
-0.0920 -38.8978 3.7835 0.9910 0 22
1.4708 -38.9025 3.7867 0.9843 0 22
5.6941 -35.6817 3.5146 0.1729 0 3
8.5150 -42.3542 4.2021 0.9741 0 3
7.8699 -32.3625 3.2396 0.2472 0 3
7.9785 -27.8821 2.8209 0.2839 0 3
9.7703 -29.5963 3.0316 0.9473 0 3
11.1333 -29.6675 3.0822 0.9343 0 3
12.5101 -29.6586 3.1310 0.9197 0 3
12.9591 -27.5761 2.9637 0.9037 0 3
14.8925 -28.6434 3.1402 0.8862 0 3
16.3466 -28.5754 3.2021 0.8673 0 3
16.9411 -27.0354 3.1033 0.8207 0 3
17.2497 -25.2181 2.9718 0.0868 0 2
16.3065 -21.8980 2.6556 0.0972 0 2
15.5650 -19.2391 2.4071 0.1072 0 2
14.9685 -17.0535 2.2071 0.1169 0 2
15.2694 -16.0484 2.1547 0.1386 0 2
14.7833 -14.3382 2.0032 0.1456 0 1
14.5415 -13.0124 1.8980 0.1510 0 1
14.3165 -11.8114 1.8053 0.1389 0 1
13.9987 -10.6344 1.7100 0.1467 0 1
6.0556 -4.2279 0.7184 0.9853 14 6
13.4116 -8.5842 1.5488 0.1557 0 1
13.1284 -7.6781 1.4793 0.1631 0 1
12.9637 -6.8989 1.4284 0.1802 0 1
8.7162 -4.1986 0.9410 0.5040 0 9
8.8866 -3.8491 0.9420 0.7761 0 9
12.2051 -4.7141 1.2726 0.2033 0 25
12.1258 -4.1323 1.2461 0.2077 0 25
12.0581 -3.5758 1.2233 0.2115 0 25
12.0009 -3.0405 1.2042 0.2149 0 25
11.9535 -2.5226 1.1883 0.2178 0 25
12.3860 -2.0985 1.2219 0.2208 0 1
12.3798 -1.5893 1.2140 0.2222 0 1
5.0800 -0.4458 0.4960 0.2438 25 14
5.0040 -0.2372 0.4873 0.2482 25 14
4.9281 -0.0356 0.4794 0.2448 25 14
4.9799 0.1641 0.4846 0.2421 25 14
5.0933 0.3729 0.4967 0.2435 25 14
5.2143 0.5930 0.5105 0.2369 25 14
12.8066 1.9800 1.2605 0.2060 0 1
12.9352 2.5352 1.2821 0.2039 0 1
13.0733 3.1120 1.3071 0.2000 0 1
13.2287 3.7160 1.3365 0.1947 0 1
13.3693 4.3416 1.3673 0.2033 0 1
13.4213 4.9624 1.3918 0.1998 0 1
13.4731 5.6061 1.4194 0.2014 0 1
12.4744 5.7884 1.3376 0.2622 0 14
11.1100 5.7081 1.2149 0.4092 0 14
10.1400 5.7354 1.1331 0.6512 0 14
9.9022 6.1382 1.1332 0.9498 0 14
9.8367 6.6586 1.1554 0.8009 0 14
9.9412 7.3280 1.2013 0.4857 0 14
13.3465 10.6909 1.6633 0.1551 0 2
13.6212 11.8392 1.7554 0.1470 0 2
13.9435 13.1383 1.8635 0.1385 0 2
14.2724 14.5732 1.9841 0.7064 0 3
13.1417 14.5432 1.9066 0.7340 0 3
12.2518 14.7043 1.8617 0.7604 0 3
11.2785 14.6980 1.8020 0.7855 0 3
10.3642 14.6921 1.7489 0.8094 0 3
6.1239 9.4662 1.0966 0.5490 0 8
8.6821 14.6811 1.6590 0.8532 0 3
7.9018 14.6761 1.6213 0.8731 0 3
7.7264 15.8428 1.7145 0.4504 0 3
7.6675 17.4691 1.8556 0.4162 0 3
7.4859 19.1047 1.9958 0.9242 0 3
8.3467 24.1089 2.4816 0.9382 0 3
7.2749 24.1019 2.4488 0.9508 0 3
7.2729 28.1320 2.8263 0.2735 0 3
1.4225 15.3542 1.4999 0.4879 0 9
0.7397 14.1510 1.3783 0.3266 0 9
0.2841 23.5211 2.2880 0.3584 0 9
-0.4464 15.8945 1.5466 0.3079 0 9
-1.7251 25.2447 2.4612 0.2325 0 9
-1.8491 16.9938 1.6627 0.5333 0 9
-0.8471 -38.8739 3.7821 0.4263 0 22
0.7138 -38.8652 3.7810 0.9685 0 6
2.5091 -17.9581 1.7637 0.6259 0 22
3.3682 -18.6181 1.8403 0.6829 0 6
9.4323 -42.3536 4.2206 0.9730 0 3
7.9299 -29.8958 3.0085 0.2662 0 3
9.1453 -29.6238 3.0156 0.9531 0 3
10.4821 -29.6717 3.0609 0.9408 0 3
11.8162 -29.6066 3.1007 0.9269 0 3
12.9142 -28.9271 3.0813 0.4093 0 3
13.7728 -27.7958 3.0173 0.6326 0 3
10.0655 -18.4164 2.0414 0.9252 0 9
16.5210 -27.5395 3.1237 0.8230 0 3
11.2767 -17.1933 2.0000 0.7801 0 20
16.7329 -23.4062 2.7986 0.0922 0 2
12.1369 1.6196 1.0542 0.2198 0 1
12.2404 2.1366 1.0697 0.2151 0 1
12.3538 2.6714 1.0882 0.2128 0 1
12.4790 3.2279 1.1097 0.2087 0 1
12.6177 3.8102 1.1347 0.2041 0 1
12.7254 4.4074 1.1594 0.2125 0 1
12.7680 5.0048 1.1807 0.2086 0 1
12.8205 5.6291 1.2055 0.2043 0 1
11.8194 5.7661 1.1322 0.2723 0 14
10.5663 5.6908 1.0332 0.5587 0 14
9.9579 5.8906 0.9961 0.9605 0 14
9.8104 6.3483 1.0060 0.6721 0 14
9.7974 6.9132 1.0323 0.6775 0 14
12.3989 9.5168 1.3456 0.1699 0 2
12.5958 10.4976 1.4116 0.1619 0 2
12.8242 11.5913 1.4882 0.1536 0 2
13.0912 12.8242 1.5777 0.1449 0 2
13.4058 14.2310 1.6832 0.1358 0 2
12.6319 14.5369 1.6580 0.7477 0 3
11.7727 14.7008 1.6215 0.7735 0 3
10.8224 14.6856 1.5706 0.7981 0 3
6.1759 9.1261 0.9487 0.5622 0 8
9.0995 14.6834 1.4872 0.8433 0 3
8.2999 14.6782 1.4517 0.8639 0 3
7.8121 15.2100 1.4721 0.4648 0 3
7.7624 16.7339 1.5881 0.4308 0 3
7.7032 18.5198 1.7268 0.3962 0 3
8.3314 22.5419 2.0690 0.9144 0 3
7.8245 24.1049 2.1819 0.9455 0 3
7.3953 26.3396 2.3553 0.2891 0 3
1.8200 16.0219 1.3882 0.6440 0 9
0.4936 15.0414 1.2957 0.2102 0 9
-0.1217 16.5652 1.4262 0.1161 0 9
-2.1926 24.9514 2.1564 0.3541 0 9
-35.6665 -34.2668 4.2582 0.9274 0 20
-0.0920 -38.8934 3.3485 0.9934 0 22
1.4705 -38.8965 3.3511 0.9712 0 22
6.7996 -42.6092 3.7148 0.9851 0 3
8.7834 -43.6896 3.8366 0.2069 0 3
9.0287 -37.1277 3.2896 0.2440 0 3
8.0790 -28.2336 2.5283 0.2807 0 3
9.7969 -29.6769 2.6906 0.9483 0 3
11.1336 -29.6683 2.7282 0.9352 0 3
12.5104 -29.6594 2.7713 0.9206 0 3
13.0532 -27.7764 2.6423 0.4230 0 3
14.6419 -28.1613 2.7326 0.5964 0 3
15.4667 -27.0372 2.6817 0.8683 0 3
16.2385 -25.9142 2.6329 0.0868 0 2
15.3815 -22.4868 2.3455 0.0975 0 2
14.7099 -19.7540 2.1204 0.1078 0 2
14.1709 -17.5159 1.9397 0.1179 0 2
14.1462 -16.1167 1.8462 0.7655 0 2
14.0074 -14.7221 1.7495 0.1476 0 1
13.7667 -13.3522 1.6511 0.1538 0 1
13.5683 -12.1416 1.5675 0.1529 0 1
13.3025 -10.9748 1.4847 0.1509 0 1
13.0618 -9.9226 1.4122 0.1586 0 1
6.0752 -4.2416 0.6379 0.8950 14 6
12.5558 -8.0364 1.2834 0.1654 0 1
12.3748 -7.2373 1.2342 0.1848 0 1
12.2449 -6.5163 1.1942 0.1872 0 1
8.7520 -4.2158 0.8363 0.7802 0 9
8.9095 -3.8590 0.8359 0.7792 0 9
11.6033 -4.4817 1.0709 0.2141 0 25
11.5398 -3.9326 1.0496 0.2184 0 25
11.4855 -3.4060 1.0314 0.2223 0 25
11.4395 -2.8983 1.0160 0.2257 0 25
11.4014 -2.4061 1.0032 0.2285 0 25
11.8170 -2.0021 1.0319 0.2293 0 1
11.8154 -1.5168 1.0256 0.2313 0 1
4.8722 -0.4275 0.4211 0.2545 25 14
4.8004 -0.2276 0.4137 0.2513 25 14
4.7270 -0.0341 0.4070 0.2555 25 14
4.7758 0.1573 0.4114 0.2527 25 14
4.8859 0.3577 0.4218 0.2540 25 14
4.9964 0.5682 0.4329 0.2475 25 14
12.1892 1.8845 1.0619 0.2182 0 1
12.2976 2.4103 1.0789 0.2146 0 1
12.4169 2.9557 1.0989 0.2107 0 1
12.5489 3.5250 1.1222 0.2064 0 1
12.6963 4.1230 1.1493 0.2006 0 1
12.7462 4.7128 1.1700 0.2105 0 1
12.7938 5.3234 1.1930 0.2065 0 1
12.8441 5.9600 1.2190 0.2078 0 1
11.1691 5.7384 1.0811 0.5644 0 14
10.1567 5.7449 1.0046 0.7634 0 14
9.8548 6.1088 0.9982 0.8105 0 14
9.7859 6.6242 1.0174 0.7215 0 14
9.9084 7.3038 1.0598 0.3287 0 14
12.4970 10.0104 1.3785 0.1658 0 2
12.7094 11.0467 1.4497 0.1577 0 2
12.9567 12.2085 1.5327 0.1492 0 2
13.2470 13.5262 1.6300 0.1403 0 2
13.1413 14.5427 1.6875 0.7348 0 3
12.2514 14.7039 1.6477 0.7612 0 3
11.2782 14.6976 1.5950 0.7863 0 3
10.3639 14.6916 1.5479 0.8103 0 3
8.9451 13.8271 1.4178 0.8365 0 21
8.6819 14.6807 1.4684 0.8541 0 3
7.9016 14.6757 1.4350 0.8740 0 3
7.7875 15.9681 1.5295 0.4474 0 3
7.7332 17.6188 1.6565 0.4131 0 3
7.5175 19.1854 1.7740 0.3781 0 3
8.3465 24.1082 2.1964 0.9392 0 3
7.3424 24.3255 2.1876 0.3066 0 3
7.3682 28.5004 2.5344 0.2702 0 3
7.8273 36.2191 3.1902 0.8751 0 6
3.1721 23.7944 2.0667 0.7062 0 9
1.4541 15.6951 1.3570 0.7717 0 9
1.2124 23.1926 1.9995 0.0095 0 9
0.1730 14.3274 1.2336 0.1860 0 9
-0.7007 24.9523 2.1491 0.9919 0 9
-1.7227 25.2093 2.1754 0.8219 0 9
-36.5614 -33.7858 4.2859 0.9124 0 20
2.2788 -38.8972 3.3545 0.9970 0 22
3.3685 -18.6199 1.6291 0.7106 0 6
9.4324 -42.3540 3.7357 0.9740 0 3
8.0366 -30.2982 2.6987 0.2630 0 3
9.1455 -29.6246 2.6692 0.9540 0 3
10.4824 -29.6725 2.7093 0.9417 0 3
11.8390 -29.6637 2.7497 0.9279 0 3
13.0267 -29.1791 2.7511 0.4062 0 3
13.7718 -27.7937 2.6705 0.6610 0 3
10.0843 -18.4508 1.8103 0.9767 0 9
9.9375 -16.5653 1.6631 0.7538 0 20
11.3050 -17.2364 1.7746 0.5355 0 20
15.0155 -21.0039 2.2228 0.1028 0 2
11.5805 1.5453 0.8755 0.2305 0 1
11.6715 2.0373 0.8879 0.2273 0 1
11.7664 2.5444 0.9022 0.2242 0 1
11.8753 3.0717 0.9192 0.2181 0 1
11.9950 3.6222 0.9390 0.2135 0 1
12.1223 4.1986 0.9614 0.2216 0 1
12.1535 4.7639 0.9783 0.2216 0 1
12.1907 5.3526 0.9977 0.2173 0 1
12.2361 5.9693 1.0203 0.2125 0 1
10.6261 5.7230 0.9045 0.9031 0 14
9.9994 5.9151 0.8706 0.9481 0 14
9.8699 6.3868 0.8810 0.8845 0 14
9.8466 6.9479 0.9031 0.7027 0 14
11.6749 8.9611 1.1029 0.1806 0 2
11.8264 9.8564 1.1537 0.1726 0 2
12.0011 10.8473 1.2123 0.1643 0 2
12.2038 11.9549 1.2802 0.1556 0 2
12.4407 13.2065 1.3597 0.1465 0 2
12.6315 14.5365 1.4432 0.7484 0 3
11.7724 14.7003 1.4114 0.7742 0 3
10.8288 14.6942 1.3679 0.7988 0 3
6.2213 9.1931 0.8319 0.7089 22 6
8.5703 13.8296 1.2193 0.8485 0 21
8.2997 14.6778 1.2636 0.8647 0 3
7.8719 15.3265 1.2912 0.4617 0 3
7.8235 16.8656 1.3933 0.4277 0 3
7.7725 18.6863 1.5167 0.3931 0 3
8.3540 22.6032 1.8059 0.9127 0 3
7.8243 24.1043 1.8991 0.9463 0 3
7.5299 26.8191 2.0875 0.2858 0 3
3.4879 14.6607 1.1293 0.1064 0 9
1.8080 15.9161 1.2004 0.5428 0 9
0.4841 14.7500 1.1060 0.2640 0 9
-1.3791 15.6933 1.1806 0.2272 0 9
-30.6258 17.5144 2.6439 0.7936 0 3
-35.4085 -34.0189 3.6797 0.8762 0 20
-0.0920 -38.8913 2.9145 0.9964 0 22
1.4697 -38.8751 2.9154 0.9910 0 22
4.5929 -38.7113 2.9214 0.9994 0 6
9.0353 -44.9424 3.4354 0.2035 0 3
9.1068 -37.4488 2.8882 0.2404 0 3
8.1820 -28.5934 2.2288 0.2774 0 3
9.7971 -29.6776 2.3421 0.9491 0 3
11.1228 -29.6397 2.3724 0.9360 0 3
12.5107 -29.6601 2.4124 0.9214 0 3
13.1631 -28.0103 2.3193 0.4198 0 3
14.3338 -27.5688 2.3286 0.8891 0 3
15.1961 -26.5642 2.2934 0.8673 0 3
14.4814 -23.1101 2.0438 0.0975 0 2
13.8810 -20.2932 1.8425 0.1081 0 2
13.4004 -17.9954 1.6814 0.1185 0 2
13.0582 -16.1405 1.5558 0.7914 0 2
13.2640 -15.1116 1.5068 0.1493 0 1
13.0296 -13.6943 1.4165 0.1562 0 1
12.8517 -12.4648 1.3417 0.1556 0 1
12.6451 -11.3154 1.2716 0.1534 0 1
12.4308 -10.2556 1.2077 0.1616 0 1
12.2118 -9.2769 1.1493 0.1600 0 1
6.0988 -4.2581 0.5574 0.8923 14 6
11.8124 -7.5606 1.0510 0.1854 0 1
11.6942 -6.8393 1.0152 0.1919 0 1
11.5555 -6.1494 0.9809 0.2023 0 24
8.8272 -4.2520 0.7342 0.4743 0 9
8.9104 -3.8594 0.7277 0.7068 0 9
11.0591 -4.2715 0.8884 0.2248 0 25
11.0088 -3.7516 0.8716 0.2292 0 25
10.9657 -3.2519 0.8571 0.2330 0 25
10.9292 -2.7690 0.8449 0.2364 0 25
10.8989 -2.3000 0.8348 0.2393 0 2
6.0458 -1.0243 0.4595 0.9648 25 14
7.1151 -0.9134 0.5376 0.2694 25 14
4.6811 -0.4108 0.3521 0.2651 25 14
4.6095 -0.2185 0.3458 0.2619 25 14
4.5420 -0.0328 0.3404 0.2661 25 14
4.5881 0.1511 0.3440 0.2633 25 14
4.6918 0.3435 0.3525 0.2570 25 14
4.7963 0.5455 0.3618 0.2580 25 14
6.2009 0.9587 0.4702 0.2378 25 14
11.7197 2.2970 0.8950 0.2260 0 1
11.8213 2.8140 0.9106 0.2201 0 1
11.9357 3.3528 0.9291 0.2158 0 1
12.0614 3.9169 0.9503 0.2109 0 1
12.1383 4.4880 0.9698 0.2235 0 1
12.1718 5.0646 0.9880 0.2194 0 1
12.2131 5.6672 1.0090 0.2149 0 1
11.1975 5.7530 0.9434 0.4707 0 14
10.1813 5.7588 0.8766 0.8346 0 14
9.9008 6.1373 0.8729 0.9054 0 14
9.8520 6.6690 0.8916 0.8322 0 14
9.9964 7.3687 0.9307 0.3452 0 14
11.7504 9.4125 1.1283 0.1765 0 2
11.9134 10.3549 1.1829 0.1684 0 2
12.1019 11.4031 1.2461 0.1598 0 2
12.3214 12.5811 1.3197 0.1509 0 2
12.5790 13.9205 1.4060 0.1417 0 2
12.2510 14.7034 1.4342 0.7619 0 3
11.2778 14.6971 1.3883 0.7871 0 3
10.3636 14.6912 1.3473 0.8110 0 3
8.9372 13.8149 1.2330 0.8390 0 21
8.6816 14.6803 1.2781 0.8549 0 3
7.9014 14.6753 1.2490 0.8748 0 3
7.8495 16.0952 1.3420 0.4442 0 3
7.7999 17.7707 1.4544 0.4099 0 3
7.5884 19.3663 1.5587 0.3749 0 3
8.3463 24.1076 1.9118 0.9401 0 3
7.4255 24.6011 1.9257 0.3034 0 3
7.4658 28.8779 2.2353 0.2669 0 3
2.7061 15.5144 1.1802 0.4224 0 9
2.4191 26.1116 1.9652 0.5746 0 9
1.2862 24.6049 1.8464 0.9681 0 9
-0.4619 16.4478 1.2331 0.3318 0 9
-1.7894 26.1850 1.9669 0.2707 0 9
-30.6421 18.3225 2.6755 0.7843 0 3
-30.6301 16.6840 2.6138 0.3492 0 3
-36.4945 -33.7240 3.7238 0.9239 0 20
2.2783 -38.8892 2.9193 0.9625 0 22
9.4325 -42.3548 3.2518 0.9747 0 3
8.1460 -30.7106 2.3810 0.2597 0 3
9.1458 -29.6253 2.3235 0.9548 0 3
10.0814 -28.5375 2.2681 0.2105 0 3
11.8393 -29.6645 2.3936 0.9287 0 3
13.1409 -29.4350 2.4157 0.4031 0 3
13.7301 -27.7096 2.3175 0.6127 0 3
10.1049 -18.4883 1.5789 0.9963 0 9
9.9404 -16.5702 1.4481 0.9278 0 20
14.1539 -21.5801 1.9340 0.1030 0 2
13.6202 -19.0521 1.7551 0.1135 0 2
4.6593 0.6217 0.2999 0.2652 25 14
6.0529 1.0565 0.3920 0.9636 25 14
11.2374 2.4300 0.7336 0.2349 0 1
11.3271 2.9299 0.7465 0.2308 0 1
11.4297 3.4515 0.7618 0.2242 0 1
11.5422 3.9976 0.7794 0.2192 0 1
11.5981 4.5462 0.7948 0.2284 0 1
11.6260 5.1046 0.8101 0.2280 0 1
11.6570 5.6868 0.8276 0.2232 0 1
10.6652 5.7440 0.7729 0.7052 0 14
10.0391 5.9386 0.7442 0.8809 0 14
9.8936 6.4021 0.7519 0.7691 0 14
9.9125 6.9944 0.7741 0.4980 0 14
11.0317 8.4674 0.8873 0.1913 0 2
11.1466 9.2899 0.9258 0.1833 0 2
11.2784 10.1941 0.9700 0.1750 0 2
11.4303 11.1972 1.0209 0.1662 0 2
11.6066 12.3210 1.0800 0.1571 0 2
11.8126 13.5940 1.1491 0.1477 0 2
11.7319 14.6498 1.1975 0.7748 0 3
10.8284 14.6938 1.1646 0.7995 0 3
9.9399 14.6880 1.1316 0.8228 0 3
8.5426 13.7849 1.0347 0.8509 0 21
8.2995 14.6774 1.0758 0.8654 0 3
7.9326 15.4445 1.1078 0.4585 0 3
7.8917 17.0127 1.1966 0.4245 0 3
7.8429 18.8556 1.3030 0.3898 0 3
8.3768 22.6648 1.5417 0.9109 0 3
7.8241 24.1037 1.6169 0.9471 0 3
7.6241 27.1544 1.7996 0.2825 0 3
2.7217 23.9598 1.5386 0.3921 0 9
0.5189 15.8124 1.0095 0.9428 0 9
-0.6970 14.6638 0.9367 0.4679 0 9
-30.7309 26.9667 2.6087 0.6865 0 3
-31.0362 25.1029 2.5469 0.3070 0 3
-31.0486 23.1145 2.4697 0.3148 0 3
-31.2835 21.3927 2.4181 0.7570 0 3
-31.4290 19.6887 2.3663 0.7780 0 3
-31.6956 18.1262 2.3297 0.3357 0 3
-31.6699 16.4610 2.2773 0.4658 0 3
-35.1065 -33.7287 3.1062 0.7965 0 20
-0.0920 -38.9075 2.4825 0.9998 0 22
5.0659 -42.6987 2.7435 0.9924 0 3
4.9572 -24.6574 1.6047 0.8274 0 6
8.9839 -36.9434 2.4259 0.8675 0 3
8.2874 -28.9619 1.9221 0.2741 0 3
9.7974 -29.6784 1.9941 0.9498 0 3
11.1042 -29.5900 2.0165 0.8509 0 3
12.4886 -29.6078 2.0503 0.9221 0 3
12.9516 -27.5602 1.9430 0.8792 0 3
13.8075 -26.5565 1.9098 0.8527 0 3
13.5964 -23.7677 1.7471 0.0971 0 2
13.0695 -20.8569 1.5705 0.1081 0 2
12.6491 -18.4922 1.4295 0.1187 0 2
12.3067 -16.5266 1.3147 0.1291 0 2
12.7069 -15.7063 1.2890 0.1524 0 2
12.3297 -14.0471 1.1926 0.1517 0 1
12.1728 -12.7938 1.1268 0.1621 0 1
12.0173 -11.6555 1.0682 0.1556 0 1
11.8298 -10.5859 1.0129 0.1640 0 1
11.6531 -9.6140 0.9639 0.1626 0 1
11.4549 -8.7019 0.9179 0.1707 0 1
6.1227 -4.2748 0.4765 0.6645 14 6
11.1753 -7.1528 0.8466 0.1961 0 1
11.0908 -6.4864 0.8198 0.2068 0 1
11.0230 -5.8661 0.7967 0.2133 0 1
8.8540 -4.2649 0.6270 0.4081 0 9
8.9257 -3.8660 0.6206 0.7166 0 9
10.5644 -4.0804 0.7226 0.2355 0 25
10.5253 -3.5868 0.7095 0.2399 0 25
10.4917 -3.1113 0.6982 0.2438 0 25
10.4633 -2.6509 0.6887 0.2471 0 25
10.4969 -2.2152 0.6845 0.2570 0 2
6.0676 -1.0280 0.3927 0.9621 25 14
4.5668 -0.5863 0.2938 0.2707 25 14
4.4995 -0.3948 0.2882 0.2678 25 14
4.4335 -0.2102 0.2832 0.2725 25 14
4.3643 -0.0315 0.2785 0.3182 25 14
4.4140 0.1454 0.2818 0.1999 25 14
4.5105 0.3302 0.2886 0.2675 25 14
4.6120 0.5245 0.2962 0.2686 25 14
6.0887 0.9413 0.3931 0.9610 25 14
11.1967 2.1945 0.7280 0.2367 0 1
11.2827 2.6858 0.7400 0.2328 0 1
11.3788 3.1964 0.7541 0.2265 0 1
11.4865 3.7301 0.7706 0.2217 0 1
11.5842 4.2831 0.7880 0.2304 0 1
11.6132 4.8322 0.8026 0.2302 0 1
11.6412 5.4018 0.8188 0.2256 0 1
11.1859 5.7470 0.8024 0.4987 0 14
10.2235 5.7827 0.7494 0.7234 0 14
9.9374 6.1600 0.7460 0.7596 0 14
10.8915 7.3726 0.8392 0.5281 0 14
11.2349 8.2817 0.8905 0.6104 0 2
11.0891 8.8827 0.9065 0.1872 0 2
11.2124 9.7455 0.9479 0.1790 0 2
11.3541 10.6984 0.9954 0.1705 0 2
11.5180 11.7607 1.0503 0.1616 0 2
11.7088 12.9575 1.1143 0.1523 0 2
11.9329 14.3215 1.1894 0.1427 0 2
11.2775 14.6967 1.1820 0.7877 0 3
10.3633 14.6908 1.1471 0.8117 0 3
8.9187 13.7863 1.0477 0.8414 0 21
8.6814 14.6799 1.0882 0.8556 0 3
7.9501 14.7658 1.0700 0.4747 0 3
7.9123 16.2241 1.1517 0.4410 0 3
7.8676 17.9251 1.2490 0.4067 0 3
7.6605 19.5504 1.3397 0.3717 0 3
8.3461 24.1070 1.6277 0.9408 0 3
7.5129 24.8907 1.6589 0.3001 0 3
7.5658 29.2649 1.9286 0.2636 0 3
2.5757 14.7670 0.9564 0.7346 0 9
1.9193 14.3971 0.9267 0.2346 0 9
1.3500 14.5716 0.9337 0.4445 0 9
0.8039 15.3773 0.9825 0.2322 0 9
-1.0355 15.1533 0.9691 0.7169 0 9
-30.6088 27.9303 2.6439 0.8002 0 3
-30.9379 26.0333 2.5799 0.3031 0 3
-31.0711 24.0830 2.5083 0.6163 0 3
-31.3015 22.3094 2.4525 0.7464 0 3
-31.3078 20.4700 2.3867 0.3259 0 3
-31.4523 18.8070 2.3382 0.3326 0 3
-31.7613 17.3001 2.3076 0.3389 0 3
-36.3902 -33.6276 3.1614 0.8690 0 20
0.7146 -38.9060 2.4828 0.9943 0 22
9.4284 -42.3364 2.7674 0.5492 0 3
8.0027 -30.1705 1.9916 0.6086 0 20
8.5226 -27.6068 1.8435 0.9556 0 3
10.4829 -29.6740 2.0080 0.9432 0 3
11.8184 -29.6121 2.0343 0.9294 0 3
13.0653 -29.2656 2.0449 0.0689 0 3
13.4078 -27.0591 1.9268 0.8694 0 3
10.1558 -18.5815 1.3511 0.3845 0 9
9.9469 -16.5809 1.2337 0.9279 0 20
12.8412 -19.5786 1.4939 0.1136 0 2
12.4639 -17.4347 1.3674 0.1241 0 2
4.4844 0.5984 0.2384 0.2676 25 14
6.0737 1.0602 0.3248 0.9609 25 14
10.7545 2.3256 0.5797 0.2456 0 1
10.8321 2.8019 0.5895 0.2415 0 1
10.9163 3.2965 0.6008 0.2370 0 1
11.0120 3.8140 0.6140 0.2299 0 1
11.0858 4.3454 0.6273 0.2391 0 1
11.1081 4.8772 0.6392 0.2347 0 1
11.1310 5.4302 0.6525 0.2339 0 1
10.7804 5.8061 0.6451 0.6981 0 14
10.1096 5.9803 0.6188 0.8916 0 14
10.0442 6.4996 0.6303 0.4665 0 14
10.9821 7.7492 0.7081 0.0714 0 1
10.7787 8.2732 0.7159 0.6274 0 2
10.5416 8.7856 0.7230 0.1940 0 2
10.6386 9.6159 0.7555 0.1856 0 2
10.7499 10.5307 0.7928 0.1769 0 2
10.8782 11.5478 0.8358 0.1678 0 2
11.0270 12.6900 0.8857 0.1583 0 2
11.2011 13.9870 0.9441 0.1485 0 2
10.8214 14.6843 0.9610 0.8000 0 3
9.2881 13.7249 0.8731 0.8332 0 21
8.6313 13.9280 0.8633 0.8150 0 21
8.2992 14.6770 0.8883 0.8660 0 3
7.9941 15.5643 0.9218 0.4553 0 3
7.9578 17.1552 0.9963 0.4212 0 3
7.9145 19.0278 1.0858 0.3865 0 3
8.3902 22.7009 1.2751 0.4865 0 3
7.8239 24.1031 1.3351 0.9477 0 3
7.7205 27.4978 1.5048 0.2791 0 3
2.7316 13.9464 0.7487 0.2395 0 9
3.8352 24.8273 1.3236 0.9823 0 9
1.6513 14.5371 0.7708 0.4224 0 9
0.8994 27.4050 1.4446 0.2477 0 9
-0.1976 26.8952 1.4170 0.2017 0 9
-30.8086 37.3335 2.5502 0.2519 0 3
-31.2659 34.9310 2.4699 0.2616 0 3
-31.3969 32.3635 2.3756 0.6377 0 3
-31.7474 30.1987 2.3085 0.2799 0 3
-31.8831 27.9778 2.2348 0.7069 0 3
-32.3141 24.0565 2.1225 0.7387 0 3
-32.2764 22.0717 2.0601 0.7610 0 3
-32.2446 20.1996 2.0046 0.7821 0 3
-32.2154 18.4235 1.9552 0.8018 0 3
-32.3956 16.8382 1.9236 0.6171 0 3
-35.0846 -33.7076 2.5633 0.7975 0 20
-0.0920 -38.9130 2.0502 0.9961 0 22
5.6401 -47.5381 2.5221 0.9927 0 3
4.9622 -24.6826 1.3264 0.8782 0 6
8.9884 -36.9619 2.0041 0.9720 0 3
8.3661 -29.2369 1.6022 0.9621 0 20
9.7976 -29.6791 1.6467 0.9504 0 3
11.1045 -29.5907 1.6652 0.9373 0 3
11.6944 -27.7249 1.5853 0.0735 0 3
12.5446 -26.6942 1.5540 0.0851 0 3
12.7176 -24.4602 1.4525 0.0965 0 2
10.5650 -18.4686 1.1210 0.6954 0 9
11.9099 -19.0064 1.1817 0.1187 0 2
11.6193 -16.9868 1.0843 0.1293 0 2
11.9976 -16.1115 1.0583 0.1533 0 2
11.6871 -14.4458 0.9790 0.1527 0 1
11.5318 -13.1381 0.9210 0.1639 0 1
11.4099 -11.9920 0.8721 0.1645 0 1
11.2531 -10.9143 0.8259 0.1662 0 1
11.1091 -9.9410 0.7854 0.1732 0 1
10.9419 -9.0272 0.7473 0.1732 0 1
10.7974 -8.2024 0.7144 0.1848 0 1
6.1547 -4.2971 0.3955 0.6615 14 6
10.6116 -6.7920 0.6638 0.2111 0 1
10.5039 -6.1431 0.6411 0.2186 0 24
10.2302 -5.4441 0.6106 0.2303 0 25
10.1857 -4.9064 0.5957 0.2361 0 25
8.9467 -3.8752 0.5137 0.9744 0 9
10.1126 -3.9059 0.5712 0.2462 0 25
10.0831 -3.4361 0.5612 0.2506 0 25
10.0576 -2.9826 0.5527 0.2544 0 25
10.0360 -2.5427 0.5455 0.2578 0 25
10.3915 -2.1930 0.5595 0.2603 0 1
10.3516 -1.7538 0.5532 0.2647 0 24
4.3698 -0.5610 0.2321 0.2006 25 14
4.2874 -0.3762 0.2267 0.2053 25 14
4.2416 -0.2011 0.2237 0.3272 25 14
4.2278 -0.0305 0.2228 0.3287 25 14
4.2496 0.1400 0.2240 0.3268 25 14
4.3077 0.3154 0.2276 0.2046 25 14
4.4325 0.5041 0.2350 0.1981 25 14
6.1097 0.9446 0.3257 0.9583 25 14
10.7191 2.1009 0.5755 0.2474 0 1
10.7938 2.5694 0.5846 0.2435 0 1
10.8747 3.0547 0.5951 0.2392 0 1
10.9646 3.5607 0.6074 0.2324 0 1
11.0648 4.0911 0.6215 0.2271 0 1
11.0967 4.6173 0.6332 0.2369 0 1
11.1212 5.1605 0.6459 0.2363 0 1
11.1428 5.7249 0.6600 0.2312 0 1
11.1270 6.2937 0.6735 0.2542 0 1
10.0797 6.2483 0.6248 0.4706 0 14
10.0494 6.8026 0.6394 0.4263 0 14
10.9949 8.1048 0.7196 0.2155 0 2
10.4991 8.4101 0.7087 0.1979 0 2
10.5901 9.2046 0.7392 0.1897 0 2
10.6942 10.0766 0.7741 0.1811 0 2
10.8138 11.0417 0.8143 0.1722 0 2
10.9522 12.1202 0.8606 0.1629 0 2
11.1134 13.3380 0.9147 0.1533 0 2
11.2387 14.6461 0.9726 0.7882 0 3
6.4304 9.1155 0.5877 0.6858 22 6
8.9003 13.7579 0.8633 0.8437 0 21
8.6811 14.6795 0.8985 0.8562 0 3
8.0096 14.8763 0.8901 0.4715 0 3
7.9761 16.3549 0.9587 0.4378 0 3
7.9365 18.0819 1.0404 0.4034 0 3
7.7378 19.7477 1.1174 0.3684 0 3
8.3459 24.1064 1.3440 0.9414 0 3
7.7630 25.7193 1.4154 0.2967 0 3
1.9326 14.4963 0.7705 0.4097 0 9
1.3542 14.6171 0.7734 0.2684 0 9
0.7233 13.8368 0.7300 0.2616 0 9
0.3059 25.3343 1.3349 0.5201 0 9
-0.7037 25.0590 1.3208 0.3551 0 9
-30.8167 38.8565 2.6128 0.5663 0 3
-31.1331 36.1724 2.5144 0.2569 0 3
-31.4003 33.6506 2.4249 0.2664 0 3
-31.4836 31.1347 2.3328 0.6518 0 3
-31.8560 29.0684 2.2721 0.2844 0 3
-32.1345 22.9031 2.0790 0.7198 0 3
-32.2596 21.0924 2.0307 0.7720 0 3
-32.2292 19.2715 1.9784 0.7924 0 3
-32.3860 17.6404 1.9430 0.7017 0 3
-32.3805 15.9867 1.9026 0.6009 0 3
-36.2671 -33.5139 2.6017 0.7771 0 20
-35.1815 -35.2319 2.6232 0.5277 0 20
5.9649 -42.6913 2.2711 0.9895 0 3
9.4004 -42.2104 2.2784 0.9751 0 3
8.0052 -30.1797 1.6450 0.6702 0 20
8.5228 -27.6075 1.5222 0.9562 0 3
10.4831 -29.6747 1.6581 0.9438 0 3
11.8187 -29.6128 1.6798 0.9299 0 3
12.1004 -27.1043 1.5638 0.8893 0 3
12.9792 -26.1941 1.5402 0.0910 0 2
12.4718 -22.8189 1.3701 0.1023 0 2
9.9599 -16.6026 1.0200 0.9807 0 20
11.7527 -17.9190 1.1290 0.1242 0 2
11.5488 -16.1547 1.0462 0.8285 0 2
4.2648 0.5691 0.1789 0.2055 25 14
10.2478 1.7888 0.4325 0.2657 0 1
10.3119 2.2299 0.4387 0.2563 0 1
10.3792 2.6847 0.4458 0.2522 0 1
10.4514 3.1561 0.4539 0.2476 0 1
10.5292 3.6468 0.4633 0.2426 0 1
10.6173 4.1618 0.4742 0.2498 0 1
10.6302 4.6674 0.4827 0.2454 0 1
10.6463 5.1938 0.4925 0.2405 0 1
10.6633 5.7430 0.5036 0.2393 0 1
10.6377 6.2927 0.5139 0.2631 0 1
10.5398 6.8204 0.5220 0.2590 0 1
10.4393 7.3662 0.5312 0.2680 0 1
10.4911 8.0525 0.5499 0.2227 0 2
9.9994 8.3338 0.5412 0.2046 0 2
10.0682 9.1003 0.5643 0.1962 0 2
10.1467 9.9397 0.5906 0.1875 0 2
10.2366 10.8667 0.6207 0.1784 0 2
10.3402 11.8996 0.6555 0.1689 0 2
10.4605 13.0622 0.6958 0.1591 0 2
10.6013 14.3856 0.7430 0.1490 0 2
9.2798 13.7127 0.6885 0.8354 0 21
8.6492 13.9569 0.6827 0.8137 0 21
8.2990 14.6766 0.7011 0.8665 0 3
8.0564 15.6857 0.7332 0.4520 0 3
8.0250 17.3000 0.7929 0.4179 0 3
7.9467 19.1052 0.8604 0.9200 0 3
8.9107 24.1094 1.0687 0.9349 0 3
7.8237 24.1025 1.0536 0.9482 0 3
7.8192 27.8495 1.2027 0.2757 0 3
2.3492 15.2080 0.6398 0.8526 0 9
1.5301 13.4694 0.5637 0.2070 0 9
1.7257 23.6109 0.9843 0.2535 0 9
-0.1841 25.0526 1.0417 0.1645 0 9
-32.3649 36.1588 2.0178 0.6136 0 3
-32.1518 33.1416 1.9199 0.9788 0 3
-32.2705 30.6963 1.8519 0.6685 0 3
-32.2303 28.2824 1.7829 0.6944 0 3
-32.1938 26.0391 1.7216 0.7191 0 3
-32.1606 23.9423 1.6671 0.7426 0 3
-32.1276 21.9700 1.6183 0.7649 0 3
-32.0999 20.1090 1.5750 0.7860 0 3
-32.0744 18.3428 1.5363 0.8058 0 3
-33.7466 17.5404 1.5814 0.4664 0 3
-35.0440 -33.6687 2.0206 0.6776 0 20
1.4689 -38.8545 1.6167 0.9991 0 6
5.6402 -47.5391 1.9905 0.9932 0 3
3.7483 -18.6445 0.7907 0.0425 0 6
9.0001 -37.0100 1.5837 0.5537 0 3
8.3663 -29.2376 1.2645 0.9623 0 20
9.7978 -29.6798 1.2996 0.9508 0 3
10.7660 -28.6889 1.2741 0.0722 0 3
11.4223 -27.0798 1.2220 0.8944 0 3
11.8367 -25.1877 1.1572 0.0957 0 2
11.4684 -22.0576 1.0337 0.1071 0 2
10.4984 -18.3522 0.8791 0.7948 0 9
10.4014 -16.5990 0.8145 0.5265 0 20
11.0462 -16.1489 0.8135 0.8414 0 2
11.0577 -14.8493 0.7698 0.1533 0 1
10.9088 -13.4837 0.7211 0.1652 0 1
10.8114 -12.3173 0.6814 0.1662 0 1
10.6952 -11.2408 0.6451 0.1665 0 1
10.5754 -10.2570 0.6126 0.1753 0 1
10.4486 -9.3499 0.5830 0.1788 0 1
10.3244 -8.5178 0.5565 0.1873 0 1
10.2141 -7.7593 0.5333 0.1954 0 1
6.1950 -4.3252 0.3142 0.3329 14 6
10.1067 -6.4689 0.4989 0.2217 0 1
10.0665 -5.8873 0.4849 0.2297 0 1
9.7835 -5.2064 0.4608 0.2410 0 25
8.9774 -4.3244 0.4143 0.4044 0 9
8.9849 -3.8917 0.4071 0.8989 0 9
9.4400 -3.6461 0.4208 0.4259 0 9
9.6769 -3.2977 0.4251 0.2612 0 25
9.6584 -2.8642 0.4189 0.2651 0 25
9.6427 -2.4430 0.4136 0.2685 0 25
9.9877 -2.1077 0.4244 0.2710 0 1
9.9561 -1.6868 0.4199 0.2754 0 24
4.1495 -0.5327 0.1739 0.2113 25 14
4.1263 -0.3621 0.1722 0.3356 25 14
4.1089 -0.1948 0.1710 0.2621 25 14
4.0949 -0.0296 0.1703 0.3119 25 14
4.1191 0.1357 0.1714 0.2616 25 14
4.1564 0.3043 0.1733 0.3336 25 14
4.2077 0.4785 0.1761 0.2088 25 14
6.1450 0.9500 0.2585 0.8528 25 14
10.2805 2.0149 0.4356 0.2576 0 1
10.3461 2.4628 0.4422 0.2542 0 1
10.4158 2.9258 0.4498 0.2499 0 1
10.4908 3.4068 0.4586 0.2451 0 1
10.5737 3.9095 0.4687 0.2377 0 1
10.6235 4.4204 0.4784 0.2476 0 1
10.6381 4.9363 0.4876 0.2429 0 1
10.6561 5.4748 0.4981 0.2378 0 1
10.6710 6.0358 0.5097 0.2364 0 1
10.5872 6.5629 0.5179 0.2610 0 1
10.4891 7.1002 0.5267 0.2567 0 1
10.4259 7.6853 0.5386 0.0741 0 1
10.3197 8.2664 0.5498 0.6451 0 2
10.0338 8.7212 0.5528 0.2003 0 2
10.1074 9.5237 0.5774 0.1918 0 2
10.1915 10.4063 0.6056 0.1828 0 2
10.2882 11.3854 0.6380 0.1735 0 2
10.4000 12.4819 0.6755 0.1639 0 2
10.5304 13.7230 0.7192 0.1539 0 2
6.4286 9.1130 0.4637 0.9073 22 6
8.8820 13.7297 0.6799 0.8459 0 21
8.6809 14.6791 0.7091 0.8567 0 3
8.0699 14.9883 0.7078 0.4682 0 3
8.0409 16.4876 0.7627 0.4345 0 3
8.0064 18.2413 0.8283 0.4001 0 3
8.7941 22.4435 1.0023 0.9142 0 3
8.3457 24.1058 1.0607 0.9420 0 3
7.8564 26.0285 1.1305 0.2934 0 3
1.8371 13.7804 0.5781 0.2493 0 9
1.2958 13.9866 0.5840 0.4770 0 9
0.9316 17.8202 0.7420 0.4282 0 9
-32.3193 37.5506 2.0600 0.3904 0 3
-30.4351 32.6162 1.8549 0.2619 0 3
-32.2915 31.9336 1.8883 0.6556 0 3
-30.3053 27.6534 1.7058 0.5366 0 3
-32.2110 27.1046 1.7504 0.7073 0 3
-32.1763 24.9396 1.6927 0.7314 0 3
-32.1446 22.9103 1.6413 0.7543 0 3
-32.1130 20.9965 1.5953 0.7760 0 3
-32.0864 19.1861 1.5545 0.7964 0 3
-32.6424 17.7800 1.5455 0.4834 0 3
-33.9279 16.7507 1.5733 0.4479 0 3
-36.2430 -33.4916 2.0519 0.7867 0 20
-35.0463 -35.0966 2.0623 0.6597 0 20
5.9650 -42.6923 1.7924 0.9900 0 3
8.9143 -40.0277 1.7051 0.4006 0 3
7.8866 -29.7328 1.2790 0.9674 0 20
8.5232 -27.6087 1.2014 0.9544 0 3
10.4552 -29.5956 1.3051 0.9443 0 3
11.0088 -27.5836 1.2349 0.9025 0 3
11.8652 -26.5774 1.2102 0.8854 0 3
11.6353 -23.4819 1.0897 0.1016 0 2
11.3098 -20.6929 0.9805 0.1129 0 2
9.9786 -16.6338 0.8065 0.9833 0 20
10.8353 -16.5203 0.8215 0.1348 0 2
11.2619 -15.7533 0.8052 0.1592 0 2
4.0754 0.5438 0.1253 0.2623 25 14
9.8579 1.7207 0.3050 0.2768 0 1
9.9071 2.1424 0.3090 0.2726 0 1
9.9641 2.5773 0.3137 0.2684 0 1
10.0249 3.0273 0.3192 0.2583 0 1
10.0910 3.4950 0.3255 0.2533 0 1
10.1619 3.9833 0.3327 0.2478 0 1
10.1921 4.4750 0.3393 0.2560 0 1
10.1990 4.9756 0.3459 0.2512 0 1
10.2082 5.4979 0.3534 0.2458 0 1
10.2181 6.0445 0.3619 0.2442 0 1
10.1287 6.5543 0.3678 0.2696 0 1
10.0270 7.0752 0.3741 0.2650 0 1
9.9234 7.6167 0.3813 0.2607 0 1
9.9096 8.2589 0.3932 0.6615 0 2
9.5563 8.6375 0.3927 0.2068 0 2
9.6080 9.4120 0.4100 0.1981 0 2
9.6669 10.2620 0.4298 0.1890 0 2
9.7345 11.2025 0.4524 0.1795 0 2
9.8123 12.2528 0.4785 0.1697 0 2
9.9028 13.4377 0.5088 0.1596 0 2
9.2606 13.6843 0.5037 0.8374 0 21
9.0982 14.6814 0.5265 0.8462 0 3
8.2988 14.6762 0.5140 0.8668 0 3
8.1198 15.8090 0.5418 0.4486 0 3
8.0932 17.4471 0.5863 0.4146 0 3
7.9465 19.1047 0.6307 0.9203 0 3
8.9105 24.1088 0.7835 0.9353 0 3
7.8235 24.1019 0.7724 0.9486 0 3
7.9204 28.2100 0.8932 0.2723 0 3
2.1775 14.0961 0.4348 0.1792 0 9
1.7796 15.6658 0.4806 0.9474 0 9
1.7481 23.9184 0.7311 0.0699 0 9
-32.1801 35.9523 1.4708 0.6173 0 3
-31.9513 32.9349 1.3988 0.4922 0 3
-32.1013 30.5353 1.3506 0.6723 0 3
-32.0675 28.1396 1.3005 0.6982 0 3
-32.0368 25.9122 1.2560 0.7229 0 3
-31.6839 23.5874 1.2041 0.5021 0 3
-31.9803 21.8692 1.1810 0.7688 0 3
-31.9566 20.0192 1.1495 0.7898 0 3
-31.9347 18.2629 1.1214 0.8096 0 3
-34.1871 17.7694 1.1745 0.4666 0 3
-35.1168 16.4973 1.1827 0.3164 0 3
-34.9077 -33.5377 1.4756 0.2580 0 20
5.6404 -47.5401 1.4594 0.9936 0 3
3.7399 -18.6027 0.5784 0.9887 0 6
8.7288 -35.8944 1.1261 0.9489 0 3
8.3665 -29.2383 0.9271 0.9628 0 20
9.7886 -29.6519 0.9519 0.9512 0 3
10.4860 -27.9427 0.9098 0.3363 0 3
10.9460 -25.9504 0.8586 0.0946 0 2
10.6651 -22.6946 0.7644 0.1062 0 2
10.4435 -20.0865 0.6901 0.1177 0 2
10.2168 -17.8599 0.6272 0.5017 0 9
10.1344 -16.1729 0.5818 0.6629 0 2
10.4367 -15.2579 0.5635 0.1536 0 1
10.2990 -13.8305 0.5257 0.1663 0 1
10.2281 -12.6424 0.4957 0.1676 0 1
10.1517 -11.5658 0.4691 0.1679 0 1
10.0582 -10.5714 0.4448 0.1843 0 1
9.9739 -9.6736 0.4236 0.1864 0 1
9.8727 -8.8346 0.4039 0.1955 0 1
9.7826 -8.0708 0.3866 0.2042 0 1
9.7321 -7.3931 0.3726 0.2299 0 1
9.6974 -6.7705 0.3605 0.2376 0 1
9.6232 -6.1594 0.3483 0.2439 0 24
9.3990 -5.4970 0.3319 0.2454 0 25
9.3746 -4.9888 0.3237 0.2516 0 25
8.9022 -4.2881 0.3012 0.7422 0 9
8.9689 -3.8848 0.2979 0.5649 0 9
9.0129 -3.4812 0.2945 0.6346 0 9
9.3026 -3.1702 0.2996 0.2718 0 25
9.2901 -2.7549 0.2954 0.2757 0 25
9.2807 -2.3513 0.2918 0.2795 0 2
9.6140 -2.0289 0.2995 0.2812 0 1
9.6229 -1.6303 0.2975 0.2845 0 1
3.9965 -0.5130 0.1228 0.2705 25 14
3.9765 -0.3489 0.1217 0.3201 25 14
3.9694 -0.1882 0.1211 0.3215 25 14
3.9630 -0.0286 0.1208 0.3224 25 14
3.9819 0.1312 0.1214 0.3207 25 14
4.0119 0.2937 0.1226 0.3176 25 14
4.0518 0.4608 0.1243 0.2645 25 14
5.3138 0.8215 0.1639 0.0099 25 14
9.8825 1.9369 0.3070 0.2751 0 1
9.9361 2.3652 0.3113 0.2705 0 1
9.9949 2.8076 0.3165 0.2661 0 1
10.0585 3.2664 0.3224 0.2558 0 1
10.1270 3.7443 0.3291 0.2505 0 1
10.1895 4.2398 0.3364 0.2582 0 1
10.1954 4.7309 0.3426 0.2536 0 1
10.2035 5.2423 0.3497 0.2484 0 1
10.2139 5.7772 0.3577 0.2429 0 1
10.1773 6.3088 0.3650 0.2716 0 1
10.0764 6.8209 0.3709 0.2673 0 1
9.9737 7.3520 0.3777 0.2625 0 1
10.0193 8.0258 0.3913 0.2295 0 2
9.5335 8.2863 0.3850 0.2109 0 2
9.5821 9.0288 0.4013 0.2023 0 2
9.6374 9.8405 0.4199 0.1934 0 2
9.7006 10.7352 0.4411 0.1841 0 2
9.7733 11.7296 0.4654 0.1745 0 2
9.8573 12.8459 0.4936 0.1645 0 2
6.4362 9.1238 0.3404 0.9880 22 6
8.8639 13.7016 0.4975 0.8479 0 21
8.6807 14.6787 0.5198 0.8570 0 3
8.1311 15.1020 0.5228 0.4649 0 3
8.1066 16.6224 0.5638 0.4311 0 3
8.0776 18.4034 0.6127 0.3967 0 3
8.8180 22.5045 0.7368 0.9121 0 3
8.3455 24.1052 0.7776 0.9424 0 3
7.9449 26.3218 0.8381 0.9550 0 3
3.0945 14.3190 0.4466 0.1635 0 9
3.3604 25.2067 0.7752 0.6102 0 9
1.3007 14.0395 0.4298 0.1067 0 9
0.7196 13.7659 0.4202 0.1693 0 9
0.2164 17.9157 0.5462 0.5870 0 9
-32.2018 37.4141 1.5048 0.6034 0 3
-32.1581 34.4628 1.4369 0.6319 0 3
-32.1189 31.7629 1.3770 0.6594 0 3
-32.0834 29.2759 1.3240 0.6858 0 3
-32.0513 26.9702 1.2769 0.7111 0 3
-32.0220 24.8201 1.2350 0.7352 0 3
-31.8068 22.6695 1.1906 0.8577 0 3
-31.9678 20.9016 1.1643 0.7798 0 3
-31.9451 19.1016 1.1346 0.8002 0 3
-30.0058 16.3439 1.0416 0.4125 0 3
-35.0764 17.3177 1.1925 0.3138 0 3
-36.1088 -33.3676 1.4987 0.6785 0 20
-34.8640 -34.9140 1.5041 0.6676 0 20
5.9651 -42.6933 1.3141 0.9904 0 3
7.6369 -34.2919 1.0709 0.9443 0 3
7.8512 -29.5993 0.9335 0.2472 0 20
8.6257 -27.9408 0.8914 0.2828 0 3
10.1629 -28.7683 0.9301 0.2220 0 3
10.6051 -26.5720 0.8721 0.9011 0 3
10.7922 -24.1739 0.8070 0.1006 0 2
10.5445 -21.2806 0.7240 0.1122 0 2
9.9882 -18.2748 0.6349 0.6740 0 9
10.0072 -16.6814 0.5930 0.8549 0 20
10.5868 -16.1413 0.5884 0.8532 0 2
10.3600 -14.4917 0.5430 0.1465 0 1
3.9732 0.5302 0.0777 0.9611 25 14
9.4972 1.6578 0.1870 0.2874 0 1
9.5393 2.0628 0.1893 0.2839 0 1
9.5886 2.4802 0.1921 0.2790 0 1
9.6405 2.9112 0.1953 0.2744 0 1
9.6954 3.3580 0.1990 0.2693 0 1
9.7536 3.8232 0.2032 0.2638 0 1
9.7920 4.2994 0.2074 0.2701 0 1
9.7911 4.7766 0.2113 0.2651 0 1
9.7913 5.2733 0.2157 0.2597 0 1
9.7926 5.7928 0.2207 0.2538 0 1
9.7493 6.3088 0.2252 0.2809 0 1
9.6454 6.8060 0.2290 0.2763 0 1
9.5389 7.3216 0.2332 0.2712 0 1
9.5753 7.9803 0.2418 0.2364 0 2
9.1489 8.2693 0.2392 0.6921 0 2
9.1239 8.9378 0.2477 0.2086 0 2
9.1576 9.7214 0.2590 0.1995 0 2
9.1961 10.5830 0.2719 0.1901 0 2
9.2402 11.5384 0.2867 0.1803 0 2
9.2910 12.6076 0.3037 0.1701 0 2
9.3502 13.8166 0.3236 0.1597 0 2
9.0979 14.6810 0.3350 0.8464 0 3
8.2986 14.6758 0.3270 0.8671 0 3
8.1840 15.9341 0.3474 0.4452 0 3
8.1626 17.5966 0.3762 0.4112 0 3
7.9772 19.1785 0.4029 0.3764 0 3
8.9103 24.1082 0.4985 0.9355 0 3
7.9089 24.3649 0.4968 0.3052 0 3
8.0242 28.5797 0.5757 0.2689 0 3
8.6006 36.1507 0.7207 0.9718 0 6
1.7834 15.6998 0.3065 0.6613 0 9
1.7475 23.9101 0.4650 0.3209 0 9
0.9095 27.7124 0.5378 0.1443 0 9
-0.1071 14.5839 0.2829 0.0941 0 9
-31.0350 37.6077 0.9457 0.9734 0 3
-31.9641 32.9481 0.8903 0.6491 0 3
-34.3374 32.6623 0.9191 0.6936 0 3
-31.9065 27.9984 0.8233 0.7019 0 3
-34.2045 27.6654 0.8532 0.6337 0 3
-31.8584 23.7173 0.7703 0.7502 0 3
-31.8344 21.7695 0.7480 0.7725 0 3
-35.9456 22.5181 0.8227 0.2877 0 3
-31.7964 18.1838 0.7104 0.8134 0 3
-34.1854 17.7685 0.7472 0.4667 0 3
-36.3123 17.0590 0.7781 0.3060 0 3
-34.9781 -33.6054 0.9408 0.7945 0 20
-34.5303 -35.9499 0.9668 0.7677 0 20
5.6405 -47.5411 0.9285 0.9939 0 3
8.9669 -36.8736 0.7360 0.9762 0 3
8.3667 -29.2390 0.5899 0.9630 0 20
9.3440 -28.3051 0.5781 0.2273 0 3
10.0378 -26.7484 0.5541 0.0933 0 2
9.8515 -23.3557 0.4916 0.1051 0 2
9.7051 -20.6519 0.4426 0.1168 0 2
9.5874 -18.4397 0.4031 0.1282 0 2
9.4908 -16.5907 0.3707 0.1394 0 2
9.9380 -15.8595 0.3630 0.1648 0 2
9.7134 -14.2005 0.3337 0.1512 0 1
9.6597 -12.9720 0.3137 0.1699 0 1
9.6260 -11.8981 0.2968 0.1775 0 1
9.5728 -10.9063 0.2815 0.1853 0 1
9.5151 -10.0006 0.2677 0.1948 0 1
9.4411 -9.1568 0.2551 0.1969 0 1
9.3686 -8.3835 0.2438 0.2060 0 1
9.3304 -7.6977 0.2346 0.2324 0 1
9.3077 -7.0707 0.2267 0.2405 0 1
9.2936 -6.4886 0.2198 0.2705 0 1
9.2809 -5.9403 0.2137 0.2331 0 1
9.0130 -5.2712 0.2025 0.2559 0 25
8.9987 -4.7888 0.1977 0.2622 0 25
8.6670 -4.1748 0.1866 0.2657 0 9
8.6530 -3.7479 0.1829 0.2797 0 9
8.9650 -3.4627 0.1864 0.2781 0 25
8.9564 -3.0522 0.1835 0.2824 0 25
8.9490 -2.6538 0.1810 0.2863 0 25
8.9432 -2.2658 0.1789 0.2858 0 2
9.2680 -1.9559 0.1837 0.2926 0 1
9.2796 -1.5722 0.1825 0.2947 0 1
3.9726 -0.5100 0.0777 0.9618 25 14
3.9511 -0.3467 0.0769 0.9641 25 14
3.9249 -0.1861 0.0762 0.9732 25 14
3.8992 -0.0282 0.0756 0.9807 25 14
3.9099 0.1288 0.0759 0.9775 25 14
3.9353 0.2881 0.0765 0.9691 25 14
3.9612 0.4505 0.0773 0.9592 25 14
4.3396 0.6709 0.0852 0.0922 25 14
9.4840 1.8588 0.1874 0.2839 0 24
9.5644 2.2767 0.1907 0.2811 0 1
9.6150 2.7009 0.1937 0.2767 0 1
9.6685 3.1398 0.1972 0.2719 0 1
9.7250 3.5957 0.2011 0.2665 0 1
9.7827 4.0705 0.2055 0.2588 0 1
9.7914 4.5435 0.2094 0.2676 0 1
9.7911 5.0304 0.2135 0.2624 0 1
9.7918 5.5385 0.2182 0.2567 0 1
9.7925 6.0702 0.2235 0.2503 0 1
9.6960 6.5633 0.2271 0.2786 0 1
9.5908 7.0697 0.2311 0.2737 0 1
9.4932 7.6044 0.2359 0.2664 0 1
9.4951 8.2529 0.2440 0.6785 0 2
9.1091 8.5830 0.2427 0.2129 0 2
9.1408 9.3334 0.2534 0.2040 0 2
9.1769 10.1555 0.2655 0.1947 0 2
9.2181 11.0634 0.2793 0.1850 0 2
9.2655 12.0747 0.2952 0.1751 0 2
6.4504 9.1440 0.2170 0.9159 22 6
8.8352 13.6573 0.3155 0.8499 0 21
8.6804 14.6783 0.3307 0.8573 0 3
8.1932 15.2173 0.3352 0.4615 0 3
8.1734 16.7594 0.3616 0.4277 0 3
8.1499 18.5683 0.3933 0.3933 0 3
8.8420 22.5657 0.4701 0.9099 0 3
8.3453 24.1046 0.4947 0.9426 0 3
8.0497 26.6690 0.5403 0.2865 0 3
11.5900 44.8307 0.8981 0.0610 0 1
2.4815 14.2268 0.2801 0.2915 0 9
1.9822 14.8688 0.2909 0.2955 0 9
1.2436 23.7901 0.4620 0.7491 0 9
0.2851 23.6054 0.4579 0.0270 0 9
-32.0149 37.1970 0.9519 0.6071 0 3
-31.5494 33.8105 0.8969 0.3386 0 3
-32.0177 31.6628 0.8733 0.7075 0 3
-35.6105 32.4943 0.9350 0.2531 0 3
-31.8933 26.8372 0.8084 0.7148 0 3
-35.6809 27.6560 0.8756 0.6175 0 3
-31.8445 22.6964 0.7584 0.7619 0 3
-34.6608 22.6623 0.8032 0.5524 0 3
-35.9746 21.5110 0.8129 0.2911 0 3
-32.6392 17.7783 0.7209 0.4838 0 3
-35.9665 17.7572 0.7780 0.4483 0 3
-36.1408 16.0726 0.7671 0.4061 0 3
-35.9163 -33.1897 0.9485 0.5485 0 20
-34.7497 -34.7996 0.9538 0.7836 0 20
5.4105 -38.7236 0.7583 0.6680 0 6
8.1735 -45.1799 0.8905 0.2411 0 3
8.9110 -40.0130 0.7951 0.2842 0 3
7.9937 -30.1364 0.6047 0.9681 0 20
8.7345 -28.2933 0.5743 0.2794 0 3
9.7090 -27.4834 0.5653 0.2324 0 3
9.9357 -24.8948 0.5199 0.0994 0 2
9.7718 -21.8882 0.4649 0.1112 0 2
9.6413 -19.4577 0.4212 0.1227 0 2
9.5352 -17.4460 0.3856 0.1340 0 2
9.6962 -16.1630 0.3656 0.8754 0 2
9.7640 -14.8868 0.3453 0.1461 0 1
9.6779 -13.5376 0.3228 0.1651 0 1
3.9647 0.5291 0.0332 0.9633 25 14
9.1622 1.5993 0.0773 0.2980 0 1
9.1987 1.9892 0.0782 0.2945 0 1
9.2405 2.3902 0.0793 0.2896 0 1
9.2849 2.8038 0.0806 0.2850 0 1
9.3312 3.2319 0.0821 0.2799 0 1
9.3778 3.6759 0.0837 0.2723 0 1
9.4218 4.1368 0.0855 0.2665 0 1
9.4171 4.5941 0.0871 0.2757 0 1
9.4097 5.0679 0.0888 0.2703 0 1
9.4026 5.5621 0.0908 0.2644 0 1
9.3913 6.0772 0.0930 0.2578 0 1
9.2921 6.5567 0.0945 0.2868 0 1
9.1832 7.0486 0.0962 0.2818 0 1
9.0896 7.5755 0.0983 0.2739 0 1
9.1232 8.2461 0.1022 0.6942 0 2
8.6865 8.5093 0.1011 0.2192 0 2
8.6995 9.2350 0.1054 0.2101 0 2
8.7144 10.0286 0.1104 0.2006 0 2
8.7313 10.9029 0.1161 0.1908 0 2
6.6607 9.0383 0.0933 0.8179 22 6
8.7731 12.9639 0.1301 0.1703 0 2
8.7991 14.1988 0.1388 0.1596 0 2
8.2932 14.6664 0.1400 0.8673 0 3
8.2493 16.0612 0.1501 0.4418 0 3
8.2331 17.7487 0.1626 0.4077 0 3
8.0526 19.3596 0.1743 0.3730 0 3
8.9101 24.1076 0.2136 0.9357 0 3
7.9987 24.6414 0.2153 0.3018 0 3
8.1307 28.9591 0.2500 0.2654 0 3
8.5969 36.1350 0.3087 0.7206 0 6
2.8461 14.5310 0.1231 0.1979 0 9
1.7874 24.4553 0.2038 0.3719 0 9
-0.1774 24.1415 0.2007 0.4520 0 9
-30.0736 30.9993 0.3590 0.2267 0 3
-30.1456 28.6751 0.3458 0.2457 0 3
-31.7472 27.8586 0.3510 0.7055 0 3
-34.2032 27.6644 0.3656 0.6338 0 3
-30.0158 22.3456 0.3110 0.2628 0 3
-30.2327 20.6742 0.3044 0.2682 0 3
-29.8581 18.7046 0.2928 0.2124 0 3
-29.8338 17.0615 0.2856 0.7459 0 3
-34.2519 17.8030 0.3208 0.2899 0 3
-35.0221 -33.6477 0.4037 0.8789 0 20
-34.2408 -35.6485 0.4108 0.8636 0 20
7.2469 -36.0469 0.3056 0.0545 0 3
8.3248 -34.2332 0.2928 0.1451 0 3
8.3669 -29.2398 0.2528 0.9631 0 20
9.1051 -27.5813 0.2414 0.0918 0 2
9.0216 -24.0403 0.2134 0.1038 0 2
8.9563 -21.2335 0.1915 0.1156 0 2
8.9040 -18.9472 0.1740 0.1273 0 2
8.8612 -17.0431 0.1597 0.1387 0 2
9.2430 -16.1577 0.1547 0.8852 0 2
9.1381 -14.5830 0.1430 0.1512 0 1
9.0585 -13.2430 0.1334 0.1694 0 24
9.0953 -12.2141 0.1266 0.1805 0 1
9.0864 -11.2312 0.1201 0.1881 0 1
9.0589 -10.3207 0.1141 0.1959 0 1
9.0166 -9.4766 0.1087 0.1980 0 1
8.9642 -8.6943 0.1038 0.2221 0 1
8.9422 -8.0019 0.0997 0.2311 0 1
8.9277 -7.3655 0.0962 0.2429 0 1
8.9246 -6.7797 0.0932 0.2736 0 1
6.2600 -4.3706 0.0635 0.2527 14 6
6.4318 -4.1167 0.0635 0.5444 14 6
8.6576 -5.0633 0.0834 0.2665 0 25
8.6519 -4.6043 0.0815 0.2727 0 25
8.6469 -4.1652 0.0798 0.2785 0 25
8.6425 -3.7434 0.0783 0.2838 0 25
8.6385 -3.3366 0.0770 0.2886 0 25
8.6351 -2.9427 0.0758 0.2930 0 25
8.6322 -2.5598 0.0748 0.2969 0 25
8.7867 -2.2262 0.0753 0.3047 0 2
8.9467 -1.8881 0.0760 0.3034 0 1
8.9598 -1.5180 0.0755 0.3052 0 1
3.9639 -0.5089 0.0332 0.9641 25 14
3.9473 -0.3464 0.0329 0.9652 25 14
3.9212 -0.1859 0.0326 0.9743 25 14
3.8955 -0.0281 0.0324 0.9817 25 14
3.9066 0.1287 0.0325 0.9785 25 14
3.9320 0.2879 0.0328 0.9701 25 14
3.9578 0.4501 0.0331 0.9601 25 14
4.1126 0.6358 0.0346 0.2621 25 14
9.1469 1.7927 0.0775 0.2958 0 24
9.2196 2.1947 0.0788 0.2916 0 1
9.2632 2.6021 0.0800 0.2873 0 1
9.3085 3.0229 0.0813 0.2824 0 1
9.3560 3.4593 0.0829 0.2771 0 1
9.4003 3.9114 0.0846 0.2694 0 1
9.4207 4.3714 0.0863 0.2781 0 1
9.4133 4.8363 0.0880 0.2729 0 1
9.4060 5.3203 0.0898 0.2673 0 1
9.3969 5.8250 0.0919 0.2609 0 1
9.3436 6.3248 0.0938 0.2891 0 1
9.2363 6.8084 0.0954 0.2843 0 1
9.1337 7.3164 0.0973 0.2769 0 1
9.1559 7.9581 0.1008 0.2430 0 2
8.7715 8.2650 0.1002 0.7308 0 2
8.6930 8.8762 0.1033 0.2145 0 2
8.7070 9.6355 0.1079 0.2052 0 2
8.7228 10.4689 0.1133 0.1956 0 2
8.7410 11.3911 0.1193 0.1856 0 2
6.4419 9.1318 0.0929 0.9170 22 6
8.7860 13.5812 0.1344 0.1648 0 2
8.6802 14.6779 0.1417 0.8574 0 3
8.2562 15.3344 0.1447 0.4580 0 3
