ply
format ascii 1.0
element vertex 1394
property float32 x
property float32 y
property float32 z
property float32 CosAngle
property uint32 ObjIdx
property uint32 ObjTag
end_header
10.5461 -6.1016 0.6419 0.2183 0 1
10.2246 -5.3789 0.6087 0.2310 0 25
8.8876 -4.2283 0.5185 0.4504 0 9
8.9816 -3.8381 0.5146 0.7731 0 9
10.1087 -3.8467 0.5698 0.2468 0 25
10.0796 -3.3783 0.5601 0.2511 0 25
10.0546 -2.9258 0.5517 0.2549 0 25
10.0335 -2.4867 0.5446 0.2582 0 25
10.3912 -2.1359 0.5589 0.2606 0 1
10.3523 -1.6972 0.5527 0.2650 0 24
4.3583 -0.5356 0.2313 0.2012 25 14
4.2765 -0.3517 0.2261 0.2059 25 14
4.2396 -0.1775 0.2236 0.3275 25 14
4.2260 -0.0068 0.2226 0.3288 25 14
4.2549 0.1644 0.2243 0.3263 25 14
4.3250 0.3417 0.2286 0.2037 25 14
4.4508 0.5324 0.2362 0.2700 25 14
6.0987 0.9797 0.3254 0.9591 25 14
10.7299 2.1696 0.5767 0.2469 0 1
10.8056 2.6413 0.5861 0.2429 0 1
10.8876 3.1303 0.5969 0.2385 0 1
10.9795 3.6407 0.6094 0.2316 0 1
11.0795 4.1754 0.6238 0.2405 0 1
11.1003 4.7013 0.6351 0.2362 0 1
11.1244 5.2487 0.6481 0.2355 0 1
10.9942 5.7387 0.6534 0.4193 0 14
10.2172 5.8676 0.6208 0.7606 0 14
10.0678 6.3333 0.6266 0.4692 0 14
10.9011 7.4857 0.6967 0.2588 0 1
11.0005 8.2240 0.7236 0.2143 0 2
10.5137 8.5401 0.7136 0.1965 0 2
10.4034 9.1690 0.7306 0.9397 0 20
10.7137 10.2368 0.7807 0.1796 0 2
10.8366 11.2218 0.8219 0.1706 0 2
10.9789 12.3247 0.8696 0.1613 0 2
11.1450 13.5728 0.9253 0.1516 0 2
11.1012 14.6861 0.9699 0.7927 0 3
6.3420 9.1313 0.5857 0.9913 22 6
-32.3559 35.6474 2.0017 0.6185 0 3
-32.3070 32.8373 1.9154 0.6464 0 3
-32.2631 30.2566 1.8391 0.6732 0 3
-32.2235 27.8707 1.7715 0.6989 0 3
-32.1876 25.6514 1.7114 0.7234 0 3
-32.1549 23.5752 1.6578 0.7468 0 3
-32.1223 21.6206 1.6100 0.7689 0 3
-32.0950 19.7749 1.5675 0.7898 0 3
-32.0698 18.0219 1.5296 0.8093 0 3
-33.9117 17.3009 1.5829 0.3223 0 3
-36.9285 -33.3783 2.0697 0.7799 0 20
-35.0445 -34.3347 2.0399 0.6712 0 20
5.0412 -38.7082 1.6231 1.0000 0 6
9.5474 -44.8038 1.9047 0.2041 0 3
9.4199 -36.8643 1.5820 0.5404 0 3
8.5140 -28.4892 1.2363 0.2780 0 3
10.1859 -29.6774 1.3046 0.9472 0 3
10.7203 -27.5701 1.2300 0.9062 0 3
11.5794 -26.5640 1.2049 0.8893 0 3
11.7171 -24.1764 1.1171 0.0991 0 2
11.3739 -21.2463 1.0020 0.1105 0 2
10.6725 -18.1426 0.8752 0.3573 0 9
10.8774 -16.8971 0.8356 0.1325 0 2
11.2778 -16.0611 0.8160 0.1570 0 2
11.0000 -14.3976 0.7534 0.1440 0 1
10.8818 -13.1142 0.7086 0.1599 0 1
10.7821 -11.9791 0.6701 0.1690 0 1
10.6560 -10.9218 0.6345 0.1693 0 1
10.5409 -9.9685 0.6032 0.1780 0 1
10.4077 -9.0781 0.5742 0.1815 0 1
10.2879 -8.2693 0.5488 0.1899 0 1
10.1904 -7.5370 0.5270 0.2099 0 1
6.2025 -4.2125 0.3118 0.9743 14 6
10.0500 -6.2502 0.4921 0.2302 0 24
9.8075 -5.5654 0.4689 0.2370 0 2
9.7726 -5.0373 0.4571 0.2429 0 25
8.8844 -4.1361 0.4075 0.5561 0 9
9.2140 -3.8467 0.4152 0.2724 0 9
9.3652 -3.4745 0.4153 0.1715 0 9
9.6704 -3.1515 0.4229 0.2626 0 25
9.6529 -2.7216 0.4170 0.2663 0 25
9.6380 -2.3034 0.4120 0.2695 0 2
9.9883 -1.9662 0.4233 0.2717 0 1
9.9952 -1.5530 0.4206 0.2740 0 1
4.1358 -0.4732 0.1731 0.3340 25 14
4.1213 -0.3043 0.1718 0.2609 25 14
4.1025 -0.1374 0.1707 0.2626 25 14
4.0945 0.0276 0.1703 0.3119 25 14
4.1329 0.1943 0.1720 0.3360 25 14
4.1694 0.3645 0.1740 0.3322 25 14
4.2492 0.5444 0.1781 0.2064 25 14
10.2410 1.7331 0.4319 0.2661 0 1
10.3037 2.1732 0.4378 0.2568 0 1
10.3705 2.6269 0.4448 0.2527 0 1
10.4422 3.0969 0.4529 0.2482 0 1
10.5194 3.5859 0.4621 0.2433 0 1
10.6064 4.0987 0.4728 0.2357 0 1
10.6285 4.6066 0.4816 0.2459 0 1
10.6443 5.1313 0.4913 0.2411 0 1
10.6617 5.6790 0.5023 0.2399 0 1
10.6487 6.2343 0.5131 0.2635 0 1
10.5508 6.7608 0.5210 0.2595 0 1
10.4521 7.3067 0.5303 0.2549 0 1
10.4893 7.9793 0.5480 0.2235 0 2
10.0208 8.2797 0.5405 0.5903 0 2
10.0606 9.0173 0.5618 0.1971 0 2
10.1382 9.8501 0.5877 0.1884 0 2
10.2270 10.7691 0.6175 0.1793 0 2
10.3293 11.7923 0.6518 0.1699 0 2
10.4480 12.9430 0.6916 0.1601 0 2
10.5869 14.2517 0.7382 0.1500 0 2
9.3465 13.7002 0.6896 0.6984 0 21
8.7230 13.9610 0.6845 0.8116 0 21
8.3693 14.6771 0.7025 0.8647 0 3
8.0590 15.5550 0.7284 0.4550 0 3
8.0279 17.1503 0.7874 0.4209 0 3
7.9908 19.0287 0.8581 0.3862 0 3
8.4744 22.6964 1.0073 0.4862 0 3
7.9107 24.1030 1.0548 0.9472 0 3
7.8257 27.5354 1.1902 0.2786 0 3
2.3961 15.2114 0.6403 0.0784 0 9
1.5983 13.7154 0.5741 0.1959 0 9
1.0296 13.5599 0.5654 0.6305 0 9
-0.0812 17.4212 0.7244 0.8300 0 9
-32.3667 36.2635 2.0211 0.6126 0 3
-32.3167 33.4009 1.9324 0.6407 0 3
-32.2718 30.7756 1.8542 0.6677 0 3
-32.2314 28.3518 1.7849 0.6936 0 3
-32.1947 26.0999 1.7233 0.7184 0 3
-32.1614 23.9957 1.6684 0.7420 0 3
-32.1283 22.0169 1.6194 0.7644 0 3
-32.1005 20.1502 1.5759 0.7855 0 3
-32.0749 18.3790 1.5371 0.8054 0 3
-33.7027 17.5506 1.5800 0.3211 0 3
-35.0441 -33.7652 2.0234 0.6767 0 20
5.7877 -47.5379 1.9912 0.9929 0 3
5.0464 -24.6916 1.0479 0.6151 0 6
9.0065 -36.5156 1.5638 0.5419 0 3
8.1230 -28.0324 1.2135 0.9502 0 3
9.9101 -29.6791 1.3010 0.9498 0 3
10.7123 -28.2459 1.2561 0.0732 0 3
11.5426 -27.0955 1.2246 0.9218 0 3
11.7995 -24.8738 1.1447 0.0967 0 2
11.4387 -21.8032 1.0238 0.1082 0 2
10.6006 -18.3698 0.8819 0.9611 0 9
10.9202 -17.2791 0.8499 0.1303 0 2
11.1352 -16.1433 0.8154 0.8395 0 2
11.0408 -14.7041 0.7646 0.1418 0 1
10.9008 -13.3627 0.7170 0.1662 0 1
10.8015 -12.2043 0.6777 0.1671 0 1
10.6819 -11.1330 0.6415 0.1674 0 1
10.5636 -10.1584 0.6094 0.1762 0 1
10.4345 -9.2561 0.5800 0.1797 0 1
10.3116 -8.4311 0.5538 0.1882 0 1
10.2037 -7.6796 0.5310 0.2040 0 1
6.1781 -4.2718 0.3123 0.8854 14 6
10.1016 -6.4000 0.4972 0.2225 0 1
10.0627 -5.8219 0.4834 0.2304 0 1
9.7795 -5.1447 0.4595 0.2417 0 25
8.9251 -4.2461 0.4110 0.7612 0 9
9.0380 -3.8622 0.4087 0.6775 0 9
9.3528 -3.5591 0.4161 0.2265 0 9
9.6745 -3.2425 0.4243 0.2617 0 25
9.6563 -2.8099 0.4182 0.2655 0 25
9.6409 -2.3894 0.4130 0.2689 0 25
9.9879 -2.0530 0.4240 0.2713 0 1
9.9935 -1.6384 0.4211 0.2737 0 1
4.1393 -0.5087 0.1734 0.2120 25 14
4.1244 -0.3392 0.1721 0.3360 25 14
4.1063 -0.1719 0.1709 0.2623 25 14
4.0940 -0.0066 0.1702 0.3120 25 14
4.1255 0.1594 0.1717 0.3368 25 14
4.1617 0.3288 0.1736 0.3330 25 14
4.2246 0.5054 0.1769 0.2078 25 14
10.2300 1.6434 0.4308 0.2668 0 1
10.2905 2.0807 0.4365 0.2575 0 1
10.3562 2.5314 0.4433 0.2536 0 1
10.4269 2.9978 0.4511 0.2492 0 1
10.5029 3.4827 0.4601 0.2443 0 1
10.5876 3.9901 0.4705 0.2369 0 1
10.6256 4.5003 0.4798 0.2469 0 1
10.6407 5.0205 0.4892 0.2421 0 1
10.6590 5.5637 0.4999 0.2411 0 1
10.6690 6.1270 0.5116 0.2643 0 1
10.5711 6.6500 0.5193 0.2603 0 1
10.4727 7.1916 0.5282 0.2559 0 1
10.4860 7.8394 0.5444 0.2250 0 2
10.1841 8.2724 0.5455 0.6501 0 2
10.0458 8.8538 0.5568 0.1989 0 2
10.1212 9.6706 0.5821 0.1902 0 2
10.2075 10.5703 0.6110 0.1812 0 2
10.3068 11.5702 0.6443 0.1719 0 2
10.4218 12.6921 0.6828 0.1622 0 2
10.5562 13.9650 0.7279 0.1521 0 2
6.3592 9.1561 0.4635 0.9188 22 6
-32.1726 35.4454 1.4592 0.6223 0 3
-32.1318 32.6593 1.3966 0.6502 0 3
-32.0951 30.0991 1.3413 0.6770 0 3
-31.9180 27.6065 1.2864 0.5088 0 3
-32.0315 25.5271 1.2486 0.7272 0 3
-32.0039 23.4645 1.2097 0.7506 0 3
-31.9758 21.5220 1.1750 0.7727 0 3
-31.9524 19.6870 1.1441 0.7936 0 3
-31.9308 17.9437 1.1165 0.8132 0 3
-34.8222 17.7654 1.1917 0.4598 0 3
-34.9302 16.0845 1.1723 0.3175 0 3
-36.9230 -33.3733 1.5172 0.6603 0 20
-34.8689 -34.1627 1.4881 0.2558 0 20
5.5606 -42.6963 1.3125 0.9926 0 3
5.2559 -24.6649 0.7688 0.8265 0 6
7.8365 -30.6675 0.9649 0.9705 0 20
8.3929 -28.0843 0.8935 0.9208 0 3
10.0043 -29.1483 0.9394 0.2198 0 3
10.5385 -27.1027 0.8864 0.9339 0 3
10.8551 -24.9026 0.8281 0.0981 0 2
10.5937 -21.8584 0.7404 0.1097 0 2
9.9972 -18.6745 0.6457 0.2426 0 9
10.2173 -17.3688 0.6143 0.1322 0 2
10.3986 -16.1534 0.5856 0.8572 0 2
10.3918 -14.7994 0.5512 0.1443 0 1
10.2772 -13.4516 0.5160 0.1610 0 1
10.2079 -12.3020 0.4873 0.1705 0 1
10.1210 -11.2446 0.4612 0.1708 0 1
10.0323 -10.2825 0.4379 0.1872 0 1
9.9408 -9.4009 0.4171 0.1893 0 1
9.8431 -8.5857 0.3982 0.1983 0 1
9.7607 -7.8456 0.3817 0.2213 0 1
9.7205 -7.1895 0.3686 0.2324 0 1
6.2213 -4.2252 0.2292 0.9718 14 6
9.6641 -6.0103 0.3469 0.2257 0 1
9.3908 -5.3289 0.3291 0.2474 0 25
9.0344 -4.6568 0.3098 0.2709 0 9
8.8929 -4.1401 0.2990 0.7493 0 9
8.9941 -3.7549 0.2971 0.3277 0 9
9.3121 -3.4548 0.3028 0.2690 0 25
9.2982 -3.0302 0.2981 0.2732 0 25
9.2863 -2.6183 0.2941 0.2769 0 25
9.3198 -2.2274 0.2921 0.2881 0 2
9.6165 -1.8930 0.2988 0.2829 0 1
9.6262 -1.4957 0.2970 0.2851 0 1
3.9815 -0.4556 0.1222 0.3188 25 14
3.9740 -0.2934 0.1215 0.3206 25 14
3.9671 -0.1328 0.1210 0.3219 25 14
3.9629 0.0267 0.1208 0.3224 25 14
3.9923 0.1877 0.1218 0.3197 25 14
4.0228 0.3517 0.1231 0.3164 25 14
4.0689 0.5213 0.1250 0.2629 25 14
9.8519 1.6672 0.3046 0.2773 0 1
9.9002 2.0881 0.3084 0.2731 0 1
9.9568 2.5221 0.3131 0.2690 0 1
10.0170 2.9708 0.3185 0.2589 0 1
10.0828 3.4371 0.3247 0.2539 0 1
10.1531 3.9235 0.3318 0.2485 0 1
10.1914 4.4172 0.3386 0.2566 0 1
10.1981 4.9163 0.3451 0.2517 0 1
10.2071 5.4368 0.3525 0.2464 0 1
10.2175 5.9818 0.3609 0.2449 0 1
10.1399 6.4975 0.3671 0.2701 0 1
10.0382 7.0174 0.3734 0.2656 0 1
9.9346 7.5574 0.3805 0.2612 0 1
9.9911 8.2552 0.3951 0.6584 0 2
9.5513 8.5608 0.3910 0.2077 0 2
9.6024 9.3296 0.4081 0.1990 0 2
9.6606 10.1728 0.4277 0.1899 0 2
9.7274 11.1051 0.4500 0.1805 0 2
9.8043 12.1456 0.4758 0.1707 0 2
9.8936 13.3183 0.5058 0.1606 0 2
9.3223 13.6648 0.5043 0.8355 0 21
8.7412 13.9901 0.5029 0.8102 0 21
8.3691 14.6767 0.5150 0.8650 0 3
8.1219 15.6764 0.5382 0.4516 0 3
8.0957 17.2951 0.5821 0.4175 0 3
8.0230 19.1052 0.6317 0.9190 0 3
9.0020 24.1094 0.7845 0.9341 0 3
7.9105 24.1024 0.7733 0.9476 0 3
7.9259 27.8880 0.8838 0.2752 0 3
1.8247 15.6582 0.4805 0.9745 0 9
1.0529 13.8669 0.4239 0.2344 0 9
0.6200 17.4268 0.5316 0.6210 0 9
-31.2055 37.9287 1.4972 0.7273 0 3
-32.1816 36.0561 1.4732 0.6163 0 3
-32.1399 33.2182 1.4090 0.6444 0 3
-32.1024 30.6140 1.3522 0.6715 0 3
-32.0685 28.2085 1.3019 0.6974 0 3
-32.0376 25.9725 1.2572 0.7222 0 3
-32.0094 23.8823 1.2174 0.7459 0 3
-31.9809 21.9159 1.1818 0.7682 0 3
-31.9571 20.0602 1.1502 0.7894 0 3
-31.9352 18.2989 1.1220 0.8092 0 3
-34.1236 17.7698 1.1728 0.4672 0 3
-35.1157 16.5269 1.1831 0.3164 0 3
-34.9021 -33.6283 1.4774 0.2577 0 20
1.5826 -38.8581 1.1855 0.8465 0 6
5.7878 -47.5389 1.4598 0.9933 0 3
3.8055 -18.6203 0.5793 0.4581 0 6
9.0371 -36.6398 1.1504 0.9688 0 3
8.0973 -27.9437 0.8869 0.1924 0 3
9.8536 -29.5099 0.9484 0.2177 0 3
10.4867 -27.6511 0.9015 0.3394 0 3
10.9181 -25.6295 0.8492 0.0956 0 2
10.6429 -22.4357 0.7570 0.1073 0 2
10.4255 -19.8719 0.6841 0.1187 0 2
10.2497 -17.7618 0.6251 0.1299 0 2
10.2160 -16.1650 0.5829 0.8612 0 2
10.4243 -15.1126 0.5596 0.1421 0 1
10.2930 -13.7082 0.5226 0.1590 0 1
10.2214 -12.5299 0.4929 0.1685 0 1
10.1414 -11.4584 0.4664 0.1689 0 1
10.0494 -10.4738 0.4425 0.1852 0 1
9.9625 -9.5804 0.4213 0.1873 0 1
9.8625 -8.7487 0.4019 0.1964 0 1
9.7733 -7.9910 0.3848 0.2051 0 1
9.7280 -7.3215 0.3711 0.2308 0 1
6.2093 -4.2933 0.2301 0.6584 14 6
9.6737 -6.1289 0.3491 0.2676 0 1
9.3960 -5.4362 0.3309 0.2461 0 25
9.3719 -4.9303 0.3228 0.2523 0 25
8.9123 -4.2401 0.3009 0.4757 0 9
8.9577 -3.8278 0.2969 0.4636 0 9
9.1014 -3.4634 0.2969 0.4347 0 9
9.3009 -3.1173 0.2990 0.2724 0 25
9.2886 -2.7029 0.2949 0.2762 0 25
9.2783 -2.2996 0.2914 0.2800 0 2
9.6147 -1.9763 0.2992 0.2823 0 1
9.6241 -1.5778 0.2973 0.2848 0 1
3.9831 -0.4895 0.1223 0.3184 25 14
3.9755 -0.3269 0.1216 0.3203 25 14
3.9685 -0.1661 0.1211 0.3217 25 14
3.9621 -0.0064 0.1208 0.3225 25 14
3.9861 0.1540 0.1216 0.3203 25 14
4.0163 0.3173 0.1228 0.3171 25 14
4.0588 0.4855 0.1246 0.2638 25 14
9.8423 1.5811 0.3039 0.2779 0 1
9.8897 1.9997 0.3076 0.2746 0 1
9.9447 2.4308 0.3121 0.2699 0 1
10.0041 2.8763 0.3173 0.2654 0 1
10.0687 3.3387 0.3234 0.2550 0 1
10.1381 3.8207 0.3303 0.2497 0 1
10.1903 4.3159 0.3373 0.2575 0 1
10.1965 4.8109 0.3437 0.2528 0 1
10.2050 5.3268 0.3509 0.2476 0 1
10.2159 5.8668 0.3591 0.2419 0 1
10.1608 6.3919 0.3659 0.2710 0 1
10.0595 6.9078 0.3720 0.2665 0 1
9.9563 7.4433 0.3789 0.2623 0 1
10.0198 8.1389 0.3935 0.2282 0 2
9.5415 8.4093 0.3877 0.2095 0 2
9.5912 9.1642 0.4044 0.2008 0 2
9.6479 9.9908 0.4234 0.1918 0 2
9.7127 10.9033 0.4451 0.1824 0 2
9.7874 11.9194 0.4701 0.1727 0 2
9.8739 13.0624 0.4991 0.1627 0 2
6.3855 9.1939 0.3412 0.7046 22 6
-0.1909 14.6651 0.2845 0.1586 0 9
-32.0279 38.2720 0.9679 0.5970 0 3
-31.9586 32.4833 0.8838 0.6539 0 3
-34.8250 32.6592 0.9260 0.6885 0 3
-31.9019 27.5926 0.8181 0.7064 0 3
-34.7108 27.6622 0.8608 0.6280 0 3
-31.8544 23.3548 0.7661 0.7543 0 3
-33.6793 22.6685 0.7874 0.5635 0 3
-35.9562 22.1539 0.8191 0.2890 0 3
-31.7931 17.8663 0.7073 0.8169 0 3
-34.8204 17.7645 0.7582 0.4600 0 3
-36.3307 16.7294 0.7757 0.3071 0 3
-36.9243 -33.3745 0.9653 0.6704 0 20
-34.8711 -34.1649 0.9468 0.7894 0 20
6.1911 -47.5378 0.9298 0.9921 0 3
5.2573 -24.6715 0.4892 0.9468 0 6
8.5901 -33.6169 0.6729 0.2355 0 3
8.4035 -28.1197 0.5692 0.8505 0 3
9.5532 -27.8340 0.5708 0.2302 0 3
9.9778 -25.6606 0.5340 0.0968 0 2
9.8045 -22.4923 0.4759 0.1086 0 2
9.6674 -19.9471 0.4299 0.1202 0 2
9.5564 -17.8512 0.3927 0.1316 0 2
9.5152 -16.1752 0.3640 0.8793 0 2
9.7885 -15.2056 0.3507 0.1378 0 1
9.6886 -13.7979 0.3270 0.1620 0 1
9.6488 -12.6291 0.3082 0.1729 0 1
9.6138 -11.5861 0.2920 0.1805 0 1
9.5541 -10.6148 0.2770 0.1883 0 1
9.4538 -9.6896 0.2626 0.1913 0 24
9.4175 -8.9060 0.2514 0.1998 0 1
9.3550 -8.1599 0.2408 0.2233 0 1
9.3229 -7.4936 0.2320 0.2350 0 1
9.3010 -6.8792 0.2244 0.2430 0 1
6.2405 -4.2383 0.1463 0.8821 14 6
9.0236 -5.6119 0.2061 0.2513 0 2
9.0082 -5.1118 0.2009 0.2580 0 25
8.7496 -4.5100 0.1909 0.3402 0 9
8.6654 -4.0341 0.1854 0.2663 0 9
8.7305 -3.6448 0.1835 0.9317 0 9
8.9620 -3.3249 0.1854 0.2796 0 25
8.9538 -2.9180 0.1826 0.2838 0 25
8.9467 -2.5225 0.1803 0.2875 0 25
9.2594 -2.2129 0.1846 0.2901 0 2
9.2718 -1.8252 0.1833 0.2935 0 1
5.0968 -0.7919 0.1000 0.0103 25 14
3.9686 -0.4541 0.0775 0.9573 25 14
3.9420 -0.2910 0.0767 0.9674 25 14
3.9159 -0.1311 0.0760 0.9760 25 14
3.8936 0.0263 0.0755 0.9821 25 14
3.9188 0.1842 0.0761 0.9747 25 14
3.9444 0.3448 0.0768 0.9658 25 14
3.9705 0.5087 0.0776 0.9553 25 14
9.4920 1.6063 0.1867 0.2878 0 1
9.5339 2.0108 0.1890 0.2844 0 1
9.5823 2.4272 0.1917 0.2796 0 1
9.6340 2.8572 0.1949 0.2750 0 1
9.6885 3.3027 0.1985 0.2700 0 1
9.7464 3.7664 0.2027 0.2645 0 1
9.7922 4.2441 0.2070 0.2706 0 1
9.7912 4.7201 0.2108 0.2657 0 1
9.7912 5.2153 0.2152 0.2603 0 1
9.7924 5.7329 0.2201 0.2545 0 1
9.7607 6.2546 0.2248 0.2814 0 1
9.6569 6.7508 0.2285 0.2768 0 1
9.5505 7.2652 0.2327 0.2718 0 1
9.5765 7.9126 0.2409 0.2372 0 2
9.2222 8.2658 0.2402 0.6892 0 2
9.1207 8.8616 0.2466 0.2095 0 2
9.1541 9.6393 0.2578 0.2005 0 2
9.1921 10.4940 0.2706 0.1910 0 2
9.2356 11.4411 0.2852 0.1812 0 2
9.2859 12.5003 0.3020 0.1711 0 2
9.3442 13.6969 0.3216 0.1607 0 2
8.7595 14.0193 0.3206 0.8088 0 21
8.3637 14.6672 0.3275 0.8653 0 3
8.1858 15.7996 0.3451 0.4482 0 3
8.1646 17.4423 0.3735 0.4141 0 3
8.0228 19.1047 0.4019 0.9193 0 3
9.0017 24.1088 0.4991 0.9344 0 3
7.9123 24.1079 0.4921 0.3082 0 3
8.0287 28.2496 0.5696 0.2718 0 3
8.7163 36.1371 0.7210 0.9346 0 6
1.8250 15.6604 0.3058 0.9412 0 9
1.8137 23.8859 0.4646 0.3211 0 9
-0.0679 14.5729 0.2826 0.0941 0 9
-31.9652 33.0376 0.8916 0.6481 0 3
-34.2509 32.6629 0.9179 0.6946 0 3
-31.7286 27.9096 0.8196 0.9525 0 3
-34.1264 27.6659 0.8521 0.6345 0 3
-31.8589 23.7700 0.7709 0.7496 0 3
-31.8349 21.8158 0.7485 0.7720 0 3
-35.9442 22.5630 0.8231 0.2875 0 3
-31.7967 18.2196 0.7108 0.8130 0 3
-34.1219 17.7689 0.7461 0.4674 0 3
-36.3116 17.0897 0.7784 0.3059 0 3
-34.9626 -33.6866 0.9416 0.7938 0 20
-34.5133 -36.0402 0.9678 0.7669 0 20
5.7879 -47.5398 0.9288 0.9935 0 3
3.8022 -18.6040 0.3683 0.9883 0 6
9.0515 -36.6979 0.7331 0.1429 0 3
8.4724 -29.2384 0.5904 0.9621 0 20
9.4052 -28.1671 0.5760 0.2282 0 3
10.0197 -26.4196 0.5480 0.0943 0 2
9.8371 -23.0920 0.4868 0.1062 0 2
9.6934 -20.4341 0.4386 0.1178 0 2
9.5777 -18.2559 0.3998 0.1293 0 2
9.4826 -16.4325 0.3680 0.1405 0 2
9.9386 -15.7259 0.3608 0.1658 0 2
9.7037 -14.0680 0.3315 0.1522 0 1
9.6561 -12.8600 0.3119 0.1709 0 1
9.6219 -11.7951 0.2952 0.1785 0 1
9.5666 -10.8089 0.2800 0.1863 0 1
9.5095 -9.9111 0.2664 0.1958 0 1
9.4330 -9.0712 0.2538 0.1979 0 1
9.3629 -8.3056 0.2427 0.2215 0 1
9.3278 -7.6267 0.2337 0.2333 0 1
9.3053 -7.0034 0.2259 0.2413 0 1
6.2464 -4.3190 0.1473 0.3315 14 6
9.2768 -5.8775 0.2130 0.2604 0 1
9.0113 -5.2136 0.2019 0.2567 0 25
8.9971 -4.7331 0.1972 0.2629 0 25
8.6659 -4.1228 0.1861 0.2644 0 9
8.6772 -3.7080 0.1830 0.9367 0 9
8.9638 -3.4111 0.1860 0.2786 0 25
8.9554 -3.0015 0.1832 0.2829 0 25
8.9481 -2.6038 0.1807 0.2868 0 25
8.9972 -2.2299 0.1798 0.2980 0 2
9.2694 -1.9053 0.1835 0.2931 0 1
9.2812 -1.5216 0.1824 0.2949 0 1
3.9713 -0.4880 0.0776 0.9628 25 14
3.9475 -0.3246 0.0768 0.9654 25 14
3.9213 -0.1641 0.0761 0.9743 25 14
3.8956 -0.0063 0.0756 0.9816 25 14
3.9135 0.1512 0.0760 0.9764 25 14
3.9390 0.3112 0.0766 0.9678 25 14
3.9651 0.4743 0.0775 0.9576 25 14
9.4835 1.5235 0.1863 0.2885 0 1
9.5250 1.9259 0.1885 0.2852 0 1
9.5719 2.3397 0.1911 0.2805 0 1
9.6230 2.7667 0.1942 0.2760 0 1
9.6769 3.2088 0.1977 0.2711 0 1
9.7341 3.6684 0.2018 0.2657 0 1
9.7913 4.1469 0.2062 0.2579 0 1
9.7913 4.6197 0.2100 0.2668 0 1
9.7911 5.1107 0.2142 0.2615 0 1
9.7920 5.6234 0.2190 0.2558 0 1
9.7820 6.1535 0.2241 0.2822 0 1
9.6786 6.6463 0.2277 0.2778 0 1
9.5728 7.1567 0.2318 0.2729 0 1
9.3707 8.2588 0.2423 0.6834 0 2
9.1143 8.7085 0.2445 0.2114 0 2
9.1468 9.4719 0.2554 0.2024 0 2
9.1838 10.3095 0.2678 0.1930 0 2
9.2261 11.2359 0.2820 0.1833 0 2
9.2748 12.2699 0.2983 0.1733 0 2
9.3314 13.4355 0.3173 0.1629 0 2
-0.3182 24.4486 0.2032 0.3328 0 9
-31.8401 38.0475 0.4123 0.6007 0 3
-29.8939 32.9350 0.3697 0.7627 0 3
-30.0764 30.5701 0.3564 0.2283 0 3
-30.1650 28.2890 0.3437 0.2471 0 3
-31.7436 27.4557 0.3488 0.7100 0 3
-34.7094 27.6612 0.3689 0.6282 0 3
-30.0206 22.0104 0.3094 0.2642 0 3
-30.2358 20.3509 0.3029 0.2716 0 3
-29.8515 18.3926 0.2914 0.5113 0 3
-29.8308 16.7636 0.2844 0.7492 0 3
-34.8186 17.7636 0.3249 0.4601 0 3
-36.9547 -33.4020 0.4140 0.5283 0 20
-34.8342 -34.1287 0.4053 0.8753 0 20
-34.0447 -36.1507 0.4127 0.8596 0 20
1.9075 -38.8483 0.3233 0.9702 0 6
6.1913 -47.5387 0.3984 0.9922 0 3
7.6809 -44.8178 0.3779 0.1583 0 3
5.2805 -24.7800 0.2106 0.9554 0 6
8.3334 -32.6123 0.2798 0.9452 0 3
8.7376 -29.2374 0.2536 0.9599 0 20
9.0783 -26.4502 0.2324 0.0953 0 2
9.0007 -23.1478 0.2064 0.1073 0 2
8.9396 -20.5083 0.1859 0.1191 0 2
8.8904 -18.3439 0.1694 0.1307 0 2
8.8499 -16.5314 0.1558 0.1421 0 2
9.3124 -15.8305 0.1526 0.1679 0 2
9.1198 -14.1669 0.1400 0.1544 0 1
9.0980 -12.9568 0.1316 0.1736 0 1
9.0941 -11.9031 0.1245 0.1814 0 1
9.0825 -10.9457 0.1182 0.1891 0 1
9.0488 -10.0534 0.1124 0.1989 0 1
8.9991 -9.2236 0.1071 0.2010 0 1
8.9570 -8.4706 0.1025 0.2249 0 1
8.9357 -7.7942 0.0985 0.2339 0 1
8.9248 -7.1737 0.0952 0.2455 0 1
8.9324 -6.6065 0.0923 0.2760 0 1
6.2346 -4.2343 0.0626 0.9126 14 6
8.6619 -5.3869 0.0848 0.2620 0 25
8.6557 -4.9118 0.0827 0.2686 0 25
8.6502 -4.4588 0.0809 0.2746 0 25
8.6454 -4.0248 0.0793 0.2803 0 25
8.6411 -3.6075 0.0778 0.2854 0 25
8.6374 -3.2045 0.0766 0.2901 0 25
8.6341 -2.8138 0.0755 0.2943 0 25
8.6313 -2.4336 0.0745 0.2980 0 25
8.9391 -2.1364 0.0764 0.3008 0 1
8.9218 -1.7563 0.0756 0.3041 0 24
4.3127 -0.6701 0.0363 0.0927 25 14
3.9609 -0.4532 0.0331 0.9664 25 14
3.9382 -0.2908 0.0328 0.9685 25 14
3.9123 -0.1310 0.0325 0.9770 25 14
3.8903 0.0263 0.0323 0.9831 25 14
3.9155 0.1841 0.0326 0.9757 25 14
3.9410 0.3445 0.0329 0.9668 25 14
3.9635 0.5078 0.0332 0.9642 25 14
9.1575 1.5497 0.0772 0.2984 0 1
9.1940 1.9391 0.0781 0.2950 0 1
9.2350 2.3393 0.0792 0.2901 0 1
9.2793 2.7520 0.0804 0.2856 0 1
9.3255 3.1789 0.0819 0.2805 0 1
9.3727 3.6220 0.0835 0.2729 0 1
9.4165 4.0813 0.0853 0.2672 0 1
9.4180 4.5402 0.0869 0.2763 0 1
9.4106 5.0126 0.0886 0.2709 0 1
9.4034 5.5052 0.0906 0.2651 0 1
9.3926 6.0187 0.0927 0.2585 0 1
9.3038 6.5040 0.0943 0.2874 0 1
9.1951 6.9948 0.0960 0.2824 0 1
9.0993 7.5183 0.0981 0.2746 0 1
9.1469 8.1983 0.1021 0.2400 0 2
8.6852 8.4385 0.1006 0.2201 0 2
8.6981 9.1592 0.1050 0.2110 0 2
8.7128 9.9469 0.1099 0.2016 0 2
8.7295 10.8142 0.1155 0.1918 0 2
6.7166 9.0416 0.0936 0.6434 22 6
8.7708 12.8564 0.1294 0.1712 0 2
8.7966 14.0787 0.1380 0.1605 0 2
8.3686 14.6759 0.1404 0.8655 0 3
8.2506 15.9248 0.1491 0.4448 0 3
8.2346 17.5919 0.1614 0.4107 0 3
8.0543 19.1798 0.1729 0.3759 0 3
9.0015 24.1082 0.2139 0.9345 0 3
8.0038 24.3866 0.2133 0.3047 0 3
8.1341 28.6206 0.2473 0.2683 0 3
8.7074 36.1002 0.3086 0.7410 0 6
1.8302 15.7057 0.1314 0.5031 0 9
1.7872 23.5364 0.1962 0.0645 0 9
0.8401 23.6112 0.1964 0.7822 0 9
-0.1127 24.1836 0.2010 0.0978 0 9
-30.0742 31.0832 0.3595 0.2221 0 3
-30.1421 28.7446 0.3462 0.2463 0 3
-31.7478 27.9264 0.3514 0.7048 0 3
-34.1252 27.6649 0.3651 0.6346 0 3
-30.0151 22.3943 0.3112 0.2626 0 3
-30.2326 20.7178 0.3046 0.2681 0 3
-29.8593 18.7434 0.2930 0.2123 0 3
-29.8341 17.0950 0.2858 0.7456 0 3
-34.2515 17.8364 0.3210 0.2898 0 3
-34.9948 -33.7177 0.4039 0.8784 0 20
-34.2111 -35.7246 0.4111 0.8630 0 20
5.7880 -47.5408 0.3980 0.9937 0 3
7.3620 -36.0217 0.3056 0.9820 0 3
8.3195 -33.7302 0.2887 0.2313 0 3
8.4726 -29.2391 0.2530 0.9622 0 20
9.0971 -27.2442 0.2387 0.0928 0 2
9.0153 -23.7713 0.2113 0.1048 0 2
8.9512 -21.0124 0.1898 0.1167 0 2
8.8998 -18.7611 0.1726 0.1283 0 2
8.8577 -16.8835 0.1585 0.1398 0 2
9.3030 -16.1213 0.1547 0.1657 0 2
9.1322 -14.4500 0.1421 0.1522 0 1
9.1002 -13.1930 0.1332 0.1704 0 1
9.0950 -12.1127 0.1259 0.1814 0 1
9.0854 -11.1373 0.1195 0.1891 0 1
9.0555 -10.2315 0.1136 0.1969 0 1
9.0107 -9.3912 0.1082 0.1990 0 1
8.9617 -8.6180 0.1033 0.2230 0 1
8.9400 -7.9304 0.0993 0.2320 0 1
8.9267 -7.2988 0.0958 0.2438 0 1
8.9273 -6.7189 0.0929 0.2744 0 1
6.2343 -4.3106 0.0630 0.6992 14 6
6.4832 -4.1075 0.0638 0.5699 14 6
8.6569 -5.0086 0.0831 0.2672 0 25
8.6513 -4.5512 0.0812 0.2734 0 25
8.6463 -4.1135 0.0796 0.2791 0 25
8.6420 -3.6929 0.0781 0.2844 0 25
8.6381 -3.2871 0.0768 0.2892 0 25
8.6347 -2.8940 0.0757 0.2935 0 25
8.6318 -2.5118 0.0747 0.2973 0 25
8.9373 -2.2150 0.0765 0.3002 0 1
8.9484 -1.8393 0.0759 0.3036 0 1
8.9616 -1.4692 0.0755 0.3055 0 1
3.9627 -0.4870 0.0332 0.9650 25 14
3.9437 -0.3243 0.0329 0.9665 25 14
3.9176 -0.1640 0.0326 0.9754 25 14
3.8920 -0.0063 0.0323 0.9827 25 14
3.9102 0.1511 0.0325 0.9774 25 14
3.9357 0.3109 0.0328 0.9688 25 14
3.9615 0.4739 0.0332 0.9657 25 14
4.3696 0.7020 0.0368 0.0915 25 14
9.1527 1.8507 0.0776 0.2953 0 24
9.2261 2.2552 0.0789 0.2910 0 1
9.2700 2.6652 0.0802 0.2866 0 1
9.3157 3.0890 0.0816 0.2816 0 1
9.3636 3.5288 0.0832 0.2762 0 1
9.4072 3.9843 0.0849 0.2684 0 1
9.4195 4.4443 0.0866 0.2773 0 1
9.4121 4.9129 0.0882 0.2721 0 1
9.4049 5.4011 0.0901 0.2663 0 1
9.3950 5.9101 0.0922 0.2598 0 1
9.3260 6.4041 0.0940 0.2884 0 1
9.2180 6.8914 0.0957 0.2834 0 1
9.1183 7.4067 0.0976 0.2759 0 1
9.1518 8.0659 0.1014 0.2416 0 2
8.6834 8.2968 0.0998 0.2212 0 2
8.6953 9.0044 0.1040 0.2129 0 2
8.7096 9.7772 0.1088 0.2035 0 2
8.7259 10.6267 0.1143 0.1938 0 2
8.7445 11.5683 0.1205 0.1838 0 2
6.4281 9.2553 0.0937 0.4156 22 6
-31.4753 37.6116 -0.1359 0.9307 0 3
-31.4099 31.9256 -0.1241 0.6610 0 3
-31.3939 29.4415 -0.1192 0.6879 0 3
-31.5869 27.3202 -0.1157 0.7136 0 3
-34.7081 27.6601 -0.1230 0.6282 0 3
-31.5597 23.1388 -0.1084 0.7615 0 3
-31.3164 21.0781 -0.1046 0.7837 0 3
-31.3046 19.2879 -0.1019 0.8045 0 3
-31.2933 17.5855 -0.0994 0.8241 0 3
-36.5823 18.6634 -0.1138 0.8424 0 3
-38.5233 17.7390 -0.1175 0.4241 0 3
-38.9283 16.0612 -0.1167 0.3873 0 3
-37.0178 -33.4590 -0.1382 0.3782 0 20
-34.7070 -34.0041 -0.1346 0.8826 0 20
-33.7102 -35.7956 -0.1362 0.9289 0 20
7.9939 -46.6445 -0.1311 0.0563 0 2
3.9633 -18.5988 -0.0527 0.9640 0 6
8.1142 -31.7542 -0.0908 0.0813 0 2
8.1498 -27.2706 -0.0789 0.0936 0 2
8.1768 -23.8238 -0.0698 0.1058 0 2
8.1981 -21.0835 -0.0627 0.1178 0 2
8.2151 -18.8461 -0.0570 0.1296 0 2
8.2291 -16.9794 -0.0523 0.1413 0 2
8.6602 -16.1771 -0.0508 0.9152 0 2
8.5605 -14.5523 -0.0468 0.1476 0 1
8.5129 -13.2240 -0.0436 0.1718 0 24
8.5772 -12.2151 -0.0413 0.1841 0 1
8.5947 -11.2494 -0.0392 0.1920 0 1
8.6041 -10.3692 -0.0373 0.1996 0 1
8.5856 -9.5387 -0.0356 0.2019 0 1
8.5644 -8.7781 -0.0340 0.2261 0 1
8.5583 -8.0935 -0.0326 0.2354 0 1
8.5561 -7.4631 -0.0315 0.2476 0 1
8.5745 -6.8920 -0.0305 0.2787 0 1
8.6073 -6.3661 -0.0297 0.2864 0 1
6.2171 -4.2224 -0.0208 0.8076 14 6
8.3279 -5.1793 -0.0272 0.2725 0 25
8.3298 -4.7269 -0.0265 0.2791 0 25
8.3315 -4.2945 -0.0260 0.2852 0 25
8.3330 -3.8794 -0.0255 0.2908 0 25
8.3343 -3.4794 -0.0250 0.2959 0 25
8.3355 -3.0925 -0.0246 0.3006 0 25
8.3365 -2.7168 -0.0243 0.3048 0 25
8.3417 -2.3519 -0.0240 0.3007 0 2
8.6377 -2.0643 -0.0246 0.3122 0 1
8.6234 -1.6976 -0.0243 0.3143 0 24
4.0938 -0.6361 -0.0115 0.2632 25 14
3.9523 -0.4522 -0.0110 0.9686 25 14
3.9345 -0.2905 -0.0109 0.9694 25 14
3.9086 -0.1309 -0.0108 0.9780 25 14
3.8870 0.0262 -0.0108 0.9839 25 14
3.9121 0.1839 -0.0109 0.9766 25 14
3.9376 0.3442 -0.0110 0.9676 25 14
3.9550 0.5067 -0.0110 0.9663 25 14
4.5690 0.7732 -0.0128 0.0117 25 14
8.8776 1.8724 -0.0251 0.3055 0 1
8.9122 2.2575 -0.0255 0.3006 0 1
8.9499 2.6543 -0.0259 0.2961 0 1
8.9887 3.0641 -0.0263 0.2911 0 1
9.0246 3.4874 -0.0268 0.2835 0 1
9.0596 3.9266 -0.0274 0.2778 0 1
9.0722 4.3735 -0.0279 0.2868 0 1
9.0585 4.8250 -0.0284 0.2815 0 1
9.0440 5.2948 -0.0290 0.2752 0 1
9.0248 5.7830 -0.0297 0.2691 0 1
8.9757 6.2746 -0.0303 0.2979 0 1
8.8653 6.7439 -0.0309 0.2929 0 1
8.7646 7.2418 -0.0315 0.2851 0 1
8.7634 7.8546 -0.0326 0.2509 0 2
8.5058 8.2642 -0.0329 0.7428 0 2
8.2856 8.7248 -0.0333 0.2215 0 2
8.2811 9.4541 -0.0348 0.2121 0 2
8.2761 10.2524 -0.0365 0.2023 0 2
6.7013 9.0211 -0.0311 0.8171 22 6
8.2638 12.1132 -0.0406 0.1818 0 2
8.2562 13.2139 -0.0432 0.1711 0 2
8.2474 14.4633 -0.0461 0.1601 0 2
8.2370 15.8986 -0.0496 0.1488 0 2
8.2247 17.5707 -0.0537 0.1374 0 2
8.1305 19.3612 -0.0582 0.3724 0 3
8.1912 21.9380 -0.0649 0.1138 0 2
8.0948 24.6640 -0.0719 0.3012 0 3
8.1387 28.6368 -0.0825 0.0895 0 2
8.0995 33.5800 -0.0957 0.0772 0 2
2.9336 14.7402 -0.0416 0.7008 0 9
2.7423 23.5323 -0.0656 0.4201 0 9
1.9217 25.3074 -0.0703 0.9769 0 9
0.9190 25.8291 -0.0716 0.2387 0 9
-31.6586 38.4794 -0.1380 0.5981 0 3
-31.4134 32.4673 -0.1252 0.6553 0 3
-31.3972 29.9415 -0.1202 0.6824 0 3
-31.4061 27.6259 -0.1159 0.8245 0 3
-34.1239 27.6639 -0.1217 0.6347 0 3
-31.5623 23.5487 -0.1091 0.7568 0 3
-31.3189 21.4622 -0.1052 0.7792 0 3
-31.3070 19.6521 -0.1024 0.8003 0 3
-31.2956 17.9324 -0.0999 0.8202 0 3
-31.3146 16.3070 -0.0978 0.9176 0 3
-37.7023 17.7442 -0.1154 0.4316 0 3
-38.9831 16.4662 -0.1172 0.2902 0 3
-34.8679 -33.5954 -0.1341 0.8857 0 20
-33.9334 -35.4346 -0.1359 0.9310 0 20
7.9748 -48.9884 -0.1375 0.0537 0 2
7.3618 -36.0209 -0.1019 0.9804 0 3
8.0467 -32.6243 -0.0931 0.9729 0 3
8.1432 -28.1023 -0.0811 0.0911 0 2
8.1718 -24.4731 -0.0715 0.1033 0 2
8.1940 -21.6058 -0.0640 0.1153 0 2
8.2118 -19.2768 -0.0580 0.1272 0 2
8.2264 -17.3415 -0.0532 0.1389 0 2
8.4962 -16.1944 -0.0507 0.9183 0 2
8.5757 -14.8610 -0.0475 0.1453 0 1
8.5542 -13.5354 -0.0444 0.1706 0 1
8.5720 -12.4273 -0.0418 0.1821 0 1
8.5916 -11.4423 -0.0396 0.1899 0 1
8.6056 -10.5491 -0.0377 0.1996 0 1
8.5603 -9.6719 -0.0358 0.2061 0 24
8.5658 -8.9275 -0.0343 0.2241 0 1
8.5595 -8.2313 -0.0329 0.2335 0 1
8.5554 -7.5893 -0.0317 0.2458 0 1
8.5674 -7.0050 -0.0307 0.2771 0 1
8.6006 -6.4730 -0.0298 0.2849 0 1
6.2176 -4.2991 -0.0209 0.8029 14 6
6.4679 -4.0978 -0.0212 0.5713 14 6
8.3294 -4.8191 -0.0267 0.2778 0 25
8.3312 -4.3828 -0.0261 0.2839 0 25
8.3327 -3.9643 -0.0256 0.2897 0 25
8.3341 -3.5614 -0.0251 0.2949 0 25
8.3353 -3.1719 -0.0247 0.2997 0 25
8.3363 -2.7940 -0.0244 0.3040 0 25
8.3372 -2.4260 -0.0241 0.3078 0 25
8.6348 -2.1401 -0.0246 0.3116 0 1
8.6202 -1.7719 -0.0244 0.3139 0 24
4.4147 -0.7238 -0.0124 0.0904 25 14
3.9541 -0.4859 -0.0110 0.9672 25 14
3.9400 -0.3240 -0.0110 0.9675 25 14
3.9139 -0.1638 -0.0109 0.9763 25 14
3.8883 -0.0062 -0.0108 0.9836 25 14
3.9069 0.1509 -0.0108 0.9782 25 14
3.9323 0.3107 -0.0109 0.9696 25 14
3.9531 0.4729 -0.0110 0.9678 25 14
4.1183 0.6616 -0.0116 0.2615 25 14
8.8380 1.7870 -0.0250 0.3057 0 24
8.9045 2.1766 -0.0254 0.3015 0 1
8.9420 2.5709 -0.0258 0.2971 0 1
8.9805 2.9779 -0.0262 0.2921 0 1
9.0175 3.3984 -0.0267 0.2846 0 1
9.0522 3.8339 -0.0272 0.2790 0 1
9.0750 4.2817 -0.0278 0.2879 0 1
9.0614 4.7298 -0.0283 0.2826 0 1
9.0472 5.1956 -0.0289 0.2769 0 1
9.0289 5.6798 -0.0296 0.2704 0 1
8.9982 6.1790 -0.0302 0.2989 0 1
8.8885 6.6451 -0.0307 0.2940 0 1
8.7845 7.1355 -0.0314 0.2864 0 1
8.6380 8.2534 -0.0331 0.7374 0 2
8.2864 8.5809 -0.0330 0.2234 0 2
8.2821 9.2973 -0.0345 0.2141 0 2
8.2772 10.0803 -0.0361 0.2043 0 2
8.2716 10.9427 -0.0380 0.1943 0 2
6.4250 9.2508 -0.0312 0.5648 22 6
-31.4710 37.6065 -0.6793 0.6077 0 3
-29.6028 32.6142 -0.6102 0.6062 0 3
-31.4504 31.9667 -0.6212 0.6645 0 3
-34.8214 32.6559 -0.6613 0.6887 0 3
-31.4317 27.1860 -0.5757 0.7170 0 3
-34.7068 27.6591 -0.6148 0.6282 0 3
-31.2446 22.9078 -0.5367 0.9209 0 3
-33.6750 22.6657 -0.5623 0.5636 0 3
-36.4486 22.4573 -0.5931 0.8080 0 3
-31.6431 17.7821 -0.5028 0.4954 0 3
-32.5631 16.6129 -0.5064 0.2802 0 3
-36.5113 16.8125 -0.5568 0.8319 0 3
-40.4411 16.6853 -0.6060 0.2807 0 3
-34.6633 -33.9613 -0.6722 0.9442 0 20
-33.5992 -35.6777 -0.6789 0.9319 0 20
-16.8659 -27.2460 -0.4439 0.4950 0 6
6.3525 -48.7765 -0.6814 0.0542 0 2
6.7370 -39.3102 -0.5525 0.0668 0 2
3.9742 -18.6498 -0.2642 0.6017 0 6
7.1857 -28.1207 -0.4021 0.0918 0 2
7.3276 -24.5193 -0.3545 0.1041 0 2
7.4382 -21.6718 -0.3174 0.1163 0 2
7.5268 -19.3572 -0.2877 0.1283 0 2
7.5992 -17.4331 -0.2634 0.1401 0 2
7.8852 -16.2698 -0.2505 0.9565 0 2
8.0197 -14.9807 -0.2354 0.1467 0 1
8.0188 -13.6315 -0.2191 0.1727 0 1
8.0660 -12.5298 -0.2064 0.1833 0 1
8.1097 -11.5494 -0.1955 0.1925 0 1
8.1472 -10.6637 -0.1859 0.2025 0 1
8.1735 -9.8503 -0.1773 0.2101 0 1
8.1751 -9.0827 -0.1693 0.2269 0 1
8.1851 -8.3892 -0.1624 0.2366 0 1
8.1935 -7.7486 -0.1562 0.2459 0 1
8.2228 -7.1723 -0.1512 0.2810 0 1
8.2653 -6.6436 -0.1469 0.2891 0 1
8.3050 -6.1425 -0.1431 0.2968 0 1
6.2335 -4.2335 -0.1044 0.8054 14 6
6.5679 -4.0847 -0.1071 0.3477 14 6
8.0276 -4.5554 -0.1279 0.2896 0 25
8.0354 -4.1419 -0.1252 0.2956 0 25
8.0424 -3.7441 -0.1229 0.3013 0 25
8.0486 -3.3601 -0.1208 0.3064 0 25
8.0540 -2.9881 -0.1190 0.3111 0 25
8.0587 -2.6263 -0.1174 0.3153 0 25
8.0628 -2.2733 -0.1160 0.3191 0 2
8.3562 -1.9971 -0.1190 0.3226 0 1
8.3721 -1.6481 -0.1182 0.3251 0 1
4.0268 -0.6257 -0.0565 0.3056 25 14
3.9438 -0.4512 -0.0550 0.9706 25 14
3.9308 -0.2902 -0.0546 0.9703 25 14
3.9049 -0.1308 -0.0541 0.9788 25 14
3.8838 0.0262 -0.0538 0.9847 25 14
3.9088 0.1837 -0.0542 0.9773 25 14
3.9343 0.3439 -0.0547 0.9684 25 14
3.9466 0.5056 -0.0551 0.9683 25 14
4.1565 0.7034 -0.0584 0.2587 25 14
8.5504 1.8034 -0.1211 0.3154 0 24
8.6111 2.1812 -0.1231 0.3111 0 1
8.6430 2.5633 -0.1249 0.3066 0 1
8.6745 2.9570 -0.1270 0.2992 0 1
8.7014 3.3625 -0.1292 0.2940 0 1
8.7287 3.7832 -0.1318 0.2883 0 1
8.7509 4.2186 -0.1346 0.2973 0 1
8.7318 4.6510 -0.1370 0.2920 0 1
8.7105 5.0996 -0.1398 0.2857 0 1
8.6847 5.5651 -0.1429 0.2796 0 1
8.6570 6.0518 -0.1463 0.2730 0 1
8.5583 6.5104 -0.1490 0.3034 0 1
8.4537 6.9848 -0.1519 0.2955 0 1
8.3518 7.4857 -0.1554 0.2889 0 1
8.3647 8.1271 -0.1616 0.2531 0 2
7.9113 8.3306 -0.1591 0.2311 0 2
7.8902 9.0077 -0.1659 0.2226 0 2
7.8674 9.7462 -0.1735 0.2128 0 2
6.6900 9.0057 -0.1554 0.8184 22 6
7.8122 11.4512 -0.1920 0.1922 0 2
7.7784 12.4492 -0.2034 0.1815 0 2
7.7394 13.5724 -0.2164 0.1706 0 2
7.6939 14.8503 -0.2317 0.1593 0 2
7.6403 16.3223 -0.2497 0.1479 0 2
7.5764 18.0418 -0.2711 0.1362 0 2
7.4991 20.0844 -0.2970 0.1243 0 2
7.4037 22.5581 -0.3289 0.1122 0 2
7.2838 25.6287 -0.3691 0.1000 0 2
7.1287 29.5551 -0.4212 0.0877 0 2
6.9201 34.7702 -0.4911 0.0752 0 2
6.9579 44.1720 -0.6194 0.0716 0 24
2.7650 23.7269 -0.3309 0.8473 0 9
1.9253 25.3551 -0.3522 0.5827 0 9
-17.5117 36.5207 -0.5611 0.8917 0 6
-31.4732 38.2541 -0.6862 0.6015 0 3
-31.4524 32.5077 -0.6266 0.6588 0 3
-34.2474 32.6595 -0.6556 0.6947 0 3
-31.4336 27.6501 -0.5799 0.7118 0 3
-34.1226 27.6628 -0.6085 0.6347 0 3
-31.4161 23.4396 -0.5430 0.7602 0 3
-31.6144 21.6647 -0.5309 0.5705 0 3
-36.0832 22.6502 -0.5902 0.5370 0 3
-31.3888 17.9858 -0.5011 0.8236 0 3
-32.4555 16.9012 -0.5069 0.2688 0 3
-37.7002 17.7432 -0.5772 0.4316 0 3
-34.8818 -33.6088 -0.6710 0.9459 0 20
-33.8220 -35.3182 -0.6774 0.9370 0 20
-17.2323 -27.3251 -0.4475 0.3910 0 6
6.6697 -40.9713 -0.5750 0.0642 0 2
6.9506 -34.0092 -0.4809 0.0768 0 2
7.1511 -28.9930 -0.4137 0.0892 0 2
7.3010 -25.1959 -0.3634 0.1016 0 2
7.4173 -22.2135 -0.3244 0.1138 0 2
7.5099 -19.8019 -0.2934 0.1258 0 2
7.5853 -17.8059 -0.2681 0.1377 0 2
7.7328 -16.3010 -0.2499 0.9778 0 2
8.0260 -15.2982 -0.2393 0.1443 0 1
8.0082 -13.8775 -0.2220 0.1705 0 1
8.0567 -12.7482 -0.2089 0.1811 0 1
8.1013 -11.7449 -0.1976 0.1904 0 1
8.1398 -10.8406 -0.1878 0.2004 0 1
8.1712 -10.0167 -0.1791 0.2081 0 1
8.1728 -9.2342 -0.1708 0.2249 0 1
8.1831 -8.5287 -0.1637 0.2346 0 1
8.1919 -7.8777 -0.1574 0.2440 0 1
8.2136 -7.2860 -0.1521 0.2793 0 1
8.2567 -6.7510 -0.1477 0.2875 0 1
8.2109 -6.1798 -0.1424 0.2818 0 24
6.2341 -4.3105 -0.1050 0.8007 14 6
6.4527 -4.0882 -0.1058 0.5726 14 6
8.0258 -4.6435 -0.1284 0.2882 0 25
8.0339 -4.2264 -0.1258 0.2944 0 25
8.0410 -3.8255 -0.1234 0.3001 0 25
8.0474 -3.4388 -0.1212 0.3054 0 25
8.0529 -3.0644 -0.1194 0.3102 0 25
8.0578 -2.7006 -0.1177 0.3145 0 25
8.0629 -2.3462 -0.1163 0.3104 0 2
8.3529 -2.0702 -0.1192 0.3221 0 1
8.3407 -1.7144 -0.1180 0.3244 0 24
4.1215 -0.6757 -0.0579 0.2611 25 14
3.9456 -0.4849 -0.0551 0.9692 25 14
3.9362 -0.3237 -0.0547 0.9683 25 14
3.9103 -0.1637 -0.0542 0.9772 25 14
3.8847 -0.0062 -0.0538 0.9844 25 14
3.9036 0.1508 -0.0541 0.9790 25 14
3.9290 0.3104 -0.0546 0.9704 25 14
3.9447 0.4719 -0.0550 0.9698 25 14
4.0503 0.6507 -0.0568 0.3037 25 14
8.5443 1.7276 -0.1208 0.3164 0 24
8.6045 2.1032 -0.1227 0.3120 0 1
8.6364 2.4830 -0.1245 0.3076 0 1
8.6686 2.8744 -0.1265 0.3026 0 1
8.6958 3.2771 -0.1287 0.2951 0 1
8.7230 3.6945 -0.1312 0.2895 0 1
8.7507 4.1287 -0.1340 0.2834 0 1
8.7359 4.5599 -0.1365 0.2931 0 1
8.7157 5.0053 -0.1392 0.2869 0 1
8.6902 5.4667 -0.1422 0.2809 0 1
8.6629 5.9488 -0.1456 0.2744 0 1
8.5818 6.4158 -0.1484 0.3044 0 1
8.4742 6.8835 -0.1512 0.2968 0 1
8.3734 7.3798 -0.1546 0.2903 0 1
8.3747 8.0019 -0.1605 0.2549 0 2
8.0197 8.3047 -0.1599 0.8061 0 2
7.8946 8.8622 -0.1644 0.2245 0 2
7.8724 9.5873 -0.1718 0.2148 0 2
6.8043 9.0016 -0.1563 0.8137 22 6
6.4492 9.2858 -0.1566 0.5626 22 6
-0.1918 14.7352 -0.3675 0.7320 0 9
-31.2896 37.3897 -1.2159 0.6111 0 3
-31.5285 34.7358 -1.1699 0.6400 0 3
-31.2845 31.7981 -1.1124 0.6679 0 3
-17.6141 16.5186 -0.6022 0.7327 0 6
-31.2780 27.0530 -1.0313 0.7204 0 3
-34.7055 27.6580 -1.1067 0.6281 0 3
-31.2703 22.9266 -0.9670 0.7683 0 3
-33.6736 22.6647 -1.0123 0.5635 0 3
-36.2904 22.3598 -1.0630 0.8113 0 3
-31.6416 17.7812 -0.9052 0.4954 0 3
-34.0007 17.3463 -0.9519 0.2594 0 3
-38.5190 17.7370 -1.0576 0.4240 0 3
-41.4167 17.0878 -1.1173 0.8872 0 3
-34.6055 -33.9047 -1.2082 0.9741 0 20
-33.3002 -35.3602 -1.2113 0.9716 0 20
5.3204 -40.8520 -1.0274 0.0647 0 2
5.8214 -33.9676 -0.8594 0.0773 0 2
6.1794 -28.9985 -0.7394 0.0899 0 2
6.4477 -25.2325 -0.6495 0.1023 0 2
6.6558 -22.2716 -0.5797 0.1146 0 2
6.8218 -19.8758 -0.5241 0.1268 0 2
6.9570 -17.8917 -0.4787 0.1388 0 2
7.1611 -16.4281 -0.4469 0.9948 0 2
7.4630 -15.3988 -0.4267 0.1369 0 1
7.4767 -13.9663 -0.3951 0.1737 0 1
7.5157 -12.7763 -0.3697 0.1870 0 24
7.5985 -11.8037 -0.3501 0.1944 0 24
7.6656 -10.9169 -0.3327 0.2048 0 24
7.7213 -10.1062 -0.3172 0.2154 0 24
7.7577 -9.3492 -0.3030 0.2234 0 24
7.7831 -8.6472 -0.2901 0.2350 0 24
7.8077 -8.0024 -0.2788 0.2499 0 24
7.8344 -7.4089 -0.2689 0.2643 0 24
7.9286 -6.9157 -0.2624 0.2914 0 1
7.9776 -6.4123 -0.2553 0.2995 0 1
7.9916 -5.9107 -0.2479 0.2584 0 1
6.2499 -4.2447 -0.1884 0.8031 14 6
6.5491 -4.0730 -0.1923 0.5670 14 6
7.7464 -4.3958 -0.2221 0.3000 0 25
7.7596 -3.9997 -0.2177 0.3061 0 25
7.7713 -3.6179 -0.2138 0.3117 0 25
7.7817 -3.2487 -0.2103 0.3169 0 25
7.7908 -2.8904 -0.2072 0.3216 0 25
7.7988 -2.5416 -0.2046 0.3258 0 25
7.9300 -2.2359 -0.2055 0.3350 0 2
8.0924 -1.9340 -0.2075 0.3331 0 1
8.1097 -1.5964 -0.2061 0.3355 0 1
3.9656 -0.6162 -0.1001 0.3103 25 14
3.9353 -0.4503 -0.0988 0.9725 25 14
3.9266 -0.2899 -0.0982 0.9783 25 14
3.9013 -0.1306 -0.0973 0.9795 25 14
3.8805 0.0262 -0.0968 0.9853 25 14
3.9055 0.1836 -0.0975 0.9779 25 14
3.9291 0.3435 -0.0984 0.9766 25 14
3.9382 0.5045 -0.0990 0.9702 25 14
4.0859 0.6915 -0.1033 0.3006 25 14
8.2745 1.7452 -0.2109 0.3258 0 24
8.3296 2.1099 -0.2143 0.3216 0 1
8.3565 2.4783 -0.2174 0.3170 0 1
8.3796 2.8565 -0.2208 0.3097 0 1
8.4005 3.2463 -0.2246 0.3044 0 1
8.4211 3.6499 -0.2289 0.2987 0 1
8.4414 4.0694 -0.2337 0.2926 0 1
8.4278 4.4891 -0.2381 0.3024 0 1
8.4006 4.9181 -0.2428 0.2962 0 1
8.3692 5.3629 -0.2479 0.2901 0 1
8.3352 5.8269 -0.2536 0.2835 0 1
8.2717 6.2924 -0.2592 0.3138 0 1
8.1639 6.7454 -0.2641 0.3059 0 1
8.0593 7.2235 -0.2699 0.2994 0 1
7.8873 8.3054 -0.2856 0.8117 0 2
7.5344 8.6015 -0.2852 0.2330 0 2
7.4971 9.2874 -0.2977 0.2232 0 2
6.6786 8.9905 -0.2793 0.8196 22 6
7.4073 10.8577 -0.3278 0.2027 0 2
7.3528 11.7679 -0.3460 0.1920 0 2
7.2902 12.7847 -0.3670 0.1810 0 2
7.2178 13.9314 -0.3913 0.1698 0 2
7.1333 15.2392 -0.4196 0.1584 0 2
7.0336 16.7493 -0.4530 0.1467 0 2
6.9145 18.5187 -0.4930 0.1348 0 2
6.7700 20.6275 -0.5414 0.1227 0 2
6.5914 23.1925 -0.6013 0.1105 0 2
6.3655 26.3909 -0.6770 0.0981 0 2
6.0712 30.5052 -0.7757 0.0857 0 2
2.2601 14.3480 -0.3622 0.6301 0 9
3.8352 32.9112 -0.8263 0.6926 0 19
2.0396 26.8602 -0.6718 0.5985 0 9
-31.2900 38.0313 -1.2282 0.6049 0 3
-29.4006 32.9403 -1.1011 0.4755 0 3
-31.2851 32.3347 -1.1220 0.6622 0 3
-34.2462 32.6584 -1.1801 0.6946 0 3
-31.2788 27.5139 -1.0389 0.7152 0 3
-34.1213 27.6618 -1.0954 0.6345 0 3
-31.2712 23.3315 -0.9730 0.7636 0 3
-33.0792 22.6685 -1.0001 0.5704 0 3
-36.0816 22.6493 -1.0624 0.5369 0 3
-31.2551 17.9092 -0.8983 0.8270 0 3
-36.2801 18.8928 -1.0201 0.8455 0 3
-41.6191 19.5876 -1.1471 0.8626 0 3
-41.4183 17.4949 -1.1213 0.8841 0 3
-34.8151 -33.5445 -1.2057 0.2043 0 20
-33.5720 -35.0572 -1.2105 0.9723 0 20
5.1903 -42.6312 -1.0710 0.0620 0 2
5.7315 -35.2077 -0.8896 0.0747 0 2
6.1137 -29.9142 -0.7614 0.0873 0 2
6.3977 -25.9384 -0.6662 0.0997 0 2
6.6166 -22.8338 -0.5929 0.1121 0 2
6.7902 -20.3354 -0.5347 0.1243 0 2
6.9310 -18.2755 -0.4874 0.1363 0 2
7.0474 -16.5432 -0.4484 0.1482 0 2
7.5508 -15.9173 -0.4394 0.1762 0 2
7.4711 -14.2405 -0.4010 0.1498 0 1
7.5426 -13.0706 -0.3763 0.1813 0 1
7.5835 -11.9995 -0.3540 0.1920 0 24
7.6523 -11.0940 -0.3361 0.2027 0 24
7.7113 -10.2699 -0.3203 0.2106 0 24
7.7514 -9.5020 -0.3058 0.2208 0 24
7.7785 -8.7887 -0.2927 0.2328 0 24
7.8024 -8.1318 -0.2810 0.2479 0 24
7.8285 -7.5283 -0.2709 0.2607 0 24
7.8578 -6.9704 -0.2619 0.2743 0 24
7.9677 -6.5147 -0.2567 0.2979 0 1
8.0069 -6.0262 -0.2499 0.2563 0 1
6.2507 -4.3220 -0.1895 0.7984 14 6
6.4376 -4.0786 -0.1901 0.5738 14 6
7.7435 -4.4801 -0.2231 0.2987 0 25
7.7570 -4.0807 -0.2186 0.3049 0 25
7.7690 -3.6961 -0.2146 0.3106 0 25
7.7796 -3.3244 -0.2110 0.3158 0 25
7.7890 -2.9640 -0.2078 0.3206 0 25
7.7972 -2.6133 -0.2051 0.3249 0 25
7.8043 -2.2710 -0.2027 0.3288 0 2
8.0888 -2.0047 -0.2078 0.3326 0 1
8.0789 -1.6606 -0.2057 0.3351 0 24
4.0537 -0.6646 -0.1024 0.3031 25 14
3.9371 -0.4838 -0.0989 0.9710 25 14
3.9284 -0.3231 -0.0983 0.9772 25 14
3.9066 -0.1635 -0.0975 0.9779 25 14
3.8811 -0.0062 -0.0968 0.9852 25 14
3.9003 0.1507 -0.0973 0.9796 25 14
3.9256 0.3101 -0.0982 0.9710 25 14
3.9363 0.4709 -0.0989 0.9716 25 14
3.9944 0.6417 -0.1009 0.3079 25 14
8.3010 1.6785 -0.2112 0.3272 0 1
8.3244 2.0348 -0.2137 0.3233 0 1
8.3509 2.4009 -0.2167 0.3180 0 1
8.3752 2.7771 -0.2200 0.3107 0 1
8.3962 3.1642 -0.2238 0.3056 0 1
8.4168 3.5648 -0.2280 0.2999 0 1
8.4372 3.9808 -0.2327 0.2939 0 1
8.4329 4.4018 -0.2372 0.3036 0 1
8.4069 4.8279 -0.2418 0.2974 0 1
8.3759 5.2690 -0.2468 0.2914 0 1
8.3425 5.7288 -0.2524 0.2849 0 1
8.2955 6.2017 -0.2583 0.3149 0 1
8.1850 6.6486 -0.2630 0.3073 0 1
8.0815 7.1226 -0.2686 0.3008 0 1
7.9722 7.6173 -0.2750 0.2938 0 1
7.9858 8.2696 -0.2867 0.2575 0 2
7.5428 8.4673 -0.2828 0.2396 0 2
7.5052 9.1401 -0.2949 0.2253 0 2
6.7927 8.9862 -0.2809 0.8149 22 6
6.4737 9.3210 -0.2830 0.5604 22 6
-0.1892 14.5350 -0.5237 0.2806 0 9
-29.2283 37.9267 -1.7252 0.7284 0 3
-31.1101 37.1752 -1.7466 0.6144 0 3
-31.1159 34.2813 -1.6681 0.6433 0 3
-31.1203 31.6312 -1.5988 0.6712 0 3
-34.8190 32.6536 -1.7199 0.6883 0 3
-31.1258 26.9213 -1.4828 0.7237 0 3
-34.7042 27.6570 -1.5989 0.6279 0 3
-31.1275 22.8219 -1.3907 0.7716 0 3
-33.6722 22.6638 -1.4624 0.5634 0 3
-36.1334 22.2631 -1.5292 0.8146 0 3
-31.3322 17.6073 -1.2949 0.3230 0 3
-31.3328 15.9852 -1.2674 0.2848 0 3
-34.8481 16.0466 -1.3823 0.2111 0 3
-42.9188 17.7076 -1.6728 0.3871 0 3
-34.5103 -33.8114 -1.7407 0.9781 0 20
-32.9995 -35.0409 -1.7343 0.9813 0 20
3.8021 -42.4715 -1.5364 0.0625 0 2
4.5765 -35.1398 -1.2768 0.0752 0 2
5.1245 -29.9015 -1.0931 0.0878 0 2
5.5322 -25.9612 -0.9564 0.1003 0 2
5.8468 -22.8812 -0.8509 0.1128 0 2
6.0967 -20.4005 -0.7672 0.1251 0 2
6.2995 -18.3539 -0.6992 0.1373 0 2
6.4764 -16.6558 -0.6439 0.8047 0 2
6.9844 -16.0228 -0.6298 0.1777 0 2
6.9422 -14.3242 -0.5735 0.1513 0 1
7.0481 -13.1658 -0.5381 0.1831 0 1
7.1479 -12.1510 -0.5079 0.1940 0 1
7.2400 -11.2467 -0.4819 0.2062 0 1
7.3174 -10.4210 -0.4588 0.2166 0 1
7.3828 -9.6631 -0.4382 0.2206 0 1
7.4293 -8.9534 -0.4192 0.2306 0 1
7.4703 -8.2996 -0.4023 0.2402 0 1
7.5168 -7.7043 -0.3878 0.2643 0 1
7.5365 -7.1272 -0.3737 0.2762 0 24
7.5775 -6.6095 -0.3623 0.2866 0 24
7.7046 -6.1929 -0.3562 0.2979 0 1
7.4174 -5.4861 -0.3324 0.2895 0 25
6.2665 -4.2560 -0.2729 0.8007 14 6
6.5336 -4.0633 -0.2772 0.5681 14 6
7.4841 -4.2470 -0.3100 0.3104 0 25
7.5019 -3.8668 -0.3041 0.3165 0 25
7.5177 -3.4999 -0.2988 0.3221 0 25
7.5318 -3.1444 -0.2941 0.3273 0 25
7.5442 -2.7989 -0.2899 0.3320 0 25
7.5550 -2.4621 -0.2863 0.3362 0 25
7.8255 -2.2064 -0.2929 0.3407 0 1
7.8447 -1.8748 -0.2906 0.3437 0 1
7.8631 -1.5479 -0.2887 0.3459 0 1
3.9355 -0.6115 -0.1435 0.9668 25 14
3.9268 -0.4493 -0.1424 0.9742 25 14
3.9182 -0.2893 -0.1416 0.9801 25 14
3.8976 -0.1305 -0.1405 0.9801 25 14
3.8773 0.0262 -0.1397 0.9858 25 14
3.9022 0.1834 -0.1408 0.9784 25 14
3.9208 0.3427 -0.1418 0.9784 25 14
3.9299 0.5035 -0.1428 0.9719 25 14
4.0289 0.6818 -0.1472 0.3047 25 14
8.0469 1.6972 -0.2963 0.3378 0 1
8.0661 2.0432 -0.2998 0.3329 0 1
8.0875 2.3985 -0.3039 0.3249 0 1
8.1040 2.7625 -0.3085 0.3201 0 1
8.1196 3.1377 -0.3136 0.3149 0 1
8.1342 3.5255 -0.3194 0.3092 0 1
8.1480 3.9280 -0.3259 0.3030 0 1
8.1440 4.3379 -0.3325 0.3129 0 1
8.1119 4.7491 -0.3387 0.3066 0 1
8.0757 5.1748 -0.3456 0.3005 0 1
8.0364 5.6180 -0.3533 0.2940 0 1
7.9937 6.0809 -0.3619 0.2870 0 1
7.8932 6.5218 -0.3689 0.3163 0 1
7.7864 6.9789 -0.3767 0.3098 0 1
7.6733 7.4553 -0.3855 0.3027 0 1
7.6589 8.0649 -0.4007 0.2667 0 2
7.3576 8.3997 -0.4023 0.8987 0 2
7.1599 8.8697 -0.4107 0.2337 0 2
6.6591 8.9642 -0.4024 0.2236 22 6
7.0420 10.3223 -0.4502 0.2132 0 2
6.9711 11.1570 -0.4740 0.2025 0 2
6.8901 12.0830 -0.5012 0.1915 0 2
6.7970 13.1192 -0.5324 0.1803 0 2
6.6892 14.2904 -0.5685 0.1688 0 2
6.5632 15.6290 -0.6108 0.1571 0 2
6.4142 17.1788 -0.6607 0.1453 0 2
6.2358 18.9999 -0.7205 0.1332 0 2
6.0188 21.1777 -0.7933 0.1210 0 2
5.7496 23.8374 -0.8835 0.1086 0 2
5.4076 27.1706 -0.9982 0.0961 0 2
2.1860 13.8777 -0.5062 0.3137 0 9
2.4751 21.2393 -0.7704 0.4831 0 20
1.2885 16.9689 -0.6132 0.4036 0 9
0.5867 16.4888 -0.5945 0.9055 0 9
-30.9394 37.6053 -1.7546 0.9830 0 3
-31.1148 34.8609 -1.6836 0.6374 0 3
-31.1195 32.1635 -1.6125 0.6655 0 3
-29.2692 27.9122 -1.4572 0.8161 0 3
-31.1254 27.3789 -1.4936 0.7184 0 3
-34.1201 27.6608 -1.5826 0.6344 0 3
-31.1275 23.2243 -1.3993 0.7668 0 3
-33.0779 22.6676 -1.4448 0.5702 0 3
-36.0800 22.6482 -1.5349 0.5368 0 3
-31.1225 17.8333 -1.2924 0.8887 0 3
-36.1295 18.8144 -1.4677 0.8487 0 3
-35.2403 16.5855 -1.4033 0.2428 0 3
-41.9369 17.7139 -1.6403 0.3948 0 3
-43.6248 16.3925 -1.6791 0.2664 0 3
-34.7800 -33.5107 -1.7402 0.9785 0 20
-33.3172 -34.7912 -1.7356 0.9805 0 20
3.5995 -44.3809 -1.6043 0.0598 0 2
4.4382 -36.4539 -1.3231 0.0725 0 2
5.0243 -30.8636 -1.1267 0.0852 0 2
5.4564 -26.6977 -0.9818 0.0977 0 2
5.7876 -23.4648 -0.8708 0.1102 0 2
6.0491 -20.8755 -0.7831 0.1225 0 2
6.2606 -18.7493 -0.7122 0.1347 0 2
6.4347 -16.9670 -0.6538 0.1468 0 2
6.9448 -16.3024 -0.6385 0.1753 0 2
6.9315 -14.6118 -0.5827 0.1489 0 1
7.0251 -13.3904 -0.5448 0.1819 0 1
7.1282 -12.3526 -0.5139 0.1918 0 1
7.2222 -11.4278 -0.4871 0.2050 0 1
7.3021 -10.5862 -0.4634 0.2144 0 1
7.3723 -9.8184 -0.4424 0.2185 0 1
7.4201 -9.0959 -0.4229 0.2285 0 1
7.4622 -8.4312 -0.4057 0.2383 0 1
7.5062 -7.8231 -0.3906 0.2624 0 1
7.5279 -7.2392 -0.3763 0.2741 0 24
7.5691 -6.7143 -0.3646 0.2851 0 24
7.6080 -6.2206 -0.3541 0.2937 0 24
7.4138 -5.5798 -0.3343 0.2874 0 2
6.2674 -4.3335 -0.2745 0.7960 14 6
6.4225 -4.0691 -0.2739 0.5749 14 6
7.4802 -4.3278 -0.3114 0.3091 0 25
7.4984 -3.9447 -0.3053 0.3153 0 25
7.5146 -3.5751 -0.2998 0.3210 0 25
7.5290 -3.2173 -0.2950 0.3262 0 25
7.5417 -2.8699 -0.2907 0.3310 0 25
7.5529 -2.5314 -0.2870 0.3353 0 25
7.6932 -2.2386 -0.2887 0.3691 0 2
7.8407 -1.9433 -0.2911 0.3430 0 1
7.8594 -1.6155 -0.2891 0.3455 0 1
3.9916 -0.6544 -0.1457 0.3077 25 14
3.9286 -0.4828 -0.1426 0.9728 25 14
3.9200 -0.3224 -0.1417 0.9790 25 14
3.9029 -0.1634 -0.1407 0.9785 25 14
3.8775 -0.0062 -0.1397 0.9857 25 14
3.8970 0.1506 -0.1405 0.9801 25 14
3.9189 0.3096 -0.1416 0.9795 25 14
3.9280 0.4699 -0.1425 0.9734 25 14
3.9400 0.6329 -0.1438 0.3120 25 14
8.0429 1.6263 -0.2957 0.3386 0 1
8.0621 1.9706 -0.2990 0.3337 0 1
8.0836 2.3241 -0.3031 0.3284 0 1
8.1006 2.6861 -0.3075 0.3211 0 1
8.1164 3.0588 -0.3125 0.3160 0 1
8.1313 3.4439 -0.3182 0.3104 0 1
8.1452 3.8431 -0.3245 0.3043 0 1
8.1500 4.2541 -0.3312 0.3140 0 1
8.1190 4.6626 -0.3373 0.3079 0 1
8.0834 5.0850 -0.3441 0.3018 0 1
8.0448 5.5244 -0.3516 0.2953 0 1
8.0029 5.9829 -0.3600 0.2885 0 1
7.9147 6.4290 -0.3674 0.3176 0 1
7.8091 6.8825 -0.3750 0.3112 0 1
7.6974 7.3547 -0.3836 0.3042 0 1
7.6732 7.9459 -0.3980 0.2685 0 2
7.4628 8.3776 -0.4042 0.8640 0 2
7.1706 8.7326 -0.4071 0.2357 0 2
6.7479 8.9269 -0.4032 0.7934 22 6
6.4983 9.3565 -0.4104 0.5581 22 6
-0.1873 14.3922 -0.6784 0.6136 0 9
-19.7336 36.4948 -1.9554 0.9735 0 6
-29.7564 38.6120 -2.2975 0.1492 0 3
-29.3020 35.0147 -2.1519 0.1618 0 3
-30.9462 34.0944 -2.1701 0.6465 0 3
-30.9577 31.4659 -2.0804 0.6744 0 3
-30.9671 29.0413 -2.0009 0.7012 0 3
-30.9748 26.7908 -1.9302 0.7269 0 3
-29.1915 23.2638 -1.7593 0.7767 0 3
-30.9833 22.7162 -1.8107 0.7748 0 3
-30.9870 20.8564 -1.7604 0.7969 0 3
-30.9895 19.0938 -1.7155 0.8177 0 3
-31.6385 17.7795 -1.7105 0.4950 0 3
-35.0295 17.8711 -1.8534 0.8555 0 3
-36.8935 16.9885 -1.9143 0.2532 0 3
-42.9162 17.7065 -2.1881 0.3870 0 3
-45.4453 16.6446 -2.2810 0.2426 0 3
-34.4531 -33.7553 -2.2733 0.9788 0 20
-32.9226 -34.9593 -2.2633 0.9831 0 20
1.9973 -40.6776 -1.9195 0.9972 0 20
3.2542 -36.3505 -1.7201 0.0729 0 2
4.0147 -30.8260 -1.4651 0.0856 0 2
4.5763 -26.7025 -1.2769 0.0983 0 2
5.0073 -23.4981 -1.1324 0.1108 0 2
5.3481 -20.9293 -1.0181 0.1232 0 2
5.6238 -18.8182 -0.9257 0.1356 0 2
5.8511 -17.0476 -0.8495 0.1477 0 2
6.3791 -16.4054 -0.8296 0.1764 0 2
6.4023 -14.6874 -0.7551 0.1502 0 1
6.5300 -13.4736 -0.7057 0.1837 0 1
6.6645 -12.4491 -0.6655 0.1936 0 1
6.7828 -11.5304 -0.6305 0.2070 0 1
6.8881 -10.7000 -0.5998 0.2166 0 1
6.9780 -9.9376 -0.5723 0.2270 0 1
7.0463 -9.2227 -0.5470 0.2310 0 1
7.1047 -8.5622 -0.5244 0.2410 0 1
7.1684 -7.9643 -0.5050 0.2653 0 1
7.2382 -7.4187 -0.4885 0.2840 0 1
7.3118 -6.9147 -0.4743 0.2925 0 1
7.3796 -6.4369 -0.4615 0.3006 0 1
7.4061 -5.9529 -0.4478 0.2664 0 1
7.1574 -5.2938 -0.4196 0.2999 0 25
6.2832 -4.2673 -0.3580 0.7982 14 6
6.5181 -4.0537 -0.3618 0.5692 14 6
7.2388 -4.1078 -0.3923 0.3208 0 25
7.2606 -3.7425 -0.3850 0.3269 0 25
7.2800 -3.3892 -0.3785 0.3325 0 25
7.2973 -3.0465 -0.3727 0.3376 0 25
7.3125 -2.7129 -0.3676 0.3423 0 25
7.3281 -2.3882 -0.3633 0.3464 0 2
7.5898 -2.1399 -0.3717 0.3487 0 1
7.6118 -1.8191 -0.3689 0.3549 0 1
7.6311 -1.5022 -0.3666 0.3571 0 1
3.9270 -0.6102 -0.1873 0.9685 25 14
3.9184 -0.4483 -0.1859 0.9759 25 14
3.9098 -0.2887 -0.1848 0.9817 25 14
3.8939 -0.1304 -0.1836 0.9806 25 14
3.8740 0.0261 -0.1826 0.9862 25 14
3.8989 0.1833 -0.1840 0.9788 25 14
3.9125 0.3420 -0.1851 0.9800 25 14
3.9215 0.5024 -0.1863 0.9735 25 14
3.9735 0.6724 -0.1899 0.3088 25 14
7.8039 1.6459 -0.3759 0.3482 0 1
