ply
format ascii 1.0
element vertex 1381
property float32 x
property float32 y
property float32 z
property float32 CosAngle
property uint32 ObjIdx
property uint32 ObjTag
end_header
-2.8552 10.1445 -3.9353 0.2535 0 1
-3.4130 10.4884 -4.1186 0.2423 0 1
-3.9998 10.7950 -4.2988 0.2292 0 24
-4.6516 11.1547 -4.5130 0.2182 0 24
-5.3786 11.5647 -4.7626 0.2063 0 1
-6.1441 11.9304 -5.0110 0.1999 0 1
-6.9682 12.2891 -5.2753 0.1899 0 1
-7.8372 12.6106 -5.5442 0.1776 0 24
-8.8109 12.9816 -5.8585 0.1710 0 24
-9.9049 13.3997 -6.2222 0.1636 0 1
-11.0760 13.7870 -6.6038 0.1514 0 1
-12.3754 14.1947 -7.0320 0.1296 0 1
-13.8954 14.6998 -7.5533 0.1169 0 1
-16.2216 15.8330 -8.4644 0.1001 0 1
-16.8382 15.1610 -8.4607 0.6793 0 2
-18.7353 15.5509 -9.0919 0.1025 0 2
-20.8649 15.9455 -9.8059 0.0951 0 2
-23.2193 16.3080 -10.5952 0.0880 0 25
-25.8191 16.6242 -11.4668 0.0813 0 25
-28.6835 16.8761 -12.4270 0.0750 0 25
-27.4390 14.6910 -11.6222 0.4323 0 21
-35.2631 17.0917 -14.6328 0.0637 0 25
-31.4379 13.7044 -12.8062 0.3415 0 5
-36.2487 14.0945 -14.5229 0.7541 0 21
-39.8958 13.6919 -15.7505 0.2987 0 5
-5.1035 -10.7774 -4.6040 0.2255 0 1
-4.4492 -10.4645 -4.3903 0.2349 0 1
-3.8300 -10.1209 -4.1780 0.2467 0 24
-3.2814 -9.8515 -4.0090 0.2569 0 1
-2.7498 -9.5167 -3.8246 0.2665 0 24
-2.2757 -9.2579 -3.6808 0.2798 0 1
-1.8246 -8.9646 -3.5321 0.2876 0 1
-1.4050 -8.6756 -3.3932 0.2994 0 1
-1.0146 -8.3927 -3.2639 0.3109 0 1
-0.6511 -8.1150 -3.1432 0.3229 0 1
-0.3126 -7.8454 -3.0314 0.3398 0 1
0.0032 -7.5625 -2.9198 0.3516 0 24
0.2982 -7.3281 -2.8316 0.3637 0 1
0.5739 -7.0777 -2.7416 0.3756 0 1
0.8319 -6.8326 -2.6575 0.3875 0 1
1.0734 -6.5926 -2.5789 0.3993 0 1
1.2993 -6.3562 -2.5048 0.4112 0 1
1.5109 -6.1241 -2.4353 0.4230 0 1
1.7089 -5.8955 -2.3699 0.4335 0 1
1.8869 -5.6489 -2.2994 0.4429 0 24
2.0684 -5.4517 -2.2513 0.4561 0 1
2.2315 -5.2361 -2.1975 0.4672 0 1
2.3845 -5.0244 -2.1473 0.4782 0 1
2.5254 -4.8114 -2.0980 0.4722 0 1
2.6521 -4.5936 -2.0479 0.4837 0 1
2.7699 -4.3807 -2.0011 0.4950 0 1
2.8796 -4.1725 -1.9574 0.5061 0 1
2.9816 -3.9687 -1.9165 0.5169 0 1
3.0803 -3.7737 -1.8807 0.5484 0 1
3.1747 -3.5847 -1.8488 0.5579 0 1
3.2629 -3.3985 -1.8190 0.5670 0 1
3.3453 -3.2148 -1.7913 0.5758 0 1
3.4229 -3.0341 -1.7660 0.5751 0 1
3.4959 -2.8561 -1.7429 0.5827 0 1
3.5639 -2.6800 -1.7216 0.5899 0 1
3.6269 -2.5055 -1.7019 0.5968 0 1
3.6855 -2.3327 -1.6840 0.6032 0 1
3.7402 -2.1616 -1.6679 0.6091 0 1
3.7906 -1.9917 -1.6532 0.6145 0 1
3.8367 -1.8229 -1.6400 0.6195 0 1
3.8793 -1.6553 -1.6284 0.6272 0 1
3.9180 -1.4885 -1.6182 0.6311 0 1
3.9528 -1.3223 -1.6093 0.6346 0 1
3.9839 -1.1567 -1.6017 0.6376 0 1
4.0113 -0.9916 -1.5953 0.6402 0 1
4.0351 -0.8267 -1.5903 0.6422 0 1
4.0552 -0.6621 -1.5864 0.6438 0 1
4.0718 -0.4976 -1.5838 0.6448 0 1
4.0849 -0.3331 -1.5824 0.6454 0 1
4.0945 -0.1684 -1.5822 0.6455 0 1
4.1023 -0.0036 -1.5838 0.6441 0 1
4.1079 0.1618 -1.5873 0.6427 0 1
4.1101 0.3279 -1.5919 0.6409 0 1
4.1088 0.4948 -1.5978 0.6385 0 1
4.1039 0.6627 -1.6050 0.6357 0 1
4.0910 0.8308 -1.6117 0.6236 0 1
4.0740 0.9995 -1.6196 0.6206 0 1
4.0532 1.1692 -1.6287 0.6171 0 1
4.0284 1.3398 -1.6391 0.6132 0 1
3.9997 1.5115 -1.6508 0.6088 0 1
3.9668 1.6844 -1.6639 0.6041 0 1
3.9297 1.8587 -1.6784 0.5988 0 1
3.8882 2.0344 -1.6943 0.5932 0 1
3.8424 2.2117 -1.7117 0.5868 0 1
3.7920 2.3908 -1.7308 0.5803 0 1
3.7368 2.5718 -1.7514 0.5735 0 1
3.6769 2.7550 -1.7739 0.5663 0 1
3.6119 2.9404 -1.7982 0.5586 0 1
3.5413 3.1281 -1.8243 0.5506 0 1
3.4651 3.3182 -1.8523 0.5423 0 1
3.3827 3.5110 -1.8824 0.5336 0 1
3.2941 3.7065 -1.9145 0.5247 0 1
3.1996 3.9060 -1.9494 0.5192 0 1
3.0981 4.1088 -1.9868 0.5094 0 1
2.9867 4.3116 -2.0250 0.5038 0 1
2.8664 4.5158 -2.0651 0.4945 0 1
2.7378 4.7231 -2.1078 0.4845 0 1
2.6005 4.9337 -2.1533 0.4743 0 1
2.4541 5.1478 -2.2018 0.4638 0 1
2.2977 5.3657 -2.2536 0.4532 0 1
2.1309 5.5873 -2.3088 0.4427 0 1
1.9419 5.7801 -2.3542 0.4315 0 24
1.7541 6.0124 -2.4181 0.4204 0 24
1.5599 6.2757 -2.4967 0.4094 0 1
1.3434 6.5140 -2.5679 0.3980 0 1
1.1116 6.7533 -2.6425 0.4096 0 1
0.8654 7.0060 -2.7255 0.3751 0 1
0.6016 7.2615 -2.8132 0.3634 0 1
0.3192 7.5225 -2.9070 0.3516 0 1
0.0169 7.7893 -3.0074 0.3399 0 1
-0.3070 8.0596 -3.1140 0.3309 0 1
-0.6540 8.3336 -3.2274 0.3193 0 1
-1.0260 8.6133 -3.3490 0.3077 0 1
-1.4248 8.8965 -3.4786 0.2970 0 1
-1.8519 9.1805 -3.6159 0.2921 0 1
-2.3091 9.4648 -3.7615 0.2808 0 1
-2.7997 9.7533 -3.9178 0.2696 0 1
-3.3320 10.0619 -4.0923 0.2510 0 1
-3.9037 10.3702 -4.2781 0.2418 0 1
-4.5204 10.6838 -4.4790 0.2269 0 1
-5.1899 11.0095 -4.6993 0.2163 0 1
-5.8922 11.2971 -4.9193 0.2048 0 24
-6.6742 11.6298 -5.1770 0.1937 0 24
-7.5074 11.9414 -5.4459 0.1894 0 1
-8.4101 12.2539 -5.7382 0.1762 0 1
-9.3932 12.5706 -6.0587 0.1730 0 1
-10.4453 12.8648 -6.3980 0.1585 0 1
-11.6078 13.1757 -6.7796 0.1519 0 1
-12.8740 13.4785 -7.1963 0.1326 0 1
-14.3222 13.8349 -7.6882 0.1241 0 1
-16.3971 14.6107 -8.4794 0.0543 0 1
-17.1019 14.0461 -8.5444 0.1108 0 2
-18.8948 14.2854 -9.1454 0.1050 0 2
-20.8450 14.4797 -9.7992 0.0980 0 2
-22.9596 14.6153 -10.5081 0.0914 0 2
-25.1055 14.5963 -11.2122 0.5935 0 21
-27.3123 14.4415 -11.9284 0.8940 0 21
-30.3119 14.4984 -12.9730 0.0740 0 25
-33.0747 14.2143 -13.8992 0.0691 0 25
-35.9574 13.7671 -14.8656 0.0646 0 2
-38.9179 13.1312 -15.8581 0.0605 0 2
-41.8970 12.2825 -16.8568 0.0569 0 2
-44.8172 11.2017 -17.8358 0.0538 0 2
-22.6272 -4.5339 -8.9098 0.9155 16 6
-44.5931 -12.7381 -17.9056 0.0612 0 1
-41.4312 -13.6603 -16.8432 0.0621 0 1
-38.2047 -14.3250 -15.7533 0.0638 0 1
-35.1097 -14.8017 -14.7109 0.0694 0 1
-32.2846 -15.1681 -13.7719 0.0646 0 1
-29.3709 -15.2707 -12.7810 0.0775 0 1
-26.6381 -15.2415 -11.8492 0.0743 0 1
-24.1380 -15.1316 -10.9992 0.0737 0 1
-21.6511 -14.8184 -10.1297 0.0717 0 1
-19.4653 -14.5059 -9.3727 0.1053 0 1
-17.6191 -14.2677 -8.7533 0.1169 0 1
-15.9219 -13.9905 -8.1833 0.1220 0 1
-14.3566 -13.6772 -7.6557 0.1284 0 1
-12.9173 -13.3377 -7.1687 0.1374 0 1
-11.6229 -13.0101 -6.7356 0.1453 0 1
-10.4341 -12.6706 -6.3373 0.1545 0 1
-9.3698 -12.3598 -5.9882 0.1756 0 1
-8.4035 -12.0644 -5.6766 0.1852 0 1
-7.5072 -11.7596 -5.3866 0.1930 0 1
-6.6739 -11.4449 -5.1152 0.2033 0 1
-5.9037 -11.1303 -4.8644 0.2135 0 1
-5.1913 -10.8175 -4.6326 0.2241 0 1
-4.5306 -10.5046 -4.4169 0.2335 0 1
-3.9186 -10.1952 -4.2170 0.2451 0 1
-3.3514 -9.8905 -4.0319 0.2554 0 1
-2.8147 -9.5553 -3.8459 0.2656 0 24
-2.3361 -9.2954 -3.7005 0.2783 0 1
-1.8809 -9.0023 -3.5508 0.2861 0 1
-1.4573 -8.7124 -3.4105 0.2979 0 1
-1.0633 -8.4289 -3.2801 0.3094 0 1
-0.6965 -8.1504 -3.1583 0.3213 0 1
-0.3548 -7.8795 -3.0453 0.3382 0 1
-0.0361 -7.5959 -2.9327 0.3505 0 24
0.2613 -7.3607 -2.8437 0.3622 0 1
0.5394 -7.1097 -2.7529 0.3740 0 1
0.7996 -6.8639 -2.6680 0.3859 0 1
1.0432 -6.6232 -2.5887 0.3978 0 1
1.2711 -6.3865 -2.5141 0.4097 0 1
1.4844 -6.1537 -2.4440 0.4215 0 1
1.6841 -5.9247 -2.3781 0.4320 0 1
1.8639 -5.6779 -2.3073 0.4410 0 24
2.0466 -5.4798 -2.2584 0.4547 0 1
2.2110 -5.2637 -2.2043 0.4658 0 1
2.3653 -5.0515 -2.1536 0.4768 0 1
2.5084 -4.8399 -2.1047 0.4707 0 1
2.6362 -4.6214 -2.0542 0.4822 0 1
2.7552 -4.4079 -2.0069 0.4936 0 1
2.8659 -4.1991 -1.9628 0.5047 0 1
2.9689 -3.9947 -1.9216 0.5155 0 1
3.0676 -3.7983 -1.8850 0.5472 0 1
3.1629 -3.6089 -1.8528 0.5567 0 1
3.2519 -3.4223 -1.8227 0.5659 0 1
3.3350 -3.2383 -1.7948 0.5747 0 1
3.4131 -3.0571 -1.7691 0.5741 0 1
3.4868 -2.8789 -1.7458 0.5818 0 1
3.5554 -2.7026 -1.7243 0.5890 0 1
3.6191 -2.5279 -1.7044 0.5959 0 1
3.6782 -2.3548 -1.6862 0.6024 0 1
3.7334 -2.1836 -1.6699 0.6084 0 1
3.7843 -2.0136 -1.6550 0.6138 0 1
3.8310 -1.8446 -1.6416 0.6189 0 1
3.8740 -1.6768 -1.6298 0.6266 0 1
3.9132 -1.5099 -1.6194 0.6307 0 1
3.9485 -1.3437 -1.6104 0.6342 0 1
3.9801 -1.1780 -1.6026 0.6373 0 1
4.0080 -1.0128 -1.5961 0.6399 0 1
4.0322 -0.8479 -1.5908 0.6420 0 1
4.0528 -0.6833 -1.5868 0.6436 0 1
4.0699 -0.5188 -1.5841 0.6447 0 1
4.0834 -0.3543 -1.5825 0.6454 0 1
4.0935 -0.1897 -1.5821 0.6455 0 1
4.1013 -0.0248 -1.5835 0.6443 0 1
4.1074 0.1405 -1.5868 0.6430 0 1
4.1100 0.3065 -1.5913 0.6411 0 1
4.1092 0.4733 -1.5970 0.6388 0 1
4.1047 0.6410 -1.6040 0.6360 0 1
4.0929 0.8091 -1.6108 0.6240 0 1
4.0764 0.9777 -1.6185 0.6210 0 1
4.0561 1.1473 -1.6275 0.6176 0 1
4.0318 1.3178 -1.6377 0.6137 0 1
4.0036 1.4893 -1.6492 0.6094 0 1
3.9713 1.6621 -1.6621 0.6047 0 1
3.9347 1.8362 -1.6764 0.5995 0 1
3.8938 2.0117 -1.6922 0.5940 0 1
3.8485 2.1888 -1.7094 0.5876 0 1
3.7987 2.3676 -1.7282 0.5812 0 1
3.7441 2.5483 -1.7486 0.5744 0 1
3.6849 2.7313 -1.7709 0.5672 0 1
3.6206 2.9164 -1.7950 0.5596 0 1
3.5507 3.1038 -1.8208 0.5517 0 1
3.4752 3.2936 -1.8486 0.5434 0 1
3.3937 3.4860 -1.8784 0.5348 0 1
3.3059 3.6812 -1.9103 0.5258 0 1
3.2121 3.8801 -1.9448 0.5204 0 1
3.1116 4.0825 -1.9818 0.5107 0 1
3.0016 4.2855 -2.0201 0.5050 0 1
2.8823 4.4893 -2.0598 0.4958 0 1
2.7548 4.6962 -2.1021 0.4858 0 1
2.6187 4.9064 -2.1472 0.4756 0 1
2.4735 5.1201 -2.1954 0.4652 0 1
2.3184 5.3374 -2.2467 0.4546 0 1
2.1530 5.5585 -2.3015 0.4441 0 1
1.9652 5.7505 -2.3463 0.4329 0 24
1.7790 5.9822 -2.4096 0.4218 0 24
1.5868 6.2453 -2.4879 0.4108 0 1
1.3721 6.4830 -2.5585 0.3995 0 1
1.1425 6.7234 -2.6331 0.4111 0 1
0.8981 6.9735 -2.7146 0.3766 0 1
0.6366 7.2283 -2.8016 0.3649 0 1
0.3567 7.4886 -2.8946 0.3532 0 1
0.0570 7.7546 -2.9941 0.3414 0 1
-0.2641 8.0247 -3.0999 0.3324 0 1
-0.6080 8.2980 -3.2124 0.3208 0 1
-0.9766 8.5769 -3.3329 0.3092 0 1
-1.3719 8.8601 -3.4616 0.2985 0 1
-1.7953 9.1442 -3.5979 0.2936 0 1
-2.2484 9.4280 -3.7421 0.2823 0 1
-2.7346 9.7160 -3.8970 0.2711 0 1
-3.2611 10.0216 -4.0690 0.2525 0 1
-3.8277 10.3305 -4.2535 0.2432 0 1
-4.4379 10.6422 -4.4518 0.2283 0 1
-5.1007 10.9673 -4.6699 0.2177 0 1
-5.7961 11.2546 -4.8877 0.2060 0 24
-6.5699 11.5867 -5.1426 0.1948 0 24
-7.3971 11.9025 -5.4106 0.1906 0 1
-8.2887 12.2123 -5.6985 0.1774 0 1
-9.2643 12.5331 -6.0174 0.1742 0 1
-10.3018 12.8233 -6.3507 0.1597 0 1
-11.4533 13.1371 -6.7291 0.1530 0 1
-12.7012 13.4364 -7.1386 0.1410 0 1
-14.1281 13.7897 -7.6223 0.1252 0 1
-16.0972 14.4938 -8.3631 0.0550 0 1
-17.0183 14.1258 -8.5392 0.9247 0 2
-18.6552 14.2568 -9.0651 0.1059 0 2
-20.5848 14.4577 -9.7120 0.0988 0 2
-22.6779 14.6017 -10.4137 0.0922 0 2
-24.9397 14.6734 -11.1719 0.0859 0 25
-27.3710 14.6546 -11.9870 0.0801 0 25
-29.9663 14.5244 -12.8571 0.0747 0 25
-32.7115 14.2595 -13.7774 0.0697 0 25
-35.5807 13.8348 -14.7393 0.0651 0 2
-38.5341 13.2245 -15.7294 0.0610 0 2
-41.5148 12.4044 -16.7287 0.0574 0 2
-44.4475 11.3544 -17.7119 0.0542 0 2
-41.8441 -13.5563 -16.9823 0.0616 0 1
-4.8581 -10.2591 -4.5278 0.2343 0 1
-4.2447 -9.9837 -4.3273 0.2457 0 1
-3.6742 -9.7093 -4.1409 0.2558 0 1
-3.1429 -9.4357 -3.9670 0.2671 0 1
-2.6482 -9.1651 -3.8053 0.2784 0 1
-2.1867 -8.8956 -3.6539 0.2860 0 1
-1.7556 -8.6254 -3.5110 0.2976 0 1
-1.3538 -8.3597 -3.3780 0.3094 0 1
-0.9790 -8.0982 -3.2537 0.3208 0 1
-0.6292 -7.8423 -3.1382 0.3376 0 1
-0.3016 -7.5713 -3.0224 0.3490 0 24
0.0031 -7.3477 -2.9309 0.3615 0 1
0.2892 -7.1072 -2.8373 0.3733 0 1
0.5572 -6.8709 -2.7497 0.3852 0 1
0.8083 -6.6389 -2.6677 0.3970 0 1
1.0438 -6.4111 -2.5909 0.4088 0 1
1.2646 -6.1864 -2.5187 0.4207 0 1
1.4715 -5.9645 -2.4505 0.4313 0 1
1.6655 -5.7459 -2.3863 0.4426 0 1
1.8400 -5.5086 -2.3166 0.4516 0 24
2.0085 -5.2939 -2.2585 0.4626 0 24
2.1788 -5.1126 -2.2168 0.4765 0 1
2.3295 -4.9086 -2.1672 0.4874 0 1
2.4668 -4.6998 -2.1172 0.4813 0 1
2.5920 -4.4895 -2.0678 0.4928 0 1
2.7086 -4.2837 -2.0216 0.5040 0 1
2.8172 -4.0821 -1.9784 0.5150 0 1
2.9186 -3.8848 -1.9382 0.5474 0 1
3.0186 -3.6981 -1.9041 0.5572 0 1
3.1121 -3.5141 -1.8724 0.5666 0 1
3.1997 -3.3326 -1.8428 0.5757 0 1
3.2814 -3.1534 -1.8153 0.5845 0 1
3.3577 -2.9763 -1.7897 0.5928 0 1
3.4296 -2.8019 -1.7665 0.5914 0 1
3.4970 -2.6297 -1.7453 0.5986 0 1
3.5596 -2.4590 -1.7257 0.6054 0 1
3.6178 -2.2898 -1.7078 0.6118 0 1
3.6722 -2.1223 -1.6918 0.6177 0 1
3.7222 -1.9558 -1.6772 0.6231 0 1
3.7684 -1.7904 -1.6642 0.6313 0 1
3.8108 -1.6260 -1.6526 0.6357 0 1
3.8492 -1.4623 -1.6424 0.6396 0 1
3.8838 -1.2992 -1.6336 0.6431 0 1
3.9147 -1.1366 -1.6260 0.6461 0 1
3.9419 -0.9744 -1.6197 0.6486 0 1
3.9654 -0.8125 -1.6146 0.6507 0 1
3.9854 -0.6507 -1.6108 0.6522 0 1
4.0019 -0.4890 -1.6081 0.6533 0 1
4.0148 -0.3274 -1.6067 0.6538 0 1
4.0242 -0.1656 -1.6065 0.6539 0 1
4.0317 -0.0035 -1.6082 0.6526 0 1
4.0371 0.1590 -1.6116 0.6512 0 1
4.0391 0.3223 -1.6162 0.6493 0 1
4.0375 0.4863 -1.6221 0.6470 0 1
4.0312 0.6510 -1.6288 0.6347 0 1
4.0180 0.8159 -1.6354 0.6322 0 1
4.0009 0.9816 -1.6432 0.6292 0 1
3.9800 1.1481 -1.6523 0.6257 0 1
3.9553 1.3155 -1.6626 0.6218 0 1
3.9265 1.4839 -1.6743 0.6175 0 1
3.8937 1.6534 -1.6873 0.6127 0 1
3.8567 1.8242 -1.7017 0.6075 0 1
3.8153 1.9963 -1.7176 0.6019 0 1
3.7695 2.1698 -1.7349 0.5955 0 1
3.7193 2.3450 -1.7538 0.5891 0 1
3.6643 2.5219 -1.7743 0.5823 0 1
3.6048 2.7009 -1.7967 0.5751 0 1
3.5401 2.8819 -1.8208 0.5675 0 1
3.4699 3.0650 -1.8467 0.5595 0 1
3.3941 3.2503 -1.8745 0.5512 0 1
3.3124 3.4380 -1.9043 0.5426 0 1
3.2250 3.6288 -1.9365 0.5376 0 1
3.1314 3.8227 -1.9711 0.5282 0 1
3.0308 4.0196 -2.0080 0.5185 0 1
2.9209 4.2166 -2.0460 0.5129 0 1
2.8021 4.4145 -2.0856 0.5037 0 1
2.6752 4.6150 -2.1278 0.4937 0 1
2.5398 4.8185 -2.1726 0.4835 0 1
2.3955 5.0250 -2.2205 0.4731 0 1
2.2416 5.2346 -2.2714 0.4625 0 1
2.0777 5.4476 -2.3256 0.4517 0 1
1.9028 5.6637 -2.3832 0.4412 0 1
1.7165 5.8833 -2.4445 0.4301 0 1
1.5179 6.1065 -2.5099 0.4189 0 1
1.3062 6.3335 -2.5795 0.4076 0 1
1.0805 6.5643 -2.6536 0.3962 0 1
0.8400 6.8005 -2.7332 0.3847 0 1
0.5834 7.0419 -2.8185 0.3731 0 1
0.3093 7.2877 -2.9095 0.3614 0 1
0.0163 7.5380 -3.0068 0.3497 0 1
-0.2969 7.7925 -3.1105 0.3408 0 1
-0.6316 8.0477 -3.2199 0.3292 0 1
-0.9896 8.3071 -3.3369 0.3176 0 1
-1.3724 8.5689 -3.4615 0.3070 0 1
-1.7815 8.8314 -3.5936 0.2958 0 1
-2.2193 9.0968 -3.7350 0.2846 0 1
-2.6866 9.3593 -3.8840 0.2798 0 1
-3.1880 9.6273 -4.0452 0.2612 0 1
-3.7287 9.9053 -4.2217 0.2520 0 1
-4.3074 10.1803 -4.4092 0.2413 0 1
-4.9315 10.4612 -4.6132 0.2267 0 1
-5.5834 10.7050 -4.8159 0.2159 0 24
-6.3182 11.0094 -5.0632 0.2098 0 1
-7.0825 11.2656 -5.3079 0.2001 0 1
-7.8733 11.4717 -5.5498 0.1860 0 24
-8.7656 11.7307 -5.8411 0.1791 0 24
-9.7200 11.9714 -6.1509 0.1723 0 24
-10.7402 12.1909 -6.4807 0.1665 0 24
-11.9196 12.4794 -6.8835 0.1539 0 1
-13.1370 12.6900 -7.2856 0.1421 0 1
-14.3839 12.8168 -7.6847 0.1253 0 24
-16.0760 13.2035 -8.2979 0.1107 0 1
-17.3230 13.0970 -8.6624 0.9743 0 2
-18.6872 12.9808 -9.0758 0.1088 0 2
-20.4300 13.0050 -9.6601 0.1022 0 2
-22.2832 12.9554 -10.2814 0.0960 0 2
-24.2411 12.8176 -10.9378 0.0903 0 2
-26.2927 12.5760 -11.6255 0.0849 0 2
-28.4201 12.2140 -12.3387 0.0800 0 2
-30.5977 11.7151 -13.0688 0.0756 0 2
-32.7906 11.0638 -13.8039 0.0715 0 2
-34.9541 10.2471 -14.5292 0.0680 0 2
-37.0339 9.2564 -15.2265 0.0649 0 2
-16.9479 3.5182 -6.9043 0.8799 26 14
-17.0071 2.8221 -6.8765 0.9413 26 14
-44.0877 5.5037 -17.7222 0.0594 0 1
-45.7336 3.8484 -18.3067 0.0574 0 1
-46.3927 2.0290 -18.5228 0.0557 0 1
-46.1135 -1.6968 -18.4062 0.0529 0 1
-45.1167 -3.4820 -18.0496 0.0550 0 24
-44.2488 -5.2129 -17.7720 0.0569 0 1
-42.9681 -6.8245 -17.3539 0.0627 0 1
-22.5498 -4.5184 -9.1734 0.9146 16 6
-39.4010 -9.5585 -16.1721 0.0622 0 1
-37.0987 -10.5973 -15.3898 0.0636 0 1
-34.8099 -11.4772 -14.6202 0.0699 0 1
-32.5721 -12.2130 -13.8756 0.0768 0 1
-29.9487 -12.6259 -12.9641 0.0663 0 1
-27.4357 -12.8899 -12.0911 0.0678 0 1
-25.1180 -13.0595 -11.2923 0.0767 0 1
-23.0244 -13.1738 -10.5810 0.0864 0 1
-21.0304 -13.1834 -9.9006 0.1061 0 1
-19.3036 -13.2117 -9.3305 0.1088 0 1
-17.6245 -13.1341 -8.7674 0.1203 0 1
-16.0493 -12.9965 -8.2375 0.1245 0 1
-14.5721 -12.8045 -7.7376 0.1327 0 1
-13.1961 -12.5715 -7.2699 0.1390 0 1
-11.9368 -12.3253 -6.8440 0.1520 0 1
-10.7947 -12.0830 -6.4629 0.1609 0 1
-9.7493 -11.8390 -6.1175 0.1767 0 1
-8.7675 -11.5653 -5.7889 0.1866 0 24
-7.9187 -11.3683 -5.5262 0.1957 0 1
-7.0910 -11.1077 -5.2565 0.2035 0 1
-6.3212 -10.8401 -5.0054 0.2134 0 1
-5.6062 -10.5695 -4.7723 0.2239 0 1
-4.9404 -10.2947 -4.5547 0.2329 0 1
-4.3212 -10.0191 -4.3523 0.2442 0 1
-3.7455 -9.7447 -4.1642 0.2544 0 1
-3.2092 -9.4708 -3.9887 0.2656 0 1
-2.7100 -9.1998 -3.8255 0.2770 0 1
-2.2445 -8.9307 -3.6730 0.2845 0 1
-1.8094 -8.6599 -3.5289 0.2961 0 1
-1.4040 -8.3937 -3.3946 0.3079 0 1
-1.0258 -8.1318 -3.2693 0.3193 0 1
-0.6729 -7.8748 -3.1525 0.3361 0 1
-0.3434 -7.6247 -3.0444 0.3480 0 1
-0.0350 -7.3589 -2.9353 0.3605 0 24
0.2534 -7.1379 -2.8490 0.3719 0 1
0.5236 -6.9011 -2.7606 0.3837 0 1
0.7769 -6.6686 -2.6779 0.3955 0 1
1.0143 -6.4402 -2.6005 0.4073 0 1
1.2370 -6.2152 -2.5277 0.4192 0 1
1.4457 -5.9930 -2.4590 0.4298 0 1
1.6412 -5.7739 -2.3943 0.4414 0 1
1.8175 -5.5364 -2.3243 0.4501 0 24
1.9874 -5.3214 -2.2658 0.4611 0 24
2.1587 -5.1392 -2.2234 0.4750 0 1
2.3106 -4.9347 -2.1734 0.4860 0 1
2.4500 -4.7273 -2.1238 0.4798 0 1
2.5764 -4.5164 -2.0740 0.4913 0 1
2.6940 -4.3100 -2.0274 0.5026 0 1
2.8037 -4.1078 -1.9838 0.5136 0 1
2.9057 -3.9097 -1.9430 0.5244 0 1
3.0061 -3.7220 -1.9084 0.5560 0 1
3.1004 -3.5377 -1.8763 0.5654 0 1
3.1887 -3.3558 -1.8465 0.5746 0 1
3.2712 -3.1763 -1.8187 0.5834 0 1
3.3482 -2.9990 -1.7929 0.5918 0 1
3.4205 -2.8242 -1.7693 0.5905 0 1
3.4886 -2.6518 -1.7479 0.5977 0 1
3.5518 -2.4809 -1.7281 0.6045 0 1
3.6105 -2.3115 -1.7100 0.6110 0 1
3.6654 -2.1438 -1.6938 0.6170 0 1
3.7160 -1.9772 -1.6790 0.6224 0 1
3.7626 -1.8117 -1.6657 0.6307 0 1
3.8055 -1.6472 -1.6540 0.6351 0 1
3.8445 -1.4834 -1.6437 0.6391 0 1
3.8796 -1.3202 -1.6346 0.6427 0 1
3.9109 -1.1575 -1.6269 0.6457 0 1
3.9386 -0.9953 -1.6204 0.6483 0 1
3.9626 -0.8333 -1.6152 0.6504 0 1
3.9830 -0.6715 -1.6112 0.6520 0 1
3.9999 -0.5099 -1.6084 0.6532 0 1
4.0133 -0.3482 -1.6068 0.6538 0 1
4.0232 -0.1864 -1.6065 0.6539 0 1
4.0307 -0.0244 -1.6078 0.6527 0 1
4.0366 0.1381 -1.6111 0.6514 0 1
4.0390 0.3012 -1.6156 0.6496 0 1
4.0379 0.4651 -1.6213 0.6473 0 1
4.0327 0.6298 -1.6281 0.6350 0 1
4.0199 0.7946 -1.6345 0.6325 0 1
4.0033 0.9602 -1.6421 0.6296 0 1
3.9829 1.1266 -1.6510 0.6262 0 1
3.9587 1.2938 -1.6612 0.6223 0 1
3.9304 1.4621 -1.6727 0.6181 0 1
3.8981 1.6315 -1.6856 0.6134 0 1
3.8617 1.8021 -1.6998 0.6082 0 1
3.8209 1.9740 -1.7155 0.6027 0 1
3.7757 2.1473 -1.7326 0.5967 0 1
3.7260 2.3223 -1.7513 0.5900 0 1
3.6717 2.4990 -1.7716 0.5832 0 1
3.6127 2.6777 -1.7937 0.5760 0 1
3.5487 2.8585 -1.8176 0.5685 0 1
3.4793 3.0413 -1.8433 0.5606 0 1
3.4042 3.2263 -1.8708 0.5523 0 1
3.3233 3.4137 -1.9003 0.5437 0 1
3.2366 3.6041 -1.9322 0.5388 0 1
3.1438 3.7976 -1.9665 0.5294 0 1
3.0442 3.9941 -2.0031 0.5197 0 1
2.9357 4.1913 -2.0411 0.5141 0 1
2.8179 4.3889 -2.0804 0.5050 0 1
2.6920 4.5890 -2.1222 0.4950 0 1
2.5577 4.7921 -2.1667 0.4848 0 1
2.4146 4.9982 -2.2141 0.4745 0 1
2.2620 5.2074 -2.2646 0.4639 0 1
2.0994 5.4200 -2.3184 0.4531 0 1
1.9152 5.6042 -2.3623 0.4427 0 24
1.7325 5.8258 -2.4244 0.4310 0 24
1.5442 6.0775 -2.5012 0.4203 0 1
1.3342 6.3040 -2.5702 0.4091 0 1
1.1104 6.5344 -2.6438 0.3977 0 1
0.8719 6.7698 -2.7226 0.3862 0 1
0.6174 7.0105 -2.8072 0.3746 0 1
0.3456 7.2558 -2.8975 0.3629 0 1
0.0552 7.5055 -2.9939 0.3512 0 1
-0.2553 7.7599 -3.0969 0.3395 0 1
-0.5872 8.0146 -3.2054 0.3307 0 1
-0.9421 8.2734 -3.3214 0.3191 0 1
-1.3217 8.5354 -3.4452 0.3085 0 1
-1.7272 8.7974 -3.5761 0.2972 0 1
-2.1613 9.0625 -3.7162 0.2860 0 1
-2.6246 9.3254 -3.8642 0.2812 0 1
-3.1210 9.5911 -4.0231 0.2627 0 1
-3.6570 9.8699 -4.1985 0.2534 0 1
-4.2305 10.1448 -4.3843 0.2427 0 1
-4.8482 10.4244 -4.5858 0.2280 0 1
-5.5157 10.7102 -4.8053 0.2176 0 1
-6.2236 10.9759 -5.0329 0.2111 0 1
-6.9810 11.2330 -5.2754 0.2014 0 1
-7.7628 11.4374 -5.5137 0.1865 0 24
-8.6473 11.6983 -5.8026 0.1792 0 24
-9.5936 11.9417 -6.1100 0.1740 0 24
-10.6049 12.1639 -6.4370 0.1673 0 24
-11.7076 12.3853 -6.7981 0.1546 0 24
-12.9735 12.6627 -7.2312 0.1432 0 1
-14.3144 12.8886 -7.6831 0.1277 0 1
-15.8629 13.1668 -8.2231 0.1117 0 1
-17.2718 13.1996 -8.6709 0.9733 0 2
-18.4710 12.9730 -9.0033 0.1097 0 2
-20.1993 13.0058 -9.5827 0.1030 0 2
-22.0385 12.9664 -10.1993 0.0968 0 2
-23.9834 12.8409 -10.8514 0.0910 0 2
-26.0237 12.6135 -11.5354 0.0856 0 2
-28.1427 12.2679 -12.2457 0.0806 0 2
-30.3156 11.7876 -12.9742 0.0761 0 2
-32.5088 11.1567 -13.7095 0.0720 0 2
-34.6789 10.3619 -14.4370 0.0684 0 2
-36.7728 9.3939 -15.1390 0.0652 0 2
-16.9586 3.6122 -6.9162 0.8784 26 14
-16.9899 2.9098 -6.8756 0.9415 26 14
-43.8528 5.7054 -17.6394 0.0597 0 1
-45.5407 4.0700 -18.2376 0.0576 0 1
-46.3367 2.2672 -18.5049 0.0556 0 1
-46.1903 -1.4600 -18.4336 0.0528 0 1
-45.4374 -3.2699 -18.1709 0.0547 0 1
-44.3994 -4.9974 -17.8218 0.0568 0 1
-43.1352 -6.6220 -17.4073 0.0625 0 1
-41.7021 -8.1314 -16.9474 0.0642 0 1
-39.6819 -9.4091 -16.2672 0.0618 0 1
-37.4021 -10.4746 -15.4929 0.0632 0 1
-35.1070 -11.3737 -14.7200 0.0694 0 1
-4.6336 -9.7850 -4.4582 0.2450 0 1
-4.0432 -9.5097 -4.2552 0.2562 0 24
-3.5178 -9.2960 -4.0928 0.2660 0 1
-3.0145 -9.0503 -3.9280 0.2772 0 1
-2.5443 -8.8055 -3.7742 0.2885 0 1
-2.1031 -8.5557 -3.6279 0.2960 0 1
-1.6910 -8.3082 -3.4913 0.3076 0 1
-1.3058 -8.0636 -3.3637 0.3193 0 1
-0.9458 -7.8237 -3.2451 0.3355 0 1
-0.6069 -7.5637 -3.1246 0.3483 0 24
-0.2930 -7.3539 -3.0306 0.3593 0 1
0.0030 -7.1240 -2.9335 0.3712 0 1
0.2807 -6.8974 -2.8426 0.3829 0 1
0.5412 -6.6742 -2.7573 0.3948 0 1
0.7858 -6.4543 -2.6774 0.4066 0 1
1.0156 -6.2378 -2.6024 0.4183 0 1
1.2314 -6.0240 -2.5319 0.4301 0 1
1.4339 -5.8117 -2.4649 0.4406 0 1
1.6182 -5.5825 -2.3934 0.4520 0 24
1.7951 -5.3742 -2.3332 0.4618 0 24
1.9607 -5.1679 -2.2760 0.4729 0 24
2.1282 -4.9938 -2.2353 0.4856 0 1
2.2765 -4.7970 -2.1865 0.4965 0 1
2.4104 -4.5924 -2.1357 0.4903 0 1
2.5341 -4.3892 -2.0870 0.5018 0 1
2.6494 -4.1901 -2.0414 0.5130 0 1
2.7569 -3.9947 -1.9987 0.5240 0 1
2.8598 -3.8065 -1.9605 0.5562 0 1
2.9588 -3.6249 -1.9268 0.5659 0 1
3.0515 -3.4456 -1.8953 0.5753 0 1
3.1383 -3.2686 -1.8659 0.5844 0 1
3.2194 -3.0937 -1.8386 0.5931 0 1
3.2951 -2.9208 -1.8132 0.6014 0 1
3.3657 -2.7497 -1.7896 0.6093 0 1
3.4321 -2.5809 -1.7683 0.6072 0 1
3.4943 -2.4138 -1.7488 0.6140 0 1
3.5520 -2.2482 -1.7310 0.6204 0 1
3.6060 -2.0840 -1.7150 0.6262 0 1
3.6558 -1.9209 -1.7006 0.6349 0 1
3.7020 -1.7589 -1.6877 0.6397 0 1
3.7441 -1.5976 -1.6762 0.6441 0 1
3.7822 -1.4369 -1.6661 0.6480 0 1
3.8166 -1.2767 -1.6572 0.6515 0 1
3.8473 -1.1170 -1.6497 0.6545 0 1
3.8742 -0.9577 -1.6434 0.6570 0 1
3.8976 -0.7986 -1.6383 0.6590 0 1
3.9174 -0.6396 -1.6345 0.6606 0 1
3.9337 -0.4807 -1.6319 0.6616 0 1
3.9464 -0.3218 -1.6305 0.6622 0 1
3.9557 -0.1627 -1.6303 0.6623 0 1
3.9629 -0.0035 -1.6319 0.6609 0 1
3.9681 0.1563 -1.6353 0.6595 0 1
3.9698 0.3167 -1.6399 0.6577 0 1
3.9680 0.4779 -1.6458 0.6553 0 1
3.9602 0.6395 -1.6518 0.6432 0 1
3.9468 0.8015 -1.6584 0.6407 0 1
3.9298 0.9641 -1.6662 0.6377 0 1
3.9089 1.1275 -1.6752 0.6343 0 1
3.8841 1.2918 -1.6855 0.6304 0 1
3.8554 1.4570 -1.6972 0.6261 0 1
3.8226 1.6232 -1.7101 0.6213 0 1
3.7857 1.7906 -1.7245 0.6162 0 1
3.7444 1.9592 -1.7402 0.6106 0 1
3.6988 2.1291 -1.7574 0.6046 0 1
3.6488 2.3005 -1.7762 0.5978 0 1
3.5941 2.4735 -1.7966 0.5911 0 1
3.5348 2.6485 -1.8188 0.5838 0 1
3.4704 2.8252 -1.8427 0.5763 0 1
3.4007 3.0039 -1.8684 0.5683 0 1
3.3254 3.1845 -1.8960 0.5601 0 1
3.2448 3.3678 -1.9257 0.5556 0 1
3.1583 3.5538 -1.9578 0.5465 0 1
3.0655 3.7423 -1.9920 0.5371 0 1
2.9659 3.9334 -2.0285 0.5274 0 1
2.8574 4.1250 -2.0663 0.5219 0 1
2.7401 4.3168 -2.1054 0.5122 0 1
2.6148 4.5109 -2.1470 0.5028 0 1
2.4813 4.7075 -2.1913 0.4927 0 1
2.3391 4.9068 -2.2384 0.4823 0 1
2.1877 5.1088 -2.2885 0.4718 0 1
2.0144 5.2817 -2.3277 0.4618 0 24
1.8549 5.5211 -2.3983 0.4505 0 1
1.6721 5.7314 -2.4585 0.4395 0 1
1.4716 5.9202 -2.5120 0.4274 0 24
1.2707 6.1612 -2.5905 0.4171 0 1
1.0503 6.3808 -2.6629 0.4058 0 1
0.8159 6.6053 -2.7406 0.3952 0 1
0.5661 6.8334 -2.8235 0.3827 0 1
0.2998 7.0652 -2.9119 0.3711 0 1
0.0158 7.3004 -3.0062 0.3595 0 1
-0.2872 7.5391 -3.1067 0.3478 0 1
-0.6105 7.7785 -3.2129 0.3390 0 1
-0.9553 8.0195 -3.3256 0.3276 0 1
-1.3232 8.2620 -3.4455 0.3170 0 1
-1.7153 8.5035 -3.5721 0.3058 0 1
-2.1338 8.7463 -3.7072 0.2947 0 1
-2.5806 8.9900 -3.8514 0.2836 0 1
-3.0570 9.2314 -4.0043 0.2789 0 1
-3.5673 9.4766 -4.1696 0.2622 0 1
-4.1131 9.7211 -4.3465 0.2516 0 1
-4.6968 9.9633 -4.5357 0.2411 0 1
-5.3250 10.2094 -4.7415 0.2266 0 1
-5.9935 10.4436 -4.9583 0.2214 0 1
-6.6923 10.6449 -5.1777 0.2053 0 24
-7.4558 10.8634 -5.4255 0.2012 0 1
-8.2672 11.0637 -5.6873 0.1882 0 1
-9.1437 11.2616 -5.9734 0.1792 0 1
-10.0798 11.4413 -6.2789 0.1705 0 1
-11.0897 11.6105 -6.6114 0.1621 0 1
-12.1692 11.7551 -6.9672 0.1562 0 1
-13.3298 11.8775 -7.3519 0.1447 0 1
-14.5108 11.9180 -7.7323 0.1299 0 24
-16.0572 12.1400 -8.2891 0.1139 0 1
-17.6439 12.2561 -8.8463 0.9964 0 2
-18.3862 11.7040 -8.9749 0.1131 0 2
-19.9258 11.5849 -9.4911 0.1069 0 2
-21.5312 11.3847 -10.0293 0.1012 0 2
-23.1904 11.0921 -10.5855 0.0959 0 2
-24.8867 10.6954 -11.1542 0.0910 0 2
-26.5979 10.1836 -11.7279 0.0865 0 2
-25.6037 8.6389 -11.1271 0.9830 0 6
-29.9473 8.7793 -12.8507 0.0790 0 2
-31.5126 7.8763 -13.3755 0.0759 0 2
-16.7971 3.4869 -7.0642 0.8838 26 14
-16.8464 2.7954 -7.0319 0.8980 26 14
-37.1310 4.6353 -15.4085 0.0705 0 1
-38.1439 3.2097 -15.7625 0.0661 0 1
-38.6740 1.6914 -15.9405 0.0656 0 1
-38.8236 0.1345 -15.9869 0.0654 0 1
-38.6538 -1.4223 -15.9277 0.0696 0 1
-38.1480 -2.9441 -15.7554 0.0707 0 1
-35.5120 -4.1836 -14.7243 0.0691 0 25
-34.5062 -5.4805 -14.3871 0.0707 0 25
-22.4794 -4.5043 -9.4406 0.6911 16 6
-33.3220 -8.0838 -14.1194 0.0754 0 1
-31.6462 -9.0398 -13.5526 0.0700 0 1
-29.7363 -9.8044 -12.8933 0.0733 0 1
-27.7500 -10.4050 -12.2038 0.0789 0 1
-25.7642 -10.8617 -11.5135 0.0812 0 1
-23.9184 -11.2374 -10.8820 0.0944 0 1
-22.1707 -11.5271 -10.2897 0.1049 0 1
-20.5332 -11.7484 -9.7414 0.1179 0 1
-19.0341 -11.9320 -9.2506 0.1242 0 1
-17.5287 -11.9969 -8.7466 0.1238 0 1
-16.0836 -11.9858 -8.2597 0.1268 0 1
-14.7050 -11.9078 -7.7916 0.1344 0 1
-13.3578 -11.7375 -7.3223 0.1413 0 24
-12.1526 -11.5774 -6.9116 0.1499 0 24
-11.1067 -11.4681 -6.5740 0.1626 0 1
-10.0830 -11.2864 -6.2321 0.1715 0 1
-9.1588 -11.1219 -5.9328 0.1873 0 1
-8.2936 -10.9402 -5.6531 0.1966 0 1
-7.4799 -10.7383 -5.3888 0.2040 0 1
-6.7151 -10.5188 -5.1388 0.2137 0 1
-6.0013 -10.2914 -4.9057 0.2238 0 1
-5.3342 -10.0567 -4.6877 0.2331 0 1
-4.7108 -9.8162 -4.4835 0.2437 0 1
-4.1150 -9.5409 -4.2786 0.2548 0 24
-3.5852 -9.3277 -4.1149 0.2646 0 1
-3.0774 -9.0819 -3.9486 0.2758 0 1
-2.6031 -8.8369 -3.7935 0.2870 0 1
-2.1583 -8.5877 -3.6462 0.2945 0 1
-1.7425 -8.3399 -3.5084 0.3061 0 1
-1.3540 -8.0949 -3.3796 0.3178 0 1
-0.9909 -7.8544 -3.2599 0.3340 0 1
-0.6489 -7.5936 -3.1383 0.3467 0 24
-0.3325 -7.3837 -3.0436 0.3578 0 1
-0.0340 -7.1342 -2.9378 0.3701 0 24
0.2459 -6.9264 -2.8540 0.3814 0 1
0.5086 -6.7027 -2.7680 0.3933 0 1
0.7552 -6.4825 -2.6874 0.4051 0 1
0.9868 -6.2655 -2.6118 0.4168 0 1
1.2044 -6.0515 -2.5408 0.4286 0 1
1.4085 -5.8389 -2.4733 0.4391 0 1
1.6001 -5.6292 -2.4098 0.4504 0 1
1.7730 -5.4009 -2.3408 0.4603 0 24
1.9400 -5.1943 -2.2832 0.4713 0 24
2.1084 -5.0194 -2.2418 0.4842 0 1
2.2579 -4.8222 -2.1926 0.4951 0 1
2.3939 -4.6188 -2.1422 0.4888 0 1
2.5186 -4.4152 -2.0931 0.5003 0 1
2.6350 -4.2155 -2.0471 0.5116 0 1
2.7435 -4.0197 -2.0040 0.5226 0 1
2.8465 -3.8301 -1.9650 0.5549 0 1
2.9464 -3.6481 -1.9310 0.5647 0 1
3.0399 -3.4686 -1.8992 0.5741 0 1
3.1274 -3.2913 -1.8696 0.5832 0 1
3.2092 -3.1162 -1.8420 0.5920 0 1
3.2856 -2.9430 -1.8164 0.6003 0 1
3.3569 -2.7716 -1.7926 0.6083 0 1
3.4237 -2.6025 -1.7709 0.6063 0 1
3.4865 -2.4353 -1.7512 0.6131 0 1
3.5448 -2.2694 -1.7332 0.6196 0 1
3.5993 -2.1051 -1.7170 0.6255 0 1
3.6496 -1.9419 -1.7023 0.6342 0 1
3.6962 -1.7797 -1.6893 0.6391 0 1
3.7388 -1.6183 -1.6776 0.6436 0 1
3.7775 -1.4576 -1.6673 0.6476 0 1
3.8124 -1.2973 -1.6583 0.6511 0 1
3.8435 -1.1376 -1.6506 0.6541 0 1
3.8710 -0.9782 -1.6441 0.6567 0 1
3.8948 -0.8190 -1.6389 0.6588 0 1
3.9151 -0.6601 -1.6349 0.6604 0 1
3.9318 -0.5012 -1.6321 0.6615 0 1
3.9450 -0.3423 -1.6306 0.6621 0 1
3.9547 -0.1832 -1.6302 0.6623 0 1
3.9620 -0.0240 -1.6315 0.6611 0 1
3.9676 0.1357 -1.6348 0.6597 0 1
3.9698 0.2960 -1.6392 0.6579 0 1
3.9685 0.4571 -1.6449 0.6557 0 1
3.9616 0.6187 -1.6511 0.6435 0 1
3.9488 0.7806 -1.6575 0.6410 0 1
3.9322 0.9431 -1.6651 0.6381 0 1
3.9118 1.1064 -1.6740 0.6347 0 1
3.8875 1.2706 -1.6841 0.6309 0 1
3.8593 1.4357 -1.6956 0.6266 0 1
3.8271 1.6018 -1.7084 0.6219 0 1
3.7907 1.7690 -1.7225 0.6168 0 1
3.7500 1.9374 -1.7381 0.6113 0 1
3.7049 2.1071 -1.7551 0.6054 0 1
3.6555 2.2783 -1.7737 0.5987 0 1
3.6013 2.4511 -1.7939 0.5920 0 1
3.5427 2.6258 -1.8159 0.5848 0 1
3.4790 2.8023 -1.8395 0.5773 0 1
3.4100 2.9807 -1.8650 0.5694 0 1
3.3354 3.1611 -1.8923 0.5612 0 1
3.2555 3.3440 -1.9218 0.5567 0 1
3.1698 3.5297 -1.9535 0.5477 0 1
3.0778 3.7178 -1.9875 0.5383 0 1
2.9791 3.9087 -2.0237 0.5287 0 1
2.8720 4.1004 -2.0615 0.5232 0 1
2.7556 4.2919 -2.1003 0.5135 0 1
2.6314 4.4858 -2.1415 0.5041 0 1
2.4990 4.6821 -2.1854 0.4940 0 1
2.3580 4.8810 -2.2321 0.4837 0 1
2.2078 5.0826 -2.2818 0.4731 0 1
2.0479 5.2871 -2.3347 0.4624 0 1
1.8776 5.4942 -2.3909 0.4519 0 1
1.6963 5.7041 -2.4505 0.4409 0 1
1.5034 5.9171 -2.5140 0.4298 0 1
1.2981 6.1331 -2.5815 0.4186 0 1
1.0795 6.3523 -2.6533 0.4072 0 1
0.8469 6.5762 -2.7303 0.3967 0 1
0.5992 6.8038 -2.8125 0.3842 0 1
0.3351 7.0351 -2.9002 0.3726 0 1
0.0534 7.2699 -2.9937 0.3610 0 1
-0.2471 7.5082 -3.0934 0.3493 0 1
-0.5677 7.7477 -3.1989 0.3405 0 1
-0.9096 7.9883 -3.3107 0.3290 0 1
-1.2745 8.2310 -3.4298 0.3185 0 1
-1.6634 8.4723 -3.5553 0.3072 0 1
-2.0784 8.7150 -3.6893 0.2961 0 1
-2.5214 8.9585 -3.8323 0.2851 0 1
-2.9940 9.2007 -3.9842 0.2803 0 1
-3.4996 9.4451 -4.1477 0.2636 0 1
-4.0407 9.6897 -4.3231 0.2529 0 1
-4.6194 9.9322 -4.5106 0.2424 0 1
-5.2414 10.1776 -4.7141 0.2280 0 1
-5.9058 10.4155 -4.9304 0.2227 0 1
-6.5969 10.6149 -5.1464 0.2066 0 24
-7.3557 10.8376 -5.3935 0.2024 0 1
-8.1585 11.0371 -5.6518 0.1894 0 1
-9.0275 11.2371 -5.9355 0.1803 0 1
-9.9558 11.4194 -6.2384 0.1716 0 1
-10.9557 11.5899 -6.5673 0.1632 0 1
-12.0264 11.7383 -6.9202 0.1549 0 1
-13.1753 11.8630 -7.3005 0.1458 0 1
-14.3402 11.9029 -7.6742 0.1368 0 24
-15.8613 12.1217 -8.2203 0.1148 0 1
-17.5872 12.3524 -8.8499 0.9906 0 2
-18.1931 11.7141 -8.9102 0.1139 0 2
-19.7237 11.6045 -9.4233 0.1077 0 2
-21.3211 11.4155 -9.9588 0.1019 0 2
-22.9742 11.1354 -10.5130 0.0965 0 2
-24.6669 10.7527 -11.0805 0.0916 0 2
-26.3776 10.2564 -11.6540 0.0871 0 2
-28.0792 9.6365 -12.2245 0.0830 0 2
-29.7386 8.8858 -12.7808 0.0794 0 2
-31.3173 8.0002 -13.3100 0.0762 0 2
-16.7976 3.5779 -7.0721 0.8727 26 14
-16.8374 2.8837 -7.0343 0.8977 26 14
-19.0529 2.4789 -7.9118 0.1310 26 14
-38.0522 3.4008 -15.7316 0.0663 0 1
-38.6242 1.8899 -15.9238 0.0657 0 1
-38.8238 0.3357 -15.9875 0.0654 0 1
-38.6949 -1.2230 -15.9418 0.0696 0 1
-38.2340 -2.7515 -15.7848 0.0705 0 1
-35.6231 -4.0096 -14.7615 0.0689 0 25
-34.6493 -5.3193 -14.4351 0.0705 0 25
-35.0033 -6.8252 -14.6852 0.0709 0 1
-33.5231 -7.9488 -14.1869 0.0750 0 1
-31.8820 -8.9287 -13.6335 0.0696 0 1
-29.9811 -9.7130 -12.9774 0.0744 0 1
-4.4271 -9.3490 -4.3942 0.2553 0 1
-3.8706 -9.1036 -4.2023 0.2661 0 24
-3.3729 -8.9131 -4.0484 0.2761 0 1
-2.8952 -8.6920 -3.8918 0.2873 0 1
-2.4462 -8.4660 -3.7435 0.2946 0 1
-2.0250 -8.2380 -3.6037 0.3060 0 1
-1.6305 -8.0109 -3.4728 0.3176 0 1
-1.2611 -7.7872 -3.3511 0.3345 0 1
-0.9117 -7.5412 -3.2268 0.3458 0 24
-0.5894 -7.3459 -3.1306 0.3571 0 1
-0.2840 -7.1275 -3.0302 0.3690 0 1
0.0029 -6.9115 -2.9360 0.3808 0 1
0.2725 -6.6979 -2.8476 0.3925 0 1
0.5260 -6.4867 -2.7646 0.4043 0 1
0.7644 -6.2782 -2.6867 0.4160 0 1
0.9886 -6.0722 -2.6135 0.4277 0 1
1.1996 -5.8685 -2.5445 0.4394 0 1
1.3977 -5.6652 -2.4788 0.4497 0 1
1.5840 -5.4647 -2.4170 0.4612 0 1
1.7593 -5.2669 -2.3589 0.4725 0 1
1.9147 -5.0468 -2.2930 0.4820 0 24
2.0794 -4.8794 -2.2531 0.4947 0 1
2.2253 -4.6890 -2.2048 0.4877 0 1
2.3561 -4.4888 -2.1536 0.4993 0 1
2.4782 -4.2924 -2.1055 0.5107 0 1
2.5922 -4.0997 -2.0605 0.5219 0 1
2.6987 -3.9103 -2.0183 0.5328 0 1
2.8027 -3.7306 -1.9822 0.5649 0 1
2.9008 -3.5538 -1.9487 0.5746 0 1
2.9926 -3.3792 -1.9175 0.5839 0 1
3.0787 -3.2066 -1.8883 0.5929 0 1
3.1591 -3.0358 -1.8612 0.6016 0 1
3.2342 -2.8669 -1.8360 0.6098 0 1
3.3043 -2.6996 -1.8126 0.6177 0 1
3.3695 -2.5338 -1.7909 0.6252 0 1
3.4307 -2.3699 -1.7713 0.6224 0 1
3.4880 -2.2077 -1.7535 0.6288 0 1
3.5416 -2.0468 -1.7377 0.6380 0 1
3.5915 -1.8871 -1.7235 0.6433 0 1
3.6373 -1.7282 -1.7107 0.6481 0 1
3.6791 -1.5698 -1.6992 0.6525 0 1
3.7170 -1.4121 -1.6891 0.6564 0 1
3.7511 -1.2548 -1.6803 0.6598 0 1
3.7815 -1.0980 -1.6727 0.6628 0 1
3.8083 -0.9414 -1.6665 0.6653 0 1
3.8315 -0.7850 -1.6614 0.6673 0 1
3.8511 -0.6288 -1.6576 0.6688 0 1
3.8672 -0.4726 -1.6550 0.6699 0 1
3.8798 -0.3164 -1.6536 0.6704 0 1
3.8889 -0.1600 -1.6534 0.6705 0 1
3.8958 -0.0034 -1.6550 0.6692 0 1
3.9008 0.1537 -1.6584 0.6678 0 1
3.9023 0.3113 -1.6630 0.6660 0 1
3.9003 0.4697 -1.6688 0.6636 0 1
3.8909 0.6283 -1.6743 0.6516 0 1
3.8776 0.7874 -1.6808 0.6491 0 1
3.8605 0.9471 -1.6886 0.6461 0 1
3.8396 1.1076 -1.6976 0.6427 0 1
3.8148 1.2688 -1.7078 0.6389 0 1
3.7862 1.4308 -1.7194 0.6346 0 1
3.7535 1.5939 -1.7323 0.6298 0 1
3.7166 1.7579 -1.7465 0.6247 0 1
3.6756 1.9231 -1.7622 0.6191 0 1
3.6301 2.0895 -1.7793 0.6132 0 1
3.5802 2.2573 -1.7979 0.6064 0 1
3.5258 2.4266 -1.8182 0.5997 0 1
3.4669 2.5976 -1.8403 0.5925 0 1
3.4029 2.7702 -1.8640 0.5850 0 1
3.3336 2.9446 -1.8895 0.5771 0 1
3.2592 3.1211 -1.9170 0.5731 0 1
3.1795 3.3000 -1.9467 0.5644 0 1
3.0937 3.4811 -1.9784 0.5553 0 1
3.0017 3.6644 -2.0122 0.5460 0 1
2.9031 3.8501 -2.0484 0.5364 0 1
2.7961 4.0365 -2.0859 0.5309 0 1
2.6802 4.2224 -2.1245 0.5213 0 1
2.5566 4.4105 -2.1656 0.5119 0 1
2.4250 4.6006 -2.2092 0.5018 0 1
2.2849 4.7930 -2.2556 0.4915 0 1
2.1359 4.9877 -2.3049 0.4810 0 1
1.9658 5.1542 -2.3434 0.4711 0 24
1.7992 5.3553 -2.3999 0.4600 0 24
1.6297 5.5859 -2.4718 0.4489 0 1
1.4392 5.7900 -2.5344 0.4378 0 1
1.2325 5.9763 -2.5922 0.4257 0 24
1.0215 6.2057 -2.6717 0.4153 0 1
0.7929 6.4194 -2.7477 0.4040 0 1
0.5497 6.6353 -2.8283 0.3932 0 1
0.2909 6.8539 -2.9142 0.3808 0 1
0.0153 7.0753 -3.0056 0.3692 0 1
-0.2781 7.2991 -3.1029 0.3576 0 1
-0.5905 7.5245 -3.2063 0.3489 0 1
-0.9230 7.7487 -3.3149 0.3374 0 1
-1.2770 7.9738 -3.4305 0.3269 0 1
-1.6534 8.1963 -3.5520 0.3158 0 1
-2.0540 8.4189 -3.6813 0.3047 0 1
-2.4804 8.6409 -3.8189 0.2937 0 1
-2.9345 8.8616 -3.9654 0.2829 0 1
-3.4180 9.0801 -4.1215 0.2722 0 1
-3.9340 9.2978 -4.2887 0.2618 0 1
-4.4838 9.5115 -4.4669 0.2514 0 1
-5.0695 9.7197 -4.6568 0.2411 0 1
-5.6982 9.9291 -4.8631 0.2318 0 1
-6.3556 10.1093 -5.0726 0.2222 0 1
-7.0537 10.2775 -5.2953 0.2117 0 1
-7.7958 10.4328 -5.5325 0.2026 0 1
-8.5946 10.5854 -5.7922 0.1898 0 1
-9.4206 10.6931 -6.0538 0.1813 0 24
-10.3609 10.8474 -6.3722 0.1733 0 1
-11.3291 10.9436 -6.6913 0.1650 0 1
-12.3588 11.0123 -7.0319 0.1566 0 1
-13.4080 11.0122 -7.3706 0.1508 0 24
-14.5611 11.0089 -7.7545 0.1380 0 24
-15.9557 11.0834 -8.2528 0.1224 0 1
-17.3225 11.0269 -8.7231 0.1201 0 1
-18.5635 10.7928 -9.1217 0.9770 0 2
-19.3484 10.2306 -9.2975 0.1121 0 2
-20.7229 9.9119 -9.7583 0.1068 0 2
-22.1123 9.5031 -10.2241 0.1019 0 2
-23.4980 8.9968 -10.6886 0.0975 0 2
-24.8576 8.3871 -11.1444 0.0935 0 2
-26.9332 7.8957 -11.9228 0.2800 0 2
-28.5228 7.1291 -12.4893 0.0918 0 1
-16.6256 3.4513 -7.2132 0.8079 26 14
-16.6798 2.7678 -7.1825 0.9028 26 14
-18.8554 2.3538 -8.0720 0.8682 26 14
-32.8946 2.7680 -14.0231 0.0873 0 1
-33.2823 1.4556 -14.1519 0.0865 0 1
-33.3932 0.1156 -14.1856 0.0817 0 1
-33.2271 -1.2227 -14.1245 0.0789 0 1
-32.7372 -2.5265 -13.9482 0.0802 0 1
-30.4784 -3.5906 -13.0368 0.0802 0 25
-29.7116 -4.7190 -12.7798 0.0818 0 25
-22.2801 -4.4643 -9.6528 0.9837 16 6
-28.5958 -6.9372 -12.4999 0.0790 0 1
-27.2695 -7.7896 -12.0475 0.0841 0 1
-25.8256 -8.5150 -11.5517 0.0863 0 1
-24.3666 -9.1363 -11.0547 0.0964 0 1
-22.8860 -9.6484 -10.5507 0.1045 0 1
-21.4395 -10.0728 -10.0626 0.1096 0 1
-20.0529 -10.4260 -9.6011 0.1220 0 1
-18.7030 -10.7013 -9.1537 0.1212 0 1
-17.3028 -10.8467 -8.6751 0.1235 0 24
-16.0280 -10.9698 -8.2507 0.1303 0 1
-14.7572 -10.9973 -7.8181 0.1376 0 1
-13.5488 -10.9716 -7.4060 0.1441 0 1
-12.4089 -10.9037 -7.0172 0.1520 0 1
-11.3612 -10.8235 -6.6658 0.1647 0 1
-10.3783 -10.7160 -6.3371 0.1732 0 1
-9.4736 -10.6043 -6.0406 0.1889 0 1
-8.6312 -10.4813 -5.7678 0.1978 0 1
-7.8374 -10.3384 -5.5111 0.2071 0 1
-7.0825 -10.1678 -5.2639 0.2140 0 1
-6.3739 -9.9844 -5.0320 0.2239 0 1
-5.6904 -9.7583 -4.7987 0.2337 0 24
-5.0680 -9.5547 -4.5945 0.2437 0 24
-4.4997 -9.3764 -4.4180 0.2539 0 1
-3.9510 -9.1608 -4.2380 0.2638 0 1
-3.4368 -8.9415 -4.0693 0.2747 0 1
-2.9550 -8.7206 -3.9114 0.2859 0 1
-2.5025 -8.4954 -3.7622 0.2931 0 1
-2.0777 -8.2673 -3.6212 0.3045 0 1
-1.6799 -8.0401 -3.4892 0.3161 0 1
-1.3073 -7.8156 -3.3662 0.3303 0 1
-0.9549 -7.5694 -3.2410 0.3444 0 24
-0.6301 -7.3742 -3.1440 0.3556 0 1
-0.3222 -7.1555 -3.0428 0.3675 0 1
-0.0329 -6.9210 -2.9401 0.3797 0 24
0.2387 -6.7252 -2.8587 0.3910 0 1
0.4942 -6.5138 -2.7750 0.4028 0 1
0.7345 -6.3049 -2.6964 0.4145 0 1
0.9605 -6.0986 -2.6226 0.4262 0 1
1.1732 -5.8948 -2.5532 0.4379 0 1
1.3729 -5.6913 -2.4870 0.4482 0 1
1.5551 -5.4709 -2.4161 0.4582 0 24
1.7373 -5.2922 -2.3662 0.4711 0 1
1.9035 -5.0968 -2.3112 0.4823 0 1
2.0600 -4.9040 -2.2596 0.4933 0 1
2.2072 -4.7137 -2.2110 0.5041 0 1
2.3397 -4.5144 -2.1600 0.4978 0 1
2.4629 -4.3175 -2.1115 0.5093 0 1
2.5780 -4.1243 -2.0661 0.5205 0 1
2.6854 -3.9345 -2.0236 0.5314 0 1
2.7897 -3.7535 -1.9867 0.5636 0 1
2.8885 -3.5765 -1.9529 0.5733 0 1
2.9811 -3.4016 -1.9214 0.5827 0 1
3.0679 -3.2287 -1.8920 0.5918 0 1
3.1491 -3.0577 -1.8646 0.6005 0 1
3.2249 -2.8885 -1.8391 0.6088 0 1
3.2956 -2.7210 -1.8155 0.6167 0 1
3.3614 -2.5551 -1.7936 0.6242 0 1
3.4230 -2.3909 -1.7737 0.6216 0 1
3.4808 -2.2284 -1.7557 0.6280 0 1
3.5349 -2.0675 -1.7396 0.6340 0 1
3.5853 -1.9076 -1.7252 0.6426 0 1
3.6316 -1.7486 -1.7122 0.6475 0 1
3.6739 -1.5902 -1.7006 0.6519 0 1
3.7123 -1.4324 -1.6903 0.6559 0 1
3.7469 -1.2751 -1.6813 0.6594 0 1
3.7778 -1.1181 -1.6736 0.6624 0 1
3.8050 -0.9615 -1.6672 0.6650 0 1
3.8287 -0.8051 -1.6620 0.6671 0 1
3.8487 -0.6489 -1.6580 0.6687 0 1
3.8653 -0.4927 -1.6553 0.6698 0 1
3.8784 -0.3365 -1.6537 0.6704 0 1
3.8879 -0.1801 -1.6534 0.6705 0 1
3.8950 -0.0236 -1.6546 0.6693 0 1
3.9004 0.1334 -1.6579 0.6680 0 1
3.9023 0.2910 -1.6623 0.6662 0 1
3.9008 0.4493 -1.6680 0.6640 0 1
3.8924 0.6079 -1.6735 0.6519 0 1
3.8795 0.7669 -1.6799 0.6495 0 1
3.8629 0.9265 -1.6875 0.6465 0 1
3.8425 1.0869 -1.6963 0.6432 0 1
3.8183 1.2480 -1.7064 0.6394 0 1
3.7901 1.4099 -1.7178 0.6351 0 1
3.7579 1.5728 -1.7305 0.6305 0 1
3.7216 1.7367 -1.7446 0.6254 0 1
3.6811 1.9018 -1.7601 0.6199 0 1
3.6362 2.0680 -1.7770 0.6140 0 1
3.5869 2.2356 -1.7954 0.6073 0 1
3.5331 2.4047 -1.8155 0.6006 0 1
3.4747 2.5755 -1.8373 0.5935 0 1
3.4114 2.7479 -1.8608 0.5860 0 1
3.3428 2.9220 -1.8861 0.5781 0 1
3.2691 3.0983 -1.9133 0.5742 0 1
3.1901 3.2769 -1.9427 0.5655 0 1
3.1051 3.4576 -1.9742 0.5565 0 1
3.0139 3.6407 -2.0078 0.5472 0 1
2.9162 3.8261 -2.0436 0.5376 0 1
2.8105 4.0126 -2.0811 0.5321 0 1
2.6955 4.1984 -2.1194 0.5225 0 1
2.5730 4.3862 -2.1602 0.5127 0 1
2.4424 4.5760 -2.2035 0.5031 0 1
2.3034 4.7681 -2.2495 0.4928 0 1
2.1556 4.9625 -2.2984 0.4823 0 1
1.9865 5.1285 -2.3363 0.4725 0 24
1.8212 5.3293 -2.3924 0.4614 0 24
1.6534 5.5598 -2.4640 0.4503 0 1
1.4644 5.7636 -2.5262 0.4392 0 1
1.2591 5.9491 -2.5832 0.4267 0 24
1.0500 6.1786 -2.6623 0.4167 0 1
0.8232 6.3917 -2.7376 0.4055 0 1
0.5819 6.6074 -2.8177 0.3947 0 1
0.3251 6.8256 -2.9028 0.3823 0 1
0.0518 7.0467 -2.9935 0.3707 0 1
-0.2392 7.2702 -3.0901 0.3591 0 1
-0.5492 7.4958 -3.1927 0.3503 0 1
-0.8790 7.7197 -3.3006 0.3389 0 1
-1.2303 7.9452 -3.4153 0.3284 0 1
-1.6036 8.1677 -3.5359 0.3172 0 1
-2.0009 8.3903 -3.6642 0.3061 0 1
-2.4240 8.6123 -3.8007 0.2951 0 1
-2.8744 8.8333 -3.9461 0.2843 0 1
-3.3540 9.0521 -4.1008 0.2735 0 1
-3.8657 9.2700 -4.2666 0.2632 0 1
-4.4110 9.4842 -4.4433 0.2527 0 1
-4.9920 9.6932 -4.6317 0.2424 0 1
-5.6150 9.9026 -4.8358 0.2282 0 1
-6.2687 10.0868 -5.0449 0.2235 0 1
-6.9612 10.2564 -5.2657 0.2129 0 1
-7.6977 10.4138 -5.5012 0.2038 0 1
-8.4886 10.5663 -5.7577 0.1909 0 1
-9.3331 10.7051 -6.0332 0.1822 0 1
-10.2402 10.8330 -6.3325 0.1744 0 1
-11.2012 10.9329 -6.6491 0.1661 0 1
-12.2217 11.0044 -6.9862 0.1576 0 1
-13.3109 11.0485 -7.3486 0.1501 0 1
-14.4058 11.0093 -7.7021 0.1443 0 24
-15.7784 11.0820 -8.1907 0.1234 0 1
-17.1484 11.0414 -8.6641 0.1209 0 1
-18.4885 10.8778 -9.1125 0.9780 0 2
-19.1749 10.2663 -9.2395 0.1110 0 2
-20.5447 9.9578 -9.6986 0.1074 0 2
-21.9332 9.5611 -10.1640 0.1025 0 2
-23.3205 9.0677 -10.6291 0.0980 0 2
-24.6849 8.4716 -11.0865 0.0940 0 2
-26.4605 7.9063 -11.7315 0.2842 0 2
-28.3666 7.2464 -12.4372 0.0922 0 1
-16.6246 3.5411 -7.2206 0.8071 26 14
-16.6709 2.8552 -7.1850 0.9025 26 14
-18.2763 2.3778 -7.8292 0.1359 26 14
-32.8281 2.9339 -14.0010 0.0875 0 1
-33.2471 1.6268 -14.1403 0.0865 0 1
-33.3965 0.2888 -14.1874 0.0816 0 1
-33.2651 -1.0514 -14.1381 0.0819 0 1
-32.8207 -2.3619 -13.9783 0.0801 0 1
-30.5628 -3.4400 -13.0651 0.0800 0 25
-29.8210 -4.5780 -12.8164 0.0815 0 25
-28.8968 -5.6345 -12.5066 0.0836 0 25
-28.7590 -6.8192 -12.5556 0.0791 0 1
-27.4471 -7.6866 -12.1082 0.0837 0 1
-26.0237 -8.4309 -11.6206 0.0858 0 1
-4.2361 -8.9457 -4.3348 0.2646 0 1
-3.7218 -8.7537 -4.1658 0.2753 0 1
-3.2383 -8.5574 -4.0070 0.2863 0 1
-2.7832 -8.3560 -3.8571 0.2934 0 1
-2.3545 -8.1487 -3.7147 0.3046 0 1
-1.9453 -7.9136 -3.5689 0.3198 0 24
-1.5741 -7.7338 -3.4564 0.3300 0 1
-1.2151 -7.5033 -3.3288 0.3437 0 24
-0.8853 -7.3233 -3.2306 0.3551 0 1
-0.5711 -7.1174 -3.1271 0.3669 0 1
-0.2754 -6.9128 -3.0298 0.3786 0 1
0.0028 -6.7095 -2.9384 0.3903 0 1
0.2648 -6.5078 -2.8524 0.4021 0 1
0.5115 -6.3079 -2.7716 0.4138 0 1
0.7439 -6.1098 -2.6955 0.4255 0 1
0.9628 -5.9137 -2.6240 0.4371 0 1
1.1691 -5.7192 -2.5565 0.4473 0 1
1.3585 -5.5062 -2.4837 0.4587 0 24
1.5456 -5.3324 -2.4314 0.4704 0 1
1.7177 -5.1424 -2.3744 0.4817 0 1
1.8705 -4.9302 -2.3093 0.4901 0 24
2.0203 -4.7405 -2.2568 0.5013 0 24
2.1746 -4.5822 -2.2213 0.4967 0 1
2.3036 -4.3889 -2.1708 0.5083 0 1
2.4242 -4.1990 -2.1234 0.5196 0 1
2.5370 -4.0123 -2.0790 0.5307 0 1
2.6441 -3.8312 -2.0386 0.5635 0 1
2.7474 -3.6570 -2.0032 0.5735 0 1
2.8445 -3.4849 -1.9700 0.5831 0 1
2.9355 -3.3146 -1.9391 0.5924 0 1
3.0207 -3.1462 -1.9101 0.6014 0 1
3.1005 -2.9795 -1.8832 0.6100 0 1
3.1751 -2.8144 -1.8581 0.6182 0 1
3.2446 -2.6508 -1.8349 0.6261 0 1
3.3093 -2.4886 -1.8134 0.6335 0 1
3.3694 -2.3276 -1.7935 0.6405 0 1
3.4256 -2.1682 -1.7755 0.6373 0 1
3.4793 -2.0108 -1.7599 0.6463 0 1
3.5288 -1.8542 -1.7458 0.6516 0 1
3.5742 -1.6982 -1.7330 0.6564 0 1
3.6157 -1.5428 -1.7216 0.6607 0 1
3.6534 -1.3879 -1.7115 0.6646 0 1
3.6872 -1.2335 -1.7028 0.6680 0 1
3.7174 -1.0793 -1.6953 0.6710 0 1
3.7440 -0.9255 -1.6890 0.6735 0 1
3.7669 -0.7718 -1.6840 0.6755 0 1
3.7864 -0.6182 -1.6802 0.6770 0 1
3.8023 -0.4647 -1.6776 0.6781 0 1
3.8147 -0.3110 -1.6762 0.6786 0 1
3.8237 -0.1573 -1.6760 0.6787 0 1
3.8304 -0.0033 -1.6775 0.6774 0 1
3.8352 0.1511 -1.6809 0.6760 0 1
3.8365 0.3061 -1.6855 0.6742 0 1
3.8332 0.4617 -1.6909 0.6621 0 1
3.8235 0.6174 -1.6962 0.6600 0 1
3.8101 0.7737 -1.7027 0.6575 0 1
3.7930 0.9306 -1.7104 0.6545 0 1
3.7721 1.0881 -1.7193 0.6511 0 1
3.7474 1.2463 -1.7295 0.6472 0 1
3.7188 1.4054 -1.7410 0.6430 0 1
3.6862 1.5653 -1.7539 0.6383 0 1
3.6495 1.7262 -1.7680 0.6332 0 1
3.6085 1.8881 -1.7836 0.6276 0 1
3.5633 2.0511 -1.8006 0.6217 0 1
3.5136 2.2153 -1.8191 0.6150 0 1
3.4595 2.3809 -1.8392 0.6083 0 1
3.4009 2.5482 -1.8611 0.6011 0 1
3.3373 2.7168 -1.8846 0.5936 0 1
3.2688 2.8874 -1.9101 0.5902 0 1
3.1953 3.0599 -1.9375 0.5818 0 1
3.1162 3.2343 -1.9669 0.5731 0 1
3.0312 3.4107 -1.9983 0.5641 0 1
2.9400 3.5891 -2.0318 0.5548 0 1
2.8423 3.7696 -2.0676 0.5452 0 1
2.7368 3.9509 -2.1049 0.5398 0 1
2.6223 4.1313 -2.1430 0.5302 0 1
2.5004 4.3135 -2.1835 0.5204 0 1
2.3707 4.4976 -2.2266 0.5109 0 1
2.2327 4.6834 -2.2722 0.5006 0 1
2.0860 4.8713 -2.3207 0.4901 0 1
1.9190 5.0317 -2.3584 0.4803 0 24
1.7554 5.2250 -2.4140 0.4692 0 24
1.5890 5.4463 -2.4846 0.4582 0 1
1.4023 5.6417 -2.5460 0.4471 0 1
1.2042 5.8391 -2.6110 0.4360 0 1
0.9913 6.0224 -2.6730 0.4236 0 24
0.7710 6.2419 -2.7544 0.4135 0 1
0.5341 6.4469 -2.8331 0.4028 0 1
0.2823 6.6533 -2.9164 0.3912 0 1
0.0149 6.8618 -3.0051 0.3789 0 1
-0.2694 7.0719 -3.0994 0.3673 0 1
-0.5716 7.2834 -3.1995 0.3558 0 1
-0.8926 7.4933 -3.3049 0.3473 0 1
-1.2336 7.7026 -3.4163 0.3368 0 1
-1.5952 7.9080 -3.5330 0.3257 0 1
-1.9792 8.1124 -3.6570 0.3147 0 1
-2.3868 8.3150 -3.7886 0.3038 0 1
-2.8197 8.5150 -3.9283 0.2930 0 1
-3.2793 8.7116 -4.0766 0.2823 0 1
-3.7673 8.9040 -4.2341 0.2692 0 1
-4.2873 9.0946 -4.4033 0.2588 0 1
-4.8386 9.2769 -4.5822 0.2514 0 1
-5.4236 9.4505 -4.7719 0.2372 0 1
-6.0421 9.6108 -4.9717 0.2327 0 1
-6.6910 9.7490 -5.1784 0.2234 0 1
-7.3762 9.8714 -5.3967 0.2131 0 1
-8.1034 9.9804 -5.6302 0.2003 0 1
-8.8819 10.0817 -5.8843 0.1917 0 1
-9.7147 10.1709 -6.1597 0.1831 0 1
-10.5916 10.2312 -6.4493 0.1757 0 1
-11.5148 10.2603 -6.7544 0.1673 0 1
-12.4937 10.2613 -7.0805 0.1598 0 1
-13.5174 10.2198 -7.4214 0.1521 0 1
-14.5947 10.1380 -7.7824 0.1332 0 1
-15.8046 10.0606 -8.2049 0.1293 0 1
-16.9989 9.8831 -8.6114 0.1251 0 1
-18.2137 9.6306 -9.0230 0.1191 0 1
-19.7363 9.4400 -9.5813 0.1323 0 2
-20.6690 8.8828 -9.8524 0.7982 0 2
-21.8058 8.3489 -10.2258 0.6404 0 2
-23.3537 7.8797 -10.7941 0.1119 0 2
-24.1211 7.0713 -11.0083 0.0997 0 1
-16.5081 4.1261 -7.4520 0.5064 26 14
-16.4423 3.4132 -7.3544 0.9620 26 14
-16.4921 2.7366 -7.3214 0.8559 26 14
-18.1521 2.2660 -8.0114 0.1364 26 14
-28.3188 2.3830 -12.4459 0.0794 0 1
-28.6537 1.2532 -12.5607 0.0787 0 1
-28.7720 0.0996 -12.6007 0.0800 0 1
-28.6349 -1.0537 -12.5490 0.0804 0 1
-28.2624 -2.1812 -12.4142 0.0831 0 1
-26.6633 -3.1411 -11.7578 0.0912 0 25
-26.0568 -4.1385 -11.5545 0.0928 0 25
-22.1606 -4.4404 -9.8980 0.9843 16 6
-24.4305 -5.9267 -11.0095 0.0967 0 2
-24.0755 -6.8772 -10.9655 0.0993 0 1
-22.9823 -7.5775 -10.5980 0.1052 0 1
-21.8319 -8.1859 -10.2112 0.1112 0 1
-20.6433 -8.7029 -9.8112 0.1196 0 1
-19.4698 -9.1474 -9.4209 0.1252 0 1
-18.2773 -9.5028 -9.0217 0.1249 0 1
-17.0792 -9.7722 -8.6176 0.1307 0 1
-15.8906 -9.9615 -8.2136 0.1338 0 1
-14.7324 -10.0831 -7.8184 0.1405 0 1
-13.6167 -10.1474 -7.4371 0.1471 0 1
-12.5514 -10.1639 -7.0731 0.1547 0 1
-11.4984 -10.1037 -6.7035 0.1630 0 24
-10.6217 -10.1190 -6.4248 0.1756 0 1
-9.7449 -10.0620 -6.1345 0.1910 0 1
-8.9300 -9.9958 -5.8701 0.1996 0 1
-8.1571 -9.9056 -5.6197 0.2085 0 1
-7.4207 -9.7887 -5.3795 0.2149 0 1
-6.7032 -9.6234 -5.1362 0.2243 0 24
-6.0626 -9.4968 -4.9343 0.2338 0 1
-5.4413 -9.3312 -4.7306 0.2433 0 1
-4.8558 -9.1547 -4.5383 0.2536 0 1
-4.3047 -8.9700 -4.3573 0.2632 0 1
-3.7863 -8.7787 -4.1869 0.2739 0 1
-3.2989 -8.5829 -4.0269 0.2849 0 1
-2.8405 -8.3826 -3.8762 0.2919 0 1
-2.4082 -8.1755 -3.7325 0.3032 0 1
-1.9955 -7.9401 -3.5854 0.3184 0 24
-1.6215 -7.7605 -3.4721 0.3285 0 1
-1.2595 -7.5296 -3.3434 0.3422 0 24
-0.9272 -7.3499 -3.2444 0.3536 0 1
-0.6105 -7.1439 -3.1400 0.3653 0 1
-0.3125 -6.9391 -3.0420 0.3771 0 1
-0.0320 -6.7183 -2.9423 0.3893 0 24
0.2319 -6.5337 -2.8632 0.4006 0 1
0.4805 -6.3335 -2.7817 0.4123 0 1
0.7147 -6.1352 -2.7051 0.4240 0 1
0.9354 -5.9389 -2.6330 0.4356 0 1
1.1433 -5.7443 -2.5650 0.4457 0 1
1.3342 -5.5311 -2.4918 0.4573 0 24
1.5227 -5.3570 -2.4390 0.4689 0 1
1.6961 -5.1667 -2.3815 0.4802 0 1
1.8504 -4.9547 -2.3163 0.4904 0 24
2.0015 -4.7648 -2.2634 0.4999 0 24
2.1573 -4.6073 -2.2280 0.4952 0 1
2.2875 -4.4136 -2.1771 0.5068 0 1
2.4092 -4.2233 -2.1293 0.5181 0 1
2.5229 -4.0361 -2.0845 0.5293 0 1
2.6303 -3.8538 -2.0434 0.5622 0 1
2.7345 -3.6793 -2.0076 0.5722 0 1
2.8323 -3.5069 -1.9742 0.5819 0 1
2.9241 -3.3365 -1.9429 0.5913 0 1
3.0101 -3.1678 -1.9138 0.6003 0 1
3.0905 -3.0009 -1.8866 0.6089 0 1
3.1657 -2.8356 -1.8613 0.6172 0 1
3.2359 -2.6718 -1.8378 0.6251 0 1
3.3013 -2.5094 -1.8160 0.6326 0 1
3.3620 -2.3483 -1.7960 0.6397 0 1
3.4185 -2.1886 -1.7776 0.6364 0 1
3.4726 -2.0310 -1.7618 0.6456 0 1
3.5226 -1.8743 -1.7475 0.6509 0 1
3.5686 -1.7183 -1.7346 0.6558 0 1
3.6106 -1.5628 -1.7230 0.6602 0 1
3.6487 -1.4079 -1.7128 0.6641 0 1
3.6831 -1.2533 -1.7038 0.6676 0 1
3.7137 -1.0992 -1.6962 0.6706 0 1
3.7407 -0.9453 -1.6897 0.6732 0 1
3.7642 -0.7916 -1.6846 0.6753 0 1
3.7840 -0.6380 -1.6806 0.6768 0 1
3.8004 -0.4844 -1.6778 0.6780 0 1
3.8133 -0.3308 -1.6763 0.6786 0 1
3.8228 -0.1771 -1.6760 0.6787 0 1
3.8295 -0.0232 -1.6772 0.6775 0 1
3.8348 0.1312 -1.6804 0.6762 0 1
3.8365 0.2861 -1.6848 0.6744 0 1
3.8342 0.4416 -1.6903 0.6623 0 1
