ply
format ascii 1.0
element vertex 1568
property float32 x
property float32 y
property float32 z
property float32 I
end_header
3.8831 -0.4916 -1.1718 0.9838
3.8742 -0.3329 -1.1641 0.9839
3.8544 -0.0203 -1.1539 0.9840
3.8591 0.1349 -1.1560 0.9840
3.8624 0.2908 -1.1596 0.9840
3.8695 0.6070 -1.1726 0.9838
3.8907 0.7717 -1.1875 0.9836
4.6327 1.3133 -1.4416 0.9801
4.6091 1.5093 -1.4520 0.9800
4.5495 1.9068 -1.4768 0.9796
4.4727 2.3133 -1.5075 0.9792
4.4276 2.5206 -1.5253 0.9790
4.3775 2.7308 -1.5446 0.9787
4.3224 2.9442 -1.5657 0.9784
3.8714 4.3127 -1.7350 0.9761
3.6553 4.7974 -1.8056 0.9751
3.5370 5.0512 -1.8461 0.9746
2.6019 6.7166 -2.1564 0.9704
2.3954 7.0077 -2.2172 0.9696
2.1739 7.3077 -2.2825 0.9687
1.9364 7.6173 -2.3530 0.9677
1.4205 8.3503 -2.5358 0.9653
1.1282 8.7461 -2.6401 0.9638
0.8072 9.1422 -2.7476 0.9624
0.4561 9.5245 -2.8547 0.9610
0.0758 9.9237 -2.9710 0.9594
-0.3375 10.3547 -3.1016 0.9577
-0.7896 10.8280 -3.2503 0.9557
-1.2879 11.3476 -3.4191 0.9534
-2.4395 12.4532 -3.7991 0.9484
-3.1096 13.0650 -4.0207 0.9455
-5.6274 15.2124 -4.8559 0.9345
-6.6505 15.9729 -5.1799 0.9303
-7.8183 16.8361 -5.5574 0.9254
-9.1717 17.8361 -6.0044 0.9197
-12.7425 20.5342 -7.2350 0.9040
-16.7755 22.7287 -8.4572 0.8887
-23.2836 26.7483 -10.6168 0.8624
-24.3892 25.8425 -10.6382 0.8621
-22.5380 22.0346 -9.4363 0.8767
-22.7318 18.9021 -8.8509 0.8839
-22.8151 17.4689 -8.6026 0.8869
-28.1910 18.1900 -10.0442 0.8693
-32.8032 19.3438 -11.4010 0.8530
-31.3756 16.8399 -10.6607 0.8618
-35.8794 -31.0834 -14.2119 0.8202
-33.0744 -31.0672 -13.5850 0.8274
-13.2510 -20.4304 -7.2903 0.9033
-11.3026 -19.0640 -6.6351 0.9116
-6.9663 -15.8319 -5.1783 0.9303
-5.8898 -14.9937 -4.8227 0.9350
-4.9446 -14.2455 -4.5144 0.9390
-4.1052 -13.5649 -4.2430 0.9425
-3.3549 -12.9416 -4.0025 0.9457
-2.6805 -12.3673 -3.7885 0.9485
-1.0049 -10.7993 -3.2471 0.9557
-0.1219 -9.8677 -2.9544 0.9596
0.2631 -9.4404 -2.8274 0.9613
0.6160 -9.0343 -2.7110 0.9629
0.9402 -8.6475 -2.6042 0.9643
1.2383 -8.2767 -2.5055 0.9657
1.7618 -7.5605 -2.3241 0.9681
2.2207 -6.9476 -2.1836 0.9700
2.4229 -6.6461 -2.1178 0.9709
2.6105 -6.3541 -2.0566 0.9717
2.7847 -6.0716 -1.9998 0.9725
2.9468 -5.7978 -1.9471 0.9732
3.0977 -5.5319 -1.8981 0.9739
3.5669 -4.4900 -1.7167 0.9763
3.6629 -4.2483 -1.6793 0.9769
3.8373 -3.7872 -1.6141 0.9777
3.9993 -3.3576 -1.5633 0.9784
4.0717 -3.1482 -1.5409 0.9787
4.1388 -2.9420 -1.5202 0.9790
4.3128 -2.3411 -1.4691 0.9797
4.3620 -2.1454 -1.4553 0.9799
4.4843 -1.5684 -1.4223 0.9804
4.5461 -1.1900 -1.4069 0.9806
3.9310 -0.8617 -1.2048 0.9833
3.8957 -0.6911 -1.1845 0.9836
3.8762 -0.3699 -1.1657 0.9839
3.8566 -0.0568 -1.1547 0.9840
3.8578 0.0984 -1.1553 0.9840
3.8618 0.2542 -1.1587 0.9840
4.1807 0.9638 -1.2844 0.9822
4.6376 1.2675 -1.4393 0.9801
4.6150 1.4631 -1.4494 0.9800
4.5221 2.0612 -1.4878 0.9795
4.4827 2.2651 -1.5036 0.9792
4.3897 2.6812 -1.5399 0.9788
4.3358 2.8938 -1.5606 0.9785
4.1424 3.5546 -1.6341 0.9775
3.9833 4.0170 -1.6936 0.9767
3.8935 4.2558 -1.7269 0.9762
3.5656 4.9910 -1.8363 0.9747
3.4403 5.2499 -1.8791 0.9741
3.0021 6.0677 -2.0267 0.9721
2.8323 6.3554 -2.0831 0.9714
2.2273 7.2365 -2.2668 0.9689
1.9937 7.5437 -2.3360 0.9679
1.7486 7.8877 -2.4188 0.9668
1.4855 8.2602 -2.5126 0.9656
1.1991 8.6514 -2.6148 0.9642
0.8857 9.0547 -2.7237 0.9627
0.5410 9.4333 -2.8288 0.9613
-1.1670 11.2270 -3.3793 0.9540
-2.2921 12.3156 -3.7503 0.9490
-4.4871 14.2700 -4.4784 0.9395
-5.3990 15.0293 -4.7810 0.9355
-6.4082 15.8102 -5.1073 0.9312
-7.5336 16.6323 -5.4664 0.9266
-10.3734 18.7321 -6.4105 0.9145
-14.3400 21.5957 -7.7609 0.8974
-18.8741 23.9903 -9.1386 0.8803
-22.3542 26.1755 -10.3052 0.8661
-24.3466 26.2902 -10.7274 0.8610
-22.5196 22.4363 -9.5169 0.8757
-22.7372 19.2725 -8.9234 0.8830
-22.7941 17.7967 -8.6577 0.8863
-31.5553 22.6555 -11.6297 0.8503
-29.3406 17.6774 -10.2551 0.8667
-32.3441 17.7550 -11.0462 0.8572
-42.5868 19.0998 -13.9732 0.8229
-21.0521 -23.6757 -9.8687 0.8757
-15.9726 -21.1697 -8.2607 0.8948
-13.4112 -19.3463 -7.3327 0.9061
-8.5610 -16.2252 -5.7145 0.9260
-7.3346 -15.3679 -5.3043 0.9311
-6.2624 -14.6047 -4.9499 0.9356
-5.3165 -13.9190 -4.6412 0.9395
-4.4723 -13.2887 -4.3675 0.9429
-3.0314 -12.1653 -3.9053 0.9488
-1.8448 -11.1632 -3.5244 0.9537
-0.4231 -9.8023 -3.0562 0.9597
0.9781 -8.2689 -2.5937 0.9657
1.5205 -7.5720 -2.4057 0.9682
1.9897 -6.9559 -2.2536 0.9701
2.2056 -6.6820 -2.1919 0.9710
2.4004 -6.3961 -2.1281 0.9718
2.5817 -6.1192 -2.0688 0.9726
2.9077 -5.5895 -1.9626 0.9739
3.1805 -5.0716 -1.8647 0.9752
3.5994 -4.0958 -1.6985 0.9774
3.7752 -3.6562 -1.6371 0.9782
3.8574 -3.4462 -1.6112 0.9786
4.0045 -3.0363 -1.5654 0.9792
4.1312 -2.6381 -1.5268 0.9797
4.2884 -2.0591 -1.4818 0.9803
4.3321 -1.8697 -1.4697 0.9804
4.3717 -1.6817 -1.4591 0.9806
4.4392 -1.3092 -1.4417 0.9808
4.4678 -1.1245 -1.4351 0.9809
3.9350 -0.8237 -1.2523 0.9833
3.9182 -0.6570 -1.2375 0.9835
3.8953 -0.3347 -1.2179 0.9838
3.8741 -0.0204 -1.2068 0.9839
4.2797 1.0293 -1.3711 0.9817
4.4223 2.0663 -1.5205 0.9798
4.3363 2.4687 -1.5543 0.9793
4.2862 2.6738 -1.5736 0.9791
4.1707 3.0935 -1.6175 0.9785
3.8721 3.9793 -1.7295 0.9770
3.6801 4.4471 -1.7981 0.9761
3.3252 5.1801 -1.9174 0.9745
3.1890 5.4371 -1.9635 0.9739
2.7134 6.2465 -2.1214 0.9719
2.1123 7.1003 -2.3075 0.9694
1.6353 7.7208 -2.4583 0.9675
0.7792 8.8254 -2.7598 0.9636
0.0730 9.5644 -2.9794 0.9607
-0.7577 10.3903 -3.2451 0.9573
-1.2325 10.8589 -3.4042 0.9552
-1.7439 11.2916 -3.5590 0.9533
-2.3197 11.8414 -3.7587 0.9507
-3.6306 12.9232 -4.1814 0.9453
-4.4163 13.5948 -4.4526 0.9419
-6.2302 14.9635 -5.0489 0.9343
-8.4642 16.4601 -5.7654 0.9254
-9.8418 17.3829 -6.2223 0.9197
-15.4904 20.9875 -8.1254 0.8965
-17.2903 21.5553 -8.6076 0.8907
-23.7042 25.1167 -10.7578 0.8653
-27.5934 26.9772 -12.0205 0.8507
-22.5558 20.3441 -9.4617 0.8805
-22.6542 18.8376 -9.1776 0.8839
-28.0693 18.1115 -10.4056 0.8694
-32.6647 19.2622 -11.8123 0.8531
-32.8676 15.9732 -11.3831 0.8580
-42.4314 18.5510 -14.4252 0.8236
-23.2132 -4.4905 -7.3649 0.9057
-33.9754 -24.9528 -13.1308 0.8381
-27.7252 -26.0426 -11.8487 0.8527
-21.8547 -24.1160 -10.1378 0.8725
-18.6694 -22.3444 -9.0699 0.8852
-16.7839 -21.8136 -8.5734 0.8911
-11.9809 -18.4722 -6.8583 0.9119
-10.3164 -17.4005 -6.3012 0.9187
-8.8716 -16.4360 -5.8180 0.9247
-7.6100 -15.5654 -5.3970 0.9300
-6.5024 -14.7778 -5.0291 0.9346
-5.5286 -14.0740 -4.7101 0.9386
-4.6619 -13.4313 -4.4286 0.9422
-3.8734 -12.7989 -4.1654 0.9455
-2.5514 -11.7718 -3.7520 0.9508
-1.9653 -11.2320 -3.5519 0.9534
-1.4447 -10.7976 -3.3934 0.9554
-0.5210 -9.9017 -3.0886 0.9593
-0.1172 -9.4863 -2.9552 0.9610
0.2533 -9.0906 -2.8328 0.9626
0.5941 -8.7128 -2.7203 0.9641
0.9080 -8.3515 -2.6168 0.9654
1.1976 -8.0044 -2.5211 0.9667
1.4653 -7.6720 -2.4330 0.9678
1.9382 -7.0260 -2.2703 0.9699
2.3560 -6.4624 -2.1426 0.9716
2.5403 -6.1834 -2.0823 0.9724
2.7120 -5.9129 -2.0263 0.9731
2.8718 -5.6501 -1.9743 0.9738
3.2702 -4.8747 -1.8285 0.9757
3.3795 -4.6243 -1.7841 0.9763
3.6663 -3.9217 -1.6723 0.9778
3.7551 -3.7060 -1.6434 0.9781
3.8386 -3.4952 -1.6171 0.9785
3.9883 -3.0837 -1.5704 0.9791
4.0551 -2.8825 -1.5498 0.9794
4.1172 -2.6842 -1.5310 0.9796
4.2285 -2.2953 -1.4987 0.9800
4.2775 -2.1038 -1.4849 0.9802
4.3222 -1.9140 -1.4725 0.9804
4.3994 -1.5387 -1.4518 0.9807
3.9208 -0.6956 -1.2404 0.9835
3.8764 -0.0570 -1.2076 0.9839
3.8777 0.0989 -1.2083 0.9839
3.8892 0.4135 -1.2183 0.9837
3.8932 0.5731 -1.2258 0.9836
3.9011 0.7356 -1.2366 0.9835
4.4666 1.8227 -1.5027 0.9800
4.3474 2.4209 -1.5500 0.9794
4.2984 2.6254 -1.5689 0.9791
4.1853 3.0435 -1.6120 0.9786
4.1211 3.2580 -1.6364 0.9782
3.8924 3.9254 -1.7220 0.9771
3.5954 4.6275 -1.8254 0.9757
3.4797 4.8709 -1.8646 0.9752
3.0773 5.6374 -2.0006 0.9735
2.9218 5.9053 -2.0523 0.9728
2.7545 6.1808 -2.1078 0.9720
2.3781 6.7484 -2.2288 0.9705
2.1645 7.0325 -2.2920 0.9696
1.6936 7.6398 -2.4375 0.9677
0.5224 9.1076 -2.8416 0.9625
0.1618 9.4758 -2.9521 0.9611
-0.2282 9.8592 -3.0719 0.9595
-0.6524 10.2840 -3.2099 0.9577
-1.1143 10.7204 -3.3573 0.9558
-1.6235 11.2126 -3.5291 0.9536
-2.1808 11.7179 -3.7128 0.9513
-3.4740 12.8294 -4.1402 0.9458
-4.2275 13.4443 -4.3900 0.9427
-5.9993 14.8013 -4.9749 0.9353
-7.0229 15.5047 -5.3020 0.9312
-8.1647 16.2533 -5.6657 0.9266
-9.5024 17.1592 -6.1099 0.9211
-12.9447 19.4943 -7.2892 0.9066
-16.7731 21.3199 -8.4499 0.8926
-26.9103 26.8107 -11.8326 0.8529
-22.6251 19.1775 -9.2387 0.8832
-29.2661 17.6325 -10.6430 0.8666
-32.3423 17.7541 -11.4926 0.8568
-24.9104 -23.8452 -11.1622 0.8650
-10.5799 -16.6544 -6.3867 0.9204
-9.1819 -15.8256 -5.9224 0.9260
-7.9460 -15.0596 -5.5116 0.9309
-6.8498 -14.3521 -5.1477 0.9353
-5.8801 -13.7132 -4.8297 0.9392
-4.2347 -12.5824 -4.2974 0.9457
-3.5278 -12.0669 -4.0695 0.9485
-2.8748 -11.5369 -3.8486 0.9512
-1.7628 -10.6667 -3.4996 0.9556
-0.8204 -9.8205 -3.1899 0.9594
-0.0263 -9.0103 -2.9166 0.9628
1.4791 -7.3658 -2.4319 0.9689
1.7173 -7.0668 -2.3541 0.9699
1.9328 -6.7573 -2.2750 0.9709
2.6804 -5.7014 -2.0393 0.9739
2.8354 -5.4505 -1.9887 0.9745
3.1030 -4.9482 -1.8906 0.9757
3.4244 -4.2281 -1.7612 0.9774
3.5178 -4.0029 -1.7250 0.9778
3.6081 -3.7871 -1.6932 0.9782
3.6958 -3.5793 -1.6654 0.9786
3.8534 -3.1735 -1.6159 0.9792
3.9239 -2.9751 -1.5939 0.9795
4.1066 -2.3956 -1.5389 0.9802
4.2501 -1.8343 -1.4984 0.9807
4.3251 -1.4670 -1.4783 0.9810
4.4321 -0.7432 -1.4547 0.9813
4.4499 -0.5633 -1.4519 0.9813
3.9158 -0.3364 -1.2722 0.9836
3.9045 -0.1777 -1.2652 0.9837
3.8943 -0.0205 -1.2606 0.9838
3.8993 0.1363 -1.2630 0.9837
3.9055 0.2941 -1.2678 0.9837
3.9196 0.6148 -1.2843 0.9835
3.9302 0.7795 -1.2970 0.9833
4.4311 1.4510 -1.5093 0.9806
4.4031 1.6406 -1.5210 0.9804
4.3344 2.0252 -1.5486 0.9801
4.1428 2.8219 -1.6226 0.9791
4.0172 3.2379 -1.6702 0.9785
3.8686 3.6683 -1.7257 0.9778
3.7847 3.8895 -1.7567 0.9774
3.4856 4.5746 -1.8616 0.9761
2.8075 5.8117 -2.0892 0.9732
2.6399 6.0773 -2.1448 0.9725
2.4598 6.3499 -2.2042 0.9718
2.2663 6.6302 -2.2681 0.9710
2.0536 6.9031 -2.3313 0.9702
1.3297 7.8165 -2.5665 0.9672
0.7520 8.5173 -2.7677 0.9647
0.4249 8.8732 -2.8755 0.9633
-0.3125 9.5877 -3.1051 0.9605
-0.7275 9.9757 -3.2377 0.9588
-1.6679 10.7996 -3.5372 0.9551
-2.7913 11.7277 -3.9023 0.9506
-3.4529 12.2904 -4.1324 0.9477
-7.8384 15.2432 -5.5483 0.9305
-9.0717 16.0227 -5.9601 0.9255
-10.4592 16.8548 -6.4209 0.9200
-12.1104 17.8696 -6.9875 0.9132
-14.0249 19.0020 -7.6448 0.9055
-20.6146 21.8429 -9.7220 0.8814
-22.6080 17.3103 -9.2169 0.8872
-27.8701 19.6136 -11.0315 0.8665
-27.9478 18.0331 -10.7663 0.8695
-32.5265 19.1807 -12.2229 0.8532
-33.0675 17.7480 -12.1481 0.8540
-31.3846 13.7213 -11.0875 0.8659
-33.8241 -24.8417 -13.5843 0.8382
-31.9692 -25.5199 -13.2411 0.8420
-28.9622 -25.0908 -12.4037 0.8512
-25.8242 -24.2570 -11.4685 0.8616
-22.1917 -22.5917 -10.2507 0.8753
-14.4671 -18.8025 -7.6794 0.9051
-12.5863 -17.7952 -7.0554 0.9124
-9.4939 -16.0133 -6.0259 0.9247
-8.2235 -15.2354 -5.6042 0.9298
-6.0963 -13.8547 -4.8996 0.9383
-5.2097 -13.2622 -4.6123 0.9419
-4.4106 -12.7072 -4.3540 0.9450
-1.8847 -10.7712 -3.5395 0.9551
-1.3827 -10.3345 -3.3750 0.9571
-0.1128 -9.1309 -2.9558 0.9623
0.8777 -8.0732 -2.6287 0.9664
1.1594 -7.7497 -2.5365 0.9676
2.0976 -6.5623 -2.2301 0.9715
2.4734 -6.0206 -2.1069 0.9730
2.7999 -5.5088 -2.0003 0.9744
3.0746 -5.0073 -1.9020 0.9756
3.3007 -4.5165 -1.8107 0.9768
3.4015 -4.2818 -1.7701 0.9773
3.4965 -4.0553 -1.7332 0.9777
3.5866 -3.8364 -1.7000 0.9782
3.6758 -3.6277 -1.6717 0.9785
3.7588 -3.4225 -1.6455 0.9789
3.8361 -3.2205 -1.6213 0.9792
4.2402 -1.8777 -1.5011 0.9807
4.2806 -1.6932 -1.4901 0.9808
4.3792 -1.1463 -1.4653 0.9811
4.4051 -0.9656 -1.4598 0.9812
4.4461 -0.6055 -1.4525 0.9813
3.8980 0.0994 -1.2622 0.9837
3.9108 0.4158 -1.2730 0.9836
3.9272 0.7405 -1.2936 0.9833
4.4790 1.0326 -1.4879 0.9809
4.4100 1.5960 -1.5181 0.9805
4.3035 2.1746 -1.5608 0.9799
4.2593 2.3718 -1.5781 0.9797
4.1562 2.7740 -1.6175 0.9792
4.0972 2.9794 -1.6398 0.9789
4.0330 3.1884 -1.6642 0.9786
3.9632 3.4008 -1.6904 0.9783
3.8873 3.6170 -1.7188 0.9779
3.8050 3.8372 -1.7492 0.9775
3.5123 4.5205 -1.8530 0.9762
3.3973 4.7555 -1.8918 0.9757
2.9985 5.4931 -2.0257 0.9740
2.8451 5.7503 -2.0767 0.9734
2.6804 6.0144 -2.1314 0.9727
1.8808 7.1168 -2.3828 0.9695
1.3914 7.7367 -2.5445 0.9675
1.1202 8.0822 -2.6412 0.9663
0.8251 8.4351 -2.7434 0.9650
0.5041 8.7889 -2.8496 0.9637
0.1562 9.1455 -2.9608 0.9623
-1.0709 10.3025 -3.3528 0.9574
-1.5534 10.7285 -3.5090 0.9554
-3.2944 12.1663 -4.0800 0.9484
-3.9824 12.6649 -4.2975 0.9457
-4.7727 13.2861 -4.5697 0.9424
-5.6343 13.9007 -4.8551 0.9389
-6.5740 14.5138 -5.1575 0.9352
-7.5770 15.0833 -5.4638 0.9315
-8.7729 15.8421 -5.8618 0.9267
-13.5488 18.7244 -7.4813 0.9074
-17.2255 20.1701 -8.5859 0.8945
-19.9155 21.5054 -9.4877 0.8841
-23.1019 23.0164 -10.5559 0.8719
-22.4383 20.6256 -9.8655 0.8797
-22.4916 19.0644 -9.5439 0.8834
-25.1936 18.0881 -10.0392 0.8777
-29.8241 16.3717 -11.0128 0.8667
-21.6475 -20.7219 -10.0683 0.8812
-18.9688 -19.6790 -9.1833 0.8911
-11.1495 -16.0837 -6.5753 0.9207
-7.4144 -14.0521 -5.3381 0.9352
-6.4255 -13.4631 -5.0121 0.9390
-5.5441 -12.9296 -4.7266 0.9424
-4.7449 -12.4223 -4.4678 0.9454
-4.0189 -11.9414 -4.2332 0.9482
-3.3560 -11.4791 -4.0182 0.9508
-1.6872 -10.2094 -3.4767 0.9573
-0.7883 -9.4362 -3.1815 0.9608
-0.0253 -8.6821 -2.9170 0.9640
0.3127 -8.3788 -2.8171 0.9652
2.2743 -6.0599 -2.1747 0.9731
3.4392 -3.9136 -1.7505 0.9783
3.5320 -3.7072 -1.7204 0.9786
3.7002 -3.3059 -1.6671 0.9793
3.7757 -3.1096 -1.6434 0.9796
4.1705 -1.7999 -1.5261 0.9810
4.2098 -1.6194 -1.5155 0.9811
4.2452 -1.4399 -1.5061 0.9813
4.2774 -1.2615 -1.4983 0.9814
4.3059 -1.0838 -1.4918 0.9814
4.3520 -0.7298 -1.4826 0.9816
4.3838 -0.3766 -1.4783 0.9816
4.4111 0.6919 -1.5002 0.9813
4.3904 1.0559 -1.5172 0.9811
4.2859 1.7963 -1.5613 0.9806
4.2493 1.9855 -1.5758 0.9804
4.1630 2.3700 -1.6095 0.9800
4.1128 2.5657 -1.6287 0.9798
3.7007 3.8031 -1.7829 0.9779
3.4059 4.4700 -1.8881 0.9766
3.1659 4.9320 -1.9691 0.9756
3.0321 5.1696 -2.0136 0.9750
2.8886 5.4125 -2.0613 0.9744
2.7347 5.6611 -2.1123 0.9738
2.3927 6.1767 -2.2255 0.9724
1.9977 6.7152 -2.3539 0.9709
1.5368 7.2559 -2.4919 0.9692
1.2881 7.5719 -2.5806 0.9681
0.7265 8.2280 -2.7752 0.9657
0.0680 8.9051 -2.9920 0.9631
-0.3014 9.2472 -3.1085 0.9617
-0.6996 9.5935 -3.2318 0.9602
-1.6024 10.3752 -3.5272 0.9567
-3.2800 11.6750 -4.0744 0.9501
-4.6712 12.6275 -4.5236 0.9448
-6.3883 13.7567 -5.0960 0.9380
-7.3608 14.3145 -5.4080 0.9343
-12.6594 17.1519 -7.1624 0.9140
-16.7084 19.1946 -8.5501 0.8982
-27.7462 19.5264 -11.3993 0.8666
-27.8265 17.9548 -11.1265 0.8696
-32.8384 15.9590 -12.2670 0.8572
-29.6974 -23.7064 -12.7670 0.8518
-25.7228 -22.2844 -11.4345 0.8662
-22.3612 -21.0042 -10.3076 0.8786
-19.4934 -19.8448 -9.3462 0.8892
-10.0648 -15.5180 -6.2144 0.9249
-8.7920 -14.8294 -5.7923 0.9298
-7.6634 -14.1976 -5.4207 0.9342
-5.7267 -13.0148 -4.7773 0.9418
-4.9253 -12.5382 -4.5260 0.9447
-1.8030 -10.3043 -3.5147 0.9568
-0.4817 -9.1542 -3.0799 0.9621
0.2357 -8.4571 -2.8426 0.9649
0.5542 -8.1282 -2.7373 0.9662
0.8494 -7.8124 -2.6403 0.9674
1.1197 -7.4840 -2.5425 0.9686
1.3781 -7.2153 -2.4680 0.9695
2.4095 -5.8650 -2.1304 0.9736
2.7311 -5.3734 -2.0252 0.9749
3.3248 -4.1852 -1.7959 0.9777
3.4181 -3.9643 -1.7587 0.9782
3.5992 -3.5522 -1.6990 0.9789
4.0149 -2.3932 -1.5704 0.9805
4.1607 -1.8425 -1.5289 0.9810
4.2009 -1.6617 -1.5178 0.9811
4.2372 -1.4819 -1.5082 0.9812
4.3252 -0.9481 -1.4877 0.9815
4.3473 -0.7712 -1.4834 0.9815
4.3808 -0.4181 -1.4786 0.9816
4.4012 -0.0648 -1.4789 0.9816
4.4138 0.2905 -1.4862 0.9815
4.4060 0.8308 -1.5064 0.9813
4.3946 1.0131 -1.5152 0.9811
4.3754 1.1959 -1.5240 0.9810
4.2183 2.1315 -1.5879 0.9803
4.1740 2.3244 -1.6052 0.9800
3.9481 3.1212 -1.6909 0.9790
3.8028 3.5384 -1.7452 0.9783
3.7208 3.7523 -1.7755 0.9779
3.5366 4.1924 -1.8428 0.9771
3.4323 4.4176 -1.8796 0.9767
3.1960 4.8770 -1.9591 0.9757
2.9232 5.3550 -2.0498 0.9746
2.7718 5.6022 -2.1000 0.9740
2.6096 5.8555 -2.1539 0.9733
2.4354 6.1149 -2.2114 0.9726
1.8285 6.9189 -2.4044 0.9703
1.3482 7.4966 -2.5591 0.9684
0.7973 8.1510 -2.7517 0.9660
-0.2122 9.1676 -3.0810 0.9620
-0.6034 9.5111 -3.2020 0.9606
-1.4890 10.2840 -3.4913 0.9571
-1.9826 10.6527 -3.6406 0.9553
-4.5093 12.5527 -4.4813 0.9453
-5.3038 13.0852 -4.7438 0.9422
-6.1733 13.6290 -5.0270 0.9388
-9.3411 15.3750 -6.0444 0.9269
-10.6835 16.0890 -6.4888 0.9217
-12.2560 16.9377 -7.0243 0.9156
-14.0813 17.8984 -7.6515 0.9084
-17.6538 19.0631 -8.7294 0.8962
-22.5025 17.5690 -9.5919 0.8865
-27.8085 18.3173 -11.1879 0.8689
-29.4977 17.7720 -11.5705 0.8647
-30.4882 16.7362 -11.6854 0.8635
-37.3031 18.5662 -13.9997 0.8388
-30.5048 13.6811 -11.2326 0.8684
-19.6992 -18.8569 -9.4997 0.8909
-17.1829 -17.8262 -8.6252 0.9004
-14.9511 -16.8144 -7.8382 0.9091
-13.2068 -16.1133 -7.2578 0.9155
-11.6646 -15.4600 -6.7466 0.9212
-10.2776 -14.8260 -6.2844 0.9264
-9.0513 -14.2481 -5.8803 0.9310
-7.9501 -13.7025 -5.5187 0.9351
-6.9497 -13.1714 -5.1880 0.9389
-6.0560 -12.6889 -4.8979 0.9422
-3.8072 -11.3123 -4.1580 0.9507
-2.6289 -10.5500 -3.7876 0.9550
-2.1020 -10.1609 -3.6146 0.9570
-1.1712 -9.4301 -3.3103 0.9605
-0.3772 -8.7392 -3.0472 0.9636
0.8842 -7.4755 -2.6223 0.9686
1.3936 -6.9402 -2.4660 0.9705
1.6210 -6.6708 -2.3915 0.9713
1.8273 -6.3882 -2.3147 0.9722
2.0236 -6.1309 -2.2491 0.9730
2.2154 -5.9031 -2.1964 0.9736
2.8351 -4.9529 -1.9881 0.9761
3.0709 -4.4855 -1.8937 0.9772
3.2735 -4.0417 -1.8118 0.9782
3.3659 -3.8301 -1.7763 0.9786
3.4585 -3.6301 -1.7466 0.9790
3.6256 -3.2392 -1.6937 0.9796
3.7006 -3.0477 -1.6701 0.9799
4.0028 -2.1241 -1.5786 0.9810
4.0502 -1.9447 -1.5651 0.9811
4.1324 -1.5896 -1.5424 0.9814
4.2284 -1.0643 -1.5190 0.9817
4.2742 -0.7167 -1.5098 0.9818
4.3057 -0.3699 -1.5055 0.9819
4.3161 -0.1965 -1.5051 0.9819
4.3317 0.1514 -1.5099 0.9818
4.3351 0.3264 -1.5144 0.9818
4.3349 0.5024 -1.5202 0.9817
4.3084 1.0362 -1.5437 0.9814
4.2358 1.5783 -1.5747 0.9810
4.0805 2.3230 -1.6357 0.9803
4.0304 2.5142 -1.6548 0.9801
3.9753 2.7078 -1.6756 0.9798
3.7794 3.3056 -1.7491 0.9790
3.7027 3.5110 -1.7776 0.9786
3.5300 3.9324 -1.8409 0.9779
2.9585 5.0441 -2.0371 0.9755
2.8168 5.2781 -2.0841 0.9750
2.6652 5.5172 -2.1345 0.9744
2.5028 5.7616 -2.1883 0.9737
2.1423 6.2673 -2.3073 0.9723
1.4935 7.0512 -2.5109 0.9699
0.9868 7.6504 -2.6872 0.9679
0.3960 8.2698 -2.8842 0.9655
-1.0890 9.5949 -3.3640 0.9599
-2.0213 10.3182 -3.6628 0.9564
-2.5482 10.7064 -3.8339 0.9545
-3.1234 11.1177 -4.0229 0.9523
-3.7377 11.5059 -4.2144 0.9500
-5.1908 12.4671 -4.7045 0.9444
-5.9986 12.9175 -4.9615 0.9415
-6.9040 13.4262 -5.2593 0.9381
-7.8554 13.8745 -5.5543 0.9347
-8.9581 14.4357 -5.9184 0.9306
-11.5389 15.6338 -6.7690 0.9210
-13.1374 16.3780 -7.3142 0.9149
-14.9559 17.1814 -7.9353 0.9080
-16.7336 17.7307 -8.4931 0.9019
-18.5012 18.0880 -9.0135 0.8962
-22.4271 17.1718 -9.8399 0.8872
-27.7053 17.8766 -11.4862 0.8697
-27.6291 16.2927 -11.1738 0.8730
-36.4662 17.7221 -14.1241 0.8422
-23.9517 -17.5910 -10.3524 0.8817
-22.3702 -19.3799 -10.3106 0.8822
-19.9052 -18.6972 -9.5135 0.8908
-17.8697 -18.1918 -8.8833 0.8976
-13.5932 -16.2690 -7.3854 0.9141
-12.0136 -15.6138 -6.8630 0.9199
-5.4268 -12.3333 -4.6940 0.9445
-3.9759 -11.4547 -4.2239 0.9499
-3.3403 -11.0375 -4.0173 0.9523
-1.7283 -9.8774 -3.4932 0.9584
-0.8524 -9.1598 -3.2047 0.9618
0.5361 -7.8623 -2.7453 0.9672
0.8201 -7.5433 -2.6433 0.9684
1.5691 -6.7334 -2.4085 0.9711
1.9789 -6.1910 -2.2642 0.9728
2.1732 -5.9611 -2.2103 0.9735
2.3484 -5.7162 -2.1528 0.9742
2.6651 -5.2436 -2.0491 0.9754
2.8051 -5.0094 -2.0000 0.9760
2.9296 -4.7710 -1.9504 0.9766
3.1521 -4.3131 -1.8610 0.9776
3.2513 -4.0927 -1.8209 0.9781
3.6072 -3.2845 -1.6995 0.9795
3.8813 -2.5304 -1.6141 0.9806
3.9911 -2.1664 -1.5820 0.9809
4.1236 -1.6311 -1.5448 0.9814
4.2477 -0.9311 -1.5149 0.9817
4.2696 -0.7575 -1.5106 0.9818
4.3027 -0.4106 -1.5057 0.9819
4.3353 0.4610 -1.5188 0.9817
4.3324 0.6377 -1.5255 0.9816
4.3259 0.8157 -1.5335 0.9815
4.2933 1.1734 -1.5505 0.9813
4.2700 1.3538 -1.5605 0.9812
4.2428 1.5355 -1.5718 0.9811
4.1759 1.9034 -1.5987 0.9807
4.0916 2.2784 -1.6314 0.9804
4.0426 2.4691 -1.6502 0.9801
3.9299 2.8578 -1.6927 0.9796
3.7213 3.4625 -1.7707 0.9787
3.4567 4.0977 -1.8675 0.9775
3.2419 4.5380 -1.9428 0.9767
3.1204 4.7617 -1.9833 0.9762
2.9903 4.9899 -2.0265 0.9757
2.8510 5.2227 -2.0728 0.9751
2.5419 5.7037 -2.1753 0.9739
2.3707 5.9523 -2.2320 0.9732
2.1872 6.2067 -2.2925 0.9725
1.7787 6.7304 -2.4251 0.9709
1.5495 6.9895 -2.4940 0.9701
1.0501 7.5766 -2.6646 0.9681
0.7711 7.8835 -2.7594 0.9670
0.4700 8.1951 -2.8596 0.9658
0.1454 8.5145 -2.9666 0.9646
-1.4294 9.8720 -3.4749 0.9586
-2.4202 10.6122 -3.7918 0.9549
-2.9732 10.9801 -3.9628 0.9530
-4.2707 11.8886 -4.4006 0.9479
-4.9896 12.3102 -4.6273 0.9453
-5.7973 12.7989 -4.8947 0.9422
-7.6186 13.7576 -5.4784 0.9356
-8.6962 14.3135 -5.8344 0.9315
-9.8644 14.8555 -6.2121 0.9272
-12.7374 16.1902 -7.1763 0.9164
-17.9621 17.8957 -8.8328 0.8982
-20.3806 18.7341 -9.6436 0.8894
-23.1515 19.6237 -10.5725 0.8794
-25.0285 17.9695 -10.7334 0.8776
-27.6867 18.2371 -11.5493 0.8690
-32.3371 17.7512 -12.8507 0.8553
-44.0992 13.6874 -16.0854 0.8224
-17.3497 -16.6078 -8.6663 0.9029
-15.3258 -15.8995 -7.9685 0.9104
-13.6272 -15.3254 -7.3999 0.9165
-12.1172 -14.7838 -6.8974 0.9219
-10.7559 -14.2556 -6.4438 0.9269
-9.5404 -13.7625 -6.0425 0.9313
-8.4499 -13.3015 -5.6862 0.9352
-7.4492 -12.8392 -5.3561 0.9388
-6.5479 -12.4098 -5.0630 0.9421
-5.7041 -11.9517 -4.7786 0.9452
-4.2785 -11.2013 -4.3267 0.9503
-3.6412 -10.8192 -4.1191 0.9526
-3.0561 -10.4533 -3.9298 0.9547
-2.0154 -9.7423 -3.5898 0.9586
-0.7305 -8.7441 -3.1662 0.9634
-0.0236 -8.0979 -2.9220 0.9662
0.5845 -7.5246 -2.7233 0.9684
0.8603 -7.2736 -2.6429 0.9693
1.1159 -7.0058 -2.5598 0.9703
2.1591 -5.7530 -2.2173 0.9742
2.6358 -5.0668 -2.0609 0.9760
2.7678 -4.8352 -2.0104 0.9766
2.8889 -4.6067 -1.9621 0.9771
3.0014 -4.3840 -1.9171 0.9777
3.1057 -4.1665 -1.8751 0.9781
3.2025 -3.9540 -1.8360 0.9786
3.2971 -3.7518 -1.8023 0.9790
3.3875 -3.5555 -1.7720 0.9793
3.5534 -3.1746 -1.7194 0.9799
3.6972 -2.8033 -1.6742 0.9805
3.7615 -2.6207 -1.6542 0.9807
3.8212 -2.4401 -1.6360 0.9809
3.9283 -2.0846 -1.6047 0.9813
4.0574 -1.5608 -1.5687 0.9817
4.1532 -1.0453 -1.5453 0.9820
4.1777 -0.8745 -1.5401 0.9820
4.2400 -0.1930 -1.5315 0.9821
4.2549 0.1487 -1.5363 0.9821
4.2580 0.3206 -1.5408 0.9820
4.2576 0.4934 -1.5466 0.9819
4.2536 0.6672 -1.5536 0.9819
4.2287 1.0170 -1.5694 0.9817
4.2085 1.1930 -1.5784 0.9816
4.0006 2.2775 -1.6611 0.9806
3.9506 2.4645 -1.6801 0.9804
3.8956 2.6535 -1.7008 0.9802
3.7005 3.2365 -1.7739 0.9793
3.4525 3.8460 -1.8649 0.9783
3.3565 4.0560 -1.8997 0.9779
3.2535 4.2700 -1.9371 0.9774
3.0185 4.7023 -2.0163 0.9765
2.8878 4.9237 -2.0597 0.9760
2.7481 5.1492 -2.1061 0.9755
2.5986 5.3793 -2.1557 0.9749
2.2676 5.8537 -2.2652 0.9737
1.2114 7.1211 -2.6065 0.9697
0.9562 7.4128 -2.6970 0.9687
0.6798 7.6990 -2.7889 0.9677
0.3828 7.9935 -2.8876 0.9665
0.0633 8.2950 -2.9932 0.9653
-0.6504 8.9183 -3.2266 0.9627
-1.0480 9.2339 -3.3533 0.9613
-1.4773 9.5654 -3.4925 0.9597
-2.4368 10.2382 -3.7975 0.9562
-3.5700 10.9897 -4.1695 0.9521
-4.2106 11.3824 -4.3792 0.9497
-4.8937 11.7536 -4.5940 0.9473
-5.6560 12.1799 -4.8457 0.9445
-6.4968 12.6342 -5.1263 0.9414
-7.3915 13.0551 -5.4134 0.9382
-8.3757 13.4973 -5.7318 0.9347
-10.6328 14.4061 -6.4608 0.9267
-13.5454 15.5610 -7.4443 0.9160
-16.7501 16.3760 -8.4526 0.9052
-18.6561 16.8268 -9.0655 0.8987
-20.9718 17.4387 -9.8418 0.8905
-25.0764 16.1804 -10.7686 0.8808
-33.0620 17.7451 -13.5397 0.8525
-36.8842 14.3885 -14.2860 0.8450
-35.6473 -20.0717 -14.7617 0.8403
-23.7837 -17.4676 -10.6479 0.8821
-22.2292 -17.7448 -10.2633 0.8861
-15.7563 -16.0404 -8.1132 0.9088
-12.4556 -14.9075 -7.0097 0.9207
-11.0628 -14.3780 -6.5461 0.9258
-9.8110 -13.8713 -6.1307 0.9303
-5.1421 -11.6862 -4.6070 0.9472
-4.4361 -11.2929 -4.3780 0.9497
-2.6372 -10.1731 -3.7922 0.9563
-2.1290 -9.8229 -3.6267 0.9582
-1.6592 -9.4824 -3.4736 0.9599
-1.2237 -9.1461 -3.3296 0.9615
-0.8207 -8.8194 -3.1961 0.9630
-0.1009 -8.1672 -2.9472 0.9659
0.2201 -7.8990 -2.8513 0.9670
0.5175 -7.5902 -2.7452 0.9682
0.7977 -7.3375 -2.6632 0.9691
1.5255 -6.5465 -2.4255 0.9718
1.7366 -6.2952 -2.3564 0.9726
2.1176 -5.8086 -2.2309 0.9741
2.2898 -5.5737 -2.1743 0.9747
2.4510 -5.3439 -2.1214 0.9753
2.7381 -4.8898 -2.0222 0.9765
2.8613 -4.6599 -1.9731 0.9770
2.9757 -4.4358 -1.9274 0.9775
3.1804 -4.0035 -1.8450 0.9785
3.6814 -2.8464 -1.6791 0.9804
3.9167 -2.1260 -1.6081 0.9812
3.9648 -1.9500 -1.5943 0.9814
4.0087 -1.7752 -1.5820 0.9815
4.1722 -0.9146 -1.5412 0.9820
4.1940 -0.7440 -1.5370 0.9821
4.2537 0.1085 -1.5354 0.9821
4.2576 0.2802 -1.5396 0.9820
4.2580 0.4528 -1.5451 0.9820
4.2548 0.6263 -1.5518 0.9819
4.2481 0.8010 -1.5599 0.9818
4.2136 1.1516 -1.5762 0.9816
4.1630 1.5066 -1.5975 0.9813
4.1316 1.6860 -1.6102 0.9812
4.0960 1.8669 -1.6243 0.9810
3.9627 2.4204 -1.6755 0.9804
3.8503 2.8000 -1.7179 0.9800
3.7867 2.9936 -1.7418 0.9797
3.7175 3.1900 -1.7676 0.9794
3.5615 3.5916 -1.8251 0.9787
3.3797 4.0064 -1.8913 0.9780
3.2782 4.2192 -1.9280 0.9775
3.0479 4.6510 -2.0065 0.9766
2.9193 4.8714 -2.0492 0.9761
2.6346 5.3249 -2.1437 0.9751
2.4772 5.5585 -2.1959 0.9745
2.1286 6.0405 -2.3110 0.9731
1.2686 7.0538 -2.5861 0.9700
0.4544 7.9236 -2.8638 0.9668
0.1404 8.2242 -2.9680 0.9656
-1.3739 9.4889 -3.4596 0.9600
-1.8273 9.8183 -3.6036 0.9584
-5.4900 12.1205 -4.8013 0.9450
-6.2978 12.5368 -5.0624 0.9421
-9.1842 13.8311 -5.9908 0.9318
-10.3387 14.2880 -6.3638 0.9277
-11.6426 14.7986 -6.7943 0.9231
-14.8926 16.0814 -7.9088 0.9110
-20.4035 17.2944 -9.6513 0.8925
-27.5651 18.1570 -11.9104 0.8690
-29.4947 17.7702 -12.4251 0.8638
-32.3353 17.7502 -13.3101 0.8548
-30.4847 13.6721 -12.0556 0.8676
-42.8637 15.2187 -16.4127 0.8241
-44.0169 13.6618 -16.6303 0.8220
-15.6125 -14.9449 -8.0704 0.9118
-11.1781 -13.6381 -6.5846 0.9275
-9.9749 -13.2205 -6.1842 0.9317
-8.9019 -12.8414 -5.8346 0.9355
-7.9181 -12.4644 -5.5141 0.9389
-6.1886 -11.7290 -4.9520 0.9449
-5.4263 -11.3696 -4.7043 0.9476
-2.4097 -9.6702 -3.7214 0.9583
-1.9266 -9.3130 -3.5512 0.9602
-1.4937 -9.0383 -3.4208 0.9616
-0.7044 -8.4312 -3.1593 0.9645
1.0838 -6.8046 -2.5729 0.9710
1.5338 -6.3117 -2.4254 0.9726
1.9198 -5.8161 -2.2870 0.9742
2.1051 -5.6092 -2.2372 0.9747
2.2718 -5.3847 -2.1823 0.9754
2.5742 -4.9484 -2.0828 0.9765
2.8230 -4.5016 -1.9841 0.9776
2.9344 -4.2861 -1.9396 0.9781
3.2305 -3.6760 -1.8274 0.9793
3.6902 -2.5710 -1.6794 0.9810
3.8560 -2.0462 -1.6301 0.9815
3.9848 -1.5329 -1.5943 0.9819
4.0203 -1.3636 -1.5852 0.9820
4.1042 -0.8592 -1.5658 0.9823
4.1557 -0.3571 -1.5575 0.9823
4.1659 -0.1896 -1.5572 0.9824
4.1739 -0.0220 -1.5586 0.9823
4.1831 0.3150 -1.5664 0.9822
4.1781 0.6554 -1.5792 0.9821
4.1679 0.8267 -1.5867 0.9820
4.1514 0.9984 -1.5944 0.9819
4.0785 1.5197 -1.6253 0.9816
4.0461 1.6959 -1.6382 0.9814
4.0095 1.8734 -1.6526 0.9813
3.9686 2.0526 -1.6684 0.9811
3.9232 2.2335 -1.6857 0.9809
3.8733 2.4162 -1.7047 0.9807
3.8185 2.6010 -1.7252 0.9805
3.7590 2.7881 -1.7476 0.9802
3.6943 2.9777 -1.7718 0.9799
3.6241 3.1698 -1.7979 0.9797
3.5482 3.3645 -1.8259 0.9793
3.4661 3.5621 -1.8559 0.9790
3.3777 3.7627 -1.8881 0.9786
3.2825 3.9665 -1.9225 0.9783
3.1811 4.1750 -1.9599 0.9778
3.0697 4.3838 -1.9984 0.9774
2.8199 4.8080 -2.0814 0.9765
2.3774 5.4728 -2.2281 0.9748
2.2092 5.7029 -2.2837 0.9742
2.0294 5.9372 -2.3430 0.9736
1.8374 6.1763 -2.4062 0.9729
1.6321 6.4205 -2.4738 0.9721
1.4127 6.6701 -2.5459 0.9713
1.1760 6.9129 -2.6184 0.9705
-0.2706 8.3035 -3.1023 0.9651
-1.4212 9.2020 -3.4769 0.9610
-2.8489 10.1407 -3.9333 0.9560
-3.9917 10.7906 -4.2962 0.9521
-8.7937 12.9755 -5.8531 0.9353
-12.3486 14.1862 -7.0231 0.9228
-20.8147 15.9372 -9.7891 0.8941
-25.7541 16.6177 -11.4451 0.8773
-28.6100 16.8711 -12.4025 0.8678
-27.4177 14.7157 -11.6195 0.8756
-36.9449 14.4122 -14.8082 0.8442
-40.8334 -16.8884 -16.5003 0.8281
-33.4117 -17.0815 -14.0122 0.8520
-27.1396 -16.7529 -11.9095 0.8727
-24.5965 -16.5848 -11.0774 0.8810
-20.4187 -16.2996 -9.7560 0.8944
-18.0301 -15.6200 -8.9078 0.9032
-16.0239 -15.0514 -8.2092 0.9104
-14.3405 -14.5990 -7.6415 0.9163
-12.8427 -14.1715 -7.1415 0.9216
-11.4797 -13.7395 -6.6856 0.9264
-8.1415 -12.5526 -5.5869 0.9381
-5.5996 -11.4534 -4.7606 0.9470
-3.6122 -10.4068 -4.1134 0.9541
-3.0482 -10.0723 -3.9296 0.9561
-2.0433 -9.4275 -3.6021 0.9596
-1.1778 -8.8027 -3.3163 0.9628
-0.7911 -8.5009 -3.1881 0.9642
-0.4319 -8.2071 -3.0689 0.9655
-0.0976 -7.8987 -2.9497 0.9668
0.2131 -7.6472 -2.8566 0.9679
0.5032 -7.3796 -2.7620 0.9689
1.6905 -6.1283 -2.3739 0.9732
2.0644 -5.6626 -2.2506 0.9746
2.2337 -5.4369 -2.1949 0.9752
2.3923 -5.2159 -2.1428 0.9758
3.0143 -4.1245 -1.9076 0.9784
3.2086 -3.7214 -1.8348 0.9792
3.4652 -3.1552 -1.7500 0.9802
3.5405 -2.9724 -1.7262 0.9805
3.6106 -2.7916 -1.7042 0.9807
3.7923 -2.2605 -1.6486 0.9813
3.8444 -2.0868 -1.6334 0.9815
3.8922 -1.9143 -1.6197 0.9817
4.0449 -1.2345 -1.5792 0.9821
4.0737 -1.0663 -1.5724 0.9822
4.1204 -0.7310 -1.5626 0.9823
4.1638 -0.2290 -1.5572 0.9824
4.1719 -0.0614 -1.5580 0.9823
4.1712 0.7865 -1.5850 0.9820
4.1556 0.9580 -1.5925 0.9820
4.1362 1.1305 -1.6011 0.9819
4.1128 1.3039 -1.6111 0.9817
4.0541 1.6544 -1.6350 0.9815
4.0185 1.8316 -1.6491 0.9813
3.9786 2.0104 -1.6645 0.9811
3.9342 2.1908 -1.6815 0.9810
3.8318 2.5574 -1.7202 0.9805
3.7100 2.9330 -1.7660 0.9800
3.5665 3.3186 -1.8191 0.9794
3.4859 3.5154 -1.8487 0.9791
3.3054 3.9184 -1.9142 0.9783
3.2055 4.1257 -1.9509 0.9779
3.0968 4.3349 -1.9893 0.9775
2.9780 4.5444 -2.0288 0.9771
2.7153 4.9741 -2.1161 0.9761
2.2497 5.6486 -2.2704 0.9744
2.0727 5.8818 -2.3287 0.9737
1.6815 6.3628 -2.4575 0.9723
1.4656 6.6110 -2.5286 0.9715
1.2327 6.8545 -2.6006 0.9707
0.9874 7.1240 -2.6856 0.9698
0.7231 7.3926 -2.7736 0.9688
0.1358 7.9494 -2.9688 0.9666
-0.1906 8.2357 -3.0761 0.9654
-1.7558 9.4339 -3.5832 0.9599
-2.2219 9.7428 -3.7315 0.9582
-2.7244 10.0614 -3.8923 0.9565
-3.2711 10.4028 -4.0720 0.9545
-3.8465 10.7077 -4.2485 0.9526
-4.5001 11.1025 -4.4734 0.9501
-5.1960 11.4714 -4.7025 0.9476
-5.9322 11.8090 -4.9347 0.9451
-7.6037 12.5153 -5.4683 0.9394
-13.4934 14.5705 -7.4155 0.9187
-15.6111 15.5534 -8.2287 0.9102
-16.7733 15.4182 -8.5074 0.9073
-18.2231 15.4463 -8.9203 0.9030
-25.1227 16.5482 -11.2334 0.8795
-12.8386 -13.3193 -7.1425 0.9237
-11.5513 -12.9908 -6.7117 0.9282
-10.3693 -12.6513 -6.3156 0.9323
-9.3132 -12.3435 -5.9700 0.9358
-8.3518 -12.0479 -5.6599 0.9391
-7.4595 -11.7424 -5.3711 0.9421
-4.4974 -10.4884 -4.4061 0.9522
-3.3235 -9.8752 -4.0229 0.9563
-2.7892 -9.5403 -3.8376 0.9583
-2.3127 -9.2810 -3.6929 0.9598
-1.4376 -8.6987 -3.4040 0.9629
-1.0452 -8.4156 -3.2742 0.9643
-0.0221 -7.5842 -2.9282 0.9680
0.2743 -7.3494 -2.8395 0.9690
0.5514 -7.0988 -2.7490 0.9699
1.2804 -6.3767 -2.5111 0.9725
1.6921 -5.9155 -2.3755 0.9740
2.0533 -5.4713 -2.2563 0.9753
2.2173 -5.2554 -2.2023 0.9758
2.3711 -5.0435 -2.1517 0.9764
2.5134 -4.8316 -2.1028 0.9769
2.6409 -4.6135 -2.0524 0.9775
2.7595 -4.4003 -2.0053 0.9780
3.3377 -3.2325 -1.7939 0.9803
3.4156 -3.0515 -1.7684 0.9806
3.5575 -2.6973 -1.7237 0.9810
3.7857 -2.0089 -1.6547 0.9818
3.8323 -1.8401 -1.6413 0.9819
3.8751 -1.6725 -1.6296 0.9821
3.9809 -1.1741 -1.6024 0.9824
4.0087 -1.0090 -1.5960 0.9824
4.0703 -0.5153 -1.5840 0.9826
4.0838 -0.3509 -1.5825 0.9826
4.0937 -0.1864 -1.5822 0.9826
4.1076 0.1436 -1.5869 0.9825
4.1101 0.3095 -1.5914 0.9825
4.1092 0.4762 -1.5971 0.9824
4.0928 0.8118 -1.6110 0.9823
4.0762 0.9804 -1.6187 0.9822
4.0558 1.1498 -1.6276 0.9821
4.0033 1.4916 -1.6494 0.9818
3.9709 1.6643 -1.6623 0.9817
3.9343 1.8383 -1.6766 0.9816
3.8934 2.0137 -1.6924 0.9814
3.8481 2.1907 -1.7096 0.9812
3.6845 2.7329 -1.7712 0.9805
3.5503 3.1052 -1.8211 0.9800
3.3933 3.4872 -1.8786 0.9794
3.1112 4.0833 -1.9820 0.9782
2.7547 4.6966 -2.1022 0.9769
2.4735 5.1202 -2.1955 0.9759
2.1532 5.5584 -2.3015 0.9748
1.7795 5.9818 -2.4095 0.9736
1.5875 6.2448 -2.4877 0.9728
0.8994 6.9724 -2.7143 0.9703
0.6381 7.2269 -2.8011 0.9694
0.0592 7.7529 -2.9934 0.9673
-0.6050 8.2958 -3.2114 0.9650
-1.3680 8.8575 -3.4603 0.9623
-2.2432 9.4250 -3.7405 0.9593
-2.7287 9.7127 -3.8952 0.9577
-3.2543 10.0179 -4.0668 0.9558
-3.8201 10.3267 -4.2511 0.9539
-5.0908 10.9628 -4.6667 0.9495
-8.2728 12.2069 -5.6933 0.9387
-11.4306 13.1315 -6.7217 0.9281
-16.0489 14.4753 -8.3444 0.9115
-22.6261 14.5993 -10.3964 0.8910
-32.6370 14.2689 -13.7525 0.8584
-41.4302 12.4314 -16.7004 0.8307
-44.3637 11.3890 -17.6838 0.8217
-41.9698 -13.5244 -17.0247 0.8277
-29.8297 -15.2502 -12.9348 0.8662
-24.5643 -15.1632 -11.1454 0.8836
-22.0776 -14.8863 -10.2806 0.8921
-17.9266 -14.3102 -8.8561 0.9063
-16.2107 -14.0438 -8.2809 0.9121
-14.6226 -13.7352 -7.7457 0.9176
-11.8441 -13.0696 -6.8098 0.9272
-10.6375 -12.7315 -6.4055 0.9313
-9.5146 -12.3660 -6.0241 0.9353
-8.5707 -12.1178 -5.7305 0.9383
-6.8191 -11.5017 -5.1625 0.9443
-6.0385 -11.1872 -4.9083 0.9469
-5.3165 -10.8743 -4.6734 0.9494
-4.6473 -10.5616 -4.4550 0.9517
-3.4524 -9.9464 -4.0650 0.9559
-2.9085 -9.6107 -3.8768 0.9579
-2.4238 -9.3496 -3.7291 0.9594
-1.9544 -9.0174 -3.5624 0.9612
-0.7633 -8.2023 -3.1805 0.9653
-0.0945 -7.6451 -2.9519 0.9677
0.4880 -7.1571 -2.7697 0.9697
0.9978 -6.6691 -2.6035 0.9715
1.2285 -6.4319 -2.5282 0.9723
1.4444 -6.1983 -2.4572 0.9731
1.8289 -5.7217 -2.3192 0.9746
2.1798 -5.3057 -2.2146 0.9757
2.4822 -4.8836 -2.1151 0.9768
2.6118 -4.6642 -2.0639 0.9773
2.8446 -4.2403 -1.9714 0.9783
2.9490 -4.0352 -1.9297 0.9788
3.0479 -3.8366 -1.8918 0.9792
3.1443 -3.6468 -1.8591 0.9796
3.2345 -3.4598 -1.8286 0.9799
3.7224 -2.2188 -1.6732 0.9816
3.7742 -2.0487 -1.6580 0.9818
3.9415 -1.3785 -1.6122 0.9823
3.9739 -1.2129 -1.6041 0.9823
4.0274 -0.8829 -1.5919 0.9825
4.0666 -0.5539 -1.5846 0.9826
4.0809 -0.3895 -1.5828 0.9826
4.0917 -0.2250 -1.5822 0.9826
4.1065 0.1047 -1.5860 0.9825
4.1061 0.6044 -1.6024 0.9824
4.0805 0.9407 -1.6167 0.9822
4.0610 1.1099 -1.6254 0.9821
4.0103 1.4513 -1.6466 0.9819
3.9789 1.6237 -1.6592 0.9817
3.9433 1.7973 -1.6732 0.9816
3.9034 1.9724 -1.6886 0.9814
3.7570 2.5075 -1.7439 0.9808
3.6988 2.6898 -1.7658 0.9806
3.6357 2.8743 -1.7894 0.9803
3.4130 3.4418 -1.8714 0.9794
3.2343 3.8341 -1.9367 0.9787
3.0281 4.2388 -2.0113 0.9779
2.9108 4.4418 -2.0504 0.9775
2.7853 4.6478 -2.0920 0.9770
2.6514 4.8571 -2.1365 0.9766
2.0075 5.6966 -2.3320 0.9744
1.4246 6.4261 -2.5413 0.9722
1.1990 6.6672 -2.6154 0.9714
0.7010 7.1667 -2.7802 0.9696
0.4259 7.4255 -2.8716 0.9686
-0.1842 7.9594 -3.0739 0.9664
-2.1342 9.3580 -3.7058 0.9597
-2.6116 9.6448 -3.8579 0.9581
-3.1271 9.9449 -4.0250 0.9563
-4.2815 10.5632 -4.4006 0.9523
-4.9133 10.8473 -4.5976 0.9502
-5.6125 11.1727 -4.8274 0.9478
-6.3803 11.5214 -5.0848 0.9451
-8.0553 12.1310 -5.6222 0.9395
-11.1539 13.0606 -6.6312 0.9290
-12.3702 13.3577 -7.0291 0.9249
-15.5186 14.2649 -8.1383 0.9136
-20.0721 14.4110 -9.5402 0.8995
-24.3374 14.6630 -10.9701 0.8853
-29.2754 14.5707 -12.6255 0.8692
-31.9815 14.3434 -13.5328 0.8605
-34.8198 13.9633 -14.4843 0.8514
-40.7320 12.6422 -16.4663 0.8329
-13.1181 -12.5572 -7.2434 0.9248
-9.6933 -11.8266 -6.0994 0.9363
-8.7162 -11.5522 -5.7724 0.9396
-7.8713 -11.3547 -5.5110 0.9422
-6.2809 -10.8256 -4.9923 0.9475
-5.5692 -10.5551 -4.7603 0.9499
-4.9064 -10.2802 -4.5436 0.9521
-3.7167 -9.7306 -4.1548 0.9561
-2.6857 -9.1864 -3.8176 0.9596
-1.0084 -8.1195 -3.2636 0.9654
-0.6569 -7.8631 -3.1473 0.9666
-0.0214 -7.3479 -2.9309 0.9689
0.2660 -7.1273 -2.8449 0.9698
0.5352 -6.8908 -2.7569 0.9707
1.0242 -6.4306 -2.5974 0.9723
1.6490 -5.7651 -2.3918 0.9745
1.8246 -5.5278 -2.3219 0.9752
2.1649 -5.1312 -2.2214 0.9763
2.4550 -4.7193 -2.1219 0.9774
2.5809 -4.5087 -2.0722 0.9779
2.8075 -4.1008 -1.9823 0.9788
3.2738 -3.1706 -1.8179 0.9806
3.3506 -2.9935 -1.7922 0.9808
3.5537 -2.4759 -1.7276 0.9815
3.6122 -2.3067 -1.7096 0.9817
3.6670 -2.1391 -1.6934 0.9819
3.7174 -1.9727 -1.6786 0.9820
3.8067 -1.6429 -1.6538 0.9823
3.9632 -0.8296 -1.6151 0.9827
3.9835 -0.6680 -1.6111 0.9828
4.0003 -0.5064 -1.6084 0.9828
4.0136 -0.3448 -1.6069 0.9828
4.0310 -0.0213 -1.6079 0.9828
4.0368 0.1411 -1.6112 0.9828
4.0197 0.7973 -1.6346 0.9825
4.0031 0.9628 -1.6423 0.9824
3.9827 1.1290 -1.6512 0.9823
3.8978 1.6337 -1.6858 0.9820
3.8613 1.8042 -1.7000 0.9818
3.7752 2.1492 -1.7328 0.9815
3.7256 2.3241 -1.7515 0.9813
3.6712 2.5007 -1.7718 0.9811
3.3228 3.4148 -1.9005 0.9797
3.2362 3.6051 -1.9324 0.9794
2.9354 4.1920 -2.0413 0.9782
2.8176 4.3895 -2.0805 0.9778
2.4146 4.9984 -2.2142 0.9764
2.2621 5.2075 -2.2647 0.9758
2.0996 5.4199 -2.3184 0.9753
1.5448 6.0770 -2.5011 0.9734
-0.2529 7.7581 -3.0962 0.9671
-0.5843 8.0126 -3.2045 0.9660
-0.9388 8.2712 -3.3204 0.9648
-1.3178 8.5330 -3.4440 0.9635
-1.7229 8.7948 -3.5748 0.9621
-3.1146 9.5878 -4.0211 0.9575
-3.6498 9.8665 -4.1962 0.9557
-4.2224 10.1412 -4.3817 0.9538
-6.2121 10.9720 -5.0293 0.9471
-11.6848 12.3811 -6.7906 0.9293
-12.9478 12.6586 -7.2227 0.9250
-14.2847 12.8840 -7.6731 0.9205
-15.8272 13.1608 -8.2106 0.9152
-17.2628 13.2177 -8.6724 0.9106
-20.1569 13.0061 -9.5686 0.9019
-21.9922 12.9687 -10.1839 0.8959
-23.9333 12.8455 -10.8346 0.8896
-28.0858 12.2791 -12.2267 0.8763
-34.6180 10.3874 -14.4166 0.8559
-36.7136 9.4251 -15.1192 0.8494
-16.9858 2.9308 -6.8754 0.9285
-43.7956 5.7544 -17.6193 0.8268
-46.2104 -1.3970 -18.4408 0.8195
-45.4702 -3.2081 -18.1822 0.8218
-43.0444 -6.5438 -17.3668 0.8290
-41.7610 -8.0785 -16.9664 0.8326
-37.4926 -10.4378 -15.5238 0.8457
-32.9495 -12.1004 -14.0011 0.8597
-30.3936 -12.5705 -13.1194 0.8679
-27.8621 -12.8586 -12.2401 0.8762
-23.3615 -13.1540 -10.6941 0.8910
-21.3632 -13.1872 -10.0141 0.8975
-16.3189 -13.0268 -8.3289 0.9140
-14.8207 -12.8397 -7.8216 0.9190
-13.3830 -12.5709 -7.3239 0.9240
-12.1474 -12.3664 -6.9144 0.9281
-9.9246 -11.8782 -6.1741 0.9355
-8.9307 -11.6070 -5.8416 0.9389
-5.7118 -10.5820 -4.7966 0.9495
-5.0578 -10.3450 -4.5932 0.9516
-4.4307 -10.0694 -4.3881 0.9537
-3.8346 -9.7618 -4.1834 0.9558
-2.7992 -9.2496 -3.8547 0.9592
-2.3283 -8.9814 -3.7009 0.9608
-1.8878 -8.7100 -3.5549 0.9623
-0.0915 -7.4051 -2.9539 0.9686
0.2002 -7.1834 -2.8664 0.9695
0.4736 -6.9459 -2.7770 0.9705
0.9700 -6.4838 -2.6150 0.9722
1.9553 -5.3632 -2.2770 0.9757
2.2816 -4.9746 -2.1830 0.9767
2.4242 -4.7694 -2.1341 0.9772
2.6714 -4.3506 -2.0364 0.9783
2.8860 -3.9490 -1.9510 0.9792
3.1715 -3.3924 -1.8524 0.9802
3.2550 -3.2125 -1.8242 0.9805
3.3330 -3.0349 -1.7980 0.9808
3.4061 -2.8596 -1.7739 0.9810
3.4752 -2.6869 -1.7522 0.9813
3.5393 -2.5159 -1.7321 0.9815
3.5988 -2.3462 -1.7136 0.9817
3.7970 -1.6814 -1.6564 0.9823
3.8367 -1.5176 -1.6458 0.9824
3.8726 -1.3544 -1.6365 0.9825
3.9047 -1.1918 -1.6284 0.9826
3.9331 -1.0295 -1.6217 0.9826
3.9967 -0.5443 -1.6089 0.9828
4.0389 0.2658 -1.6145 0.9827
4.0385 0.4294 -1.6200 0.9827
4.0346 0.5939 -1.6267 0.9826
3.9371 1.4248 -1.6701 0.9821
3.9058 1.5938 -1.6826 0.9820
3.8702 1.7640 -1.6966 0.9819
3.8305 1.9355 -1.7119 0.9817
3.7863 2.1084 -1.7286 0.9815
3.6844 2.4591 -1.7669 0.9811
3.2571 3.5601 -1.9247 0.9794
3.0679 3.9485 -1.9945 0.9787
2.7221 4.5423 -2.1123 0.9775
2.5899 4.7445 -2.1561 0.9770
2.4490 4.9497 -2.2028 0.9765
2.2988 5.1581 -2.2525 0.9760
2.1387 5.3697 -2.3055 0.9754
1.5851 5.9978 -2.4746 0.9736
1.3855 6.2498 -2.5535 0.9728
0.9304 6.7129 -2.7032 0.9712
-0.8534 8.2102 -3.2925 0.9651
-2.0519 8.9973 -3.6810 0.9610
-2.9948 9.5240 -3.9823 0.9579
-4.0843 10.0767 -4.3370 0.9543
-5.3445 10.6391 -4.7491 0.9500
-6.7817 11.1623 -5.2097 0.9453
-8.4484 11.6756 -5.7485 0.9398
-13.9573 12.8297 -7.5620 0.9216
-15.4463 13.0926 -8.0768 0.9165
-17.1747 13.4092 -8.6913 0.9104
-19.7420 13.0040 -9.4295 0.9032
-21.5516 12.9846 -10.0362 0.8973
-25.4841 12.6837 -11.3545 0.8846
-27.5832 12.3708 -12.0582 0.8779
-29.7435 11.9276 -12.7825 0.8711
-31.9337 11.3380 -13.5167 0.8642
-34.1132 10.5879 -14.2474 0.8574
-36.2315 9.6668 -14.9575 0.8509
-11.0448 -11.4583 -6.5534 0.9335
-9.1078 -11.1122 -5.9164 0.9397
-6.6745 -10.5067 -5.1256 0.9476
-5.2996 -10.0440 -4.6764 0.9521
-4.6788 -9.8035 -4.4731 0.9541
-2.5800 -8.8247 -3.7860 0.9610
-1.7228 -8.3280 -3.5019 0.9639
-1.3358 -8.0833 -3.3737 0.9652
-0.6335 -7.5828 -3.1333 0.9676
-0.3182 -7.3731 -3.0389 0.9686
-0.0208 -7.1239 -2.9335 0.9697
0.9965 -6.2564 -2.6087 0.9730
1.6078 -5.6208 -2.4073 0.9750
1.7800 -5.3927 -2.3384 0.9757
1.9464 -5.1863 -2.2811 0.9763
2.1145 -5.0117 -2.2399 0.9767
2.3988 -4.6112 -2.1404 0.9778
2.7473 -4.0129 -2.0026 0.9792
2.8502 -3.8237 -1.9638 0.9796
2.9497 -3.6420 -1.9299 0.9799
3.2119 -3.1106 -1.8412 0.9808
3.4884 -2.4304 -1.7507 0.9818
3.6008 -2.1005 -1.7166 0.9821
3.7786 -1.4535 -1.6671 0.9826
3.8443 -1.1338 -1.6504 0.9828
3.9678 0.1387 -1.6349 0.9830
3.9699 0.2989 -1.6394 0.9829
3.9115 1.1089 -1.6742 0.9826
3.8872 1.2729 -1.6843 0.9825
3.8590 1.4379 -1.6958 0.9823
3.7903 1.7710 -1.7227 0.9821
3.7496 1.9393 -1.7383 0.9819
3.7045 2.1090 -1.7553 0.9817
3.6550 2.2801 -1.7739 0.9815
3.6009 2.4528 -1.7941 0.9813
3.5423 2.6274 -1.8161 0.9811
3.4095 2.9821 -1.8652 0.9806
3.3350 3.1624 -1.8925 0.9803
3.2550 3.3452 -1.9220 0.9800
3.0774 3.7188 -1.9877 0.9793
2.9788 3.9095 -2.0239 0.9790
2.8717 4.1011 -2.0616 0.9786
2.6312 4.4862 -2.1416 0.9778
2.3579 4.8811 -2.2322 0.9768
2.0481 5.2870 -2.3347 0.9758
1.8779 5.4940 -2.3908 0.9752
1.0805 6.3515 -2.6530 0.9725
0.6006 6.8026 -2.8121 0.9709
0.3368 7.0338 -2.8997 0.9700
0.0555 7.2684 -2.9931 0.9690
-0.5649 7.7458 -3.1981 0.9670
-0.9064 7.9862 -3.3097 0.9658
-1.2709 8.2289 -3.4287 0.9646
-2.0736 8.7124 -3.6878 0.9620
-2.9879 9.1979 -3.9824 0.9590
-3.4928 9.4420 -4.1455 0.9574
-4.6108 9.9289 -4.5079 0.9537
-5.2317 10.1741 -4.7109 0.9517
-6.5848 10.6112 -5.1425 0.9474
-8.1437 11.0336 -5.6470 0.9424
-9.9375 11.4163 -6.2325 0.9366
-10.9353 11.5869 -6.5606 0.9334
-12.0039 11.7358 -6.9128 0.9300
-13.1502 11.8607 -7.2922 0.9263
-14.3121 11.9010 -7.6648 0.9226
-17.5773 12.3701 -8.8507 0.9112
-19.6854 11.6084 -9.4105 0.9059
-21.2803 11.4216 -9.9452 0.9008
-26.3313 10.2718 -11.6385 0.8849
-29.6924 8.9094 -12.7653 0.8745
-16.7976 3.5992 -7.0739 0.9284
-16.8353 2.9048 -7.0349 0.9288
-18.9000 2.4833 -7.8496 0.9208
-38.0293 3.4483 -15.7240 0.8477
-38.8237 0.3880 -15.9877 0.8454
-35.6537 -3.9614 -14.7719 0.8563
-33.5820 -7.9092 -14.2068 0.8614
-30.0554 -9.6851 -13.0029 0.8723
-28.0893 -10.3156 -12.3220 0.8786
-26.1123 -10.7998 -11.6359 0.8849
-24.2327 -11.1836 -10.9900 0.8910
-22.4631 -11.4841 -10.3886 0.8966
-20.8002 -11.7118 -9.8295 0.9019
-17.7833 -11.9908 -8.8320 0.9114
-16.3320 -11.9949 -8.3442 0.9161
-10.2587 -11.3201 -6.2908 0.9361
-6.1262 -10.3330 -4.9466 0.9494
-5.4516 -10.1000 -4.7262 0.9516
-3.6818 -9.3728 -4.1467 0.9574
-2.6880 -8.8821 -3.8213 0.9607
-1.4244 -8.1404 -3.4030 0.9649
-1.0569 -7.8992 -3.2817 0.9661
-0.7130 -7.6617 -3.1686 0.9673
-0.3908 -7.4276 -3.0628 0.9683
0.4599 -6.7451 -2.7840 0.9712
0.7093 -6.5244 -2.7024 0.9720
0.9436 -6.3069 -2.6260 0.9728
1.1637 -6.0928 -2.5542 0.9735
1.3702 -5.8799 -2.4861 0.9742
1.5640 -5.6696 -2.4218 0.9749
2.2294 -4.8607 -2.2020 0.9771
2.3683 -4.6595 -2.1523 0.9776
2.4947 -4.4552 -2.1026 0.9782
2.8259 -3.8668 -1.9721 0.9795
2.9270 -3.6844 -1.9377 0.9799
3.0216 -3.5045 -1.9055 0.9802
3.2706 -2.9780 -1.8214 0.9810
3.4104 -2.6368 -1.7751 0.9815
3.8374 -1.1712 -1.6521 0.9828
3.8901 -0.8528 -1.6399 0.9829
3.9111 -0.6939 -1.6357 0.9830
3.9286 -0.5351 -1.6327 0.9830
3.9425 -0.3763 -1.6308 0.9830
3.9530 -0.2174 -1.6302 0.9830
3.9697 0.2613 -1.6382 0.9829
3.9691 0.4220 -1.6436 0.9829
3.9520 0.7452 -1.6560 0.9828
3.9362 0.9075 -1.6634 0.9827
3.9167 1.0705 -1.6720 0.9826
3.8933 1.2343 -1.6818 0.9825
3.8660 1.3991 -1.6930 0.9824
3.8347 1.5648 -1.7055 0.9822
3.7992 1.7317 -1.7193 0.9821
3.2743 3.3020 -1.9148 0.9801
3.0996 3.6744 -1.9795 0.9794
3.0025 3.8645 -2.0152 0.9791
2.8980 4.0565 -2.0529 0.9787
2.6611 4.4406 -2.1317 0.9779
2.5307 4.6361 -2.1750 0.9774
2.0865 5.2387 -2.3220 0.9759
1.9080 5.4143 -2.3639 0.9755
1.7315 5.6257 -2.4238 0.9749
1.5504 5.8663 -2.4986 0.9741
1.3482 6.0815 -2.5651 0.9734
0.6602 6.7489 -2.7923 0.9711
0.4003 6.9792 -2.8786 0.9702
0.1232 7.2130 -2.9706 0.9693
-0.4879 7.6898 -3.1729 0.9672
-1.1832 8.1720 -3.4002 0.9649
-1.5658 8.4132 -3.5239 0.9637
-1.9739 8.6554 -3.6556 0.9623
-2.4096 8.8986 -3.7963 0.9609
-2.8746 9.1419 -3.9462 0.9594
-3.3707 9.3832 -4.1056 0.9578
-4.4717 9.8723 -4.4628 0.9542
-7.1626 10.7867 -5.3318 0.9455
-8.7721 11.1499 -5.8419 0.9405
-9.6823 11.3374 -6.1393 0.9375
-10.6497 11.4999 -6.4541 0.9344
-11.6943 11.6511 -6.7976 0.9311
-14.0851 11.9389 -7.6032 0.9232
-15.4234 12.0419 -8.0575 0.9188
-16.9914 12.1992 -8.6133 0.9135
-17.9281 11.8091 -8.8401 0.9113
-19.3205 11.6404 -9.2882 0.9070
-20.9005 11.4731 -9.8179 0.9020
-27.6355 9.8120 -12.0758 0.8809
-29.3084 9.0966 -12.6366 0.8757
-10.3226 -10.7090 -6.3186 0.9374
-9.4236 -10.5980 -6.0244 0.9402
-8.5846 -10.4738 -5.7528 0.9428
-7.0417 -10.1581 -5.2506 0.9477
-6.3362 -9.9741 -5.0197 0.9499
-5.6742 -9.7799 -4.8032 0.9520
-4.4697 -9.3653 -4.4083 0.9559
-3.4110 -8.9303 -4.0609 0.9593
-2.9312 -8.7094 -3.9037 0.9609
-2.4804 -8.4840 -3.7549 0.9623
-1.6610 -8.0291 -3.4830 0.9650
-0.9388 -7.5590 -3.2358 0.9674
-0.6152 -7.3640 -3.1391 0.9684
-0.3084 -7.1456 -3.0383 0.9694
-0.0201 -6.9113 -2.9359 0.9704
1.1820 -5.8863 -2.5504 0.9742
1.5626 -5.4628 -2.4137 0.9756
1.7442 -5.2844 -2.3639 0.9761
2.0659 -4.8966 -2.2577 0.9772
2.2127 -4.7066 -2.2093 0.9777
2.3446 -4.5070 -2.1581 0.9782
2.4674 -4.3104 -2.1098 0.9786
2.5821 -4.1174 -2.0646 0.9791
2.6891 -3.9279 -2.0221 0.9795
3.0707 -3.2231 -1.8911 0.9808
3.1516 -3.0523 -1.8638 0.9811
3.4248 -2.3861 -1.7732 0.9820
3.5365 -2.0630 -1.7392 0.9824
3.5867 -1.9033 -1.7249 0.9825
3.6329 -1.7444 -1.7119 0.9826
3.6750 -1.5861 -1.7004 0.9828
3.7478 -1.2712 -1.6812 0.9829
3.7786 -1.1144 -1.6735 0.9830
3.8292 -0.8016 -1.6619 0.9831
3.8657 -0.4894 -1.6553 0.9832
3.8952 -0.0205 -1.6547 0.9832
3.9005 0.1363 -1.6580 0.9832
3.9024 0.2938 -1.6624 0.9831
3.9008 0.4521 -1.6682 0.9831
3.8627 0.9290 -1.6877 0.9829
3.8180 1.2502 -1.7066 0.9827
3.7576 1.5749 -1.7308 0.9824
3.6807 1.9037 -1.7603 0.9822
3.5865 2.2373 -1.7957 0.9818
3.5326 2.4063 -1.8157 0.9816
3.3424 2.9233 -1.8863 0.9809
3.1897 3.2780 -1.9429 0.9803
3.0136 3.6416 -2.0080 0.9797
2.6953 4.1989 -2.1196 0.9785
2.5728 4.3866 -2.1603 0.9781
2.4423 4.5763 -2.2036 0.9777
2.1557 4.9626 -2.2984 0.9768
1.6539 5.5594 -2.4639 0.9751
1.4650 5.7631 -2.5260 0.9745
1.2599 5.9484 -2.5830 0.9739
1.0509 6.1779 -2.6621 0.9731
0.5833 6.6063 -2.8173 0.9716
0.3268 6.8244 -2.9023 0.9707
-0.5465 7.4940 -3.1919 0.9679
-1.2267 7.9431 -3.4143 0.9657
-1.5996 8.1655 -3.5346 0.9645
-1.9964 8.3880 -3.6628 0.9632
-2.4189 8.6099 -3.7991 0.9619
-3.3476 9.0495 -4.0988 0.9589
-4.4029 9.4813 -4.4408 0.9556
-5.6049 9.8995 -4.8326 0.9518
-6.2577 10.0841 -5.0415 0.9497
-6.9491 10.2537 -5.2619 0.9476
-7.6843 10.4113 -5.4969 0.9453
-9.3166 10.7029 -6.0278 0.9402
-11.1811 10.9314 -6.6426 0.9343
-12.1994 11.0032 -6.9789 0.9311
-17.1164 11.0442 -8.6533 0.9153
-18.4742 10.8941 -9.1108 0.9110
-24.6476 8.4900 -11.0741 0.8929
-26.3569 7.9086 -11.6896 0.8873
-28.3312 7.2732 -12.4254 0.8806
-16.6688 2.8761 -7.1856 0.9291
-18.1412 2.3836 -7.7727 0.9236
-33.2381 1.6703 -14.1374 0.8653
-33.2742 -1.0059 -14.1414 0.8653
-30.5861 -3.3983 -13.0730 0.8748
-28.9344 -5.5973 -12.5193 0.8798
-28.8066 -6.7845 -12.5719 0.8793
-26.0836 -8.4052 -11.6414 0.8877
-24.6170 -9.0404 -11.1402 0.8923
-23.1319 -9.5672 -10.6338 0.8969
-18.9409 -10.6649 -9.2339 0.9099
-17.5745 -10.8485 -8.7735 0.9142
-11.4772 -10.7807 -6.6891 0.9339
-10.5472 -10.7373 -6.3937 0.9367
-9.5938 -10.5864 -6.0691 0.9398
-7.9754 -10.3654 -5.5558 0.9447
-7.2140 -10.1995 -5.3070 0.9472
-5.8259 -9.8264 -4.8528 0.9516
-5.1775 -9.5922 -4.6305 0.9537
-4.6031 -9.4151 -4.4520 0.9555
-3.5283 -8.9819 -4.0994 0.9589
-3.0410 -8.7614 -3.9397 0.9605
-2.5837 -8.5376 -3.7892 0.9620
-0.0860 -6.9619 -2.9576 0.9702
0.4469 -6.5539 -2.7906 0.9719
0.9183 -6.1380 -2.6365 0.9734
1.1334 -5.9340 -2.5663 0.9741
1.3354 -5.7304 -2.4995 0.9748
1.7039 -5.3306 -2.3773 0.9760
2.3145 -4.5537 -2.1699 0.9780
2.9631 -3.4366 -1.9276 0.9805
3.0509 -3.2634 -1.8978 0.9808
3.2816 -2.7551 -1.8202 0.9816
3.3484 -2.5889 -1.7980 0.9818
3.5242 -2.1007 -1.7429 0.9823
3.6655 -1.6232 -1.7029 0.9827
3.7047 -1.4654 -1.6924 0.9828
3.7997 -0.9946 -1.6685 0.9831
3.8240 -0.8383 -1.6630 0.9831
3.8863 -0.2137 -1.6534 0.9832
3.8934 -0.0573 -1.6541 0.9832
3.8996 0.0995 -1.6571 0.9832
3.8948 0.5733 -1.6723 0.9830
3.8669 0.8915 -1.6858 0.9829
3.8474 1.0516 -1.6943 0.9828
3.8240 1.2124 -1.7041 0.9827
3.7967 1.3740 -1.7152 0.9826
3.6906 1.8649 -1.7566 0.9822
3.6467 2.0307 -1.7731 0.9820
3.5984 2.1979 -1.7912 0.9818
3.4884 2.5368 -1.8323 0.9814
3.3590 2.8823 -1.8802 0.9809
3.2864 3.0579 -1.9069 0.9807
