ply
format ascii 1.0
element vertex 1589
property float32 x
property float32 y
property float32 z
property float32 I
end_header
4.1049 -0.1588 0.1708 0.9837
4.0935 0.0062 0.1702 0.9837
4.1282 0.1722 0.1718 0.9836
10.2341 1.6745 0.4312 0.9593
10.3613 2.5632 0.4438 0.9582
10.6268 4.5328 0.4804 0.9548
10.6420 5.0537 0.4898 0.9539
10.4673 7.2230 0.5288 0.9504
10.4871 7.8765 0.5453 0.9488
10.1416 8.2743 0.5442 0.9489
10.0498 8.8950 0.5580 0.9477
10.1256 9.7145 0.5834 0.9454
10.3122 11.6215 0.6460 0.9397
10.5631 14.0272 0.7301 0.9321
6.3484 9.1752 0.4639 0.9563
8.0637 15.3100 0.7195 0.9331
8.0304 16.8555 0.7763 0.9280
7.9977 18.6844 0.8451 0.9219
8.6194 22.6058 1.0059 0.9077
8.0979 24.1042 1.0573 0.9032
-30.3040 37.9231 1.4798 0.8234
-32.1976 37.1313 1.4982 0.8215
-32.1543 34.2039 1.4310 0.8287
-32.0803 29.0544 1.3194 0.8410
-32.0485 26.7634 1.2728 0.8461
-31.9656 20.7276 1.1613 0.8586
-31.9430 18.9358 1.1320 0.8619
-35.0822 17.1537 1.1904 0.8553
-35.8008 -33.3676 1.4918 0.8221
9.6394 -42.3541 1.3241 0.8404
7.8921 -29.2028 0.9221 0.8860
10.2450 -28.5726 0.9253 0.8856
10.7533 -26.5791 0.8740 0.8916
10.7602 -23.7996 0.7962 0.9008
10.5192 -20.9789 0.7154 0.9104
9.9656 -18.0293 0.6280 0.9209
10.0905 -10.9197 0.4532 0.9422
10.0067 -9.9923 0.4311 0.9450
9.9083 -9.1295 0.4107 0.9475
9.8143 -8.3397 0.3926 0.9498
6.3283 -4.1810 0.2312 0.9701
9.3833 -5.1690 0.3266 0.9580
9.1051 -4.5491 0.3103 0.9601
8.8954 -4.0064 0.2974 0.9617
9.0429 -3.6435 0.2972 0.9617
9.6128 -2.1733 0.3004 0.9613
9.6197 -1.7721 0.2982 0.9616
3.9792 -0.4067 0.1219 0.9841
4.0011 0.2356 0.1222 0.9841
9.9740 2.6497 0.3146 0.9595
10.1747 4.0658 0.3340 0.9571
10.2103 5.5866 0.3548 0.9545
10.1122 6.6396 0.3688 0.9527
9.5647 8.7627 0.3954 0.9494
9.6779 10.4135 0.4334 0.9447
9.9198 13.6540 0.5145 0.9347
8.1664 14.6754 0.5120 0.9350
8.1155 16.0707 0.5488 0.9305
8.0882 17.7545 0.5947 0.9249
7.8069 24.6287 0.7876 0.9018
7.9082 28.9345 0.9144 0.8869
0.8874 13.4329 0.4104 0.9476
-32.1722 35.4207 1.4586 0.8257
-32.0949 30.0851 1.3410 0.8386
-32.0617 27.7211 1.2920 0.8440
-32.0038 23.4615 1.2097 0.8532
-31.9525 19.6894 1.1441 0.8605
-34.8082 17.7654 1.1913 0.8552
-34.8763 -34.0395 1.4856 0.8228
9.0406 -35.8844 1.1281 0.8624
8.2976 -28.1168 0.8936 0.8893
9.9418 -29.2988 0.9431 0.8835
10.6153 -22.1086 0.7476 0.9065
10.3148 -16.1587 0.5844 0.9262
10.2849 -13.5722 0.5191 0.9341
10.2146 -12.4107 0.4900 0.9377
9.9518 -9.4902 0.4192 0.9465
9.7665 -7.9193 0.3833 0.9509
9.7246 -7.2580 0.3699 0.9526
6.2089 -4.2568 0.2295 0.9703
8.9744 -3.7960 0.2970 0.9618
9.1787 -3.4548 0.2990 0.9615
9.3000 -3.0801 0.2986 0.9616
9.2879 -2.6673 0.2946 0.9621
9.6156 -1.9424 0.2990 0.9615
9.6252 -1.5450 0.2972 0.9617
3.9825 -0.4761 0.1223 0.9841
3.9749 -0.3140 0.1215 0.9842
3.9680 -0.1535 0.1210 0.9842
3.9617 0.0060 0.1208 0.9843
4.0186 0.3296 0.1229 0.9840
4.0624 0.4981 0.1248 0.9838
9.8935 2.0297 0.3079 0.9604
10.0086 2.9071 0.3177 0.9591
10.1909 4.3469 0.3377 0.9566
10.2059 5.3590 0.3514 0.9549
10.2168 5.8998 0.3596 0.9539
9.9508 7.4737 0.3794 0.9514
9.6512 10.0341 0.4244 0.9458
9.7164 10.9499 0.4463 0.9431
9.7914 11.9701 0.4714 0.9400
9.8784 13.1180 0.5006 0.9364
8.6916 13.7071 0.4948 0.9371
8.1259 15.4280 0.5315 0.9326
8.1004 17.0026 0.5741 0.9274
8.0702 18.8538 0.6252 0.9212
8.6429 22.6674 0.7395 0.9075
8.0977 24.1036 0.7751 0.9032
7.9375 27.1993 0.8637 0.8928
2.3601 14.3113 0.4421 0.9436
-31.9314 26.6656 0.8069 0.8467
-31.8425 22.5142 0.7564 0.8555
-34.9464 22.6605 0.8078 0.8465
-35.5437 -33.1280 0.9424 0.8233
-34.7017 -35.0507 0.9566 0.8209
7.4366 -40.0457 0.7900 0.8496
9.4221 -41.3994 0.8235 0.8438
7.9262 -29.3289 0.5892 0.8855
9.7896 -27.3028 0.5625 0.8904
9.6279 -19.2014 0.4166 0.9177
9.5242 -17.2308 0.3818 0.9243
9.7515 -14.7138 0.3424 0.9318
9.6380 -12.2756 0.3027 0.9395
9.5960 -11.2600 0.2869 0.9425
9.5355 -10.3192 0.2725 0.9453
9.2948 -6.6921 0.2221 0.9552
8.6678 -4.3306 0.1879 0.9620
8.6590 -3.8999 0.1842 0.9627
8.8493 -3.5655 0.1850 0.9625
8.9451 -2.4036 0.1796 0.9636
9.2653 -2.0947 0.1842 0.9627
9.2449 -1.7031 0.1823 0.9631
4.0966 -0.5857 0.0803 0.9836
3.9342 -0.2430 0.0764 0.9844
3.9083 -0.0841 0.0758 0.9845
3.9010 0.0728 0.0757 0.9845
3.9263 0.2312 0.0763 0.9844
3.9520 0.3925 0.0770 0.9842
4.0015 0.5605 0.0784 0.9840
9.5042 1.7229 0.1873 0.9621
9.5971 2.5495 0.1926 0.9611
9.7921 4.3767 0.2080 0.9580
9.7913 4.8571 0.2120 0.9572
9.7917 5.3576 0.2165 0.9563
9.7932 5.8813 0.2216 0.9553
9.6281 6.8905 0.2296 0.9537
9.5232 7.4113 0.2340 0.9529
9.5737 8.0884 0.2431 0.9511
9.2034 10.7371 0.2743 0.9450
9.3007 12.8018 0.3069 0.9387
9.3614 14.0381 0.3273 0.9347
8.1994 14.7345 0.3270 0.9348
8.1585 17.9089 0.3817 0.9243
2.8806 27.0400 0.5274 0.8969
1.5972 24.1779 0.4700 0.9076
0.7134 27.6477 0.5364 0.8953
-0.2334 16.2399 0.3150 0.9371
-32.0276 38.2406 0.9674 0.8191
-31.9584 32.4645 0.8835 0.8334
-31.8543 23.3519 0.7660 0.8538
-35.9559 22.1563 0.8191 0.8445
-31.7931 17.8709 0.7074 0.8642
-36.3190 16.7337 0.7756 0.8522
-34.8921 -34.0549 0.9456 0.8228
1.7876 -38.8611 0.7545 0.8559
6.0362 -47.5385 0.9294 0.8255
5.1941 -24.7781 0.4910 0.9037
8.6283 -29.2374 0.5912 0.8852
9.4918 -27.9726 0.5729 0.8885
9.8057 -15.3613 0.3535 0.9297
9.6940 -13.9203 0.3290 0.9344
9.6180 -11.6858 0.2935 0.9412
9.5604 -10.7088 0.2784 0.9442
9.5042 -9.8217 0.2651 0.9468
9.3592 -8.2334 0.2418 0.9514
6.2333 -4.2735 0.1466 0.9702
8.9961 -4.6891 0.1968 0.9602
8.7006 -3.6802 0.1832 0.9629
8.9633 -3.3737 0.1857 0.9624
8.9550 -2.9658 0.1830 0.9630
8.9478 -2.5696 0.1806 0.9634
9.2707 -1.8727 0.1834 0.9629
3.9706 -0.4747 0.0776 0.9841
3.9453 -0.3116 0.0768 0.9843
3.9193 -0.1516 0.0761 0.9844
3.8936 0.0059 0.0755 0.9845
3.9154 0.1633 0.0760 0.9844
3.9670 0.4864 0.0775 0.9841
9.5283 1.9548 0.1886 0.9618
9.6268 2.7962 0.1944 0.9607
9.7382 3.6990 0.2020 0.9592
9.7927 4.1771 0.2065 0.9583
9.7915 4.6498 0.2102 0.9576
9.7914 5.1413 0.2145 0.9567
9.7763 6.1818 0.2243 0.9548
9.6730 6.6748 0.2279 0.9541
9.5671 7.1856 0.2321 0.9533
9.5784 7.8149 0.2398 0.9517
9.3331 8.2606 0.2417 0.9514
9.1161 8.7460 0.2450 0.9507
9.1487 9.5118 0.2560 0.9486
9.1859 10.3521 0.2684 0.9461
9.2285 11.2819 0.2827 0.9434
9.2775 12.3200 0.2991 0.9402
8.8944 14.0270 0.3221 0.9357
8.1890 15.5478 0.3408 0.9321
8.1684 17.1452 0.3683 0.9268
8.1440 19.0262 0.4014 0.9205
8.6539 22.6962 0.4711 0.9074
8.0975 24.1030 0.4932 0.9033
8.0380 27.5438 0.5565 0.8916
11.6525 46.8495 0.9363 0.8244
-31.8277 36.7047 0.4038 0.8234
-30.1013 29.5472 0.3506 0.8447
-31.9303 26.6646 0.3457 0.8467
-29.7926 22.9132 0.3124 0.8604
-30.2455 19.6122 0.2996 0.8657
-29.8411 17.6898 0.2883 0.8704
-30.2645 16.3353 0.2858 0.8715
-36.3101 17.7540 0.3359 0.8507
-37.6143 16.5548 0.3416 0.8484
8.3731 -36.7904 0.3136 0.8599
8.8440 -28.1791 0.2455 0.8886
9.0500 -25.2399 0.2229 0.8983
8.9788 -22.1929 0.1990 0.9087
8.8762 -17.7022 0.1646 0.9238
8.9434 -16.1799 0.1537 0.9287
9.0906 -11.5783 0.1223 0.9428
9.0713 -10.6443 0.1162 0.9456
8.9990 -9.7386 0.1102 0.9483
8.9818 -8.9689 0.1055 0.9505
8.9223 -6.9846 0.0942 0.9557
8.9403 -6.4369 0.0916 0.9569
6.2924 -4.1573 0.0627 0.9703
8.6601 -5.2345 0.0841 0.9603
8.6542 -4.7673 0.0821 0.9612
8.6401 -3.4812 0.0774 0.9634
8.6334 -2.6960 0.0752 0.9645
3.9567 -0.4044 0.0331 0.9842
3.9046 -0.0840 0.0325 0.9845
3.9229 0.2310 0.0327 0.9844
3.9486 0.3922 0.0330 0.9843
9.1683 1.6620 0.0774 0.9634
9.2051 2.0535 0.0784 0.9630
9.2478 2.4568 0.0795 0.9624
9.2926 2.8728 0.0808 0.9618
9.3393 3.3036 0.0823 0.9611
9.3852 3.7503 0.0840 0.9604
9.4236 4.2120 0.0858 0.9596
9.4161 4.6710 0.0874 0.9588
9.4088 5.1481 0.0891 0.9580
9.4012 5.6459 0.0911 0.9571
9.1654 7.1328 0.0965 0.9546
9.0071 8.2518 0.1015 0.9523
8.6888 8.6270 0.1018 0.9522
8.7173 10.1701 0.1113 0.9478
8.0490 19.7327 0.1771 0.9183
8.7212 24.1064 0.2131 0.9025
8.1621 25.7492 0.2245 0.8976
9.2556 33.8643 0.2918 0.8690
0.6196 24.0123 0.1996 0.9084
-29.9006 32.9197 0.3696 0.8370
-30.0763 30.5526 0.3563 0.8424
-30.1654 28.2764 0.3436 0.8476
-31.7435 27.4460 0.3488 0.8455
-34.7176 27.6611 0.3689 0.8373
-30.0204 22.0075 0.3094 0.8617
-30.2356 20.3505 0.3029 0.8643
-29.8516 18.3948 0.2914 0.8691
-29.8309 16.7679 0.2844 0.8721
-37.1273 -33.4330 0.4152 0.8188
-34.8711 -34.0344 0.4050 0.8229
6.0364 -47.5395 0.3983 0.8256
8.3157 -33.0071 0.2829 0.8727
8.6285 -29.2381 0.2534 0.8852
9.0863 -26.7774 0.2350 0.8931
8.8947 -18.5252 0.1708 0.9211
8.8536 -16.6869 0.1570 0.9272
9.1257 -14.2960 0.1410 0.9344
9.0987 -13.0655 0.1323 0.9383
9.0845 -11.0377 0.1188 0.9444
9.0050 -9.3059 0.1076 0.9495
8.9596 -8.5440 0.1029 0.9517
8.9381 -7.8630 0.0989 0.9535
8.9260 -7.2377 0.0955 0.9551
8.9300 -6.6649 0.0926 0.9564
6.2282 -4.2700 0.0628 0.9702
8.6511 -4.5092 0.0811 0.9617
8.6462 -4.0739 0.0794 0.9625
8.6418 -3.6553 0.0780 0.9632
8.6347 -2.8597 0.0756 0.9643
8.9383 -2.1825 0.0765 0.9639
8.9498 -1.8079 0.0759 0.9641
3.9620 -0.4737 0.0332 0.9842
3.9416 -0.3113 0.0329 0.9843
3.9156 -0.1514 0.0326 0.9844
3.9121 0.1631 0.0325 0.9845
3.9376 0.3230 0.0328 0.9843
4.5316 0.7414 0.0382 0.9818
9.2293 2.2832 0.0790 0.9627
9.3669 3.5580 0.0833 0.9607
9.4119 4.9421 0.0884 0.9584
9.3202 6.4314 0.0941 0.9557
9.1137 7.4357 0.0978 0.9540
8.6962 9.0413 0.1043 0.9511
8.7269 10.6688 0.1146 0.9464
8.7923 13.8660 0.1365 0.9364
8.2530 15.6694 0.1472 0.9316
-30.6529 32.6069 -0.1240 0.8361
-31.3874 28.4268 -0.1173 0.8442
-35.9544 27.6521 -0.1257 0.8341
-31.2887 16.8881 -0.0985 0.8674
-36.3082 17.7531 -0.1120 0.8507
7.8219 -34.3683 -0.0976 0.8685
8.1600 -26.0000 -0.0755 0.8967
8.1848 -22.8271 -0.0672 0.9076
8.2203 -18.1819 -0.0553 0.9233
8.2334 -16.4204 -0.0509 0.9292
8.7131 -15.7633 -0.0499 0.9305
8.5500 -14.0995 -0.0457 0.9362
8.5745 -9.2792 -0.0350 0.9507
8.5854 -6.7208 -0.0302 0.9573
8.6175 -6.2045 -0.0294 0.9584
8.3306 -4.5891 -0.0263 0.9627
8.3349 -3.3582 -0.0249 0.9647
8.3476 -2.2431 -0.0239 0.9660
8.6566 -1.5947 -0.0244 0.9654
3.9611 -0.5663 -0.0111 0.9841
3.9496 -0.4036 -0.0110 0.9842
3.9267 -0.2425 -0.0109 0.9844
3.9010 -0.0839 -0.0108 0.9845
3.9196 0.2308 -0.0109 0.9844
3.9452 0.3918 -0.0110 0.9843
8.8872 1.9826 -0.0252 0.9642
9.0002 3.1836 -0.0264 0.9625
9.0347 3.6102 -0.0270 0.9618
9.0700 4.0539 -0.0275 0.9610
9.0390 5.4284 -0.0292 0.9587
9.0196 5.9222 -0.0299 0.9578
8.9459 6.4023 -0.0305 0.9570
8.8346 6.8754 -0.0310 0.9562
8.7540 8.0199 -0.0329 0.9536
6.5576 9.0262 -0.0309 0.9564
8.2214 18.0468 -0.0549 0.9237
8.2057 20.1169 -0.0602 0.9168
-31.4098 31.9072 -0.1240 0.8360
-31.3939 29.4279 -0.1192 0.8419
-31.5597 23.1358 -0.1084 0.8551
-31.3164 21.0780 -0.1046 0.8599
-31.3046 19.2902 -0.1019 0.8632
-36.5824 18.6710 -0.1138 0.8485
-38.5010 17.7391 -0.1174 0.8440
-38.8980 16.0613 -0.1166 0.8451
-34.7439 -33.9103 -0.1345 0.8235
7.9869 -47.5350 -0.1335 0.8246
8.1109 -32.1941 -0.0920 0.8756
8.1966 -21.3031 -0.0632 0.9127
8.2281 -17.1369 -0.0527 0.9268
8.5871 -16.1848 -0.0508 0.9293
8.5676 -14.6908 -0.0471 0.9342
8.5564 -13.4041 -0.0441 0.9384
8.5750 -12.3135 -0.0416 0.9417
8.5935 -11.3402 -0.0394 0.9447
8.5653 -8.8515 -0.0341 0.9519
8.5592 -8.1621 -0.0328 0.9538
8.5560 -7.5268 -0.0316 0.9554
6.2174 -4.2626 -0.0209 0.9703
6.5201 -4.0953 -0.0213 0.9697
8.3316 -4.3427 -0.0260 0.9631
8.3331 -3.9264 -0.0255 0.9638
8.3344 -3.5253 -0.0251 0.9644
8.3366 -2.7610 -0.0243 0.9655
8.3435 -2.3961 -0.0240 0.9659
3.9534 -0.4726 -0.0110 0.9842
3.9119 -0.1513 -0.0108 0.9845
3.9088 0.1630 -0.0108 0.9845
8.9448 2.5981 -0.0258 0.9634
8.9834 3.0054 -0.0262 0.9628
9.0200 3.4262 -0.0267 0.9621
9.0744 4.3092 -0.0278 0.9606
9.0280 5.7086 -0.0296 0.9582
8.9923 6.2051 -0.0303 0.9572
8.8826 6.6714 -0.0308 0.9565
8.6054 8.2561 -0.0330 0.9534
8.2821 9.3336 -0.0346 0.9513
8.2772 10.1190 -0.0362 0.9491
6.4248 9.2855 -0.0313 0.9558
8.2578 13.0231 -0.0427 0.9402
8.2492 14.2438 -0.0456 0.9363
8.1776 19.1047 -0.0576 0.9202
-31.4560 33.4611 -0.6362 0.8322
-33.1331 27.6691 -0.5980 0.8414
-35.9530 27.6511 -0.6283 0.8341
-31.4081 22.2071 -0.5329 0.8574
-34.9419 22.6575 -0.5769 0.8465
-31.3918 18.6090 -0.5055 0.8642
-32.4730 17.5273 -0.5112 0.8628
-36.3062 17.7521 -0.5598 0.8507
-40.2771 17.7267 -0.6096 0.8386
-34.2627 -34.6073 -0.6746 0.8230
6.8377 -36.8209 -0.5188 0.8609
5.6119 -24.6578 -0.3503 0.9038
7.2387 -26.7853 -0.3844 0.8949
7.3685 -23.4778 -0.3409 0.9063
7.9891 -13.1746 -0.2134 0.9402
8.0804 -12.1924 -0.2026 0.9432
8.1588 -10.3915 -0.1830 0.9485
8.1701 -9.5869 -0.1745 0.9509
8.1882 -8.1764 -0.1603 0.9548
8.2370 -6.9994 -0.1497 0.9577
8.2785 -6.4806 -0.1456 0.9588
6.2414 -4.1236 -0.1036 0.9705
8.0219 -4.8488 -0.1298 0.9632
8.0379 -4.0159 -0.1245 0.9647
8.0446 -3.6232 -0.1222 0.9653
8.0506 -3.2436 -0.1202 0.9659
8.0558 -2.8754 -0.1185 0.9664
8.3611 -1.8903 -0.1187 0.9663
8.3771 -1.5432 -0.1180 0.9665
3.9500 -0.5647 -0.0553 0.9842
3.8912 0.0726 -0.0539 0.9846
3.9163 0.2306 -0.0543 0.9844
3.9401 0.3913 -0.0548 0.9843
3.9493 0.5531 -0.0552 0.9842
8.6205 2.2901 -0.1236 0.9649
8.7459 4.3385 -0.1352 0.9617
8.6775 5.6975 -0.1438 0.9593
8.5271 6.6361 -0.1497 0.9577
8.4266 7.1192 -0.1528 0.9568
8.3199 8.2607 -0.1624 0.9542
7.8611 9.9538 -0.1757 0.9505
7.7690 12.7296 -0.2066 0.9421
7.7285 13.8883 -0.2202 0.9384
7.6811 15.2104 -0.2360 0.9341
7.6252 16.7382 -0.2548 0.9291
7.5583 18.5298 -0.2772 0.9231
7.4768 20.6667 -0.3044 0.9158
7.3763 23.2702 -0.3382 0.9070
6.8091 46.2102 -0.6470 0.8296
2.5577 24.0093 -0.3345 0.9079
0.9817 14.8608 -0.2063 0.9422
0.7030 27.2458 -0.3776 0.8967
-31.4504 31.9484 -0.6210 0.8358
-34.7150 27.6590 -0.6149 0.8373
-31.6351 17.7821 -0.5027 0.8649
-36.5055 16.8196 -0.5568 0.8515
-40.4411 16.6985 -0.6061 0.8394
-34.7134 -33.8805 -0.6720 0.8236
-16.9321 -27.2159 -0.4440 0.8797
6.7115 -39.9445 -0.5611 0.8504
7.4298 -21.8958 -0.3203 0.9117
7.5199 -19.5444 -0.2901 0.9196
7.5935 -17.5928 -0.2654 0.9262
7.8177 -16.2821 -0.2502 0.9303
8.0227 -15.1210 -0.2371 0.9338
8.0143 -13.7421 -0.2204 0.9383
8.0620 -12.6296 -0.2076 0.9418
8.1061 -11.6400 -0.1965 0.9448
8.1727 -9.9298 -0.1782 0.9499
8.1742 -9.1561 -0.1700 0.9521
8.2184 -7.2298 -0.1516 0.9572
8.2611 -6.6986 -0.1473 0.9583
8.0269 -4.6029 -0.1282 0.9637
8.0348 -4.1880 -0.1255 0.9644
8.0481 -3.4042 -0.1211 0.9656
8.0536 -3.0313 -0.1192 0.9662
8.3545 -2.0400 -0.1191 0.9662
4.0808 -0.6550 -0.0573 0.9836
3.9341 -0.3107 -0.0547 0.9843
8.5465 1.7534 -0.1209 0.9657
8.6069 2.1292 -0.1228 0.9652
8.6388 2.5092 -0.1246 0.9647
8.7144 5.0322 -0.1394 0.9605
8.6616 5.9769 -0.1458 0.9588
8.4691 6.9098 -0.1514 0.9572
8.3682 7.4066 -0.1548 0.9563
7.9918 8.3089 -0.1597 0.9549
7.8938 8.8960 -0.1648 0.9535
6.7793 9.0025 -0.1561 0.9559
7.7465 13.3758 -0.2141 0.9400
7.7023 14.6237 -0.2290 0.9360
7.6503 16.0577 -0.2464 0.9313
7.5884 17.7283 -0.2671 0.9258
7.5138 19.7061 -0.2922 0.9191
7.4220 22.0921 -0.3228 0.9110
2.3632 14.3299 -0.2012 0.9436
-31.5299 36.3613 -1.2002 0.8248
-31.2861 33.2804 -1.1391 0.8330
-31.2800 28.3296 -1.0525 0.8446
-33.1319 27.6681 -1.0765 0.8414
-35.9516 27.6500 -1.1311 0.8340
-31.2659 22.1065 -0.9549 0.8579
-31.2569 18.5290 -0.9062 0.8647
4.8707 -46.9937 -1.1782 0.8278
5.5153 -38.1847 -0.9621 0.8570
5.9578 -32.0827 -0.8138 0.8776
5.6172 -24.6812 -0.6313 0.9037
6.5248 -24.1435 -0.6237 0.9048
6.9973 -17.2954 -0.4653 0.9281
7.4667 -14.8911 -0.4154 0.9355
7.5065 -13.5804 -0.3870 0.9398
7.6863 -10.6434 -0.3274 0.9488
7.7671 -9.1139 -0.2986 0.9532
7.8163 -7.8051 -0.2755 0.9568
7.8439 -7.2274 -0.2660 0.9582
7.7036 -5.5465 -0.2367 0.9627
7.7509 -4.2698 -0.2207 0.9652
7.7749 -3.5017 -0.2127 0.9665
8.1150 -1.4949 -0.2058 0.9675
3.9414 -0.5635 -0.0993 0.9842
3.9193 -0.2420 -0.0979 0.9844
3.8937 -0.0838 -0.0971 0.9845
3.8879 0.0725 -0.0970 0.9846
3.9130 0.2304 -0.0978 0.9844
3.9409 0.5520 -0.0992 0.9842
5.3627 0.9721 -0.1359 0.9784
8.2821 1.8476 -0.2116 0.9666
8.3858 2.9663 -0.2218 0.9650
8.4066 3.3593 -0.2258 0.9644
8.3924 5.0401 -0.2441 0.9616
8.0301 7.3567 -0.2716 0.9574
7.7450 8.3337 -0.2837 0.9555
7.4867 9.4797 -0.3012 0.9528
7.3939 11.0877 -0.3324 0.9481
7.2726 13.0692 -0.3730 0.9419
7.1095 15.6062 -0.4277 0.9337
7.0055 17.1744 -0.4626 0.9285
6.7287 21.2274 -0.5553 0.9148
5.8761 39.8783 -1.0052 0.8510
1.0061 15.2310 -0.3807 0.9408
-31.2896 37.3594 -1.2153 0.8228
-31.2781 27.0436 -1.0312 0.8475
-34.7137 27.6580 -1.1069 0.8373
-33.6739 22.6647 -1.0123 0.8501
-31.6336 17.7812 -0.9050 0.8649
-34.0007 17.3533 -0.9520 0.8584
6.4280 -25.5142 -0.6562 0.9001
7.0998 -16.4489 -0.4468 0.9308
7.4648 -15.5471 -0.4301 0.9333
7.5073 -12.8728 -0.3716 0.9421
7.7168 -10.1833 -0.3186 0.9502
7.8053 -8.0661 -0.2799 0.9561
7.9727 -6.4648 -0.2560 0.9598
7.9998 -5.9706 -0.2489 0.9608
6.2503 -4.2852 -0.1890 0.9701
6.4894 -4.0760 -0.1911 0.9698
7.7981 -2.5827 -0.2049 0.9677
7.8206 -2.2459 -0.2029 0.9680
8.1078 -1.6378 -0.2063 0.9674
4.0179 -0.6449 -0.1015 0.9838
3.9277 -0.3102 -0.0983 0.9844
3.9046 -0.1510 -0.0974 0.9845
3.8791 0.0059 -0.0967 0.9846
3.9275 0.3222 -0.0983 0.9844
3.9370 0.4828 -0.0989 0.9843
8.3529 2.4262 -0.2169 0.9658
8.3769 2.8025 -0.2203 0.9653
8.3978 3.1899 -0.2240 0.9647
8.4184 3.5908 -0.2282 0.9640
8.4387 4.0073 -0.2330 0.9633
8.4053 4.8537 -0.2421 0.9619
8.3743 5.2953 -0.2471 0.9611
8.3408 5.7555 -0.2527 0.9603
8.1797 6.6737 -0.2633 0.9586
6.7677 8.9872 -0.2806 0.9560
6.4757 9.3591 -0.2838 0.9555
7.3625 11.6111 -0.3429 0.9465
7.3015 12.6073 -0.3633 0.9434
7.2310 13.7289 -0.3870 0.9398
7.1488 15.0052 -0.4145 0.9357
6.9368 18.1930 -0.4856 0.9251
6.1301 29.6899 -0.7560 0.8858
-30.9400 32.9122 -1.6276 0.8346
-31.1219 30.5490 -1.5713 0.8398
-31.1246 28.1888 -1.5130 0.8453
-33.1307 27.6671 -1.5552 0.8413
-35.9502 27.6489 -1.6341 0.8340
-31.1249 22.0068 -1.3734 0.8585
-36.1305 19.5015 -1.4793 0.8485
-35.3956 17.3069 -1.4196 0.8541
-40.2724 17.7246 -1.5853 0.8385
-34.0181 -34.3602 -1.7421 0.8240
2.4503 -38.7733 -1.3998 0.8560
4.1054 -39.6098 -1.4348 0.8527
5.2783 -28.4231 -1.0416 0.8907
4.2128 -18.5106 -0.6840 0.9268
6.1706 -19.6610 -0.7425 0.9208
6.7024 -16.5664 -0.6439 0.9310
7.0832 -12.8145 -0.5276 0.9431
7.2669 -10.9649 -0.4740 0.9487
7.3411 -10.1654 -0.4518 0.9510
7.3989 -9.4237 -0.4317 0.9532
7.4435 -8.7342 -0.4135 0.9551
7.4828 -8.0977 -0.3973 0.9568
7.5499 -6.9565 -0.3699 0.9597
7.5903 -6.4498 -0.3589 0.9609
7.7146 -6.0392 -0.3530 0.9615
6.2653 -4.1394 -0.2706 0.9704
7.4901 -4.1261 -0.3081 0.9664
7.5073 -3.7508 -0.3024 0.9670
7.5360 -3.0363 -0.2927 0.9680
7.8317 -2.1045 -0.2922 0.9681
4.4155 -0.8134 -0.1618 0.9822
3.9329 -0.5623 -0.1431 0.9842
3.8900 -0.0837 -0.1402 0.9845
3.8846 0.0725 -0.1400 0.9846
3.9325 0.5508 -0.1431 0.9842
8.0925 2.5018 -0.3052 0.9667
8.1240 3.2463 -0.3152 0.9656
8.1361 4.4517 -0.3342 0.9636
8.1023 4.8659 -0.3405 0.9629
8.0252 5.7434 -0.3556 0.9613
7.9720 6.2041 -0.3640 0.9604
7.7566 7.1061 -0.3790 0.9588
7.6419 7.5875 -0.3880 0.9578
7.1461 9.0484 -0.4154 0.9549
6.5210 8.9757 -0.3997 0.9566
6.9512 11.3896 -0.4808 0.9480
6.8674 12.3409 -0.5089 0.9450
6.7709 13.4080 -0.5412 0.9417
6.6589 14.6171 -0.5787 0.9377
6.1853 19.5129 -0.7375 0.9213
5.9569 21.7951 -0.8141 0.9135
5.6722 24.5983 -0.9095 0.9039
-0.2080 14.4753 -0.5216 0.9437
-31.1159 34.2577 -1.6675 0.8309
-34.8349 32.6535 -1.7203 0.8260
-34.7124 27.6569 -1.5991 0.8372
-30.9501 22.6890 -1.3827 0.8576
-33.6724 22.6637 -1.4624 0.8500
-36.1334 22.2657 -1.5292 0.8438
-34.8146 16.0406 -1.3811 0.8578
-42.8854 17.7078 -1.6717 0.8305
-43.8308 16.0700 -1.6820 0.8296
1.8770 -40.8065 -1.4718 0.8492
5.5027 -26.2501 -0.9664 0.8982
6.0775 -20.5940 -0.7736 0.9176
6.4537 -16.7733 -0.6475 0.9306
6.9676 -16.1428 -0.6335 0.9320
6.9888 -13.1723 -0.5373 0.9421
7.1393 -12.2417 -0.5106 0.9449
7.4251 -9.0215 -0.4210 0.9543
7.4666 -8.3635 -0.4040 0.9561
7.4162 -5.5351 -0.3334 0.9636
6.4742 -4.0664 -0.2755 0.9699
7.4822 -4.2906 -0.3108 0.9661
7.5002 -3.9094 -0.3047 0.9667
7.5162 -3.5415 -0.2994 0.9673
7.7715 -2.2318 -0.2913 0.9682
7.8426 -1.9150 -0.2909 0.9682
7.8611 -1.5880 -0.2890 0.9684
3.9570 -0.6351 -0.1444 0.9841
3.9009 -0.1509 -0.1407 0.9845
3.8755 0.0059 -0.1396 0.9846
3.9196 0.3215 -0.1417 0.9844
8.0445 1.6504 -0.2959 0.9677
8.0636 1.9948 -0.2993 0.9673
8.1019 2.7105 -0.3078 0.9664
8.1176 3.0835 -0.3129 0.9658
8.1324 3.4689 -0.3186 0.9652
8.1485 4.2787 -0.3316 0.9638
8.1172 4.6874 -0.3377 0.9632
8.0815 5.1101 -0.3445 0.9625
7.6917 7.3794 -0.3841 0.9582
7.6700 7.9744 -0.3987 0.9567
7.4384 8.3827 -0.4038 0.9561
7.1684 8.7635 -0.4079 0.9557
6.5010 9.3956 -0.4117 0.9553
6.4419 16.8950 -0.6515 0.9302
6.2694 18.6615 -0.7093 0.9242
6.0603 20.7666 -0.7794 0.9171
5.8018 23.3266 -0.8661 0.9083
5.0498 30.6211 -1.1182 0.8832
-29.5863 37.0249 -2.2337 0.8271
-30.9515 32.9244 -2.1298 0.8345
-30.9620 30.3920 -2.0448 0.8405
-31.1948 16.8374 -1.6707 0.8677
-36.3004 17.7493 -1.9044 0.8506
-35.3123 -32.9123 -2.2751 0.8242
-33.8719 -34.2126 -2.2691 0.8247
4.2276 -29.2697 -1.3938 0.8883
4.2055 -18.4785 -0.8932 0.9269
6.4336 -14.2300 -0.7360 0.9394
6.5782 -13.1193 -0.6917 0.9429
6.7048 -12.1300 -0.6532 0.9460
7.0031 -9.6974 -0.5638 0.9532
7.1238 -8.3591 -0.5176 0.9570
7.1892 -7.7800 -0.4993 0.9585
7.3345 -6.7580 -0.4700 0.9608
7.1355 -5.5858 -0.4271 0.9644
7.1675 -5.1605 -0.4163 0.9653
6.2818 -4.1503 -0.3549 0.9703
6.6932 -4.0456 -0.3686 0.9692
7.2462 -3.9917 -0.3899 0.9674
7.2671 -3.6308 -0.3829 0.9680
7.3024 -2.9422 -0.3711 0.9690
7.5966 -2.0413 -0.3707 0.9690
7.5914 -1.7163 -0.3668 0.9693
3.9244 -0.5611 -0.1868 0.9843
3.9073 -0.2413 -0.1845 0.9844
3.8813 0.0724 -0.1830 0.9846
4.1015 0.7435 -0.1965 0.9834
7.7781 1.7352 -0.3756 0.9686
7.8596 3.1407 -0.3989 0.9667
7.8687 3.5170 -0.4062 0.9661
7.8764 3.9072 -0.4144 0.9654
7.8693 4.3058 -0.4228 0.9647
7.8315 4.7032 -0.4306 0.9641
7.7903 5.1150 -0.4392 0.9634
7.6967 5.9899 -0.4597 0.9617
7.6116 6.4307 -0.4696 0.9609
7.5024 6.8733 -0.4796 0.9601
7.3866 7.3340 -0.4906 0.9592
7.2213 8.4247 -0.5230 0.9565
6.5009 8.9481 -0.5213 0.9567
6.6900 10.0322 -0.5683 0.9529
6.5046 11.6890 -0.6305 0.9478
5.9333 16.4003 -0.8220 0.9325
2.3020 15.6230 -0.7443 0.9387
2.9073 27.2905 -1.2935 0.8959
1.1323 17.1413 -0.8096 0.9335
-19.7616 36.4871 -1.9557 0.8469
-30.9464 34.0711 -2.1693 0.8317
-30.9578 31.4480 -2.0798 0.8380
-30.9749 26.7815 -1.9299 0.8488
-29.1915 23.2582 -1.7591 0.8612
-30.9834 22.7134 -1.8106 0.8574
-30.9870 20.8563 -1.7604 0.8611
-31.6305 17.7795 -1.7102 0.8648
-35.0295 17.8784 -1.8536 0.8543
-36.8939 16.9986 -1.9145 0.8499
-45.4460 16.6621 -2.2813 0.8238
-34.5262 -33.6978 -2.2738 0.8243
-32.9973 -34.9006 -2.2637 0.8250
1.8770 -40.8046 -1.9252 0.8491
6.3954 -14.8171 -0.7606 0.9374
7.0404 -9.2907 -0.5494 0.9544
7.0994 -8.6258 -0.5265 0.9562
7.1621 -8.0224 -0.5069 0.9578
7.2305 -7.4720 -0.4901 0.9592
7.3047 -6.9658 -0.4757 0.9604
7.3730 -6.4861 -0.4628 0.9614
7.4046 -6.0041 -0.4493 0.9625
7.1542 -5.3395 -0.4207 0.9649
6.2837 -4.3081 -0.3591 0.9700
7.2585 -3.7834 -0.3858 0.9678
7.3110 -2.7518 -0.3682 0.9692
7.5874 -2.1789 -0.3721 0.9689
7.6093 -1.8580 -0.3692 0.9691
7.6290 -1.5411 -0.3668 0.9693
3.9281 -0.6305 -0.1875 0.9842
3.9195 -0.4686 -0.1860 0.9843
3.9109 -0.3089 -0.1849 0.9844
3.8972 -0.1507 -0.1838 0.9845
3.9113 0.3208 -0.1850 0.9844
3.9294 0.6429 -0.1877 0.9842
7.8019 1.6006 -0.3754 0.9686
7.8172 1.9338 -0.3795 0.9683
7.8442 2.6243 -0.3898 0.9674
7.8733 3.7388 -0.4108 0.9657
7.8800 4.1377 -0.4195 0.9650
7.8083 4.9374 -0.4354 0.9637
7.7651 5.3583 -0.4447 0.9629
7.7180 5.7967 -0.4549 0.9621
7.5498 6.6822 -0.4752 0.9604
7.3191 7.6095 -0.4976 0.9586
6.9525 8.4996 -0.5175 0.9570
6.7220 8.9265 -0.5267 0.9562
6.4827 9.3693 -0.5370 0.9554
6.6416 10.4742 -0.5845 0.9515
6.4419 12.2307 -0.6515 0.9461
6.1780 14.4333 -0.7400 0.9391
5.5833 19.1322 -0.9393 0.9233
5.2989 21.3044 -1.0347 0.9158
4.9463 23.9564 -1.1529 0.9067
4.4985 27.2781 -1.3030 0.8952
-30.7667 35.4811 -2.7353 0.8285
-30.4635 32.4054 -2.5904 0.8368
-29.7778 26.9690 -2.3399 0.8513
-29.6035 24.7216 -2.2464 0.8568
-29.3764 22.5931 -2.1585 0.8620
-29.1590 20.6168 -2.0799 0.8667
-30.8585 18.2929 -2.0894 0.8661
-32.9231 17.7703 -2.1790 0.8608
-35.9459 17.5760 -2.3305 0.8519
-38.4347 16.9158 -2.4458 0.8451
-35.3296 -32.9284 -2.8129 0.8241
1.0300 -44.8828 -2.6148 0.8354
1.6504 -26.1156 -1.5241 0.9005
3.7851 -26.2061 -1.5422 0.8993
4.2185 -18.5357 -1.1072 0.9267
5.0334 -18.6249 -1.1237 0.9256
6.0650 -13.4146 -0.8575 0.9427
6.3677 -11.5202 -0.7667 0.9486
6.6030 -9.9631 -0.6962 0.9532
6.6886 -9.2619 -0.6654 0.9553
6.7658 -8.6174 -0.6381 0.9571
6.8892 -5.3930 -0.5096 0.9656
6.9264 -4.9869 -0.4971 0.9664
6.2985 -4.1613 -0.4397 0.9702
7.0173 -3.8656 -0.4666 0.9684
7.0996 -2.5341 -0.4391 0.9702
7.3989 -1.6728 -0.4418 0.9701
3.9075 -0.3993 -0.2288 0.9844
3.8827 -0.0835 -0.2262 0.9846
3.8781 0.0724 -0.2259 0.9846
3.8980 0.2296 -0.2274 0.9845
3.9069 0.3880 -0.2287 0.9844
7.5933 2.0172 -0.4576 0.9690
7.6028 2.3504 -0.4635 0.9686
7.6206 3.4061 -0.4862 0.9671
7.6191 4.1689 -0.5058 0.9658
7.5344 4.9470 -0.5250 0.9645
7.2662 6.6569 -0.5740 0.9613
7.1488 7.0980 -0.5867 0.9604
7.0304 7.5648 -0.6015 0.9595
6.9907 8.1557 -0.6256 0.9579
6.7536 8.5515 -0.6347 0.9573
6.3856 9.5758 -0.6704 0.9549
6.2882 10.3033 -0.7030 0.9528
6.1779 11.1020 -0.7400 0.9504
5.7433 14.0803 -0.8857 0.9409
5.5506 15.3426 -0.9503 0.9367
5.3241 16.7961 -1.0262 0.9318
5.0545 18.4933 -1.1166 0.9261
4.3286 22.9447 -1.3600 0.9107
1.9871 18.6532 -1.0926 0.9276
1.5328 23.2029 -1.3544 0.9110
1.1293 43.7677 -2.5500 0.8391
-30.7785 33.8862 -2.6662 0.8324
-29.8131 27.9461 -2.3800 0.8490
-29.7312 25.7061 -2.2892 0.8543
-29.4433 23.4588 -2.1926 0.8600
-29.1628 19.6285 -2.0474 0.8686
-41.1152 18.9435 -2.6366 0.8341
-32.7102 -34.5970 -2.7731 0.8263
2.7770 -32.1610 -1.8801 0.8787
4.0934 -24.3622 -1.4388 0.9058
4.5404 -21.6597 -1.2890 0.9151
5.1960 -17.6066 -1.0692 0.9291
5.7395 -16.9145 -1.0403 0.9309
6.3086 -11.8902 -0.7840 0.9475
6.5585 -10.2743 -0.7099 0.9523
6.6544 -9.5555 -0.6782 0.9544
6.7319 -8.8836 -0.6492 0.9563
6.8128 -8.2776 -0.6244 0.9580
7.0953 -6.2418 -0.5504 0.9628
6.3006 -4.3197 -0.4449 0.9699
6.4438 -4.0474 -0.4432 0.9700
7.0061 -4.0175 -0.4704 0.9682
7.0316 -3.6651 -0.4618 0.9687
7.0544 -3.3239 -0.4542 0.9692
7.0747 -2.9924 -0.4474 0.9697
7.1100 -2.3548 -0.4362 0.9704
7.3645 -2.1149 -0.4463 0.9698
7.4104 -1.4969 -0.4403 0.9702
3.9196 -0.6291 -0.2312 0.9842
3.9111 -0.4676 -0.2294 0.9843
3.8936 -0.1506 -0.2269 0.9845
3.8683 0.0059 -0.2253 0.9846
3.8923 0.1623 -0.2269 0.9845
3.9031 0.3202 -0.2281 0.9844
3.9120 0.4797 -0.2296 0.9843
3.9210 0.6415 -0.2314 0.9842
7.5764 1.5543 -0.4505 0.9695
7.5886 1.8773 -0.4553 0.9692
7.6141 2.8922 -0.4744 0.9679
7.6222 3.6196 -0.4915 0.9668
7.6233 4.0029 -0.5015 0.9661
7.5539 4.7765 -0.5205 0.9648
7.4562 5.6001 -0.5431 0.9633
7.4033 6.0402 -0.5565 0.9624
7.3142 6.4737 -0.5689 0.9616
7.1998 6.9075 -0.5811 0.9608
6.9660 7.8504 -0.6113 0.9588
6.5072 8.6412 -0.6300 0.9576
6.4238 9.2841 -0.6576 0.9558
6.3312 9.9847 -0.6886 0.9537
6.2267 10.7515 -0.7236 0.9514
5.8170 13.5899 -0.8610 0.9425
5.1756 17.7350 -1.0760 0.9286
4.8757 19.6032 -1.1765 0.9223
4.5101 21.8441 -1.2991 0.9145
4.0553 24.5907 -1.4516 0.9050
-30.5961 35.2845 -3.2397 0.8292
-30.6233 32.5753 -3.1015 0.8359
-30.6840 25.6239 -2.7731 0.8519
-30.6987 23.6101 -2.6866 0.8562
-30.7086 21.7125 -2.6090 0.8600
-30.2594 19.6212 -2.5018 0.8654
-29.9210 16.1499 -2.3587 0.8726
-40.2654 17.7215 -3.0518 0.8383
-41.6482 16.3669 -3.1042 0.8358
0.8739 -38.0802 -2.6423 0.8584
1.6519 -26.1399 -1.8169 0.9003
2.7885 -26.9036 -1.8763 0.8972
3.4261 -23.7202 -1.6625 0.9084
3.9306 -21.1661 -1.4934 0.9173
4.2275 -18.5752 -1.3215 0.9265
5.9110 -11.7886 -0.9148 0.9485
6.0634 -10.9696 -0.8695 0.9510
6.4065 -8.8713 -0.7591 0.9571
6.5023 -8.2817 -0.7304 0.9587
6.6799 -7.2288 -0.6828 0.9613
6.8045 -6.2697 -0.6419 0.9636
6.2977 -4.1607 -0.5236 0.9702
6.8022 -3.7472 -0.5387 0.9693
6.8538 -3.0869 -0.5214 0.9703
6.8961 -2.4615 -0.5079 0.9711
7.1658 -1.9255 -0.5147 0.9707
7.1908 -1.6257 -0.5114 0.9709
4.0135 -0.7394 -0.2831 0.9838
3.9075 -0.5587 -0.2738 0.9843
3.8991 -0.3985 -0.2719 0.9844
3.8748 0.0723 -0.2688 0.9846
3.8899 0.2291 -0.2703 0.9845
3.8987 0.3872 -0.2718 0.9844
3.9877 0.7229 -0.2811 0.9839
7.3768 1.9597 -0.5295 0.9699
7.3834 2.2825 -0.5361 0.9695
7.3878 2.6133 -0.5436 0.9691
7.3901 2.9531 -0.5521 0.9686
7.3903 3.3032 -0.5615 0.9681
7.3882 3.6650 -0.5721 0.9675
7.3765 4.0361 -0.5833 0.9668
7.1865 5.5928 -0.6317 0.9641
6.9256 6.8764 -0.6770 0.9616
6.8022 7.3193 -0.6932 0.9607
6.6854 7.7996 -0.7126 0.9596
6.6344 8.4006 -0.7426 0.9580
6.1074 9.1585 -0.7636 0.9568
5.7471 11.3806 -0.8844 0.9502
5.5934 12.2782 -0.9360 0.9473
4.9770 15.7011 -1.1426 0.9361
2.3002 15.6108 -1.0946 0.9387
1.5327 23.2024 -1.6131 0.9110
0.9767 37.8516 -2.6266 0.8591
-0.6481 45.0979 -3.1288 0.8346
-30.5833 36.5161 -3.3042 0.8261
-30.6769 26.5238 -2.8132 0.8499
-30.7036 22.5082 -2.6409 0.8584
-30.1202 18.5603 -2.4543 0.8677
-34.7920 17.7572 -2.7097 0.8550
-40.9500 18.8674 -3.1277 0.8346
-32.8927 -34.7901 -3.3213 0.8253
3.1730 -24.9888 -1.7474 0.9039
3.7288 -22.1923 -1.5611 0.9137
4.1747 -19.9152 -1.4115 0.9217
5.2882 -15.5845 -1.1416 0.9361
5.8409 -12.1649 -0.9361 0.9473
6.0006 -11.3098 -0.8881 0.9500
6.4626 -8.5283 -0.7423 0.9580
6.5529 -7.9618 -0.7153 0.9595
6.7882 -6.4733 -0.6507 0.9631
6.8250 -6.0041 -0.6306 0.9642
6.6415 -5.3853 -0.5931 0.9663
6.7897 -3.8934 -0.5429 0.9691
7.0172 -2.3240 -0.5128 0.9708
7.1804 -1.7533 -0.5127 0.9708
3.9112 -0.6278 -0.2748 0.9842
3.9027 -0.4666 -0.2727 0.9844
3.8859 -0.1503 -0.2698 0.9845
3.8949 0.3195 -0.2711 0.9845
3.9038 0.4787 -0.2728 0.9844
7.3733 1.8240 -0.5269 0.9700
7.3809 2.1439 -0.5332 0.9697
7.3840 3.8772 -0.5786 0.9671
7.3158 4.6260 -0.6004 0.9659
7.1547 5.8374 -0.6406 0.9637
7.0926 6.2776 -0.6570 0.9627
6.9771 6.6939 -0.6707 0.9620
6.8544 7.1263 -0.6859 0.9611
6.4978 8.6287 -0.7493 0.9576
6.1491 8.8871 -0.7497 0.9576
6.0482 9.5384 -0.7835 0.9557
5.9348 10.2476 -0.8215 0.9536
5.8068 11.0250 -0.8644 0.9513
5.6615 11.8833 -0.9131 0.9486
5.3044 13.9117 -1.0328 0.9420
5.0827 15.1291 -1.1072 0.9380
4.8229 16.5265 -1.1943 0.9333
4.1443 20.0721 -1.4218 0.9211
-30.3150 34.9602 -3.7256 0.8305
-30.4614 32.4031 -3.5807 0.8366
-30.5167 27.6382 -3.3149 0.8477
-30.5389 25.5027 -3.2034 0.8524
-30.2678 23.2787 -3.0744 0.8579
-30.5719 21.6158 -3.0146 0.8605
-30.5860 19.8330 -2.9350 0.8639
-30.5978 18.1383 -2.8639 0.8670
-36.2946 17.7465 -3.2528 0.8503
-45.8621 15.9281 -3.9089 0.8230
-33.4874 -33.8242 -3.8322 0.8261
-33.2877 -36.4394 -3.9737 0.8203
0.7628 -33.2418 -2.6771 0.8751
2.5184 -24.2982 -1.9668 0.9066
4.1117 -18.0664 -1.4918 0.9283
5.0180 -13.9948 -1.1970 0.9421
5.4493 -12.0529 -1.0650 0.9483
5.7864 -10.4686 -0.9631 0.9531
5.9253 -9.7712 -0.9201 0.9552
6.0447 -9.1207 -0.8810 0.9570
6.1569 -8.5256 -0.8467 0.9587
6.4512 -6.9814 -0.7653 0.9626
6.5870 -5.5973 -0.6960 0.9659
6.2917 -4.1568 -0.6071 0.9702
6.5996 -3.6356 -0.6067 0.9702
6.6294 -3.3122 -0.5967 0.9707
6.7562 -2.4116 -0.5776 0.9716
6.9406 -2.1674 -0.5854 0.9712
6.9682 -1.8724 -0.5809 0.9715
3.8991 -0.5575 -0.3171 0.9843
3.8908 -0.3976 -0.3149 0.9844
3.8824 -0.2398 -0.3132 0.9845
3.8818 0.2286 -0.3131 0.9845
3.8905 0.3864 -0.3148 0.9844
3.9330 0.7130 -0.3218 0.9841
7.1657 1.5986 -0.5911 0.9710
7.1721 1.9053 -0.5975 0.9707
7.1760 2.2184 -0.6047 0.9703
7.1766 2.8677 -0.6222 0.9695
7.1732 3.2061 -0.6326 0.9690
7.1485 3.9114 -0.6561 0.9678
7.1202 4.2761 -0.6687 0.9672
7.0152 5.0205 -0.6946 0.9660
6.9555 5.4130 -0.7096 0.9652
6.8973 5.8272 -0.7270 0.9644
6.8349 6.2618 -0.7463 0.9635
6.5887 7.0895 -0.7792 0.9619
6.3410 8.0291 -0.8237 0.9598
6.2782 8.6416 -0.8600 0.9580
5.9113 8.8644 -0.8578 0.9581
5.7393 9.4040 -0.8870 0.9568
5.4706 10.8331 -0.9771 0.9525
5.1258 12.5664 -1.0927 0.9470
4.9153 13.5864 -1.1633 0.9437
4.3880 16.0549 -1.3401 0.9354
4.0531 17.5770 -1.4523 0.9302
1.9980 13.5595 -1.1035 0.9465
2.5665 24.0918 -1.9507 0.9074
0.8530 33.0601 -2.6627 0.8757
-31.5475 37.6673 -3.9559 0.8211
-30.4789 30.9615 -3.4980 0.8400
-30.5061 28.5958 -3.3665 0.8455
-30.5298 26.3966 -3.2495 0.8505
-30.5502 24.3407 -3.1450 0.8549
-30.5652 22.4069 -3.0514 0.8589
-31.6260 17.7770 -2.9210 0.8645
-34.7902 17.7563 -3.1448 0.8549
-34.3526 -33.5284 -3.8649 0.8248
-20.2938 -27.4355 -2.7476 0.8720
1.3946 -30.3180 -2.4436 0.8853
2.8849 -22.7200 -1.8440 0.9122
3.4234 -20.3747 -1.6634 0.9204
4.4595 -17.7009 -1.4697 0.9294
4.7009 -15.9290 -1.3372 0.9355
4.9203 -14.5002 -1.2328 0.9404
5.3669 -12.4342 -1.0904 0.9471
5.5541 -11.5677 -1.0332 0.9498
5.7209 -10.7826 -0.9828 0.9522
5.8696 -10.0645 -0.9381 0.9543
5.9930 -9.3885 -0.8968 0.9563
6.3118 -7.6688 -0.7997 0.9609
6.5311 -6.2281 -0.7266 0.9644
6.5742 -5.7834 -0.7050 0.9655
6.4702 -4.8290 -0.6500 0.9681
6.3606 -3.9951 -0.6048 0.9703
6.5859 -3.7766 -0.6113 0.9700
6.6931 -2.5192 -0.5758 0.9717
6.9286 -2.2947 -0.5876 0.9711
6.9832 -1.7051 -0.5788 0.9716
3.9027 -0.6264 -0.3182 0.9843
3.8943 -0.4656 -0.3158 0.9844
3.8611 0.0058 -0.3109 0.9846
3.8868 0.3188 -0.3140 0.9845
3.8955 0.4777 -0.3160 0.9844
4.1923 0.8601 -0.3446 0.9830
7.1696 1.7736 -0.5947 0.9708
7.1771 2.4011 -0.6093 0.9701
7.0919 4.4844 -0.6756 0.9669
6.9816 5.2436 -0.7030 0.9656
6.7675 6.4927 -0.7551 0.9631
6.5210 7.3489 -0.7910 0.9613
6.3970 7.8204 -0.8135 0.9603
5.6687 9.7881 -0.9107 0.9556
5.5335 10.5060 -0.9560 0.9535
5.3807 11.2940 -1.0072 0.9510
5.2072 12.1652 -1.0654 0.9483
4.7803 14.2289 -1.2085 0.9415
4.5148 15.4707 -1.2976 0.9374
3.8329 18.5638 -1.5262 0.9268
-30.0495 37.6045 -4.4130 0.8242
-18.2572 16.5351 -2.2582 0.9058
-30.3949 25.3825 -3.6304 0.8529
-29.4596 22.6571 -3.4072 0.8613
-30.4362 21.5199 -3.4173 0.8609
-30.4538 19.7473 -3.3275 0.8643
-35.4904 -33.0783 -4.4478 0.8229
-33.2916 -33.6264 -4.3381 0.8269
-0.5817 -33.7721 -3.0966 0.8731
0.6767 -29.4909 -2.7044 0.8883
1.5715 -24.8670 -2.2843 0.9048
2.2957 -22.1495 -2.0415 0.9144
2.8786 -19.9298 -1.8461 0.9223
3.9146 -17.2003 -1.6172 0.9316
4.2223 -15.6238 -1.4837 0.9371
5.3711 -10.7118 -1.0986 0.9530
5.8088 -8.7648 -0.9640 0.9586
5.9256 -8.2054 -0.9279 0.9602
6.0313 -7.6819 -0.8954 0.9615
6.2033 -6.7131 -0.8380 0.9640
6.3512 -5.3969 -0.7641 0.9671
6.2416 -4.8861 -0.7267 0.9687
6.3211 -4.1762 -0.6946 0.9700
6.3728 -3.8520 -0.6827 0.9705
6.4084 -3.5302 -0.6708 0.9710
6.7221 -2.3994 -0.6544 0.9717
6.8070 -1.5389 -0.6398 0.9724
3.8908 -0.5563 -0.3603 0.9843
3.8825 -0.3968 -0.3578 0.9844
3.8742 -0.2393 -0.3559 0.9845
3.8659 -0.0832 -0.3545 0.9846
3.8649 0.0721 -0.3544 0.9846
3.8736 0.2281 -0.3557 0.9845
3.8823 0.3856 -0.3577 0.9845
6.9780 1.8538 -0.6619 0.9714
6.9796 2.1577 -0.6698 0.9711
6.9785 2.4685 -0.6786 0.9707
6.9339 3.7939 -0.7246 0.9688
6.8580 4.5029 -0.7521 0.9676
6.5177 6.4713 -0.8420 0.9638
6.2661 7.3104 -0.8827 0.9621
5.9962 8.2534 -0.9353 0.9599
5.9071 8.8581 -0.9761 0.9581
5.3669 9.6446 -1.0119 0.9566
4.8637 11.9237 -1.1806 0.9496
4.6486 12.8491 -1.2527 0.9466
4.4017 13.8861 -1.3355 0.9432
3.7822 16.4020 -1.5432 0.9346
2.3412 21.9773 -2.0262 0.9150
1.6286 24.6538 -2.2651 0.9055
0.7626 29.5550 -2.7104 0.8880
-2.1800 39.9322 -3.6663 0.8516
-28.3957 40.0389 -4.5001 0.8211
-29.2418 37.9086 -4.3892 0.8251
-32.1561 32.6653 -4.2022 0.8318
-19.1145 16.5267 -2.3166 0.9035
-30.4088 24.2280 -3.5645 0.8554
-31.6245 17.7761 -3.3259 0.8644
-45.7485 18.8900 -4.5376 0.8197
-34.3075 -33.4843 -4.3950 0.8248
-32.7194 -34.6067 -4.3662 0.8259
-20.3354 -27.4916 -3.1349 0.8717
-3.2226 -43.1555 -3.9674 0.8404
0.1808 -31.1838 -2.8589 0.8823
2.0066 -23.2389 -2.1384 0.9106
2.6444 -20.8259 -1.9246 0.9191
3.1952 -19.0163 -1.7678 0.9255
4.3769 -14.8314 -1.4177 0.9398
4.6390 -13.6712 -1.3235 0.9437
4.8869 -12.7010 -1.2476 0.9468
5.4665 -10.3032 -1.0693 0.9542
5.6195 -9.6358 -1.0226 0.9562
5.8772 -8.4395 -0.9428 0.9595
6.2923 -6.0005 -0.7971 0.9657
6.3388 -5.5764 -0.7740 0.9667
6.2211 -5.0445 -0.7343 0.9683
6.2698 -4.6794 -0.7172 0.9691
6.3153 -4.3297 -0.7020 0.9697
6.3565 -3.9925 -0.6882 0.9703
6.6007 -2.4844 -0.6466 0.9721
6.7396 -2.2321 -0.6509 0.9719
6.7690 -1.9439 -0.6456 0.9721
4.0898 -0.8261 -0.3825 0.9834
3.8860 -0.4646 -0.3588 0.9844
3.8694 -0.1496 -0.3550 0.9846
3.8578 0.0058 -0.3537 0.9846
3.8699 0.1614 -0.3551 0.9846
3.8873 0.4767 -0.3590 0.9844
4.1390 0.8491 -0.3874 0.9832
6.9765 1.7259 -0.6589 0.9715
6.9793 2.0272 -0.6663 0.9712
6.9630 3.3066 -0.7067 0.9695
6.9443 3.6464 -0.7191 0.9690
6.8810 4.3510 -0.7464 0.9678
6.8258 4.7102 -0.7603 0.9672
6.7034 5.4692 -0.7931 0.9658
6.6406 5.8775 -0.8130 0.9650
6.5697 6.3030 -0.8347 0.9641
6.1930 7.5710 -0.8967 0.9615
5.9770 8.6384 -0.9630 0.9587
5.6879 8.9701 -0.9738 0.9582
5.4250 9.3673 -0.9924 0.9575
5.2843 10.0329 -1.0396 0.9555
4.9472 11.5578 -1.1526 0.9508
4.7439 12.4417 -1.2207 0.9479
4.5114 13.4284 -1.2987 0.9447
4.2432 14.5401 -1.3886 0.9410
3.9312 15.8058 -1.4932 0.9367
3.5645 17.2642 -1.6161 0.9316
2.2262 13.4993 -1.2543 0.9465
-19.7854 16.5226 -2.6515 0.9015
-30.2798 23.2879 -3.9293 0.8576
-30.1761 19.5672 -3.6995 0.8654
-34.4734 16.8559 -3.9473 0.8570
-45.7783 15.8990 -4.9848 0.8229
-35.4463 -33.0372 -4.9843 0.8230
-33.2661 -33.6007 -4.8637 0.8269
-32.7276 -35.8263 -4.9914 0.8227
-4.0059 -40.9320 -4.2305 0.8476
-1.9855 -34.5583 -3.5607 0.8701
0.6075 -26.4753 -2.7241 0.8990
1.4530 -22.9925 -2.3698 0.9115
3.9390 -14.5755 -1.5531 0.9411
4.5071 -12.5700 -1.3736 0.9477
4.7421 -11.7212 -1.3006 0.9504
5.3036 -9.5950 -1.1277 0.9569
5.5892 -8.4335 -1.0407 0.9601
5.7107 -7.9077 -1.0034 0.9615
5.8226 -7.4160 -0.9699 0.9628
5.9023 -6.9257 -0.9360 0.9641
5.9733 -6.4642 -0.9054 0.9652
6.0934 -5.6145 -0.8523 0.9672
6.1482 -4.0620 -0.7580 0.9708
6.5738 -2.0528 -0.7084 0.9727
3.8709 -0.3956 -0.4002 0.9845
3.8634 -0.2386 -0.3982 0.9846
3.8557 -0.0829 -0.3967 0.9846
3.8555 0.0719 -0.3967 0.9846
3.8828 0.5438 -0.4033 0.9844
3.8914 0.7054 -0.4068 0.9842
6.7916 1.5151 -0.7158 0.9724
6.7938 1.8048 -0.7231 0.9721
6.7898 2.4017 -0.7408 0.9715
6.7740 3.0277 -0.7632 0.9706
6.7012 4.0244 -0.8041 0.9691
6.5988 4.7225 -0.8347 0.9679
6.5342 5.0852 -0.8517 0.9673
6.4705 5.4666 -0.8713 0.9665
6.0751 7.0875 -0.9602 0.9632
5.9442 7.5265 -0.9865 0.9622
5.8029 7.9873 -1.0155 0.9611
5.7047 8.5546 -1.0577 0.9595
5.5231 9.0497 -1.0906 0.9583
3.0532 16.1838 -1.6941 0.9359
1.9833 13.4595 -1.3994 0.9468
1.4828 22.4469 -2.3140 0.9135
0.6886 26.6871 -2.7461 0.8982
-3.8866 40.9166 -4.2278 0.8477
-29.7714 38.5952 -5.0139 0.8220
-30.2051 28.3136 -4.2586 0.8466
-30.2915 22.2062 -3.8635 0.8598
-30.3331 18.6915 -3.6650 0.8665
-34.7866 17.7544 -4.0174 0.8547
-38.4816 17.7301 -4.3583 0.8434
-40.7000 16.8054 -4.5294 0.8377
-45.7774 16.7837 -5.0154 0.8220
-20.3164 -27.4660 -3.5142 0.8716
-5.1410 -44.6239 -4.6206 0.8347
-2.7642 -37.0171 -3.8183 0.8613
0.1613 -27.8155 -2.8613 0.8942
1.1531 -25.0685 -2.5814 0.9040
1.8475 -21.3962 -2.2091 0.9173
2.5355 -19.9687 -2.0706 0.9222
3.4681 -16.5443 -1.7388 0.9343
3.8126 -15.1331 -1.6053 0.9392
4.1104 -13.9284 -1.4938 0.9433
4.3978 -12.9605 -1.4078 0.9465
4.6448 -12.0719 -1.3305 0.9493
5.2340 -9.8649 -1.1487 0.9561
5.5331 -8.6679 -1.0578 0.9595
5.7746 -7.6203 -0.9835 0.9623
6.0106 -6.2114 -0.8891 0.9658
6.0700 -5.7885 -0.8628 0.9668
6.1165 -5.3808 -0.8380 0.9678
6.5283 -2.4572 -0.7175 0.9723
6.5603 -2.1727 -0.7109 0.9726
6.5909 -1.8928 -0.7054 0.9728
6.6186 -1.6161 -0.7008 0.9730
3.8740 -0.4632 -0.4013 0.9844
3.8590 -0.1492 -0.3973 0.9846
3.8701 0.3175 -0.3994 0.9845
3.8791 0.4757 -0.4020 0.9844
6.7932 1.6805 -0.7198 0.9723
6.7784 2.8913 -0.7580 0.9708
6.6818 4.2251 -0.8132 0.9687
6.6247 4.5714 -0.8279 0.9682
6.4979 5.3015 -0.8626 0.9668
6.3597 6.1015 -0.9066 0.9652
5.8645 7.7878 -1.0028 0.9616
5.7167 8.2622 -1.0335 0.9604
4.8940 10.2723 -1.1704 0.9553
4.7115 11.0072 -1.2316 0.9530
4.5052 11.8157 -1.3008 0.9504
4.2706 12.7118 -1.3794 0.9475
3.2193 15.5924 -1.6377 0.9380
-29.8674 37.3766 -5.4579 0.8248
-29.7409 31.6367 -4.9533 0.8396
-29.1596 28.6228 -4.6612 0.8483
-34.9283 22.6487 -4.7488 0.8457
-30.2131 17.9102 -4.0067 0.8681
-32.9149 17.7659 -4.2668 0.8602
-36.5063 16.0671 -4.5500 0.8517
-40.5481 15.9345 -4.9699 0.8391
-26.4060 -17.6637 -3.6241 0.8799
-35.6094 -33.1892 -5.5530 0.8220
-33.0390 -33.3713 -5.3570 0.8277
-32.5007 -35.5779 -5.4971 0.8237
-17.9586 -27.4370 -3.7408 0.8763
-3.4617 -35.3716 -4.0543 0.8667
-0.4595 -26.6752 -3.0435 0.8982
0.5514 -24.0275 -2.7417 0.9078
1.3849 -21.9156 -2.5050 0.9154
2.0713 -19.9840 -2.2919 0.9223
3.0130 -16.2247 -1.8825 0.9357
3.3803 -14.8524 -1.7376 0.9405
3.7151 -13.7469 -1.6244 0.9443
4.2877 -11.9581 -1.4492 0.9501
4.5241 -11.1823 -1.3761 0.9526
4.7338 -10.4704 -1.3108 0.9548
5.0917 -9.2117 -1.2007 0.9585
5.3824 -8.1215 -1.1115 0.9615
5.5077 -7.6267 -1.0732 0.9628
5.6907 -6.6776 -1.0008 0.9653
5.8314 -5.8230 -0.9401 0.9674
5.8920 -5.4289 -0.9140 0.9683
5.9661 -4.6704 -0.8643 0.9700
5.9256 -4.2664 -0.8329 0.9710
5.9737 -3.9467 -0.8168 0.9716
9.4191 -5.6933 -1.2555 0.9567
6.0919 -3.0436 -0.7768 0.9730
6.2142 -2.7988 -0.7775 0.9729
6.3370 -2.5532 -0.7794 0.9729
6.4042 -1.9999 -0.7654 0.9734
6.4340 -1.7289 -0.7600 0.9735
3.8729 -0.7135 -0.4492 0.9843
3.8639 -0.5524 -0.4453 0.9844
3.8560 -0.3941 -0.4422 0.9845
3.8411 -0.0826 -0.4383 0.9847
3.8502 0.2267 -0.4400 0.9846
3.8682 0.5418 -0.4456 0.9844
4.2081 0.9388 -0.4918 0.9828
6.6187 1.7583 -0.7812 0.9728
6.6107 2.3384 -0.7999 0.9722
6.6020 2.6381 -0.8110 0.9718
6.5900 2.9455 -0.8234 0.9714
6.5685 3.2584 -0.8364 0.9709
6.5399 3.5784 -0.8504 0.9704
6.5071 3.9079 -0.8659 0.9699
6.3415 4.9352 -0.9167 0.9682
6.2757 5.3020 -0.9372 0.9675
6.2046 5.6843 -0.9599 0.9667
5.6212 7.7372 -1.0910 0.9622
5.4677 8.1992 -1.1242 0.9611
4.6052 10.1091 -1.2672 0.9563
3.9439 12.4420 -1.4889 0.9488
3.3349 14.4624 -1.6931 0.9420
1.9880 13.4919 -1.5557 0.9466
1.9907 18.6865 -2.1437 0.9271
0.6240 24.1854 -2.7599 0.9072
-0.3895 27.1051 -3.0924 0.8966
-29.8381 38.6816 -5.5729 0.8215
-29.9617 32.9870 -5.0835 0.8358
-29.8146 30.2867 -4.8482 0.8427
-31.9995 27.6673 -4.8256 0.8434
-30.1561 22.1069 -4.2654 0.8602
-33.6625 22.6570 -4.6289 0.8493
-31.4274 17.6654 -4.1127 0.8649
-34.7848 17.7535 -4.4551 0.8545
-36.3272 16.7375 -4.5628 0.8513
-34.2366 -33.4151 -5.4575 0.8248
-32.5410 -34.4181 -5.4033 0.8264
-32.4508 -37.2083 -5.6321 0.8197
-18.6467 -27.4494 -3.7855 0.8749
-4.3637 -37.8771 -4.3494 0.8577
-2.4169 -32.3657 -3.7024 0.8775
1.0523 -22.8775 -2.6125 0.9119
1.7876 -20.7030 -2.3705 0.9197
3.1946 -15.2395 -1.7762 0.9392
3.5714 -14.1756 -1.6676 0.9428
3.8959 -13.2014 -1.5702 0.9461
4.1783 -12.3136 -1.4834 0.9490
5.0213 -9.4640 -1.2222 0.9578
5.1811 -8.8840 -1.1732 0.9594
5.4557 -7.8342 -1.0891 0.9623
5.6566 -6.8728 -1.0154 0.9648
5.7342 -6.4229 -0.9822 0.9659
5.9850 -4.8530 -0.8790 0.9695
5.9028 -4.4056 -0.8402 0.9708
5.9535 -4.0817 -0.8234 0.9714
5.9993 -3.7681 -0.8082 0.9719
6.0403 -3.4637 -0.7943 0.9724
6.1422 -2.8941 -0.7746 0.9730
6.3905 -2.1165 -0.7679 0.9733
3.8591 -0.4614 -0.4434 0.9845
3.8443 -0.1487 -0.4389 0.9846
3.8370 0.0058 -0.4377 0.9847
3.8644 0.4739 -0.4441 0.9844
6.6188 1.6374 -0.7778 0.9729
6.6177 1.9222 -0.7861 0.9726
6.6135 2.2126 -0.7955 0.9723
6.5955 2.8133 -0.8180 0.9715
6.5795 3.1245 -0.8309 0.9711
6.5526 3.4407 -0.8443 0.9706
6.3706 4.7847 -0.9089 0.9684
6.2357 5.5192 -0.9500 0.9670
5.6831 7.5469 -1.0777 0.9627
5.3740 8.4751 -1.1448 0.9604
5.2676 9.0956 -1.1990 0.9586
3.7863 12.9743 -1.5418 0.9470
3.4797 13.9902 -1.6446 0.9436
2.2206 13.4654 -1.5568 0.9465
-29.6970 37.1635 -5.9615 0.8255
-33.2671 32.6547 -5.8417 0.8287
-28.2718 21.7436 -4.4696 0.8661
-28.4037 20.0828 -4.3593 0.8692
-34.9532 18.8660 -4.9775 0.8520
-45.0021 17.6849 -6.0593 0.8229
-33.0380 -33.3703 -5.8847 0.8275
-32.2997 -35.3579 -6.0014 0.8244
-3.0386 -31.0477 -3.9094 0.8818
-1.5491 -26.9633 -3.3845 0.8968
-0.4152 -24.1063 -3.0214 0.9074
1.2541 -19.8449 -2.4919 0.9230
1.8683 -18.0258 -2.2710 0.9295
2.3761 -16.4512 -2.0830 0.9352
2.8145 -15.1557 -1.9317 0.9397
3.8248 -12.1869 -1.6007 0.9498
4.0892 -11.4045 -1.5183 0.9523
4.5344 -10.0293 -1.3793 0.9566
5.0499 -8.3276 -1.2205 0.9615
5.1899 -7.8310 -1.1773 0.9628
5.3186 -7.3648 -1.1384 0.9640
5.5823 -6.0410 -1.0308 0.9674
5.6521 -5.6440 -1.0010 0.9683
5.8350 -4.5677 -0.9286 0.9706
5.8663 -3.8758 -0.8811 0.9721
6.0655 -3.0305 -0.8497 0.9730
6.1351 -2.7632 -0.8432 0.9732
6.1738 -2.4875 -0.8341 0.9735
6.2093 -2.2164 -0.8262 0.9738
6.2729 -1.6856 -0.8140 0.9742
3.8594 -0.7110 -0.4918 0.9843
3.8505 -0.5505 -0.4874 0.9844
3.8416 -0.3926 -0.4839 0.9846
3.8339 -0.2368 -0.4814 0.9846
3.8265 -0.0823 -0.4796 0.9847
3.8265 0.0714 -0.4796 0.9847
3.8356 0.2259 -0.4815 0.9846
3.8544 0.5399 -0.4877 0.9844
3.8646 0.7006 -0.4922 0.9843
6.4478 1.9933 -0.8457 0.9732
6.4403 2.2781 -0.8561 0.9728
6.4295 2.5692 -0.8677 0.9725
6.4154 2.8674 -0.8806 0.9721
6.3893 3.1695 -0.8938 0.9717
6.3586 3.4791 -0.9083 0.9712
6.2274 4.4567 -0.9597 0.9696
6.1594 4.7935 -0.9781 0.9690
6.0919 5.1467 -0.9994 0.9684
5.9382 5.8960 -1.0487 0.9668
5.7247 6.6788 -1.1023 0.9652
5.4501 7.5017 -1.1620 0.9633
5.1256 8.3984 -1.2330 0.9611
5.0070 8.9978 -1.2904 0.9593
4.7878 9.4810 -1.3310 0.9581
4.2143 10.3317 -1.3983 0.9560
3.4681 12.6890 -1.6485 0.9484
2.7799 14.7354 -1.8792 0.9413
1.9906 13.5090 -1.7112 0.9464
1.2570 19.0280 -2.3897 0.9260
0.5699 22.0859 -2.7686 0.9148
-1.5158 27.7654 -3.4846 0.8940
-2.9691 31.2575 -3.9347 0.8811
-4.8975 36.0916 -4.5643 0.8634
-16.2056 46.4459 -6.1645 0.8201
-29.6643 38.4564 -6.0864 0.8222
-31.5435 37.6626 -6.1564 0.8203
-29.6295 32.6212 -5.5225 0.8372
-32.1529 32.6620 -5.7436 0.8313
-28.3920 20.8137 -4.4116 0.8677
-30.0765 18.5334 -4.4272 0.8673
-34.9434 19.6417 -5.0233 0.8508
-34.7830 17.7526 -4.8938 0.8543
-38.4773 17.7281 -5.3090 0.8430
-42.8643 17.6991 -5.8115 0.8295
-34.1982 -33.3776 -5.9885 0.8248
-32.0086 -36.7014 -6.1027 0.8218
-18.6505 -27.4550 -4.1593 0.8748
-6.0573 -38.7990 -4.9210 0.8536
-3.8115 -33.0832 -4.1733 0.8744
-2.1316 -28.5451 -3.5871 0.8910
2.6432 -15.7310 -1.9990 0.9377
3.3833 -13.4293 -1.7355 0.9457
4.2275 -10.9873 -1.4753 0.9537
4.4477 -10.3045 -1.4065 0.9558
4.6454 -9.6752 -1.3450 0.9577
4.8248 -9.0937 -1.2901 0.9593
5.3793 -7.0987 -1.1161 0.9647
5.4692 -6.6451 -1.0785 0.9659
5.5502 -6.2169 -1.0444 0.9670
5.6232 -5.8110 -1.0133 0.9679
5.6898 -5.4259 -0.9853 0.9688
5.7524 -5.0605 -0.9601 0.9696
5.8111 -4.7119 -0.9375 0.9703
5.8664 -4.0220 -0.8913 0.9717
5.9237 -3.3969 -0.8557 0.9728
6.0147 -3.1351 -0.8500 0.9730
6.1576 -2.6046 -0.8378 0.9734
6.1945 -2.3315 -0.8294 0.9737
6.2289 -2.0630 -0.8223 0.9739
6.2604 -1.7979 -0.8162 0.9741
6.2887 -1.5355 -0.8112 0.9742
3.8371 -0.3031 -0.4823 0.9846
3.8297 -0.1481 -0.4803 0.9847
3.8408 0.3151 -0.4829 0.9846
3.8603 0.6316 -0.4902 0.9844
6.4528 1.5963 -0.8330 0.9736
6.4500 1.8734 -0.8417 0.9733
6.4440 2.1558 -0.8515 0.9730
6.4218 2.7392 -0.8749 0.9722
6.3722 3.3460 -0.9019 0.9714
6.3014 3.9845 -0.9343 0.9704
6.2547 4.3161 -0.9523 0.9698
6.1892 4.6485 -0.9700 0.9693
6.1212 4.9942 -0.9900 0.9687
5.8888 6.1225 -1.0645 0.9663
5.6502 6.9074 -1.1183 0.9647
5.1994 8.1997 -1.2167 0.9616
4.9076 9.3177 -1.3197 0.9584
4.5871 9.6282 -1.3365 0.9579
4.0919 10.7318 -1.4393 0.9548
3.8575 11.4820 -1.5179 0.9523
2.2172 13.4449 -1.7076 0.9465
-29.5282 36.9521 -6.4607 0.8262
-33.2660 32.6536 -6.3669 0.8285
-18.2688 16.5456 -3.3666 0.9053
-29.8694 22.9723 -5.1469 0.8589
-29.6518 20.9652 -4.9602 0.8636
-34.7514 22.5340 -5.6572 0.8460
-28.2395 16.7403 -4.4840 0.8759
-36.2848 17.7417 -5.5168 0.8495
-39.9148 17.5672 -5.9565 0.8386
-40.8077 16.0366 -5.9888 0.8378
-35.8257 -33.3908 -6.6892 0.8206
-32.7451 -33.0744 -6.3571 0.8287
-32.1604 -35.2055 -6.5130 0.8249
-9.8370 -44.3944 -6.2108 0.8323
-6.6135 -36.7844 -5.1049 0.8599
-4.3837 -31.6285 -4.3614 0.8791
-0.3778 -21.9333 -2.9963 0.9152
0.4576 -19.9423 -2.7246 0.9226
1.1506 -18.2069 -2.4918 0.9290
2.6448 -14.2421 -1.9786 0.9432
3.0226 -13.2808 -1.8604 0.9465
3.6462 -11.6178 -1.6632 0.9520
4.5418 -9.0579 -1.3840 0.9599
5.1419 -7.1201 -1.1996 0.9652
5.2413 -6.6756 -1.1593 0.9663
5.3302 -6.2545 -1.1224 0.9674
5.4834 -5.4756 -1.0584 0.9692
5.5522 -5.1158 -1.0312 0.9700
5.7260 -4.1226 -0.9637 0.9719
5.8893 -3.2443 -0.9184 0.9732
6.0184 -2.4249 -0.8863 0.9741
6.0889 -1.9014 -0.8713 0.9746
6.1193 -1.6443 -0.8655 0.9747
4.0691 -0.9200 -0.5698 0.9833
3.8371 -0.5486 -0.5294 0.9845
3.8283 -0.3912 -0.5256 0.9846
3.8194 -0.2359 -0.5227 0.9847
3.8121 0.0711 -0.5208 0.9847
3.8211 0.2250 -0.5228 0.9847
3.8512 0.6981 -0.5346 0.9843
6.2930 1.6718 -0.8894 0.9741
6.2655 2.5037 -0.9216 0.9731
6.2476 2.7925 -0.9347 0.9728
6.1865 3.3850 -0.9632 0.9719
6.1495 3.6931 -0.9798 0.9715
6.1078 4.0103 -0.9980 0.9709
6.0563 4.3343 -1.0172 0.9704
5.9870 4.6593 -1.0362 0.9698
5.9180 4.9998 -1.0582 0.9692
5.8428 5.3529 -1.0823 0.9685
5.5638 6.4910 -1.1677 0.9661
5.1296 7.6922 -1.2628 0.9634
4.6518 9.2117 -1.4095 0.9592
3.8156 10.5468 -1.5319 0.9557
2.6222 13.8997 -1.9320 0.9445
