ply
format ascii 1.0
element vertex 1558
property float32 x
property float32 y
property float32 z
property float32 I
end_header
2.2374 10.5391 -2.2091 0.9570
1.5299 11.8091 -2.4416 0.9525
1.1081 12.4653 -2.5660 0.9502
0.1182 14.2193 -2.9156 0.9436
-1.1888 16.4735 -3.3865 0.9348
-2.0051 17.7928 -3.6713 0.9295
-6.9612 24.8699 -5.2953 0.8999
-8.8730 27.4073 -5.9067 0.8890
-18.4029 39.7456 -8.9806 0.8362
-15.7366 30.6901 -7.0717 0.8686
-30.1272 37.6637 -9.8892 0.8212
-30.7378 32.6636 -9.1965 0.8327
-19.7775 16.4979 -5.2808 0.9002
-32.9471 17.7584 -7.6743 0.8583
-43.9714 19.3211 -9.8478 0.8219
-44.5146 17.4620 -9.8044 0.8226
-27.5424 9.5465 -5.9769 0.8878
-31.1875 -17.4467 -7.3272 0.8642
-32.7377 -33.1247 -9.5492 0.8268
-31.2942 -34.3177 -9.5228 0.8273
-16.5719 -37.3152 -8.3717 0.8464
-13.1119 -33.0421 -7.2889 0.8649
-7.8497 -25.6104 -5.4923 0.8964
-6.0067 -22.8337 -4.8411 0.9081
-2.4239 -17.6196 -3.6467 0.9300
-1.5880 -16.3989 -3.3782 0.9349
-0.8650 -15.3322 -3.1487 0.9392
0.8193 -12.7502 -2.6197 0.9492
1.2595 -12.0263 -2.4794 0.9518
2.3125 -10.1094 -2.1264 0.9585
-31.0528 -17.0187 -7.6704 0.8651
-31.4895 -33.9349 -10.0280 0.8274
-31.2193 -36.4789 -10.4005 0.8216
-19.2439 -38.1857 -9.2626 0.8394
-15.5834 -34.2832 -8.1574 0.8572
-12.0478 -29.6075 -6.9240 0.8774
-9.5000 -26.3289 -6.0631 0.8918
-5.7708 -21.1865 -4.7565 0.9140
-4.4527 -19.3878 -4.3090 0.9218
-3.3682 -17.9413 -3.9542 0.9280
-2.4490 -16.7241 -3.6613 0.9332
-0.9560 -14.6761 -3.1858 0.9416
-0.3437 -13.8153 -2.9935 0.9450
0.1995 -13.0339 -2.8236 0.9480
0.6840 -12.3161 -2.6720 0.9508
1.1157 -11.6283 -2.5304 0.9533
1.8415 -10.3542 -2.2781 0.9579
2.1593 -9.8323 -2.1806 0.9596
2.7007 -8.8389 -2.0020 0.9629
2.9363 -8.3885 -1.9252 0.9643
3.1517 -7.9627 -1.8550 0.9656
4.0033 -6.1402 -1.5878 0.9704
4.1238 -5.8016 -1.5418 0.9713
4.5883 -4.2914 -1.3609 0.9746
4.8598 -3.2628 -1.2680 0.9763
4.9754 -2.7890 -1.2355 0.9769
5.1533 -1.8823 -1.1884 0.9778
5.2184 -1.4435 -1.1728 0.9781
3.9236 -0.9174 -0.8728 0.9836
3.8285 -0.4196 -0.8343 0.9844
3.8232 -0.2642 -0.8301 0.9844
3.8158 0.0434 -0.8266 0.9845
3.8264 0.3519 -0.8323 0.9844
3.8273 0.5078 -0.8363 0.9843
3.8282 0.6653 -0.8417 0.9842
3.8681 0.8336 -0.8571 0.9839
5.3541 1.3810 -1.1977 0.9776
5.3434 1.6097 -1.2088 0.9774
5.3291 1.8419 -1.2214 0.9772
5.3025 2.0747 -1.2334 0.9770
5.1524 3.0442 -1.2963 0.9758
4.9218 4.0984 -1.3874 0.9741
4.8472 4.3776 -1.4148 0.9736
4.7597 4.6591 -1.4427 0.9731
4.4514 5.5550 -1.5420 0.9713
4.0675 6.5599 -1.6720 0.9689
3.7193 7.2380 -1.7627 0.9672
3.3347 8.0138 -1.8802 0.9651
3.1173 8.4311 -1.9471 0.9639
2.6225 9.3376 -2.1009 0.9611
2.3399 9.8330 -2.1894 0.9595
1.6895 10.9365 -2.3971 0.9557
0.8903 12.1883 -2.6472 0.9512
-1.4001 15.9082 -3.4593 0.9367
-2.1992 17.0930 -3.7331 0.9319
-3.1258 18.4156 -4.0461 0.9264
-5.4686 21.5529 -4.8166 0.9130
-6.9661 23.4581 -5.3007 0.9047
-8.7789 25.7272 -5.8884 0.8947
-14.0423 32.3800 -7.6451 0.8655
-17.2029 35.6703 -8.5783 0.8504
-15.9103 27.1719 -6.8206 0.8791
-16.6988 26.0584 -6.7042 0.8810
-28.5510 31.8651 -9.2678 0.8394
-28.7461 27.3133 -8.5894 0.8502
-28.8274 25.2668 -8.3035 0.8548
-28.8996 23.3458 -8.0475 0.8589
-28.9613 21.5322 -7.8173 0.8627
-29.0181 19.8158 -7.6115 0.8660
-29.0683 18.1825 -7.4270 0.8691
-28.2849 16.1495 -7.0552 0.8752
-37.8817 17.7617 -9.0629 0.8426
-27.4417 7.8237 -6.1811 0.8898
-25.6504 -9.8039 -5.9482 0.8937
-31.0513 -18.0180 -7.7765 0.8634
-32.1139 -33.5332 -10.0575 0.8269
-21.3684 -40.7906 -9.9748 0.8282
-8.1614 -24.4765 -5.5889 0.8998
-3.7691 -18.4683 -4.0829 0.9258
-1.2180 -15.0437 -3.2693 0.9401
-0.5747 -14.1410 -3.0657 0.9437
-0.0059 -13.3325 -2.8880 0.9469
0.5006 -12.5901 -2.7294 0.9497
0.9524 -11.8927 -2.5844 0.9523
1.3548 -11.2273 -2.4496 0.9548
2.0405 -10.0433 -2.2200 0.9589
2.6023 -9.0227 -2.0341 0.9623
2.8465 -8.5618 -1.9544 0.9637
3.2739 -7.7150 -1.8154 0.9663
3.7991 -6.6070 -1.6509 0.9693
3.9481 -6.2690 -1.6048 0.9701
4.1913 -5.6015 -1.5154 0.9718
4.2966 -5.2856 -1.4755 0.9725
4.4815 -4.6878 -1.4048 0.9738
4.5596 -4.4012 -1.3727 0.9744
4.9542 -2.8806 -1.2414 0.9768
5.0068 -2.6480 -1.2269 0.9771
5.0988 -2.1927 -1.2023 0.9775
5.2068 -1.5289 -1.1755 0.9780
3.8192 0.1368 -0.8278 0.9845
3.8270 0.4465 -0.8346 0.9844
3.8279 0.6033 -0.8394 0.9843
4.0909 0.9867 -0.9116 0.9829
5.3480 1.5197 -1.2043 0.9775
5.3352 1.7505 -1.2163 0.9773
5.1704 2.9461 -1.2890 0.9759
5.1229 3.1982 -1.3082 0.9756
5.0119 3.7194 -1.3519 0.9748
4.8787 4.2686 -1.4042 0.9738
4.7949 4.5479 -1.4315 0.9733
4.4955 5.4324 -1.5274 0.9716
4.3816 5.7503 -1.5660 0.9708
4.2589 6.0812 -1.6082 0.9701
3.9657 6.7591 -1.6975 0.9684
3.7886 7.0957 -1.7424 0.9676
3.2047 8.2651 -1.9202 0.9644
2.9734 8.6888 -1.9893 0.9631
2.7264 9.1515 -2.0684 0.9617
2.4538 9.6352 -2.1537 0.9601
2.1548 10.1501 -2.2476 0.9584
-0.4584 14.3812 -3.1167 0.9428
-6.3506 22.6884 -5.1035 0.9081
-8.0145 24.7556 -5.6364 0.8990
-12.8161 30.8754 -7.2413 0.8721
-16.4676 35.5660 -8.4898 0.8518
-15.6337 30.4895 -7.4220 0.8692
-16.1510 26.0992 -6.6484 0.8820
-17.6735 26.1503 -6.8369 0.8788
-28.7115 28.1536 -8.7104 0.8483
-19.8038 16.5199 -5.5864 0.8998
-28.9371 22.2300 -7.9043 0.8613
-28.9966 20.4778 -7.6895 0.8648
-29.0494 18.8133 -7.4969 0.8679
-32.9454 17.7574 -8.1070 0.8580
-27.4506 7.1059 -6.1422 0.8904
-18.1898 -36.8883 -8.9092 0.8451
-14.7078 -33.1178 -7.8494 0.8622
-11.4464 -28.8450 -6.7222 0.8807
-5.4407 -20.6820 -4.6324 0.9162
-4.1999 -19.0443 -4.2244 0.9233
-2.2669 -16.4787 -3.6031 0.9342
-1.4937 -15.4249 -3.3569 0.9385
0.7817 -12.1650 -2.6405 0.9513
1.5784 -10.8454 -2.3740 0.9561
2.9845 -8.2944 -1.9094 0.9646
-33.1284 -32.9423 -10.6634 0.8256
-31.4308 -33.8715 -10.5467 0.8273
-25.1489 -41.2815 -11.0330 0.8201
-8.4548 -23.4323 -5.6858 0.9028
-6.6709 -21.1080 -5.0526 0.9132
-3.1471 -16.7637 -3.8930 0.9324
-2.2987 -15.6981 -3.6212 0.9370
-1.5577 -14.7489 -3.3851 0.9410
-0.9058 -13.9058 -3.1806 0.9444
-0.3268 -13.1352 -2.9990 0.9475
0.1902 -12.4251 -2.8363 0.9503
0.6525 -11.7495 -2.6859 0.9529
1.0666 -11.1166 -2.5490 0.9552
1.4380 -10.5213 -2.4237 0.9574
1.7736 -9.9724 -2.3118 0.9593
2.3541 -8.9808 -2.1190 0.9626
3.0504 -7.7067 -1.8918 0.9666
3.2461 -7.3266 -1.8290 0.9677
3.4260 -6.9632 -1.7713 0.9687
3.5937 -6.6189 -1.7190 0.9696
3.7486 -6.2880 -1.6709 0.9704
3.8910 -5.9680 -1.6261 0.9712
4.0101 -5.6417 -1.5798 0.9720
4.1210 -5.3305 -1.5378 0.9727
4.2232 -5.0313 -1.4993 0.9734
4.3152 -4.7405 -1.4631 0.9740
4.4743 -4.1848 -1.3983 0.9752
4.6869 -3.4277 -1.3253 0.9765
4.8671 -2.7283 -1.2735 0.9774
5.0069 -2.0604 -1.2358 0.9780
5.0798 -1.6274 -1.2175 0.9784
5.1105 -1.4136 -1.2102 0.9785
3.9258 -0.9179 -0.9202 0.9836
3.8301 -0.7347 -0.8901 0.9841
3.8274 -0.5759 -0.8834 0.9842
3.8223 -0.4189 -0.8776 0.9843
3.8170 -0.2637 -0.8733 0.9844
3.8153 0.1968 -0.8720 0.9844
5.2416 1.3519 -1.2355 0.9780
5.2302 1.5756 -1.2467 0.9778
5.1541 2.2593 -1.2844 0.9772
5.1184 2.4933 -1.2995 0.9769
5.0781 2.7313 -1.3161 0.9766
4.9828 3.2208 -1.3542 0.9760
4.9274 3.4733 -1.3760 0.9756
4.8664 3.7317 -1.3997 0.9752
4.7273 4.2693 -1.4539 0.9742
4.5458 4.8221 -1.5126 0.9732
4.4431 5.1097 -1.5455 0.9726
4.3323 5.4064 -1.5813 0.9720
4.2158 5.7172 -1.6213 0.9713
3.7931 6.7046 -1.7582 0.9689
3.6147 7.0343 -1.8051 0.9681
3.4323 7.3958 -1.8610 0.9671
3.0186 8.1641 -1.9867 0.9649
2.7816 8.5664 -2.0557 0.9637
2.2584 9.4904 -2.2266 0.9608
1.9560 9.9847 -2.3223 0.9591
1.2548 11.0481 -2.5379 0.9554
0.8524 11.6693 -2.6705 0.9531
0.4063 12.4043 -2.8327 0.9504
-0.0972 13.0798 -2.9855 0.9477
-2.0502 15.9350 -3.6670 0.9362
-3.8962 18.4323 -4.3000 0.9256
-5.0364 19.8495 -4.6741 0.9194
-6.3751 21.4679 -5.1114 0.9122
-9.9040 25.6095 -6.2671 0.8935
-15.8033 26.9892 -7.1384 0.8796
-23.0677 25.7453 -7.8899 0.8678
-28.6054 27.1797 -9.0062 0.8505
-31.5579 27.6600 -9.5780 0.8418
-28.8322 21.4363 -8.2003 0.8629
-28.8921 19.7298 -7.9853 0.8663
-34.0632 15.9714 -8.5869 0.8570
-30.8907 -17.9249 -8.1516 0.8637
-32.0898 -33.5081 -10.5895 0.8267
-30.4208 -34.4335 -10.4870 0.8282
-14.7210 -31.0777 -7.8488 0.8684
-9.2607 -24.4530 -5.9681 0.8983
-5.8098 -20.0779 -4.7707 0.9178
-4.5568 -18.5009 -4.3489 0.9248
-2.6173 -16.1013 -3.7232 0.9353
-1.8367 -15.1091 -3.4739 0.9395
-0.0056 -12.6869 -2.8957 0.9493
0.9096 -11.3587 -2.6009 0.9543
1.9562 -9.6284 -2.2425 0.9605
2.2489 -9.1652 -2.1540 0.9620
2.5106 -8.7049 -2.0678 0.9635
3.3572 -7.1035 -1.7933 0.9683
3.5296 -6.7521 -1.7390 0.9692
3.6894 -6.4161 -1.6893 0.9701
3.8371 -6.0929 -1.6435 0.9709
4.0785 -5.4507 -1.5538 0.9725
4.3666 -4.5676 -1.4423 0.9744
4.4454 -4.2909 -1.4102 0.9750
4.5173 -4.0226 -1.3806 0.9755
4.6604 -3.5222 -1.3333 0.9763
4.8986 -2.5908 -1.2648 0.9775
4.9908 -2.1463 -1.2400 0.9780
5.0667 -1.7116 -1.2207 0.9783
5.0989 -1.4972 -1.2129 0.9784
4.1097 -1.0294 -0.9670 0.9828
3.8313 -0.7976 -0.8932 0.9841
3.8291 -0.6379 -0.8860 0.9842
3.8243 -0.4802 -0.8797 0.9843
3.8191 -0.3244 -0.8748 0.9844
3.8137 -0.1700 -0.8713 0.9845
3.8131 0.1366 -0.8709 0.9845
3.8186 0.2907 -0.8741 0.9844
3.8259 0.6030 -0.8840 0.9842
4.1167 0.9930 -0.9666 0.9828
5.2351 1.4876 -1.2422 0.9779
5.2214 1.7131 -1.2543 0.9777
5.1967 1.9395 -1.2660 0.9775
5.1669 2.1686 -1.2790 0.9773
5.0944 2.6376 -1.3094 0.9767
5.0513 2.8782 -1.3269 0.9764
5.0031 3.1234 -1.3462 0.9761
4.7566 4.1617 -1.4425 0.9744
4.3766 5.2888 -1.5669 0.9722
4.0073 6.2414 -1.6929 0.9700
3.8603 6.5794 -1.7411 0.9692
3.3141 7.6236 -1.8973 0.9665
3.1067 8.0123 -1.9614 0.9654
2.3696 9.3048 -2.1915 0.9614
2.0778 9.7874 -2.2837 0.9598
0.5886 12.1303 -2.7719 0.9514
0.1063 12.7856 -2.9183 0.9489
-0.4346 13.6342 -3.1135 0.9456
-1.7545 15.5686 -3.5759 0.9377
-2.5622 16.6825 -3.8523 0.9331
-3.4942 17.9203 -4.1672 0.9278
-5.8277 20.8201 -4.9347 0.9151
-7.3002 22.5491 -5.4097 0.9073
-9.0915 24.6555 -5.9978 0.8978
-14.1401 30.5391 -7.6813 0.8710
-15.5671 30.3597 -7.7872 0.8694
-27.9133 37.9238 -10.7478 0.8243
-30.1253 37.6613 -11.0076 0.8205
-28.3539 32.6655 -9.8726 0.8374
-28.5690 28.0139 -9.1325 0.8486
-30.5805 27.6666 -9.4124 0.8443
-33.1455 27.6493 -9.8518 0.8377
-28.8067 22.1298 -8.2911 0.8615
-28.8695 20.3881 -8.0668 0.8650
-31.2917 16.8661 -8.1135 0.8643
-33.6709 16.4389 -8.5522 0.8575
-27.3017 9.4631 -6.5951 0.8882
-23.7695 -4.5377 -5.5232 0.9055
-30.9903 -15.7368 -7.9331 0.8671
-31.0703 -34.0722 -10.5247 0.8276
-31.1563 -37.0523 -11.0494 0.8199
-19.7514 -36.3019 -9.4327 0.8440
-10.1435 -25.5617 -6.2769 0.8933
-8.0422 -22.9104 -5.5420 0.9052
-5.0186 -19.0775 -4.5025 0.9223
-2.9535 -16.5227 -3.8310 0.9335
-2.1301 -15.4841 -3.5674 0.9379
-1.4095 -14.5563 -3.3379 0.9418
0.2947 -12.2791 -2.8034 0.9509
1.5133 -10.3979 -2.3983 0.9578
2.6588 -8.4386 -2.0194 0.9644
2.8857 -8.0195 -1.9453 0.9656
-31.3047 -33.7357 -11.0423 0.8275
-23.8465 -30.2430 -9.2407 0.8535
-28.0390 -38.6580 -11.4582 0.8216
-25.5476 -38.3768 -11.0615 0.8273
-22.3230 -36.6429 -10.2948 0.8382
-17.6902 -31.8511 -8.7417 0.8608
-11.7500 -25.8498 -6.8129 0.8898
-9.4946 -23.3329 -6.0441 0.9016
-7.6099 -21.0906 -5.3796 0.9119
-6.1311 -19.4000 -4.8816 0.9197
-4.8917 -17.9592 -4.4660 0.9263
-3.8510 -16.7678 -4.1279 0.9317
-2.9515 -15.7216 -3.8380 0.9363
-1.4742 -13.9579 -3.3676 0.9439
-0.8607 -13.2125 -3.1768 0.9470
1.0214 -10.6458 -2.5660 0.9570
1.7002 -9.5598 -2.3297 0.9608
2.2717 -8.6664 -2.1496 0.9638
2.5192 -8.2449 -2.0685 0.9652
2.7461 -7.8450 -1.9943 0.9664
2.9556 -7.4673 -1.9269 0.9675
3.1483 -7.1058 -1.8648 0.9685
3.4906 -6.4289 -1.7552 0.9704
3.7831 -5.8025 -1.6620 0.9719
3.9026 -5.4903 -1.6162 0.9727
4.0137 -5.1917 -1.5745 0.9734
4.2053 -4.6197 -1.4989 0.9746
4.3653 -4.0828 -1.4341 0.9757
4.4382 -3.8286 -1.4063 0.9762
4.5133 -3.5876 -1.3833 0.9766
4.5827 -3.3515 -1.3622 0.9769
4.7629 -2.6699 -1.3101 0.9778
4.8139 -2.4498 -1.2960 0.9780
4.8604 -2.2324 -1.2833 0.9782
4.9029 -2.0176 -1.2721 0.9784
4.9757 -1.5941 -1.2536 0.9787
3.9283 -0.9185 -0.9680 0.9835
3.8262 -0.7339 -0.9348 0.9841
3.8212 -0.5749 -0.9271 0.9842
3.8054 -0.1097 -0.9134 0.9845
3.8037 0.0432 -0.9127 0.9845
3.8092 0.1965 -0.9152 0.9844
3.8197 0.5067 -0.9245 0.9843
3.8242 0.6646 -0.9313 0.9842
5.1211 1.5427 -1.2833 0.9782
5.0411 2.2098 -1.3206 0.9776
4.8678 3.1465 -1.3907 0.9764
4.7504 3.6427 -1.4363 0.9757
4.6835 3.8999 -1.4623 0.9752
4.4321 4.7015 -1.5503 0.9738
4.1027 5.5639 -1.6586 0.9720
3.8405 6.1938 -1.7486 0.9705
3.6925 6.5268 -1.7992 0.9696
2.9245 7.9096 -2.0233 0.9659
2.6913 8.2880 -2.0908 0.9648
2.4494 8.7212 -2.1735 0.9634
2.1820 9.1693 -2.2615 0.9620
1.8871 9.6329 -2.3552 0.9604
1.2109 10.6616 -2.5745 0.9568
-0.0927 12.4766 -2.9936 0.9500
-0.6320 13.2651 -3.1863 0.9468
-2.7120 15.9774 -3.8883 0.9355
-7.2650 21.2908 -5.3976 0.9116
-13.5787 28.1555 -7.5000 0.8793
-16.6823 26.0328 -7.4185 0.8806
-27.9758 36.7815 -11.0877 0.8269
-22.9384 25.6010 -8.2475 0.8681
-23.0788 23.7639 -7.9481 0.8726
-23.1408 21.9874 -7.6588 0.8769
-31.5567 27.6589 -10.0681 0.8415
-28.8225 18.0288 -8.1569 0.8695
-31.1198 17.7680 -8.5980 0.8629
-34.0004 15.9419 -9.0100 0.8569
-42.0520 17.6933 -10.9463 0.8289
-30.8644 -16.2890 -8.3734 0.8663
-30.7554 -17.8463 -8.5316 0.8639
-12.7957 -27.0133 -7.1717 0.8843
-8.2802 -21.8641 -5.6095 0.9083
-6.6874 -20.0559 -5.0725 0.9167
-4.2404 -17.2163 -4.2542 0.9297
-3.2890 -16.1159 -3.9464 0.9346
-2.4615 -15.1426 -3.6809 0.9388
-1.0932 -13.5017 -3.2501 0.9458
-0.0053 -12.1005 -2.9033 0.9514
0.4559 -11.4659 -2.7532 0.9539
1.2440 -10.3094 -2.4915 0.9582
1.8829 -9.2678 -2.2691 0.9618
2.1686 -8.8381 -2.1834 0.9633
2.4248 -8.4073 -2.0994 0.9646
2.8755 -7.6129 -1.9525 0.9671
3.2579 -6.8935 -1.8294 0.9691
3.4272 -6.5562 -1.7750 0.9700
3.5853 -6.2351 -1.7257 0.9708
3.8566 -5.6107 -1.6335 0.9724
4.1705 -4.7290 -1.5128 0.9744
4.4845 -3.6814 -1.3921 0.9764
4.6222 -3.2101 -1.3502 0.9771
4.6843 -2.9816 -1.3323 0.9774
4.7417 -2.7570 -1.3160 0.9777
4.8867 -2.1015 -1.2763 0.9784
4.9267 -1.8880 -1.2659 0.9785
4.9948 -1.4667 -1.2490 0.9788
4.1114 -1.0298 -1.0169 0.9827
3.8319 -0.7977 -0.9391 0.9840
3.8231 -0.6369 -0.9299 0.9842
3.8181 -0.4794 -0.9233 0.9843
3.8129 -0.3238 -0.9181 0.9844
3.8075 -0.1697 -0.9145 0.9844
3.8020 -0.0166 -0.9122 0.9845
3.8071 0.1364 -0.9140 0.9845
3.8177 0.4454 -0.9222 0.9843
3.8228 0.6025 -0.9285 0.9842
3.8247 0.7614 -0.9357 0.9841
4.1040 0.9899 -1.0129 0.9828
5.0845 1.8976 -1.3021 0.9779
5.0540 2.1213 -1.3151 0.9777
5.0196 2.3482 -1.3296 0.9775
4.7750 3.5436 -1.4267 0.9758
4.7105 3.7984 -1.4519 0.9754
4.6398 4.0595 -1.4792 0.9750
4.5621 4.3271 -1.5086 0.9745
4.4702 4.5948 -1.5381 0.9740
4.3708 4.8695 -1.5700 0.9734
4.2633 5.1519 -1.6045 0.9729
4.0274 5.7507 -1.6845 0.9715
3.8952 6.0668 -1.7298 0.9708
3.5870 6.7181 -1.8273 0.9692
3.2184 7.4035 -1.9369 0.9673
3.0111 7.7657 -1.9984 0.9663
2.7848 8.1378 -2.0637 0.9652
2.5454 8.5442 -2.1391 0.9640
2.2907 8.9948 -2.2270 0.9625
2.0058 9.4481 -2.3174 0.9610
1.6943 9.9291 -2.4167 0.9594
0.9753 10.9712 -2.6427 0.9557
0.5627 11.5966 -2.7857 0.9534
-0.9922 13.7482 -3.3072 0.9449
-1.6491 14.6333 -3.5332 0.9412
-3.2580 16.7091 -4.0845 0.9324
-4.2404 17.8890 -4.4111 0.9272
-6.6916 20.6692 -5.2126 0.9145
-15.6486 27.7166 -7.6368 0.8773
-26.4228 39.0960 -11.3218 0.8236
-30.1243 37.6601 -11.5710 0.8201
-28.2018 32.4903 -10.3226 0.8378
-18.2429 16.5046 -5.9025 0.9038
-28.6049 23.8615 -8.9376 0.8579
-28.6378 20.2244 -8.4118 0.8657
-28.8015 18.6528 -8.2330 0.8684
-40.2941 17.7053 -10.5600 0.8344
-23.6887 -4.5223 -5.7863 0.9056
-30.8611 -15.6712 -8.3045 0.8673
-30.8940 -33.8790 -11.0009 0.8281
-30.8730 -36.7154 -11.5097 0.8209
-16.8550 -30.9785 -8.4617 0.8650
-11.2226 -25.2702 -6.6342 0.8925
-7.2626 -20.6897 -5.2611 0.9137
-5.8405 -19.0553 -4.7819 0.9213
-4.6518 -17.6831 -4.3871 0.9275
-0.2002 -12.3702 -2.9684 0.9504
1.1023 -10.5256 -2.5392 0.9574
1.4535 -9.9868 -2.4214 0.9593
1.7722 -9.4856 -2.3153 0.9611
2.0621 -9.0149 -2.2188 0.9627
2.3271 -8.5733 -2.1314 0.9641
2.5699 -8.1566 -2.0519 0.9654
-30.6046 -18.4088 -8.9887 0.8630
-33.2019 -33.0154 -11.7845 0.8244
-31.2654 -33.6933 -11.5686 0.8273
-27.0521 -37.2973 -11.5963 0.8269
-18.9280 -31.0701 -9.1566 0.8607
-12.8456 -25.4896 -7.1839 0.8889
-8.5257 -20.9519 -5.6931 0.9109
-6.9739 -19.3281 -5.1715 0.9187
-5.6601 -17.9098 -4.7273 0.9255
-2.7781 -14.7981 -3.7895 0.9398
-2.0473 -13.9812 -3.5564 0.9434
-0.8196 -12.5818 -3.1733 0.9493
0.1732 -11.3182 -2.8489 0.9544
0.9797 -10.2110 -2.5817 0.9586
1.6427 -9.2365 -2.3612 0.9620
1.9239 -8.7605 -2.2574 0.9637
2.1945 -8.3718 -2.1782 0.9649
2.6599 -7.5988 -2.0263 0.9673
3.0557 -6.8970 -1.8986 0.9694
3.2309 -6.5668 -1.8420 0.9703
3.3930 -6.2493 -1.7897 0.9711
3.5445 -5.9456 -1.7422 0.9719
3.9095 -5.0569 -1.6087 0.9740
4.1003 -4.5044 -1.5330 0.9752
4.1841 -4.2410 -1.4994 0.9757
4.2609 -3.9852 -1.4683 0.9762
4.3380 -3.7422 -1.4419 0.9766
4.5467 -3.0527 -1.3783 0.9777
4.6626 -2.6137 -1.3453 0.9782
4.8025 -1.9763 -1.3071 0.9788
4.8409 -1.7682 -1.2971 0.9790
4.8754 -1.5619 -1.2885 0.9791
4.9060 -1.3571 -1.2811 0.9792
3.9911 -0.9332 -1.0316 0.9832
3.8338 -0.7354 -0.9825 0.9840
3.8243 -0.5754 -0.9734 0.9842
3.8153 -0.4181 -0.9660 0.9843
3.8067 -0.2630 -0.9604 0.9844
3.7992 -0.1095 -0.9566 0.9844
3.8031 0.1962 -0.9585 0.9844
3.8198 0.6638 -0.9758 0.9841
3.8718 0.8343 -0.9968 0.9838
5.0159 1.5110 -1.3185 0.9786
4.9930 1.7257 -1.3296 0.9784
4.9648 1.9425 -1.3418 0.9782
4.9323 2.1621 -1.3554 0.9780
4.8957 2.3849 -1.3706 0.9778
4.7573 3.0751 -1.4257 0.9769
4.3234 4.5862 -1.5863 0.9743
4.2213 4.8546 -1.6191 0.9738
3.8698 5.7150 -1.7371 0.9719
3.2427 6.9873 -1.9387 0.9687
3.0478 7.3243 -1.9966 0.9678
2.6068 8.0281 -2.1244 0.9658
2.3659 8.4239 -2.2022 0.9646
2.1098 8.8661 -2.2938 0.9631
1.5085 9.7650 -2.4868 0.9601
1.1655 10.2616 -2.5993 0.9583
0.7875 10.7798 -2.7203 0.9564
0.3710 11.3279 -2.8526 0.9543
-0.0887 11.9279 -3.0021 0.9520
-0.6011 12.6158 -3.1788 0.9492
-1.8184 14.1328 -3.5863 0.9429
-2.5535 15.0435 -3.8404 0.9390
-9.9362 22.9118 -6.2854 0.9021
-15.6654 26.7537 -7.8029 0.8800
-16.6935 26.0501 -7.7871 0.8802
-27.0171 38.6497 -11.8685 0.8232
-26.0226 34.2136 -10.8187 0.8375
-27.9669 33.8563 -11.0523 0.8343
-22.8432 25.4947 -8.6155 0.8683
-22.9563 23.6377 -8.2931 0.8729
-30.4872 22.6667 -9.5615 0.8550
-28.7002 17.9523 -8.5201 0.8697
-37.7956 17.7214 -10.5062 0.8418
-38.1326 16.0442 -10.4123 0.8431
-27.1179 8.9238 -7.1852 0.8889
-27.1099 7.7291 -7.0950 0.8902
-46.6391 9.3272 -11.9707 0.8219
-30.7316 -16.2189 -8.7457 0.8665
-30.2694 -34.2621 -11.5064 0.8281
-28.1451 -34.5615 -11.2180 0.8321
-9.2337 -21.7065 -5.9369 0.9073
-6.1430 -18.4232 -4.8878 0.9230
-4.9683 -17.1697 -4.4986 0.9289
-3.9629 -16.0897 -4.1705 0.9339
-1.6447 -13.5303 -3.4304 0.9453
-1.0399 -12.8432 -3.2430 0.9482
-0.4952 -12.1848 -3.0692 0.9509
-0.0051 -11.5396 -2.9043 0.9535
0.4359 -10.9649 -2.7619 0.9557
0.8342 -10.4161 -2.6300 0.9578
1.5225 -9.4184 -2.4012 0.9614
2.0937 -8.5330 -2.2113 0.9644
2.3442 -8.1280 -2.1291 0.9657
2.5744 -7.7433 -2.0538 0.9669
3.1639 -6.6946 -1.8636 0.9699
3.3310 -6.3722 -1.8097 0.9708
3.6313 -5.7660 -1.7150 0.9723
3.7545 -5.4621 -1.6682 0.9730
3.8681 -5.1696 -1.6250 0.9737
3.9710 -4.8850 -1.5844 0.9744
4.1521 -4.3432 -1.5123 0.9755
4.2316 -4.0845 -1.4802 0.9760
4.5220 -3.1405 -1.3857 0.9775
4.5840 -2.9178 -1.3676 0.9778
4.6414 -2.6987 -1.3513 0.9781
4.7864 -2.0584 -1.3113 0.9787
4.8263 -1.8495 -1.3008 0.9789
4.8944 -1.4372 -1.2839 0.9792
4.1179 -1.0315 -1.0684 0.9826
3.8526 -0.8021 -0.9904 0.9839
3.8016 -0.1695 -0.9578 0.9844
3.7959 -0.0166 -0.9554 0.9845
3.8010 0.1361 -0.9573 0.9844
3.8115 0.4447 -0.9658 0.9843
3.8240 0.7613 -0.9813 0.9840
4.1031 0.9897 -1.0623 0.9827
5.0030 1.6415 -1.3252 0.9785
4.9763 1.8573 -1.3369 0.9783
4.9455 2.0757 -1.3499 0.9781
4.9106 2.2972 -1.3645 0.9779
4.8270 2.7504 -1.3983 0.9773
4.7780 2.9828 -1.4176 0.9770
4.6639 3.4612 -1.4618 0.9763
4.5991 3.7086 -1.4870 0.9759
4.5280 3.9617 -1.5143 0.9755
4.4505 4.2212 -1.5438 0.9750
4.3614 4.4829 -1.5741 0.9745
4.2622 4.7486 -1.6060 0.9740
4.0414 5.3038 -1.6783 0.9729
3.7887 5.9008 -1.7649 0.9715
3.4924 6.5410 -1.8662 0.9699
3.1267 7.1926 -1.9739 0.9682
2.9207 7.5326 -2.0333 0.9672
2.4600 8.2574 -2.1685 0.9651
1.3038 10.0633 -2.5539 0.9590
-0.3936 12.3469 -3.1091 0.9503
-0.9374 12.9890 -3.2776 0.9477
-1.5563 13.8105 -3.4979 0.9443
-2.2542 14.6771 -3.7373 0.9406
-3.9530 16.6764 -4.3135 0.9317
-7.5391 20.4454 -5.4845 0.9140
-9.1927 22.1461 -6.0349 0.9058
-13.6541 26.6288 -7.5317 0.8839
-16.7429 29.6549 -8.5711 0.8690
-23.2869 34.4561 -10.4668 0.8424
-25.7421 34.9740 -10.9297 0.8360
-27.9095 34.8913 -11.2453 0.8317
-28.0506 32.3160 -10.7700 0.8382
-22.9934 22.5466 -8.1050 0.8756
-18.2112 16.4759 -6.1809 0.9037
-28.4719 23.7506 -9.3318 0.8582
-32.0807 22.6559 -9.8847 0.8504
-27.1272 8.1979 -7.1324 0.8897
-23.6166 -4.5085 -6.0512 0.9056
-32.7754 -33.1627 -11.7350 0.8250
-28.5975 -34.0093 -11.1835 0.8325
-28.0345 -36.1971 -11.5230 0.8279
-25.5154 -35.8298 -11.0707 0.8341
-17.8470 -27.3211 -8.2134 0.8741
-18.0738 -30.2566 -8.8703 0.8647
-15.2424 -28.0146 -8.0269 0.8767
-5.4056 -17.6362 -4.6426 0.9267
-4.3400 -16.4980 -4.2935 0.9321
-2.6123 -14.6139 -3.7364 0.9406
-1.9004 -13.8143 -3.5096 0.9441
-0.7018 -12.4402 -3.1360 0.9499
-0.1909 -11.7948 -2.9689 0.9525
0.2686 -11.1908 -2.8173 0.9549
1.0577 -10.1001 -2.5559 0.9590
1.3928 -9.5698 -2.4339 0.9609
1.7072 -9.1379 -2.3396 0.9624
1.9828 -8.6682 -2.2380 0.9640
2.7059 -7.5200 -2.0115 0.9676
-33.1521 -32.9659 -12.3193 0.8242
-29.1827 -31.4489 -11.3049 0.8374
-26.3662 -33.4386 -11.2206 0.8385
-22.4759 -30.9880 -10.0870 0.8536
-16.5868 -27.2270 -8.4008 0.8764
-13.9036 -25.0332 -7.5454 0.8883
-11.4098 -22.6405 -6.6805 0.9004
-7.8072 -19.1863 -5.4581 0.9179
-6.4223 -17.7992 -4.9860 0.9247
-5.2624 -16.6512 -4.6015 0.9303
-4.2632 -15.6517 -4.2745 0.9351
-3.3927 -14.7721 -3.9938 0.9392
-2.6244 -13.9793 -3.7479 0.9429
-1.3325 -12.6169 -3.3431 0.9489
-0.7811 -11.9905 -3.1662 0.9515
0.1657 -10.8275 -2.8534 0.9562
0.5721 -10.3015 -2.7186 0.9582
1.2774 -9.3462 -2.4856 0.9617
2.5787 -7.3669 -2.0567 0.9682
2.7812 -7.0266 -1.9913 0.9692
2.9680 -6.6989 -1.9307 0.9701
3.1409 -6.3837 -1.8747 0.9710
3.4498 -5.7868 -1.7752 0.9725
4.2417 -3.6592 -1.4761 0.9771
4.3859 -3.2076 -1.4318 0.9778
4.5104 -2.7721 -1.3950 0.9783
4.6167 -2.3495 -1.3650 0.9788
4.7057 -1.9364 -1.3408 0.9792
4.7784 -1.5309 -1.3221 0.9795
4.1235 -0.9641 -1.1158 0.9826
3.8228 -0.4190 -1.0133 0.9842
3.8090 -0.1098 -1.0041 0.9844
3.8207 0.5069 -1.0156 0.9842
4.9279 1.2710 -1.3410 0.9792
4.8891 1.6898 -1.3631 0.9788
4.8605 1.9017 -1.3753 0.9786
4.7026 2.7785 -1.4393 0.9777
4.5325 3.4757 -1.5050 0.9767
4.3913 3.9659 -1.5591 0.9758
4.2194 4.4758 -1.6208 0.9749
4.1176 4.7354 -1.6535 0.9744
4.0079 5.0015 -1.6888 0.9738
3.7678 5.5644 -1.7707 0.9726
3.6333 5.8596 -1.8167 0.9719
3.4879 6.1650 -1.8664 0.9711
2.9601 7.1134 -2.0302 0.9686
2.7516 7.4419 -2.0907 0.9677
2.2874 8.1446 -2.2291 0.9656
2.0371 8.5604 -2.3186 0.9643
1.7619 8.9940 -2.4150 0.9628
1.4562 9.4261 -2.5133 0.9613
1.1231 9.8885 -2.6224 0.9597
0.7572 10.3661 -2.7388 0.9579
-0.0848 11.4148 -3.0079 0.9539
-1.1111 12.6241 -3.3393 0.9489
-1.7220 13.3837 -3.5557 0.9457
-2.4027 14.1550 -3.7832 0.9423
-3.1781 15.0352 -4.0493 0.9384
-4.0430 15.9342 -4.3317 0.9343
-9.0247 20.8100 -5.9769 0.9104
-10.9044 22.6104 -6.6145 0.9014
-15.7172 26.8422 -8.1962 0.8793
-17.2757 26.9587 -8.4370 0.8759
-22.5476 32.2558 -10.3701 0.8498
-22.7304 25.3688 -8.9755 0.8686
-22.8292 23.5068 -8.6344 0.8732
-23.0156 20.1728 -8.0644 0.8811
-26.8296 21.6736 -9.0882 0.8670
-30.4859 22.6658 -10.0100 0.8546
-28.5783 17.8760 -8.8822 0.8698
-33.2414 18.9794 -10.0863 0.8536
-34.2007 17.7451 -10.1527 0.8527
-42.0467 17.6910 -12.0200 0.8280
-44.5946 16.6882 -12.5465 0.8212
-27.0106 8.8884 -7.4927 0.8890
-27.0140 7.7018 -7.4019 0.8903
-46.4606 7.3647 -12.3952 0.8232
-30.4931 -17.6941 -9.2897 0.8643
-27.9961 -34.3784 -11.6825 0.8324
-21.7353 -31.5615 -10.0978 0.8534
-17.7322 -28.1019 -8.7558 0.8716
-10.1609 -21.4508 -6.2543 0.9065
-8.4193 -19.7922 -5.6675 0.9149
-5.6951 -17.0797 -4.7441 0.9282
-4.6377 -16.0273 -4.3964 0.9333
-2.1995 -13.5308 -3.6122 0.9449
-0.9909 -12.2388 -3.2355 0.9505
-0.0048 -11.0254 -2.9052 0.9554
1.4670 -9.0750 -2.4223 0.9627
1.7572 -8.6488 -2.3255 0.9642
2.2684 -7.8652 -2.1570 0.9667
3.2397 -6.1976 -1.8427 0.9715
3.3927 -5.9002 -1.7934 0.9722
3.5338 -5.6113 -1.7474 0.9729
3.6562 -5.3191 -1.7008 0.9737
3.7679 -5.0356 -1.6572 0.9743
3.9650 -4.4959 -1.5796 0.9755
4.0518 -4.2383 -1.5450 0.9760
4.2880 -3.5201 -1.4618 0.9773
4.4873 -2.8563 -1.4016 0.9782
4.5447 -2.6424 -1.3852 0.9785
4.6455 -2.2229 -1.3570 0.9789
4.6896 -2.0167 -1.3451 0.9791
4.1245 -1.0331 -1.1204 0.9826
3.8737 -0.8065 -1.0426 0.9838
3.8355 -0.6390 -1.0246 0.9840
3.8263 -0.4804 -1.0161 0.9842
3.8112 -0.1699 -1.0052 0.9843
3.8059 -0.0167 -1.0029 0.9844
3.8422 0.7649 -1.0323 0.9839
4.1096 0.9912 -1.1139 0.9827
4.9202 1.3981 -1.3478 0.9791
4.8056 2.2481 -1.3980 0.9783
4.7659 2.4675 -1.4141 0.9780
4.6720 2.9167 -1.4513 0.9775
4.4210 3.8680 -1.5479 0.9760
4.3432 4.1195 -1.5773 0.9755
4.0519 4.8964 -1.6747 0.9741
3.9384 5.1686 -1.7123 0.9735
3.8177 5.4512 -1.7536 0.9728
3.6872 5.7428 -1.7983 0.9722
3.2252 6.6725 -1.9528 0.9698
2.3822 7.9963 -2.1985 0.9661
1.8734 8.8247 -2.3771 0.9634
1.2572 9.7036 -2.5783 0.9603
0.9053 10.1839 -2.6940 0.9586
-0.3755 11.7798 -3.1056 0.9524
-0.8929 12.3735 -3.2689 0.9500
-6.9408 18.8231 -5.2863 0.9204
-10.1209 21.8587 -6.3472 0.9052
-12.2345 23.8603 -7.0655 0.8950
-20.7723 30.7353 -9.7749 0.8577
-26.0915 32.6184 -11.0064 0.8413
-22.6686 26.1157 -9.1123 0.8667
-22.7840 24.2115 -8.7604 0.8715
-22.8545 22.4104 -8.4343 0.8760
-22.9767 20.7873 -8.1644 0.8797
-27.4632 22.9092 -9.4238 0.8625
-28.4184 21.8316 -9.4428 0.8622
-32.0793 22.6549 -10.3483 0.8501
-29.7807 17.6308 -9.1193 0.8666
-32.9385 17.7537 -9.8598 0.8566
-36.3165 17.7305 -10.6490 0.8461
-30.5018 -17.0631 -9.2094 0.8654
-32.8715 -33.2600 -12.3220 0.8241
-26.3113 -33.9721 -11.3225 0.8372
-22.8657 -32.1090 -10.3868 0.8495
-16.5326 -27.6766 -8.4949 0.8752
-10.9765 -22.2600 -6.5399 0.9024
-5.0341 -16.4244 -4.5266 0.9314
-3.2183 -14.5932 -3.9377 0.9401
-2.4698 -13.8171 -3.6985 0.9436
-1.8048 -13.1194 -3.4895 0.9467
-1.2088 -12.4832 -3.3047 0.9494
-0.6689 -11.8566 -3.1292 0.9521
0.6549 -10.1921 -2.6912 0.9586
1.6465 -8.8130 -2.3624 0.9636
2.6239 -7.2922 -2.0421 0.9685
-24.7167 -17.7156 -8.3745 0.8815
-24.1099 -30.5770 -10.7232 0.8508
-21.0112 -28.9687 -9.8550 0.8620
-17.3835 -26.1130 -8.6388 0.8780
-12.2783 -22.1069 -6.9639 0.9004
-8.6132 -18.9488 -5.7320 0.9173
-5.9601 -16.5182 -4.8360 0.9297
-4.9166 -15.5570 -4.4931 0.9345
-4.0065 -14.7091 -4.1983 0.9387
-3.2027 -13.9448 -3.9402 0.9424
-2.4863 -13.2433 -3.7107 0.9456
-1.2699 -12.0235 -3.3295 0.9511
-0.7451 -11.4388 -3.1568 0.9536
1.2311 -9.0073 -2.5035 0.9630
1.7959 -8.1774 -2.3056 0.9659
2.0536 -7.8345 -2.2304 0.9670
2.2866 -7.4837 -2.1550 0.9681
2.8847 -6.5109 -1.9611 0.9709
3.2134 -5.9184 -1.8546 0.9724
3.3603 -5.6367 -1.8072 0.9731
3.4887 -5.3510 -1.7591 0.9738
3.6056 -5.0725 -1.7138 0.9745
3.7132 -4.8031 -1.6719 0.9751
3.8124 -4.5419 -1.6330 0.9757
3.9037 -4.2884 -1.5970 0.9762
3.9877 -4.0419 -1.5636 0.9767
4.0686 -3.8053 -1.5341 0.9772
4.2930 -3.1396 -1.4647 0.9782
4.3570 -2.9253 -1.4452 0.9785
4.4171 -2.7148 -1.4278 0.9787
4.5233 -2.3019 -1.3977 0.9792
3.8349 -0.4203 -1.0624 0.9841
3.8286 -0.2645 -1.0568 0.9842
3.8228 -0.1102 -1.0532 0.9843
3.8201 0.0434 -1.0521 0.9843
3.8219 0.1972 -1.0539 0.9842
3.8242 0.3517 -1.0576 0.9842
3.8283 0.5079 -1.0635 0.9841
3.8352 0.6665 -1.0720 0.9840
3.8973 0.8398 -1.0979 0.9836
4.8304 1.2459 -1.3738 0.9795
4.7599 1.8624 -1.4076 0.9790
4.7267 2.0720 -1.4212 0.9788
4.6008 2.7183 -1.4716 0.9781
4.5491 2.9405 -1.4917 0.9778
4.4301 3.3971 -1.5374 0.9771
4.3624 3.6325 -1.5633 0.9767
4.0184 4.6212 -1.6865 0.9749
3.9093 4.8784 -1.7216 0.9744
3.6704 5.4206 -1.8028 0.9732
3.5370 5.7044 -1.8484 0.9725
3.0676 6.6099 -2.0068 0.9702
2.8768 6.9133 -2.0621 0.9694
2.4517 7.5504 -2.1862 0.9676
1.9688 8.2734 -2.3420 0.9653
1.7016 8.6860 -2.4375 0.9639
0.7291 9.9809 -2.7559 0.9593
0.3416 10.4291 -2.8736 0.9576
-0.0812 10.9299 -3.0100 0.9557
-1.0593 12.0362 -3.3274 0.9511
-1.6357 12.7130 -3.5298 0.9482
-2.9894 14.1423 -3.9806 0.9418
-4.7124 15.8690 -4.5587 0.9336
-8.2411 19.0031 -5.7041 0.9177
-11.8357 22.2142 -6.9316 0.9008
-16.7417 26.1255 -8.5451 0.8792
-23.4944 30.8895 -10.6875 0.8513
-25.3982 30.7466 -10.9824 0.8475
-22.6823 23.3556 -8.9658 0.8736
-22.7905 21.6546 -8.6575 0.8777
-22.8814 20.0552 -8.3790 0.8814
-22.9841 18.5671 -8.1368 0.8846
-32.9628 22.5095 -10.9921 0.8474
-28.4654 17.8054 -9.2462 0.8700
-22.6917 -30.2712 -10.4184 0.8547
-13.1573 -22.8351 -7.2577 0.8964
-9.2440 -19.5152 -5.9467 0.9143
-7.7141 -18.1344 -5.4270 0.9215
-6.4162 -16.9422 -4.9890 0.9276
-5.3091 -15.9222 -4.6221 0.9327
-4.3493 -15.0307 -4.3091 0.9371
-3.5060 -14.2346 -4.0372 0.9410
-2.0900 -12.8572 -3.5872 0.9474
-1.4898 -12.2559 -3.3999 0.9501
-0.4511 -11.1013 -3.0597 0.9550
0.4006 -10.0769 -2.7772 0.9590
1.1071 -9.1742 -2.5448 0.9624
1.9517 -7.9542 -2.2555 0.9666
2.8143 -6.6319 -1.9840 0.9706
3.1528 -6.0313 -1.8742 0.9722
3.3041 -5.7460 -1.8253 0.9729
3.4403 -5.4627 -1.7778 0.9736
3.6721 -4.9076 -1.6879 0.9749
3.9556 -4.1377 -1.5764 0.9765
4.1183 -3.6673 -1.5186 0.9774
4.1952 -3.4439 -1.4947 0.9777
4.4514 -2.5882 -1.4180 0.9789
4.5039 -2.3820 -1.4031 0.9791
4.5521 -2.1782 -1.3897 0.9793
4.5960 -1.9765 -1.3778 0.9795
4.6359 -1.7766 -1.3672 0.9796
4.6717 -1.5782 -1.3580 0.9797
4.7037 -1.3812 -1.3500 0.9799
3.8447 -0.6405 -1.0734 0.9840
3.8250 -0.1705 -1.0544 0.9842
3.8211 0.1369 -1.0530 0.9843
3.8233 0.2910 -1.0559 0.9842
3.8324 0.6040 -1.0684 0.9840
4.8222 1.3702 -1.3805 0.9794
4.7717 1.7809 -1.4026 0.9791
4.7045 2.2008 -1.4303 0.9787
4.6645 2.4150 -1.4465 0.9784
4.6197 2.6323 -1.4642 0.9782
4.4550 3.3061 -1.5278 0.9772
4.1558 4.2716 -1.6412 0.9756
4.0590 4.5221 -1.6734 0.9751
3.8399 5.0394 -1.7447 0.9741
3.2999 6.1803 -1.9294 0.9714
3.1363 6.4885 -1.9846 0.9705
2.9531 6.7933 -2.0399 0.9697
2.7539 7.1025 -2.0978 0.9689
2.0673 8.1176 -2.3068 0.9658
1.8091 8.5217 -2.3991 0.9645
1.5268 8.9474 -2.4996 0.9630
1.2135 9.3668 -2.6011 0.9616
0.4974 10.2507 -2.8262 0.9583
-0.3590 11.2610 -3.1027 0.9543
-1.4042 12.4603 -3.4531 0.9493
-2.6978 13.8358 -3.8820 0.9432
-3.4721 14.6476 -4.1455 0.9395
-7.6448 18.4171 -5.4914 0.9206
-9.2080 19.8870 -6.0352 0.9131
-15.5814 25.1786 -8.1541 0.8844
-17.9559 26.5681 -8.8307 0.8754
-26.6151 33.2730 -11.7337 0.8380
-22.6330 24.0510 -9.0949 0.8720
-22.9449 19.1401 -8.2285 0.8834
-28.4325 18.4138 -9.3285 0.8689
-27.5921 16.3351 -8.8302 0.8754
-32.9367 17.7528 -10.3040 0.8562
-38.0840 18.5934 -11.6710 0.8388
-40.2866 17.7020 -12.1182 0.8331
-22.8107 -29.4523 -10.2589 0.8568
-16.7025 -25.5690 -8.4106 0.8810
-14.2896 -23.9216 -7.6735 0.8908
-8.2835 -18.6521 -5.6203 0.9188
-6.8966 -17.3796 -5.1492 0.9254
-5.7224 -16.3020 -4.7579 0.9308
-1.7179 -12.4878 -3.4714 0.9490
0.2464 -10.2677 -2.8284 0.9583
0.9785 -9.3432 -2.5871 0.9618
1.2976 -8.9163 -2.4813 0.9633
1.5897 -8.5087 -2.3837 0.9647
2.3346 -7.4098 -2.1394 0.9683
2.5463 -7.0765 -2.0711 0.9693
-24.6364 -17.6581 -8.7097 0.8815
-33.8584 -31.0655 -13.2037 0.8259
-23.6964 -25.5366 -10.0103 0.8650
-21.8196 -27.6724 -10.1260 0.8636
-18.2351 -25.1412 -8.9244 0.8787
-13.0813 -21.4728 -7.2249 0.9006
-11.1120 -20.0070 -6.5761 0.9091
-7.9149 -17.4126 -5.4961 0.9235
-6.6501 -16.3426 -5.0699 0.9292
-5.5645 -15.4218 -4.7110 0.9340
-3.0321 -13.2023 -3.8924 0.9452
-1.7601 -12.0198 -3.4907 0.9507
-0.7122 -10.9328 -3.1481 0.9554
0.5265 -9.4795 -2.7281 0.9613
0.8723 -9.0913 -2.6243 0.9627
1.1877 -8.6902 -2.5203 0.9642
1.7434 -7.9383 -2.3354 0.9667
1.9843 -7.5700 -2.2487 0.9680
2.2179 -7.2589 -2.1810 0.9689
2.4291 -6.9395 -2.1127 0.9699
2.6244 -6.6304 -2.0490 0.9708
2.8054 -6.3320 -1.9901 0.9716
3.1298 -5.7645 -1.8848 0.9731
3.2751 -5.4936 -1.8378 0.9737
3.6215 -4.6845 -1.7014 0.9757
3.8115 -4.1871 -1.6270 0.9767
3.9797 -3.7222 -1.5658 0.9776
4.0599 -3.5024 -1.5407 0.9779
4.2034 -3.0741 -1.4964 0.9786
4.2672 -2.8650 -1.4769 0.9788
4.3271 -2.6595 -1.4595 0.9791
4.4331 -2.2560 -1.4293 0.9795
4.5217 -1.8607 -1.4050 0.9799
4.5941 -1.4718 -1.3862 0.9801
4.1890 -0.9795 -1.2362 0.9823
3.8761 -0.7435 -1.1341 0.9837
3.8643 -0.5814 -1.1229 0.9839
3.8550 -0.4225 -1.1144 0.9840
3.8467 -0.2658 -1.1080 0.9841
3.8395 -0.1106 -1.1037 0.9841
3.8395 0.3532 -1.1079 0.9841
3.8428 0.5098 -1.1139 0.9840
3.8471 0.6686 -1.1220 0.9839
4.7361 1.2216 -1.4054 0.9798
4.6919 1.6217 -1.4265 0.9796
4.6294 2.0293 -1.4524 0.9792
4.5496 2.4471 -1.4844 0.9787
4.4509 2.8770 -1.5229 0.9782
4.3938 3.0972 -1.5447 0.9779
4.2638 3.5504 -1.5943 0.9772
4.1095 4.0226 -1.6524 0.9764
4.0222 4.2667 -1.6849 0.9759
3.8148 4.7606 -1.7529 0.9749
3.5774 5.2833 -1.8334 0.9738
3.4452 5.5563 -1.8786 0.9732
3.3027 5.8377 -1.9273 0.9725
3.1483 6.1268 -1.9793 0.9717
2.9811 6.4237 -2.0349 0.9710
2.7975 6.7229 -2.0924 0.9701
2.5963 7.0219 -2.1512 0.9693
2.1483 7.6493 -2.2830 0.9675
1.9046 8.0035 -2.3640 0.9663
0.7028 9.6212 -2.7720 0.9606
0.3288 10.0378 -2.8859 0.9591
-0.0779 10.4819 -3.0120 0.9573
-1.0120 11.4987 -3.3169 0.9531
-3.5741 14.0863 -4.1759 0.9413
-4.4176 14.8763 -4.4591 0.9375
-5.3610 15.7109 -4.7700 0.9332
-6.4174 16.5939 -5.1123 0.9286
-7.6047 17.5356 -5.4922 0.9235
-9.0048 18.6715 -5.9565 0.9173
-10.7001 20.0826 -6.5386 0.9096
-12.7014 21.6917 -7.2229 0.9007
-14.9395 23.3131 -7.9564 0.8912
-20.1652 26.5124 -9.5714 0.8705
-22.4821 25.0918 -9.6808 0.8692
-22.5703 23.2403 -9.3090 0.8739
-22.6790 21.5486 -8.9893 0.8779
-22.9260 17.0451 -8.2089 0.8879
-32.8188 22.4112 -11.4194 0.8476
-26.7967 16.7616 -9.0822 0.8767
-32.9649 18.8215 -10.9075 0.8539
-34.1970 17.7431 -11.0702 0.8519
-37.7889 17.7182 -11.9928 0.8405
-37.9371 15.9619 -11.8266 0.8426
-26.8336 7.6504 -8.0178 0.8904
-46.0841 7.3050 -13.4074 0.8235
-35.4022 -31.4699 -13.6108 0.8211
-29.2320 -30.5239 -12.1443 0.8387
-25.0713 -28.3784 -10.8809 0.8542
-19.5459 -26.0746 -9.3638 0.8732
-16.7574 -24.3332 -8.4896 0.8843
-7.1232 -16.7452 -5.2289 0.9271
-5.9715 -15.7678 -4.8448 0.9322
-4.9727 -14.9134 -4.5172 0.9367
-1.9830 -12.1989 -3.5513 0.9499
-0.9018 -11.1377 -3.2108 0.9546
-0.4317 -10.6242 -3.0553 0.9567
-0.0044 -10.1168 -2.9070 0.9588
0.3850 -9.6840 -2.7849 0.9605
0.7411 -9.2538 -2.6676 0.9621
1.0674 -8.8455 -2.5601 0.9636
1.3665 -8.4532 -2.4605 0.9650
1.6415 -8.0795 -2.3690 0.9663
1.8901 -7.7031 -2.2791 0.9675
2.1307 -7.3875 -2.2093 0.9685
2.5496 -6.7502 -2.0734 0.9704
2.7361 -6.4477 -2.0126 0.9713
3.0699 -5.8728 -1.9042 0.9728
3.6826 -4.5302 -1.6776 0.9760
3.7767 -4.2824 -1.6407 0.9765
4.1059 -3.3706 -1.5264 0.9781
4.1770 -3.1569 -1.5045 0.9784
4.2428 -2.9465 -1.4843 0.9787
4.3613 -2.5358 -1.4496 0.9792
4.4618 -2.1350 -1.4213 0.9796
4.5056 -1.9376 -1.4093 0.9798
4.5811 -1.5476 -1.3894 0.9801
4.6130 -1.3545 -1.3815 0.9802
4.1938 -1.0505 -1.2423 0.9822
3.8683 -0.6444 -1.1269 0.9838
3.8499 -0.3270 -1.1102 0.9840
3.8347 -0.0168 -1.1019 0.9842
3.8365 0.1374 -1.1031 0.9841
3.8385 0.2922 -1.1062 0.9841
3.8414 0.4482 -1.1113 0.9840
3.8453 0.6061 -1.1186 0.9839
3.8802 0.7724 -1.1368 0.9837
4.7022 1.5428 -1.4220 0.9796
4.6070 2.1552 -1.4615 0.9791
4.5667 2.3643 -1.4777 0.9788
4.3565 3.2331 -1.5589 0.9777
4.2911 3.4602 -1.5840 0.9773
4.2196 3.6919 -1.6111 0.9769
4.1418 3.9285 -1.6403 0.9765
4.0573 4.1704 -1.6719 0.9761
3.8583 4.6624 -1.7390 0.9751
3.7457 4.9157 -1.7758 0.9746
3.3598 5.7264 -1.9078 0.9727
3.2105 6.0129 -1.9586 0.9720
3.0482 6.3062 -2.0127 0.9713
2.8727 6.6082 -2.0705 0.9705
2.4667 7.2083 -2.1892 0.9688
2.2412 7.5230 -2.2556 0.9679
2.0008 7.8566 -2.3296 0.9668
1.7487 8.2372 -2.4197 0.9656
1.4739 8.6373 -2.5178 0.9642
0.8412 9.4631 -2.7299 0.9612
0.4790 9.8722 -2.8401 0.9597
0.0856 10.3010 -2.9601 0.9580
-0.3438 10.7858 -3.1008 0.9561
-1.3382 11.8747 -3.4337 0.9515
-1.9050 12.4033 -3.6058 0.9491
-4.0750 14.5585 -4.3441 0.9390
-5.9910 16.2470 -4.9758 0.9305
-8.4174 18.1794 -5.7565 0.9200
-14.0532 22.7091 -7.6738 0.8948
-27.2636 31.4094 -11.9511 0.8411
-22.6534 22.2132 -9.1166 0.8763
-22.8221 19.0377 -8.5399 0.8837
-22.8829 17.5791 -8.2915 0.8868
-32.0765 22.6529 -11.2838 0.8492
-37.9301 18.5183 -12.1286 0.8389
-38.2016 16.7858 -11.9900 0.8406
-42.7519 16.7705 -13.1959 0.8260
-30.6851 -31.0477 -12.5433 0.8339
-22.6885 -26.9820 -10.1299 0.8635
-20.9746 -27.0816 -9.8428 0.8671
-17.5570 -24.6542 -8.6970 0.8816
-15.2418 -23.3329 -8.0083 0.8905
-10.7159 -19.6952 -6.4428 0.9109
-6.3998 -16.1277 -4.9858 0.9303
-3.6103 -13.7238 -4.0776 0.9427
-2.8737 -13.0307 -3.8343 0.9460
-2.2284 -12.4661 -3.6389 0.9487
0.6053 -9.4197 -2.7123 0.9615
0.9429 -9.0030 -2.6011 0.9630
1.2524 -8.6051 -2.4987 0.9645
1.5363 -8.2232 -2.4038 0.9658
1.7930 -7.8383 -2.3105 0.9671
2.2650 -7.1888 -2.1658 0.9691
2.4726 -6.8717 -2.0985 0.9701
-32.1955 -29.5397 -13.0810 0.8332
-25.5891 -25.4454 -10.8037 0.8601
-16.9467 -23.3647 -8.6412 0.8865
-11.8490 -19.4500 -6.8184 0.9093
-10.1160 -18.2137 -6.2374 0.9167
-8.6144 -17.0935 -5.7306 0.9232
-6.2004 -15.2374 -4.9250 0.9336
-5.2187 -14.4635 -4.6033 0.9378
-4.3502 -13.7647 -4.3218 0.9415
-3.5756 -13.1274 -4.0733 0.9448
-1.6783 -11.4609 -3.4678 0.9528
-1.1567 -10.9522 -3.2971 0.9551
-0.2489 -10.0055 -2.9964 0.9591
0.1460 -9.5424 -2.8571 0.9609
0.8412 -8.7672 -2.6368 0.9639
1.1471 -8.3929 -2.5360 0.9652
1.9240 -7.3399 -2.2717 0.9688
2.8957 -5.8854 -1.9637 0.9730
3.0500 -5.6174 -1.9136 0.9737
3.1916 -5.3536 -1.8660 0.9743
3.4271 -4.8214 -1.7709 0.9756
3.7230 -4.0899 -1.6558 0.9772
3.8081 -3.8599 -1.6233 0.9776
3.8941 -3.6421 -1.5963 0.9780
4.0482 -3.2179 -1.5482 0.9786
4.2402 -2.6061 -1.4900 0.9794
4.3921 -2.0173 -1.4470 0.9800
4.2865 -1.0022 -1.3179 0.9818
3.8888 -0.5851 -1.1773 0.9837
3.8706 -0.2674 -1.1616 0.9839
3.8601 -0.1112 -1.1561 0.9840
3.8636 0.3554 -1.1616 0.9839
3.8670 0.5130 -1.1679 0.9838
3.8715 0.6728 -1.1764 0.9837
4.6448 1.1980 -1.4361 0.9802
4.6236 1.3928 -1.4457 0.9800
4.5984 1.5893 -1.4566 0.9799
4.5354 1.9881 -1.4825 0.9795
4.4552 2.3963 -1.5145 0.9791
4.2989 3.0303 -1.5746 0.9783
4.2367 3.2488 -1.5984 0.9780
4.1689 3.4714 -1.6241 0.9776
4.0951 3.6984 -1.6520 0.9772
3.2163 5.6851 -1.9555 0.9731
2.8983 6.2453 -2.0613 0.9717
2.7206 6.5380 -2.1200 0.9709
2.5243 6.8274 -2.1792 0.9701
2.3125 7.1215 -2.2416 0.9692
2.0853 7.4248 -2.3088 0.9683
1.8440 7.7491 -2.3847 0.9673
1.5896 8.1146 -2.4755 0.9661
0.6782 9.2844 -2.7870 0.9619
-0.5018 10.5319 -3.1566 0.9569
-0.9685 11.0041 -3.3072 0.9549
-1.4848 11.5402 -3.4834 0.9526
-2.0421 12.0311 -3.6534 0.9503
-5.9939 15.4988 -4.9749 0.9330
-7.0660 16.2935 -5.3169 0.9285
-8.2824 17.1736 -5.7081 0.9235
-9.7166 18.2368 -6.1863 0.9173
-17.6483 23.2034 -8.7276 0.8854
-24.7920 27.6697 -11.1225 0.8563
-22.4824 23.1497 -9.6611 0.8739
-22.8236 16.9690 -8.5145 0.8880
-32.6752 22.3132 -11.8456 0.8477
-28.4282 17.7821 -10.0387 0.8694
-42.0385 17.6875 -13.6541 0.8266
-34.9614 -31.0781 -14.0043 0.8226
-28.2833 -27.2525 -11.7586 0.8487
-25.8264 -26.9678 -11.1788 0.8556
-20.2434 -24.8584 -9.5976 0.8747
-7.8105 -16.4889 -5.4623 0.9266
-6.6203 -15.5629 -5.0633 0.9318
-5.5876 -14.7542 -4.7233 0.9362
-3.8692 -13.3713 -4.1673 0.9435
-1.8888 -11.6196 -3.5243 0.9520
-0.4138 -10.1827 -3.0510 0.9583
0.3705 -9.3185 -2.7920 0.9618
0.7142 -8.9187 -2.6786 0.9633
1.3208 -8.1706 -2.4779 0.9660
1.8319 -7.4660 -2.3015 0.9684
2.2807 -6.8599 -2.1642 0.9703
3.3835 -4.9223 -1.7882 0.9754
3.6883 -4.1822 -1.6694 0.9770
3.8611 -3.7269 -1.6066 0.9778
4.0198 -3.2999 -1.5570 0.9785
4.0906 -3.0916 -1.5351 0.9788
4.2742 -2.4852 -1.4802 0.9796
4.3265 -2.2882 -1.4653 0.9798
4.3745 -2.0932 -1.4518 0.9800
4.4182 -1.9000 -1.4398 0.9801
4.4578 -1.7083 -1.4292 0.9803
4.4934 -1.5180 -1.4199 0.9804
4.5252 -1.3288 -1.4120 0.9805
3.8828 -0.4875 -1.1716 0.9838
3.8641 -0.1723 -1.1580 0.9840
3.8625 0.2940 -1.1597 0.9840
3.8655 0.4510 -1.1651 0.9839
3.8920 0.7748 -1.1880 0.9836
4.1818 1.0087 -1.2879 0.9822
4.6324 1.3163 -1.4417 0.9801
4.5491 1.9093 -1.4770 0.9796
4.4723 2.3155 -1.5077 0.9792
4.4272 2.5226 -1.5255 0.9789
4.3220 2.9458 -1.5659 0.9784
4.2617 3.1627 -1.5888 0.9781
4.1962 3.3837 -1.6138 0.9777
4.1248 3.6089 -1.6408 0.9774
4.0471 3.8386 -1.6699 0.9770
3.8713 4.3130 -1.7351 0.9761
3.5372 5.0508 -1.8461 0.9746
3.4100 5.3110 -1.8895 0.9740
3.1245 5.8520 -1.9861 0.9727
2.9644 6.1329 -2.0393 0.9720
2.7918 6.4222 -2.0965 0.9712
2.3972 7.0052 -2.2166 0.9696
2.1762 7.3048 -2.2819 0.9687
1.9390 7.6140 -2.3522 0.9677
1.6919 7.9693 -2.4390 0.9666
1.4241 8.3455 -2.5346 0.9653
0.8122 9.1367 -2.7461 0.9624
-0.3298 10.3465 -3.0991 0.9577
-1.2777 11.3380 -3.4159 0.9535
-3.8368 13.7076 -4.2615 0.9423
-4.6708 14.4274 -4.5400 0.9386
-6.6209 15.9505 -5.1703 0.9304
-9.1298 17.8052 -5.9904 0.9198
-12.6811 20.4919 -7.2145 0.9043
-16.7691 22.7830 -8.4692 0.8886
-19.5171 24.3994 -9.3541 0.8777
-24.3828 25.9104 -10.6517 0.8620
-22.6511 20.4928 -9.1447 0.8803
-28.1881 18.2555 -10.0542 0.8692
-37.7764 18.4433 -12.5854 0.8390
-42.5985 18.7179 -13.9300 0.8234
-36.0975 -31.0847 -14.2616 0.8196
-21.6355 -25.7297 -10.0643 0.8690
-8.3195 -16.8716 -5.6317 0.9245
-7.0658 -15.9103 -5.2118 0.9299
-5.9772 -15.0626 -4.8515 0.9346
-5.0224 -14.3077 -4.5397 0.9386
-4.1752 -13.6221 -4.2655 0.9422
-3.4082 -12.9559 -4.0107 0.9456
-2.7383 -12.4168 -3.8067 0.9483
-2.1222 -11.8720 -3.6106 0.9509
-0.1604 -9.9096 -2.9671 0.9595
0.5830 -9.0730 -2.7219 0.9627
0.9095 -8.6848 -2.6143 0.9642
1.7423 -7.6166 -2.3392 0.9679
1.9737 -7.2712 -2.2556 0.9690
2.4026 -6.6771 -2.1245 0.9708
-34.4014 -29.1073 -14.0370 0.8280
-27.9783 -25.6704 -11.8276 0.8529
-22.9105 -24.6896 -10.4917 0.8684
-19.5457 -22.8386 -9.3637 0.8817
-17.4167 -22.0885 -8.7621 0.8888
-14.5566 -20.0695 -7.7228 0.9013
-9.2818 -16.7118 -5.9547 0.9230
-7.9731 -15.8210 -5.5186 0.9285
-6.8202 -15.0042 -5.1339 0.9333
-5.8088 -14.2750 -4.8007 0.9375
-4.1014 -12.9775 -4.2395 0.9446
-2.1458 -11.4300 -3.6226 0.9524
-1.6024 -10.9431 -3.4451 0.9547
-1.1069 -10.4807 -3.2828 0.9568
0.1410 -9.2122 -2.8699 0.9621
1.1088 -8.1129 -2.5506 0.9663
1.3828 -7.7753 -2.4600 0.9675
1.6369 -7.4534 -2.3770 0.9685
2.2941 -6.5537 -2.1629 0.9713
2.6580 -5.9993 -2.0439 0.9729
2.8214 -5.7343 -1.9907 0.9736
3.1113 -5.2189 -1.8926 0.9749
3.2326 -4.9581 -1.8437 0.9755
3.5474 -4.2263 -1.7188 0.9771
3.6380 -3.9965 -1.6834 0.9776
4.0333 -2.9497 -1.5565 0.9793
4.1561 -2.5544 -1.5196 0.9798
4.2614 -2.1686 -1.4894 0.9802
4.3494 -1.7898 -1.4651 0.9805
4.3873 -1.6026 -1.4550 0.9806
4.4213 -1.4165 -1.4462 0.9807
4.4516 -1.2313 -1.4387 0.9808
4.4788 -1.0472 -1.4328 0.9809
3.9271 -0.7533 -1.2456 0.9834
3.9137 -0.5888 -1.2328 0.9836
3.9022 -0.4277 -1.2228 0.9837
3.8800 -0.1118 -1.2091 0.9839
3.8759 0.0441 -1.2074 0.9839
3.8878 0.3576 -1.2161 0.9838
3.8917 0.5163 -1.2229 0.9837
3.8968 0.6772 -1.2320 0.9836
4.2704 0.9202 -1.3607 0.9819
4.5547 1.1748 -1.4652 0.9805
4.5079 1.5580 -1.4857 0.9802
4.4446 1.9483 -1.5116 0.9799
4.4065 2.1465 -1.5268 0.9797
4.3169 2.5506 -1.5619 0.9792
4.2076 2.9659 -1.6035 0.9787
4.1454 3.1788 -1.6272 0.9784
3.8371 4.0703 -1.7424 0.9768
3.7432 4.3047 -1.7770 0.9764
3.4033 5.0261 -1.8908 0.9749
2.9820 5.8031 -2.0323 0.9730
2.6446 6.3553 -2.1442 0.9716
2.2480 6.9229 -2.2673 0.9700
2.0254 7.2117 -2.3333 0.9691
0.9759 8.5918 -2.6935 0.9644
0.6550 8.9664 -2.8004 0.9630
0.3056 9.3307 -2.9080 0.9616
-0.0722 9.7076 -3.0240 0.9601
-1.4189 11.0282 -3.4636 0.9545
-2.5449 12.0395 -3.8331 0.9498
-3.1965 12.5978 -4.0485 0.9470
-6.6008 15.2209 -5.1679 0.9329
-8.9440 16.7866 -5.9249 0.9234
-10.3905 17.7452 -6.4054 0.9175
-12.1546 18.9673 -7.0172 0.9099
-21.3702 23.8508 -9.9754 0.8744
-22.5590 19.7726 -9.3442 0.8819
-27.8837 19.0412 -10.5176 0.8681
-28.4268 17.7813 -10.4444 0.8689
-29.2973 16.7275 -10.5087 0.8682
-37.5817 19.4993 -13.1885 0.8375
-29.2243 13.7025 -10.0542 0.8735
-42.4565 15.8881 -14.1207 0.8270
-45.7597 7.2536 -14.4319 0.8236
-36.8828 -30.2235 -14.8535 0.8189
-31.0942 -27.6405 -12.9593 0.8400
-27.4717 -26.4705 -11.8834 0.8523
-15.7264 -20.9794 -8.1672 0.8960
-13.2604 -19.2552 -7.2826 0.9067
-8.4656 -16.1602 -5.6827 0.9264
-7.2511 -15.3079 -5.2762 0.9315
-5.2539 -13.8730 -4.6209 0.9397
-3.6663 -12.6701 -4.1086 0.9462
-1.8094 -11.1313 -3.5129 0.9539
-0.3973 -9.7761 -3.0477 0.9598
0.3569 -8.9773 -2.7986 0.9631
1.2779 -7.9051 -2.4944 0.9670
1.5347 -7.5540 -2.4011 0.9682
1.7822 -7.2634 -2.3296 0.9692
2.0015 -6.9397 -2.2498 0.9702
2.4103 -6.3814 -2.1248 0.9718
2.7587 -5.8372 -2.0111 0.9733
3.0610 -5.3233 -1.9128 0.9746
3.3018 -4.8036 -1.8157 0.9759
3.4089 -4.5559 -1.7724 0.9764
3.5100 -4.3179 -1.7333 0.9770
3.6908 -3.8607 -1.6637 0.9779
3.7788 -3.6475 -1.6360 0.9782
4.0071 -3.0285 -1.5646 0.9792
4.3335 -1.8636 -1.4694 0.9804
3.9179 -0.6527 -1.2372 0.9835
3.8951 -0.3308 -1.2177 0.9838
3.8840 -0.1731 -1.2111 0.9838
3.8739 -0.0169 -1.2067 0.9839
3.8944 0.6138 -1.2281 0.9836
3.9043 0.7772 -1.2400 0.9835
4.4583 1.8712 -1.5061 0.9799
4.3812 2.2683 -1.5368 0.9795
4.3359 2.4706 -1.5545 0.9793
4.2306 2.8836 -1.5948 0.9788
4.0335 3.5291 -1.6694 0.9778
3.7809 4.2123 -1.7631 0.9766
3.6801 4.4472 -1.7981 0.9761
3.4516 4.9285 -1.8743 0.9751
3.3255 5.1795 -1.9173 0.9745
3.1895 5.4362 -1.9633 0.9739
3.0425 5.6984 -2.0122 0.9733
2.7146 6.2447 -2.1210 0.9719
2.3311 6.8120 -2.2427 0.9703
1.6382 7.7168 -2.4573 0.9675
1.0937 8.4417 -2.6515 0.9650
0.7840 8.8199 -2.7582 0.9636
0.4458 9.1871 -2.8651 0.9622
0.0794 9.5581 -2.9774 0.9607
-0.3170 9.9446 -3.0993 0.9592
-0.7492 10.3818 -3.2423 0.9573
-1.2226 10.8494 -3.4009 0.9553
-1.7327 11.2816 -3.5554 0.9533
-2.3067 11.8300 -3.7544 0.9508
-3.6132 12.9087 -4.1756 0.9454
-5.2558 14.2534 -4.7321 0.9383
-6.2036 14.9450 -5.0404 0.9345
-7.2481 15.6541 -5.3735 0.9303
-11.4254 18.4627 -6.7632 0.9131
-23.5663 25.0428 -10.7116 0.8658
-22.6884 17.4296 -8.9120 0.8870
-36.6617 17.8990 -12.7083 0.8429
-42.6776 16.7414 -14.2801 0.8253
-33.9846 -24.8083 -13.1065 0.8384
-28.9542 -27.0330 -12.3390 0.8471
-25.4182 -25.7187 -11.2636 0.8594
-18.8975 -22.4736 -9.1464 0.8842
-17.1127 -22.0952 -8.7054 0.8895
-14.0575 -19.7401 -7.5488 0.9035
-12.1268 -18.5644 -6.9072 0.9113
-10.4444 -17.4846 -6.3441 0.9182
-7.7108 -15.6373 -5.4310 0.9296
-6.5911 -14.8413 -5.0584 0.9342
-5.6076 -14.1313 -4.7357 0.9383
-4.7338 -13.4856 -4.4520 0.9419
-3.9514 -12.8919 -4.2002 0.9451
-3.2455 -12.3372 -3.9737 0.9480
-2.0242 -11.3238 -3.5832 0.9529
-1.4913 -10.8409 -3.4087 0.9552
0.5622 -8.7489 -2.7309 0.9639
2.1363 -6.7804 -2.2144 0.9707
2.3360 -6.4920 -2.1492 0.9715
-28.9785 -24.5190 -12.2874 0.8525
-17.9781 -21.0069 -8.9500 0.8903
-15.1919 -19.2669 -7.9421 0.9020
-13.1137 -18.0802 -7.2298 0.9104
-8.5884 -15.4634 -5.7256 0.9283
-6.3834 -14.0433 -4.9933 0.9372
-5.4686 -13.4391 -4.6965 0.9408
-4.6441 -12.8711 -4.4292 0.9441
-3.8855 -12.2944 -4.1737 0.9472
-2.6107 -11.3673 -3.7753 0.9521
-1.0609 -10.0449 -3.2696 0.9584
-0.6278 -9.6374 -3.1262 0.9602
0.1359 -8.8766 -2.8737 0.9634
0.4732 -8.5203 -2.7622 0.9648
0.7847 -8.1782 -2.6594 0.9660
1.5880 -7.2306 -2.3963 0.9694
1.8127 -6.9154 -2.3141 0.9704
2.2314 -6.3746 -2.1862 0.9720
2.4166 -6.1055 -2.1255 0.9728
2.5893 -5.8441 -2.0691 0.9735
2.7502 -5.5898 -2.0165 0.9741
3.2661 -4.5949 -1.8248 0.9766
3.3690 -4.3578 -1.7830 0.9771
3.5562 -3.9067 -1.7100 0.9780
3.7319 -3.4904 -1.6540 0.9787
3.8110 -3.2876 -1.6292 0.9791
3.9526 -2.8907 -1.5851 0.9796
4.2673 -1.7561 -1.4937 0.9808
4.3051 -1.5725 -1.4836 0.9809
4.3389 -1.3901 -1.4748 0.9810
4.4201 -0.8478 -1.4569 0.9813
4.4400 -0.6680 -1.4534 0.9813
3.9110 -0.2702 -1.2690 0.9837
3.9002 -0.1124 -1.2630 0.9837
3.9017 0.2013 -1.2647 0.9837
3.9083 0.3595 -1.2704 0.9836
3.9227 0.6817 -1.2888 0.9834
4.4828 0.9660 -1.4844 0.9809
4.3185 2.1037 -1.5549 0.9800
4.2759 2.2999 -1.5716 0.9798
4.2287 2.4985 -1.5899 0.9796
3.8363 3.7552 -1.7377 0.9777
3.1928 5.1492 -1.9612 0.9748
3.0537 5.3976 -2.0074 0.9743
2.7443 5.9134 -2.1102 0.9730
2.5722 6.1813 -2.1672 0.9722
2.1866 6.7339 -2.2918 0.9707
1.7353 7.2920 -2.4263 0.9690
1.4903 7.6074 -2.5093 0.9679
0.9428 8.3010 -2.7043 0.9655
0.6319 8.6510 -2.8077 0.9642
-0.0696 9.3613 -3.0303 0.9614
-0.8918 10.1334 -3.2928 0.9581
-2.4227 11.4616 -3.7920 0.9519
-3.0230 11.9141 -3.9787 0.9496
-4.4537 13.0519 -4.4640 0.9437
-5.2790 13.6504 -4.7375 0.9403
-7.1829 14.8938 -5.3524 0.9328
-11.0279 17.2091 -6.6161 0.9177
-12.7652 18.2614 -7.2122 0.9106
-16.7369 20.2615 -8.5068 0.8954
-21.7289 22.3739 -10.0956 0.8771
-22.3851 21.2694 -9.9952 0.8783
-22.6514 16.8409 -9.1366 0.8881
-28.1518 17.6092 -10.7485 0.8697
-37.4269 19.4190 -13.6485 0.8375
-32.5324 13.6879 -11.4247 0.8621
-42.5188 15.9114 -14.6953 0.8262
-41.6131 13.6937 -14.1805 0.8318
-37.0285 -27.9343 -15.0141 0.8228
-31.6535 -25.9384 -13.2468 0.8419
-24.6020 -23.7054 -11.0588 0.8662
-13.8461 -18.4710 -7.4723 0.9075
