ply
format ascii 1.0
element vertex 1369
property float32 x
property float32 y
property float32 z
property float32 CosAngle
property uint32 ObjIdx
property uint32 ObjTag
end_header
-29.0469 18.8961 -7.5062 0.8404 0 3
-28.6431 17.0368 -7.2190 0.0744 0 3
-32.7856 17.7585 -8.0767 0.4714 0 3
-33.1001 16.2449 -7.9869 0.4662 0 3
-40.0786 17.7097 -9.4914 0.2155 0 3
-44.7824 17.6744 -10.4287 0.3650 0 3
-27.4097 9.5645 -6.2884 0.9055 0 22
-27.4511 7.1675 -6.1456 0.9442 0 22
-23.9125 -4.5113 -5.2712 0.4187 16 6
-25.6700 -9.2874 -5.9132 0.7481 15 6
-31.1165 -15.7145 -7.5510 0.9111 0 22
-25.3776 -16.9244 -6.6075 0.5664 15 6
-32.7736 -33.0114 -10.0763 0.9929 0 20
-31.2201 -34.0811 -10.0117 0.9682 0 20
-22.8490 -41.7657 -10.3124 0.6031 0 9
-18.4620 -37.2232 -9.0003 0.0627 0 2
-14.9362 -33.4232 -7.9300 0.0657 0 1
-11.6028 -29.0424 -6.7744 0.0849 0 1
-9.1309 -25.8195 -5.9323 0.0872 0 1
-7.1240 -23.0506 -5.2261 0.1040 0 1
-5.5219 -20.7927 -4.6601 0.1193 0 24
-4.2669 -19.1341 -4.2465 0.1374 0 1
-3.2146 -17.7419 -3.9057 0.1566 0 1
-2.3158 -16.5443 -3.6187 0.1670 0 1
-1.5363 -15.4832 -3.3703 0.1800 0 1
-0.8544 -14.5311 -3.1531 0.1976 0 1
-0.2541 -13.6877 -2.9654 0.2101 0 1
0.2788 -12.9000 -2.7950 0.2210 0 24
0.7551 -12.2068 -2.6492 0.2243 0 1
1.1749 -11.4842 -2.5006 0.2360 0 24
1.5570 -10.8819 -2.3812 0.2489 0 1
1.8923 -10.2655 -2.2611 0.2618 0 24
2.2053 -9.7495 -2.1652 0.2756 0 1
2.4843 -9.2409 -2.0728 0.2879 0 1
2.7387 -8.7667 -1.9895 0.3013 0 1
2.9710 -8.3204 -1.9138 0.3132 0 1
3.1834 -7.8983 -1.8446 0.3250 0 1
3.3788 -7.4994 -1.7817 0.3389 0 1
3.5602 -7.1234 -1.7250 0.3470 0 1
3.7275 -6.7645 -1.6730 0.3578 0 1
3.8819 -6.4204 -1.6252 0.3683 0 1
4.0237 -6.0884 -1.5808 0.3687 0 1
4.1412 -5.7501 -1.5349 0.3798 0 1
4.2497 -5.4271 -1.4931 0.3940 0 1
4.3504 -5.1181 -1.4550 0.4044 0 1
4.4428 -4.8203 -1.4200 0.4143 0 1
4.5249 -4.5300 -1.3869 0.4136 0 1
4.5992 -4.2486 -1.3563 0.4230 0 1
4.6669 -3.9760 -1.3280 0.4320 0 1
4.7371 -3.7181 -1.3044 0.4576 0 1
4.8055 -3.4692 -1.2838 0.4650 0 1
4.8692 -3.2259 -1.2652 0.4719 0 1
4.9286 -2.9876 -1.2484 0.4782 0 1
4.9833 -2.7534 -1.2333 0.4841 0 1
5.0334 -2.5228 -1.2196 0.4896 0 1
5.0792 -2.2953 -1.2073 0.4945 0 1
5.1209 -2.0707 -1.1965 0.4991 0 1
5.1586 -1.8486 -1.1870 0.5031 0 1
5.1925 -1.6286 -1.1788 0.5066 0 1
5.2226 -1.4104 -1.1718 0.5096 0 1
3.9008 -0.8870 -0.8665 0.6343 25 14
3.8318 -0.7108 -0.8442 0.9672 25 14
3.8302 -0.5525 -0.8383 0.9741 25 14
3.8277 -0.3960 -0.8336 0.9878 25 14
3.8223 -0.2408 -0.8296 0.9925 25 14
3.8168 -0.0868 -0.8270 0.9956 25 14
3.8167 0.0665 -0.8269 0.9958 25 14
3.8222 0.2204 -0.8293 0.9929 25 14
3.8265 0.3753 -0.8329 0.9804 25 14
3.8274 0.5313 -0.8370 0.9755 25 14
3.8283 0.6891 -0.8426 0.9690 25 14
3.8901 0.8629 -0.8631 0.6369 25 14
5.3526 1.4150 -1.1993 0.5000 0 1
5.3414 1.6442 -1.2106 0.4953 0 1
5.3255 1.8765 -1.2231 0.4830 0 1
5.2980 2.1097 -1.2353 0.4779 0 1
5.2666 2.3464 -1.2489 0.4727 0 1
5.2308 2.5870 -1.2641 0.4670 0 1
5.1904 2.8319 -1.2808 0.4610 0 1
5.1452 3.0816 -1.2991 0.4544 0 1
5.0949 3.3366 -1.3192 0.4475 0 1
5.0392 3.5973 -1.3412 0.4402 0 1
4.9781 3.8647 -1.3651 0.4325 0 1
4.9114 4.1395 -1.3913 0.4243 0 1
4.8346 4.4187 -1.4187 0.4281 0 1
4.7460 4.7012 -1.4470 0.4197 0 1
4.6501 4.9917 -1.4778 0.4110 0 1
4.5461 5.2911 -1.5111 0.4019 0 1
4.4347 5.6018 -1.5476 0.3907 0 1
4.3166 5.9270 -1.5883 0.3807 0 1
4.1883 6.2648 -1.6324 0.3704 0 1
4.0432 6.6075 -1.6780 0.3986 0 1
3.8717 6.9387 -1.7212 0.3886 0 1
3.6931 7.2923 -1.7706 0.3680 0 1
3.5064 7.6736 -1.8275 0.3566 0 1
3.3040 8.0734 -1.8896 0.3449 0 1
3.0839 8.4937 -1.9574 0.3329 0 1
2.8442 8.9372 -2.0316 0.3197 0 1
2.5828 9.4077 -2.1132 0.3073 0 1
2.2965 9.9076 -2.2030 0.2948 0 1
1.9824 10.4429 -2.3025 0.2799 0 1
1.6370 11.0232 -2.4140 0.2670 0 1
1.2491 11.6010 -2.5275 0.2509 0 24
0.8260 12.2924 -2.6687 0.2353 0 24
0.3534 13.1220 -2.8434 0.2184 0 1
-0.1848 13.9530 -3.0227 0.2055 0 1
-0.7983 14.9307 -3.2388 0.1762 0 1
-1.5033 16.0164 -3.4846 0.1644 0 24
-2.3245 17.2752 -3.7758 0.1566 0 1
-3.2713 18.6184 -4.0948 0.1469 0 1
-4.3718 20.1069 -4.4572 0.1340 0 1
-5.6698 21.8163 -4.8827 0.1243 0 1
-7.2028 23.7520 -5.3764 0.1160 0 1
-9.0742 26.0997 -5.9855 0.1033 0 1
-11.4726 29.1652 -6.7888 0.0857 0 1
-14.4806 32.8716 -7.7807 0.0791 0 24
-17.8425 36.4597 -8.7927 0.0642 0 2
-15.7275 29.1146 -7.1680 0.5265 0 15
-15.9414 26.8706 -6.7678 0.5707 0 15
-16.9120 26.0614 -6.7297 0.8158 0 15
-28.3210 36.7971 -10.0582 0.6272 0 3
-26.8936 32.1811 -9.0846 0.6564 0 3
-28.6965 31.6624 -9.2563 0.7288 0 3
-32.0757 32.6536 -9.9149 0.7020 0 3
-28.7582 27.0152 -8.5469 0.7382 0 3
-19.0444 16.5017 -5.4585 0.6094 0 22
-28.9091 23.0836 -8.0135 0.7873 0 3
-28.9697 21.2845 -7.7869 0.8101 0 3
-29.0255 19.5808 -7.5842 0.8318 0 3
-29.0749 17.9586 -7.4026 0.8522 0 3
-28.9497 16.3128 -7.1979 0.9493 0 3
-34.6793 17.7457 -8.4384 0.4512 0 3
-38.3553 17.7207 -9.1522 0.4160 0 3
-42.8258 17.7355 -10.0407 0.9209 0 3
-27.4511 7.6601 -6.1734 0.9656 0 22
-32.1438 -33.4787 -10.5932 0.9618 0 20
-30.4737 -34.4041 -10.4900 0.9727 0 20
-22.5618 -39.0381 -10.2912 0.6152 0 9
-18.0915 -34.4244 -8.8761 0.0668 0 2
-14.8434 -31.2288 -7.8920 0.0703 0 1
-11.7051 -27.4147 -6.8037 0.0879 0 1
-9.3331 -24.5449 -5.9936 0.0921 0 1
-7.3700 -22.0040 -5.2965 0.1109 0 24
-5.8565 -20.1371 -4.7866 0.1225 0 1
-4.5954 -18.5489 -4.3617 0.1406 0 1
-3.5465 -17.2572 -4.0212 0.1583 0 1
-2.6458 -16.1368 -3.7323 0.1702 0 1
-1.8617 -15.1409 -3.4818 0.1832 0 1
-1.1740 -14.2539 -3.2644 0.2016 0 1
-0.5655 -13.4551 -3.0737 0.2130 0 1
-0.0233 -12.7112 -2.9013 0.2253 0 24
0.4615 -12.0337 -2.7486 0.2273 0 1
0.8952 -11.3805 -2.6055 0.2389 0 1
1.2842 -10.7706 -2.4757 0.2516 0 1
1.6341 -10.2012 -2.3580 0.2664 0 1
1.9454 -9.6462 -2.2460 0.2770 0 24
2.2390 -9.1820 -2.1571 0.2908 0 1
2.5015 -8.7207 -2.0707 0.3043 0 1
2.7417 -8.2867 -1.9922 0.3163 0 1
2.9616 -7.8756 -1.9204 0.3281 0 1
3.1643 -7.4873 -1.8553 0.3421 0 1
3.3506 -7.1165 -1.7953 0.3536 0 1
3.5234 -6.7645 -1.7408 0.3614 0 1
3.6836 -6.4281 -1.6910 0.3721 0 1
3.8318 -6.1044 -1.6450 0.3825 0 1
3.9602 -5.7798 -1.5992 0.3831 0 1
4.0743 -5.4621 -1.5553 0.3976 0 1
4.1802 -5.1583 -1.5154 0.4081 0 1
4.2770 -4.8645 -1.4784 0.4078 0 1
4.3634 -4.5781 -1.4435 0.4177 0 1
4.4424 -4.3011 -1.4113 0.4272 0 1
4.5145 -4.0326 -1.3816 0.4364 0 1
4.5859 -3.7764 -1.3559 0.4628 0 1
4.6576 -3.5314 -1.3341 0.4703 0 1
4.7239 -3.2915 -1.3141 0.4775 0 1
4.7861 -3.0569 -1.2962 0.4842 0 1
4.8436 -2.8264 -1.2800 0.4903 0 1
4.8965 -2.5995 -1.2653 0.4960 0 1
4.9449 -2.3757 -1.2521 0.5012 0 1
4.9890 -2.1548 -1.2404 0.5060 0 1
5.0291 -1.9364 -1.2300 0.5103 0 1
5.0652 -1.7201 -1.2210 0.5141 0 1
5.0975 -1.5057 -1.2132 0.5174 0 1
4.1095 -1.0364 -0.9673 0.9713 25 14
3.8371 -0.8053 -0.8949 0.6456 25 14
3.8291 -0.6443 -0.8863 0.9684 25 14
3.8245 -0.4865 -0.8800 0.9835 25 14
3.8193 -0.3306 -0.8750 0.9891 25 14
3.8139 -0.1763 -0.8714 0.9931 25 14
3.8084 -0.0229 -0.8693 0.9956 25 14
3.8129 0.1303 -0.8708 0.9939 25 14
3.8183 0.2843 -0.8739 0.9903 25 14
3.8236 0.4397 -0.8785 0.9852 25 14
3.8258 0.5965 -0.8838 0.9711 25 14
3.8267 0.7551 -0.8903 0.9640 25 14
4.1168 0.9856 -0.9662 0.9725 25 14
5.2355 1.4781 -1.2417 0.5076 0 1
5.2219 1.7035 -1.2537 0.5028 0 1
5.1978 1.9299 -1.2655 0.4907 0 1
5.1681 2.1588 -1.2784 0.4854 0 1
5.1343 2.3911 -1.2927 0.4800 0 1
5.0960 2.6273 -1.3086 0.4742 0 1
5.0531 2.8677 -1.3261 0.4679 0 1
5.0052 3.1126 -1.3453 0.4613 0 1
4.9520 3.3627 -1.3662 0.4542 0 1
4.8934 3.6183 -1.3891 0.4467 0 1
4.8296 3.8805 -1.4141 0.4389 0 1
4.7596 4.1496 -1.4413 0.4306 0 1
4.6796 4.4229 -1.4697 0.4344 0 1
4.5880 4.6992 -1.4990 0.4259 0 1
4.4888 4.9832 -1.5308 0.4170 0 1
4.3815 5.2755 -1.5652 0.4079 0 1
4.2677 5.5801 -1.6034 0.3964 0 1
4.1458 5.8972 -1.6453 0.3863 0 1
4.0134 6.2262 -1.6907 0.3759 0 1
3.8678 6.5650 -1.7391 0.4042 0 1
3.6934 6.8872 -1.7837 0.3941 0 1
3.5137 7.2357 -1.8359 0.3731 0 1
3.3230 7.6062 -1.8945 0.3615 0 1
3.1165 7.9940 -1.9583 0.3498 0 1
2.8871 8.3864 -2.0244 0.3303 0 1
2.6477 8.8280 -2.1036 0.3008 0 1
2.3824 9.2830 -2.1874 0.3120 0 1
2.0918 9.7642 -2.2792 0.2995 0 1
1.7737 10.2789 -2.3808 0.2846 0 1
1.4243 10.8348 -2.4942 0.2716 0 1
1.0341 11.3901 -2.6104 0.2617 0 24
0.6099 12.0978 -2.7648 0.2361 0 1
0.1300 12.7506 -2.9104 0.2273 0 24
-0.4076 13.5951 -3.1044 0.2103 0 1
-1.0179 14.4878 -3.3149 0.1810 0 1
-1.7188 15.5181 -3.5636 0.1694 0 1
-2.5209 16.6259 -3.8381 0.1597 0 1
-3.4463 17.8572 -4.1510 0.1497 0 1
-4.5113 19.1965 -4.5009 0.1417 0 1
-5.7620 20.7397 -4.9130 0.1298 0 1
-7.2229 22.4590 -5.3847 0.1202 0 1
-8.9946 24.5397 -5.9654 0.1056 0 1
-11.1997 27.1306 -6.6993 0.0951 0 1
-13.9885 30.3675 -7.6312 0.0846 0 1
-15.5833 30.5389 -7.8253 0.8458 0 15
-15.7167 27.9659 -7.3220 0.5443 0 15
-16.0646 26.0746 -6.9902 0.8993 0 15
-17.5746 26.1155 -7.1847 0.6883 0 15
-28.0704 38.2966 -10.8375 0.6119 0 3
-30.0029 37.6621 -10.9904 0.7669 0 3
-28.1912 32.6096 -9.8387 0.9894 0 3
-30.6131 32.6623 -10.2175 0.7160 0 3
-28.5642 28.1223 -9.1491 0.7248 0 3
-30.4575 27.6674 -9.3917 0.6606 0 3
-33.0104 27.6502 -9.8283 0.6313 0 3
-28.8033 22.2205 -8.3031 0.7986 0 3
-28.8665 20.4743 -8.0776 0.8209 0 3
-28.9225 18.8152 -7.8753 0.8420 0 3
-29.8881 17.7773 -7.9373 0.5042 0 3
-31.1399 16.8671 -8.0831 0.4703 0 3
-33.6833 16.5311 -8.5640 0.4570 0 3
-40.0746 17.7079 -9.9999 0.4002 0 3
-44.7794 17.6733 -10.9878 0.3642 0 3
-27.2955 9.5247 -6.5984 0.9749 0 22
-27.3499 7.1410 -6.4517 0.9499 0 22
-23.8288 -4.4956 -5.5347 0.3617 16 6
-30.9920 -15.6516 -7.9246 0.9290 0 22
-32.8537 -33.0921 -10.6432 0.9573 0 20
-31.1641 -34.0200 -10.5303 0.9690 0 20
-31.0759 -36.7867 -10.9912 0.3776 0 20
-17.9938 -27.4084 -7.4834 0.9993 0 6
-23.1942 -38.6267 -10.2836 0.6003 0 9
-20.0341 -36.6202 -9.5274 0.0622 0 2
-16.5161 -33.2999 -8.4840 0.4877 0 2
-12.8819 -28.8263 -7.2065 0.0792 0 1
-10.2756 -25.7202 -6.3216 0.0920 0 1
-8.1505 -23.0473 -5.5797 0.1020 0 1
-6.4305 -20.8068 -4.9706 0.1180 0 24
-5.0898 -19.1656 -4.5260 0.1355 0 1
-3.9622 -17.7680 -4.1550 0.1532 0 1
-3.0053 -16.5869 -3.8475 0.1651 0 1
-2.1754 -15.5413 -3.5818 0.1781 0 1
-1.4494 -14.6079 -3.3505 0.1903 0 1
-0.8102 -13.7796 -3.1505 0.2078 0 1
-0.2415 -13.0081 -2.9695 0.2199 0 24
0.2662 -12.3186 -2.8123 0.2320 0 1
0.7204 -11.6466 -2.6634 0.2337 0 1
1.1275 -11.0216 -2.5287 0.2461 0 1
1.4926 -10.4315 -2.4052 0.2590 0 1
1.8175 -9.8601 -2.2884 0.2718 0 24
2.1225 -9.3834 -2.1958 0.2857 0 1
2.3950 -8.9088 -2.1056 0.2992 0 1
2.6443 -8.4645 -2.0240 0.3113 0 1
2.8724 -8.0441 -1.9496 0.3232 0 1
3.0819 -7.6463 -1.8816 0.3382 0 1
3.2749 -7.2688 -1.8197 0.3488 0 1
3.4528 -6.9087 -1.7628 0.3569 0 1
3.6184 -6.5665 -1.7113 0.3677 0 1
3.7715 -6.2377 -1.6637 0.3782 0 1
3.9100 -5.9164 -1.6186 0.3785 0 1
4.0275 -5.5922 -1.5730 0.3895 0 1
4.1372 -5.2834 -1.5316 0.4038 0 1
4.2381 -4.9860 -1.4936 0.4141 0 1
4.3284 -4.6962 -1.4577 0.4136 0 1
4.4103 -4.4153 -1.4244 0.4233 0 1
4.4853 -4.1434 -1.3937 0.4326 0 1
4.5543 -3.8800 -1.3656 0.4595 0 1
4.6284 -3.6328 -1.3430 0.4672 0 1
4.6970 -3.3908 -1.3222 0.4746 0 1
4.7607 -3.1540 -1.3034 0.4815 0 1
4.8203 -2.9219 -1.2865 0.4878 0 1
4.8750 -2.6936 -1.2712 0.4937 0 1
4.9252 -2.4685 -1.2574 0.4991 0 1
4.9711 -2.2465 -1.2451 0.5041 0 1
5.0129 -2.0271 -1.2342 0.5086 0 1
5.0507 -1.8099 -1.2246 0.5126 0 1
5.0846 -1.5948 -1.2163 0.5161 0 1
5.1147 -1.3812 -1.2092 0.5191 0 1
3.9005 -0.8870 -0.9130 0.5969 25 14
3.8298 -0.7105 -0.8890 0.9653 25 14
3.8267 -0.5520 -0.8824 0.9807 25 14
3.8215 -0.3953 -0.8769 0.9870 25 14
3.8162 -0.2404 -0.8727 0.9916 25 14
3.8107 -0.0867 -0.8700 0.9948 25 14
3.8106 0.0664 -0.8699 0.9949 25 14
3.8161 0.2200 -0.8724 0.9920 25 14
3.8214 0.3748 -0.8764 0.9875 25 14
3.8255 0.5310 -0.8815 0.9736 25 14
3.8263 0.6888 -0.8874 0.9672 25 14
3.8895 0.8627 -0.9093 0.6354 25 14
5.2400 1.3852 -1.2371 0.5095 0 1
5.2280 1.6093 -1.2485 0.5048 0 1
5.2089 1.8355 -1.2606 0.4926 0 1
5.1809 2.0630 -1.2728 0.4879 0 1
5.1489 2.2940 -1.2866 0.4823 0 1
5.1125 2.5285 -1.3018 0.4767 0 1
5.0715 2.7671 -1.3186 0.4706 0 1
5.0257 3.0101 -1.3371 0.4641 0 1
4.9748 3.2579 -1.3573 0.4572 0 1
4.9185 3.5112 -1.3793 0.4499 0 1
4.8568 3.7705 -1.4034 0.4422 0 1
4.7895 4.0367 -1.4297 0.4341 0 1
4.7156 4.3100 -1.4581 0.4378 0 1
4.6270 4.5833 -1.4865 0.4295 0 1
4.5310 4.8640 -1.5172 0.4208 0 1
4.4272 5.1527 -1.5505 0.4117 0 1
4.3156 5.4514 -1.5869 0.4005 0 1
4.1978 5.7638 -1.6275 0.3905 0 1
4.0699 6.0877 -1.6714 0.3803 0 1
3.9310 6.4242 -1.7190 0.3697 0 1
3.7674 6.7518 -1.7647 0.3983 0 1
3.5887 7.0861 -1.8130 0.3778 0 1
3.4042 7.4499 -1.8695 0.3664 0 1
3.2045 7.8303 -1.9311 0.3547 0 1
2.9849 8.2212 -1.9963 0.3350 0 1
2.7475 8.6333 -2.0679 0.3060 0 1
2.4958 9.0909 -2.1517 0.3172 0 1
2.2160 9.5603 -2.2399 0.3047 0 1
1.9095 10.0590 -2.3369 0.2921 0 1
1.5740 10.5986 -2.4456 0.2770 0 1
1.1989 11.1344 -2.5561 0.2687 0 24
0.7941 11.8176 -2.7034 0.2415 0 1
0.3368 12.5076 -2.8558 0.2286 0 1
-0.1757 13.2606 -3.0269 0.2157 0 1
-0.7534 14.0906 -3.2207 0.1956 0 1
-1.4159 15.0850 -3.4582 0.1746 0 1
-2.1657 16.0948 -3.7066 0.1636 0 24
-3.0445 17.3276 -4.0155 0.1548 0 1
-4.0491 18.6230 -4.3499 0.1466 0 1
-5.2167 20.0726 -4.7336 0.1326 0 1
-6.5847 21.7138 -5.1789 0.1250 0 1
-8.2023 23.5916 -5.7008 0.1105 0 1
-10.2162 25.9713 -6.3699 0.1020 0 1
-12.7630 28.9726 -7.2260 0.0881 0 1
-15.8757 32.4406 -8.2434 0.0792 0 1
-15.6387 28.9501 -7.5101 0.5244 0 15
-15.8361 26.6931 -7.0840 0.5746 0 15
-16.8971 26.0384 -7.0848 0.7896 0 15
-28.0031 39.5763 -11.0656 0.5940 0 3
-28.2157 36.6603 -10.5588 0.7768 0 3
-28.2957 33.8589 -10.0714 0.6584 0 3
-23.0968 25.4840 -7.8500 0.8022 0 5
-32.0746 32.6525 -10.4469 0.7003 0 3
-28.6181 26.8837 -8.9619 0.7399 0 3
-31.9192 27.6576 -9.6398 0.6436 0 3
-28.7771 22.9781 -8.4052 0.7890 0 3
-28.8411 21.1900 -8.1685 0.8117 0 3
-28.9000 19.4961 -7.9569 0.8333 0 3
-28.9522 17.8828 -7.7671 0.8537 0 3
-31.5290 17.7662 -8.2601 0.4845 0 3
-34.6774 17.7447 -8.8910 0.4501 0 3
-38.3531 17.7197 -9.6430 0.4150 0 3
-42.7155 17.6899 -10.5525 0.3792 0 3
-27.3390 7.6288 -6.4783 0.9647 0 22
-32.0855 -33.4179 -11.1155 0.9625 0 20
-30.2204 -34.1182 -10.9356 0.9166 0 20
-28.1219 -37.4140 -11.2299 0.6328 0 20
-23.6636 -37.3931 -10.6174 0.9230 0 9
-19.4871 -33.7181 -9.3440 0.0665 0 2
-16.4270 -31.2573 -8.4722 0.0860 0 2
-12.8894 -27.1178 -7.2040 0.0831 0 1
-10.4023 -24.3635 -6.3561 0.0970 0 1
-8.3398 -21.9326 -5.6299 0.1078 0 24
-6.7368 -20.1134 -5.0894 0.1208 0 1
-5.3917 -18.5390 -4.6324 0.1388 0 1
-4.2749 -17.2553 -4.2653 0.1564 0 1
-3.3190 -16.1505 -3.9560 0.1683 0 1
-2.4879 -15.1737 -3.6893 0.1812 0 1
-1.7582 -14.2988 -3.4566 0.1949 0 1
-1.1141 -13.5273 -3.2566 0.2119 0 1
-0.5382 -12.8055 -3.0752 0.2225 0 1
-0.0223 -12.1233 -2.9088 0.2281 0 24
0.4406 -11.4873 -2.7582 0.2366 0 1
0.8565 -10.8882 -2.6205 0.2490 0 1
1.2315 -10.3284 -2.4957 0.2617 0 1
1.5705 -9.8042 -2.3823 0.2761 0 1
1.8725 -9.2843 -2.2725 0.2869 0 24
2.1590 -8.8538 -2.1866 0.3008 0 1
2.4159 -8.4222 -2.1022 0.3142 0 1
2.6513 -8.0134 -2.0252 0.3262 0 1
2.8679 -7.6263 -1.9549 0.3413 0 1
3.0677 -7.2586 -1.8907 0.3520 0 1
3.2514 -6.9059 -1.8314 0.3634 0 1
3.4210 -6.5680 -1.7768 0.3713 0 1
3.5796 -6.2465 -1.7274 0.3819 0 1
3.7264 -5.9366 -1.6817 0.3923 0 1
3.8521 -5.6221 -1.6352 0.3929 0 1
3.9670 -5.3184 -1.5919 0.4073 0 1
4.0723 -5.0251 -1.5519 0.4074 0 1
4.1670 -4.7394 -1.5141 0.4175 0 1
4.2537 -4.4630 -1.4793 0.4274 0 1
4.3331 -4.1953 -1.4471 0.4369 0 1
4.4058 -3.9354 -1.4174 0.4460 0 1
4.4815 -3.6905 -1.3929 0.4723 0 1
4.5534 -3.4524 -1.3710 0.4799 0 1
4.6197 -3.2189 -1.3509 0.4870 0 1
4.6819 -2.9903 -1.3329 0.4936 0 1
4.7394 -2.7656 -1.3166 0.4998 0 1
4.7923 -2.5442 -1.3018 0.5054 0 1
4.8407 -2.3257 -1.2885 0.5106 0 1
4.8849 -2.1099 -1.2767 0.5155 0 1
4.9251 -1.8963 -1.2662 0.5197 0 1
4.9612 -1.6848 -1.2571 0.5235 0 1
4.9935 -1.4749 -1.2493 0.5268 0 1
4.1115 -1.0369 -1.0174 0.9045 25 14
3.8357 -0.8050 -0.9404 0.6076 25 14
3.8233 -0.6433 -0.9302 0.9755 25 14
3.8183 -0.4857 -0.9235 0.9826 25 14
3.8131 -0.3301 -0.9183 0.9881 25 14
3.8078 -0.1760 -0.9146 0.9922 25 14
3.8022 -0.0229 -0.9123 0.9947 25 14
3.8069 0.1301 -0.9139 0.9929 25 14
3.8122 0.2839 -0.9172 0.9893 25 14
3.8175 0.4390 -0.9220 0.9842 25 14
3.8226 0.5960 -0.9282 0.9776 25 14
3.8247 0.7547 -0.9354 0.9620 25 14
4.1041 0.9826 -1.0125 0.9730 25 14
5.1267 1.4474 -1.2781 0.5170 0 1
5.1116 1.6675 -1.2900 0.5047 0 1
5.0855 1.8882 -1.3016 0.5002 0 1
5.0553 2.1116 -1.3145 0.4950 0 1
5.0210 2.3384 -1.3289 0.4896 0 1
4.9822 2.5686 -1.3449 0.4838 0 1
4.9387 2.8028 -1.3625 0.4775 0 1
4.8903 3.0412 -1.3817 0.4709 0 1
4.8367 3.2843 -1.4027 0.4638 0 1
4.7776 3.5326 -1.4256 0.4564 0 1
4.7133 3.7871 -1.4507 0.4485 0 1
4.6429 4.0478 -1.4779 0.4403 0 1
4.5658 4.3153 -1.5074 0.4441 0 1
4.4742 4.5827 -1.5367 0.4356 0 1
4.3752 4.8571 -1.5685 0.4268 0 1
4.2682 5.1391 -1.6028 0.4176 0 1
4.1545 5.4320 -1.6408 0.4061 0 1
4.0329 5.7367 -1.6825 0.3961 0 1
3.9013 6.0522 -1.7277 0.3857 0 1
3.7585 6.3796 -1.7766 0.3751 0 1
3.5950 6.7037 -1.8251 0.4038 0 1
3.4154 7.0334 -1.8760 0.3828 0 1
3.2272 7.3869 -1.9341 0.3713 0 1
3.0209 7.7489 -1.9955 0.3514 0 1
2.7955 8.1202 -2.0605 0.3403 0 1
2.5564 8.5235 -2.1351 0.3107 0 1
2.3031 8.9743 -2.2230 0.3219 0 1
2.0195 9.4263 -2.3130 0.3094 0 1
1.7093 9.9056 -2.4118 0.2945 0 1
1.3702 10.4232 -2.5224 0.2816 0 1
0.9936 10.9441 -2.6366 0.2731 0 24
0.5831 11.5667 -2.7788 0.2409 0 1
0.1242 12.1796 -2.9224 0.2401 0 24
-0.3877 12.9324 -3.1043 0.2156 0 1
-0.9632 13.7092 -3.2974 0.2030 0 1
-1.6158 14.5882 -3.5216 0.1798 0 1
-2.3611 15.5717 -3.7789 0.1699 0 1
-3.2142 16.6545 -4.0697 0.1601 0 1
-4.1901 17.8298 -4.3945 0.1508 0 1
-5.3134 19.1250 -4.7625 0.1382 0 1
-6.6233 20.5945 -5.1905 0.1300 0 1
-8.1558 22.2511 -5.6861 0.1132 0 1
-10.0539 24.3551 -6.3219 0.1046 0 1
-12.3944 26.9070 -7.1079 0.0960 0 1
-15.2139 29.8148 -8.0311 0.0894 0 1
-15.6438 27.8361 -7.6612 0.5136 0 15
-16.0558 26.0602 -7.3441 0.8972 0 15
-17.5832 26.1282 -7.5563 0.6104 0 15
-27.7768 37.8960 -11.2734 0.6535 0 3
-30.0020 37.6609 -11.5528 0.7649 0 3
-28.1955 32.6146 -10.3441 0.6722 0 3
-23.0198 24.5607 -8.0766 0.7586 0 5
-23.1140 22.7564 -7.7825 0.6991 0 5
-30.4564 27.6664 -9.8723 0.6589 0 3
-33.0091 27.6491 -10.3312 0.6296 0 3
-28.6732 22.1202 -8.6889 0.8001 0 3
-28.6308 20.3071 -8.4219 0.8074 0 3
-28.7986 18.7346 -8.2432 0.8434 0 3
-29.8866 17.7765 -8.3433 0.5029 0 3
-32.7822 17.7567 -8.9452 0.4691 0 3
-36.1338 17.7338 -9.6575 0.4345 0 3
-40.0721 17.7068 -10.5114 0.3992 0 3
-44.7764 17.6721 -11.5498 0.3632 0 3
-27.2087 9.4944 -6.9143 0.9764 0 22
-27.2456 7.1138 -6.7562 0.9666 0 22
-32.7883 -33.0262 -11.1660 0.9567 0 20
-31.0003 -33.8412 -11.0114 0.9103 0 20
-30.7955 -36.4547 -11.4499 0.3826 0 20
-28.5813 -36.7299 -11.1665 0.6460 0 20
-28.0067 -39.1386 -11.5472 0.6154 0 20
-24.9667 -38.0297 -10.9152 0.5656 0 9
-21.4861 -35.7821 -10.0142 0.0621 0 2
-17.0710 -31.2041 -8.5340 0.0729 0 2
-14.1445 -28.5182 -7.6378 0.0784 0 1
-11.3603 -25.4214 -6.6807 0.0923 0 1
-9.1266 -22.8443 -5.9023 0.1013 0 24
-7.3540 -20.7949 -5.2922 0.1166 0 24
-5.9173 -19.1462 -4.8082 0.1279 0 1
-4.7149 -17.7540 -4.4074 0.1514 0 1
-3.6996 -16.5901 -4.0783 0.1601 0 1
-2.8205 -15.5671 -3.7959 0.1754 0 1
-2.0508 -14.6514 -3.5496 0.1884 0 1
-1.3730 -13.8374 -3.3363 0.2068 0 1
-0.7702 -13.0987 -3.1482 0.2181 0 1
-0.2303 -12.4091 -2.9778 0.2298 0 1
0.2539 -11.7493 -2.8197 0.2323 0 1
0.6886 -11.1322 -2.6761 0.2439 0 1
1.0801 -10.5583 -2.5465 0.2563 0 1
1.4333 -10.0176 -2.4280 0.2709 0 1
1.7481 -9.4834 -2.3137 0.2817 0 24
2.0454 -9.0422 -2.2243 0.2957 0 1
2.3117 -8.5989 -2.1364 0.3092 0 1
2.5558 -8.1810 -2.0564 0.3212 0 1
2.7796 -7.7843 -1.9832 0.3331 0 1
2.9866 -7.4100 -1.9169 0.3481 0 1
3.1767 -7.0509 -1.8555 0.3587 0 1
3.3520 -6.7069 -1.7990 0.3699 0 1
3.5151 -6.3789 -1.7475 0.3775 0 1
3.6666 -6.0643 -1.7003 0.3880 0 1
3.8021 -5.7531 -1.6546 0.3883 0 1
3.9203 -5.4433 -1.6095 0.4029 0 1
4.0299 -5.1464 -1.5683 0.4134 0 1
4.1286 -4.8572 -1.5295 0.4133 0 1
4.2185 -4.5770 -1.4935 0.4233 0 1
4.3009 -4.3058 -1.4602 0.4330 0 1
4.3763 -4.0427 -1.4295 0.4423 0 1
4.4500 -3.7911 -1.4026 0.4691 0 1
4.5241 -3.5509 -1.3799 0.4768 0 1
4.5927 -3.3156 -1.3591 0.4841 0 1
4.6565 -3.0849 -1.3402 0.4910 0 1
4.7160 -2.8587 -1.3232 0.4973 0 1
4.7709 -2.6360 -1.3078 0.5031 0 1
4.8211 -2.4163 -1.2939 0.5085 0 1
4.8670 -2.1994 -1.2815 0.5135 0 1
4.9088 -1.9850 -1.2704 0.5180 0 1
4.9466 -1.7726 -1.2608 0.5220 0 1
4.9805 -1.5621 -1.2524 0.5255 0 1
5.0106 -1.3531 -1.2453 0.5285 0 1
3.9031 -0.8875 -0.9604 0.5950 25 14
3.8254 -0.7096 -0.9335 0.9721 25 14
3.8204 -0.5510 -0.9261 0.9798 25 14
3.8153 -0.3947 -0.9203 0.9860 25 14
3.8100 -0.2400 -0.9160 0.9907 25 14
3.8046 -0.0865 -0.9131 0.9938 25 14
3.8046 0.0663 -0.9130 0.9939 25 14
3.8100 0.2197 -0.9157 0.9910 25 14
3.8153 0.3742 -0.9198 0.9865 25 14
3.8205 0.5304 -0.9254 0.9805 25 14
3.8243 0.6884 -0.9323 0.9652 25 14
3.8910 0.8631 -0.9563 0.5976 25 14
5.1315 1.3566 -1.2735 0.5189 0 1
5.1188 1.5757 -1.2850 0.5143 0 1
5.0969 1.7960 -1.2966 0.5021 0 1
5.0684 2.0182 -1.3089 0.4974 0 1
5.0358 2.2436 -1.3227 0.4919 0 1
4.9989 2.4723 -1.3381 0.4862 0 1
4.9574 2.7048 -1.3550 0.4802 0 1
4.9111 2.9414 -1.3735 0.4737 0 1
4.8597 3.1825 -1.3938 0.4668 0 1
4.8029 3.4286 -1.4159 0.4595 0 1
4.7407 3.6804 -1.4400 0.4519 0 1
4.6730 3.9385 -1.4663 0.4438 0 1
4.5988 4.2032 -1.4948 0.4353 0 1
4.5132 4.4706 -1.5242 0.4391 0 1
4.4174 4.7419 -1.5549 0.4305 0 1
4.3137 5.0207 -1.5882 0.4215 0 1
4.2023 5.3081 -1.6244 0.4102 0 1
4.0847 5.6086 -1.6647 0.4003 0 1
3.9574 5.9195 -1.7084 0.3901 0 1
3.8194 6.2417 -1.7557 0.3795 0 1
3.6681 6.5738 -1.8062 0.4081 0 1
3.4896 6.8904 -1.8532 0.3875 0 1
3.3074 7.2379 -1.9093 0.3761 0 1
3.1097 7.5987 -1.9699 0.3559 0 1
2.8915 7.9637 -2.0328 0.3449 0 1
2.6556 8.3444 -2.1010 0.3337 0 1
2.4127 8.7879 -2.1865 0.3034 0 1
2.1406 9.2350 -2.2745 0.3147 0 1
1.8418 9.7024 -2.3695 0.3020 0 1
1.5153 10.2035 -2.4750 0.2870 0 1
1.1534 10.7121 -2.5850 0.2824 0 24
0.7599 11.3094 -2.7196 0.2483 0 1
0.3216 11.9424 -2.8664 0.2335 0 1
-0.1666 12.5763 -3.0177 0.2317 0 24
-0.7152 13.3771 -3.2142 0.2082 0 1
-1.3334 14.2063 -3.4235 0.1849 0 1
-2.0390 15.1532 -3.6685 0.1726 0 1
-2.8346 16.1332 -3.9302 0.1624 0 24
-3.7681 17.3305 -4.2553 0.1546 0 1
-4.8247 18.5646 -4.6022 0.1453 0 1
-6.0556 19.9691 -5.0067 0.1333 0 1
-7.4843 21.5267 -5.4682 0.1234 0 1
-9.2203 23.4395 -6.0434 0.1094 0 1
-11.3603 25.7885 -6.7613 0.0986 0 1
-13.9900 28.5875 -7.6363 0.0882 0 1
-16.7993 31.0988 -8.4807 0.5140 0 2
-15.7496 26.5473 -7.4061 0.5288 0 15
-16.8978 26.0396 -7.4479 0.7969 0 15
-27.8348 39.3384 -11.5623 0.6013 0 3
-28.9911 37.6677 -11.4046 0.7749 0 3
-27.2563 32.6150 -10.1982 0.9910 0 3
-22.9620 25.3352 -8.2039 0.5886 0 5
-23.0802 23.4961 -7.9024 0.6575 0 5
-23.1458 21.7429 -7.6194 0.6815 0 5
-27.7928 24.0821 -8.8235 0.4350 0 3
-28.6456 22.8731 -8.7952 0.7905 0 3
-30.8489 22.6652 -9.1846 0.5812 0 3
-28.7749 19.4117 -8.3281 0.8348 0 3
-28.8355 17.8107 -8.1319 0.9878 0 3
-31.5274 17.7653 -8.6827 0.4833 0 3
-34.6756 17.7438 -9.3458 0.4490 0 3
-38.3508 17.7186 -10.1362 0.4140 0 3
-38.5472 15.9636 -10.0104 0.5577 0 3
-27.2205 7.5957 -6.7806 0.9477 0 22
-32.0735 -33.4055 -11.6555 0.8997 0 20
-30.2584 -34.1610 -11.4855 0.5557 0 20
-28.3882 -34.7682 -11.2970 0.0399 0 20
-27.9653 -37.2057 -11.7143 0.6346 0 20
-25.4752 -36.8892 -11.2832 0.8644 0 9
-20.7593 -32.8038 -9.7705 0.0666 0 2
-16.7587 -28.9973 -8.4293 0.0772 0 2
-14.0467 -26.7280 -7.5994 0.0825 0 1
-11.4224 -24.0314 -6.6968 0.0963 0 1
-9.2963 -21.7730 -5.9585 0.1050 0 24
-7.6130 -20.0213 -5.3910 0.1188 0 1
-6.1856 -18.4679 -4.9018 0.1376 0 1
-5.0044 -17.2073 -4.5102 0.1548 0 1
-3.9944 -16.1231 -4.1806 0.1667 0 1
-3.1182 -15.1730 -3.8986 0.1787 0 1
-2.3478 -14.3190 -3.6520 0.1930 0 1
-1.6666 -13.5544 -3.4371 0.2100 0 1
-1.0597 -12.8662 -3.2492 0.2210 0 1
-0.5131 -12.2072 -3.0751 0.2228 0 1
-0.0212 -11.5609 -2.9097 0.2330 0 24
0.4213 -10.9845 -2.7667 0.2468 0 1
0.8208 -10.4345 -2.6343 0.2592 0 1
1.1828 -9.9202 -2.5144 0.2736 0 1
1.5114 -9.4347 -2.4048 0.2861 0 1
1.8044 -8.9466 -2.2971 0.2963 0 24
2.0843 -8.5476 -2.2143 0.3121 0 1
2.3355 -8.1419 -2.1318 0.3242 0 1
2.5663 -7.7566 -2.0563 0.3395 0 1
2.7798 -7.3921 -1.9877 0.3512 0 1
2.9763 -7.0423 -1.9242 0.3618 0 1
3.1575 -6.7064 -1.8656 0.3732 0 1
3.3250 -6.3837 -1.8115 0.3843 0 1
3.4808 -6.0741 -1.7620 0.3917 0 1
3.6262 -5.7769 -1.7166 0.4020 0 1
3.7500 -5.4730 -1.6698 0.4062 0 1
3.8640 -5.1803 -1.6265 0.4066 0 1
3.9672 -4.8953 -1.5859 0.4170 0 1
4.0619 -4.6199 -1.5483 0.4272 0 1
4.1489 -4.3530 -1.5135 0.4370 0 1
4.2286 -4.0941 -1.4814 0.4465 0 1
4.3038 -3.8444 -1.4524 0.4739 0 1
4.3813 -3.6080 -1.4285 0.4818 0 1
4.4531 -3.3764 -1.4065 0.4893 0 1
4.5194 -3.1490 -1.3864 0.4964 0 1
4.5815 -2.9262 -1.3682 0.5031 0 1
4.6391 -2.7071 -1.3518 0.5092 0 1
4.6920 -2.4909 -1.3370 0.5148 0 1
4.7404 -2.2775 -1.3236 0.5200 0 1
4.7846 -2.0665 -1.3117 0.5248 0 1
4.8247 -1.8577 -1.3012 0.5291 0 1
4.8608 -1.6507 -1.2920 0.5328 0 1
4.8931 -1.4453 -1.2841 0.5361 0 1
4.1180 -1.0385 -1.0689 0.9006 25 14
3.8561 -0.8093 -0.9917 0.6757 25 14
3.8284 -0.6442 -0.9771 0.8980 25 14
3.8192 -0.4858 -0.9690 0.9056 25 14
3.8104 -0.3299 -0.9626 0.9116 25 14
3.8019 -0.1757 -0.9579 0.9160 25 14
3.7961 -0.0228 -0.9554 0.9936 25 14
3.8008 0.1299 -0.9571 0.9918 25 14
3.8061 0.2834 -0.9606 0.9882 25 14
3.8113 0.4383 -0.9656 0.9831 25 14
3.8169 0.5951 -0.9722 0.9025 25 14
3.8238 0.7546 -0.9809 0.8945 25 14
4.1031 0.9824 -1.0619 0.9065 25 14
5.0218 1.4178 -1.3133 0.5264 0 1
5.0039 1.6324 -1.3247 0.5141 0 1
4.9774 1.8480 -1.3363 0.5097 0 1
4.9468 2.0663 -1.3493 0.5048 0 1
4.9120 2.2876 -1.3638 0.4991 0 1
4.8728 2.5122 -1.3798 0.4933 0 1
4.8289 2.7405 -1.3974 0.4871 0 1
4.7800 2.9726 -1.4167 0.4804 0 1
4.7260 3.2092 -1.4378 0.4734 0 1
4.6665 3.4505 -1.4607 0.4660 0 1
4.6019 3.6976 -1.4858 0.4581 0 1
4.5312 3.9504 -1.5130 0.4499 0 1
4.4539 4.2096 -1.5424 0.4413 0 1
4.3654 4.4713 -1.5728 0.4452 0 1
4.2667 4.7366 -1.6045 0.4364 0 1
4.1600 5.0089 -1.6387 0.4273 0 1
4.0465 5.2908 -1.6764 0.4158 0 1
3.9255 5.5839 -1.7179 0.4058 0 1
3.7947 5.8868 -1.7628 0.3955 0 1
3.6530 6.2004 -1.8112 0.3849 0 1
3.4995 6.5258 -1.8637 0.3740 0 1
3.3220 6.8410 -1.9140 0.3925 0 1
3.1356 7.1772 -1.9713 0.3721 0 1
2.9303 7.5166 -2.0305 0.3613 0 1
2.7090 7.8691 -2.0946 0.3502 0 1
2.4707 8.2379 -2.1646 0.3206 0 1
2.2248 8.6690 -2.2526 0.3081 0 1
1.9516 9.1094 -2.3447 0.3193 0 1
1.6494 9.5587 -2.4413 0.3067 0 1
1.3198 10.0398 -2.5486 0.2916 0 1
0.9582 10.5544 -2.6673 0.2786 0 1
0.5582 11.0724 -2.7903 0.2531 0 1
0.1189 11.6582 -2.9343 0.2517 0 24
-0.3692 12.3148 -3.1008 0.2258 0 1
-0.9102 12.9550 -3.2686 0.2189 0 24
-1.5255 13.7728 -3.4876 0.2016 0 1
-2.2187 14.6329 -3.7249 0.1778 0 1
-3.0083 15.5875 -3.9955 0.1681 0 1
-3.9070 16.6249 -4.2982 0.1602 0 1
-4.9295 17.7434 -4.6348 0.1496 0 1
-6.1070 18.9891 -5.0203 0.1390 0 1
-7.4675 20.3733 -5.4612 0.1278 0 1
-9.1038 22.0534 -6.0048 0.1122 0 1
-11.0550 23.9993 -6.6502 0.1014 0 24
-13.5239 26.5030 -7.4886 0.0953 0 1
-16.6180 29.5695 -8.5369 0.0893 0 2
-16.0566 26.0616 -7.7042 0.8383 0 15
-24.3273 36.1498 -10.9666 0.0593 0 25
-25.5852 34.9060 -10.8925 0.9233 0 21
-26.2252 32.9200 -10.5931 0.9604 0 3
-28.0439 32.4393 -10.7924 0.6740 0 3
-22.8789 24.4103 -8.4203 0.7355 0 5
-22.9899 22.6342 -8.1198 0.7227 0 5
-18.1573 16.4940 -6.1739 0.9748 0 6
-28.4677 23.8452 -9.3463 0.7782 0 3
-28.5437 22.0202 -9.0733 0.8016 0 3
-31.9436 22.6568 -9.8566 0.5666 0 3
-28.6751 18.6543 -8.6098 0.8447 0 3
-29.8883 17.7774 -8.7525 0.4357 0 3
-32.7805 17.7558 -9.3829 0.4678 0 3
-36.1318 17.7328 -10.1299 0.4333 0 3
-38.2039 16.8813 -10.5122 0.4517 0 3
-44.7734 17.6709 -12.1146 0.3623 0 3
-27.1341 9.4684 -7.2330 0.9249 0 22
-27.1498 7.0888 -7.0622 0.9755 0 22
-30.6332 -17.0476 -8.8233 0.9777 0 6
-32.8859 -33.1245 -11.7478 0.8907 0 20
-30.9633 -33.8008 -11.5369 0.9089 0 20
-28.6099 -33.8675 -11.1582 0.6772 0 20
-28.0452 -36.0409 -11.4936 0.6468 0 20
-26.5899 -37.1586 -11.5000 0.9829 0 9
-22.5520 -34.3515 -10.3424 0.5998 0 9
-18.2942 -30.4664 -8.9441 0.0727 0 2
-15.4485 -28.2383 -8.1012 0.0708 0 1
-12.3640 -24.9284 -7.0034 0.0951 0 24
-10.1277 -22.6632 -6.2476 0.0985 0 24
-8.2557 -20.6643 -5.6006 0.1142 0 24
-6.7480 -19.0814 -5.0939 0.1263 0 1
-5.4730 -17.7087 -4.6650 0.1441 0 1
-4.3979 -16.5603 -4.3124 0.1584 0 1
-3.4692 -15.5569 -4.0116 0.1737 0 1
-2.6567 -14.6630 -3.7505 0.1865 0 1
-1.9399 -13.8590 -3.5221 0.2001 0 1
-1.3045 -13.1471 -3.3252 0.2171 0 1
-0.7337 -12.4783 -3.1460 0.2275 0 1
-0.2196 -11.8316 -2.9783 0.2301 0 1
0.2426 -11.2252 -2.8259 0.2416 0 1
0.6593 -10.6588 -2.6878 0.2540 0 1
1.0364 -10.1302 -2.5629 0.2664 0 1
1.3783 -9.6332 -2.4492 0.2809 0 1
1.6894 -9.1649 -2.3455 0.2933 0 1
1.9665 -8.6935 -2.2433 0.3046 0 24
2.2336 -8.3083 -2.1653 0.3192 0 1
2.4725 -7.9145 -2.0869 0.3311 0 1
2.6930 -7.5418 -2.0155 0.3463 0 1
2.8965 -7.1864 -1.9501 0.3570 0 1
3.0838 -6.8446 -1.8894 0.3685 0 1
3.2569 -6.5165 -1.8335 0.3797 0 1
3.4170 -6.2009 -1.7819 0.3907 0 1
3.5669 -5.8994 -1.7351 0.3977 0 1
3.6994 -5.5977 -1.6887 0.3980 0 1
3.8181 -5.3015 -1.6443 0.4125 0 1
3.9253 -5.0128 -1.6024 0.4127 0 1
4.0234 -4.7335 -1.5636 0.4230 0 1
4.1136 -4.4631 -1.5276 0.4329 0 1
4.1962 -4.2010 -1.4944 0.4426 0 1
4.2720 -3.9464 -1.4637 0.4518 0 1
4.3498 -3.7058 -1.4382 0.4785 0 1
4.4239 -3.4723 -1.4154 0.4862 0 1
4.4925 -3.2432 -1.3945 0.4935 0 1
4.5562 -3.0185 -1.3755 0.5004 0 1
4.6157 -2.7979 -1.3585 0.5067 0 1
4.6705 -2.5806 -1.3430 0.5125 0 1
4.7208 -2.3661 -1.3290 0.5179 0 1
4.7667 -2.1541 -1.3165 0.5229 0 1
4.8085 -1.9444 -1.3054 0.5274 0 1
4.8463 -1.7367 -1.2957 0.5313 0 1
4.8801 -1.5306 -1.2872 0.5348 0 1
4.9102 -1.3260 -1.2801 0.5378 0 1
3.9056 -0.8881 -1.0081 0.5930 25 14
3.8323 -0.7109 -0.9810 0.8945 25 14
3.8230 -0.5514 -0.9721 0.9026 25 14
3.8140 -0.3946 -0.9650 0.9092 25 14
3.8054 -0.2397 -0.9597 0.9143 25 14
3.7984 -0.0864 -0.9562 0.9927 25 14
3.7985 0.0662 -0.9562 0.9928 25 14
3.8039 0.2193 -0.9590 0.9899 25 14
3.8092 0.3736 -0.9633 0.9854 25 14
3.8143 0.5295 -0.9692 0.9794 25 14
3.8208 0.6878 -0.9771 0.8980 25 14
3.8960 0.8642 -1.0044 0.5952 25 14
5.0269 1.3289 -1.3087 0.5283 0 1
5.0135 1.5433 -1.3203 0.5236 0 1
4.9889 1.7580 -1.3313 0.5116 0 1
4.9600 1.9751 -1.3437 0.5069 0 1
4.9270 2.1951 -1.3575 0.5014 0 1
4.8897 2.4183 -1.3729 0.4958 0 1
4.8478 2.6450 -1.3899 0.4897 0 1
4.8010 2.8755 -1.4085 0.4832 0 1
4.7492 3.1102 -1.4288 0.4764 0 1
4.6920 3.3494 -1.4509 0.4691 0 1
4.6295 3.5940 -1.4751 0.4615 0 1
4.5614 3.8444 -1.5014 0.4534 0 1
4.4869 4.1009 -1.5299 0.4449 0 1
4.4044 4.3627 -1.5603 0.4488 0 1
4.3087 4.6253 -1.5910 0.4401 0 1
4.2054 4.8946 -1.6241 0.4311 0 1
4.0941 5.1715 -1.6601 0.4199 0 1
3.9771 5.4608 -1.7002 0.4100 0 1
3.8504 5.7594 -1.7437 0.3998 0 1
3.7133 6.0685 -1.7906 0.3893 0 1
3.5649 6.3889 -1.8414 0.3786 0 1
3.3965 6.7066 -1.8921 0.4075 0 1
3.2154 7.0366 -1.9471 0.3858 0 1
3.0177 7.3738 -2.0053 0.3658 0 1
2.8032 7.7207 -2.0673 0.3548 0 1
2.5719 8.0815 -2.1345 0.3436 0 1
2.3299 8.4865 -2.2150 0.3133 0 1
2.0698 8.9295 -2.3070 0.3245 0 1
1.7785 9.3685 -2.4000 0.3120 0 1
1.4606 9.8350 -2.5025 0.2969 0 1
1.1129 10.3361 -2.6165 0.2840 0 1
0.7293 10.8534 -2.7378 0.2711 0 1
0.3074 11.4139 -2.8737 0.2437 0 1
-0.1592 12.0180 -3.0250 0.2425 0 24
-0.6774 12.6686 -3.1930 0.2264 0 24
-1.2627 13.4525 -3.4007 0.2068 0 1
-1.9186 14.2585 -3.6210 0.1829 0 1
-2.6671 15.1800 -3.8791 0.1731 0 1
-3.5075 16.1320 -4.1550 0.1609 0 24
-4.4869 17.2648 -4.4896 0.1533 0 1
-5.5956 18.4521 -4.8529 0.1441 0 1
-6.8754 19.7753 -5.2694 0.1325 0 1
-8.3761 21.2934 -5.7589 0.1170 0 1
-10.2192 23.1981 -6.3800 0.1085 0 1
-12.4711 25.4837 -7.1407 0.1000 0 1
-15.1157 27.9819 -8.0044 0.0939 0 1
-15.6882 26.4439 -7.7386 0.5588 0 15
-16.9113 26.0603 -7.8189 0.7833 0 15
-26.8172 37.9003 -11.6853 0.8981 0 3
-26.1690 34.0010 -10.7986 0.9305 0 21
-25.8378 30.9177 -10.1410 0.7622 0 21
-22.8254 25.1845 -8.5545 0.7251 0 5
-22.9686 23.3824 -8.2493 0.7128 0 5
-23.0232 21.6278 -7.9503 0.7619 0 5
-31.9168 27.6555 -10.6290 0.6402 0 3
-28.3611 22.6460 -9.1344 0.9476 0 3
-30.8476 22.6643 -9.6341 0.5797 0 3
-33.2619 22.4386 -10.0983 0.8361 0 3
-28.7907 17.7831 -8.5170 0.5154 0 3
-31.5258 17.7644 -9.1075 0.4820 0 3
-34.6737 17.7428 -9.8030 0.4478 0 3
-38.3485 17.7176 -10.6320 0.4129 0 3
-38.3397 15.8777 -10.4442 0.1280 0 3
-27.1099 9.9716 -7.2700 0.9518 0 22
-27.1153 7.5664 -7.0852 0.9718 0 22
-32.0615 -33.3929 -12.1982 0.8060 0 20
-28.5446 -32.2262 -11.3438 0.6945 0 20
-28.0018 -34.2950 -11.6664 0.6655 0 20
-25.8507 -34.3923 -11.3369 0.7519 0 9
-21.8831 -31.6876 -10.1472 0.0669 0 2
-17.4489 -27.5726 -8.5980 0.4425 0 6
-15.2335 -26.3582 -8.0219 0.0728 0 1
-12.3929 -23.5812 -7.0195 0.0958 0 1
-10.2262 -21.5147 -6.2769 0.1028 0 24
-8.4731 -19.8450 -5.6858 0.1164 0 1
-6.9787 -18.3529 -5.1738 0.1298 0 1
-5.7333 -17.1175 -4.7568 0.1480 0 1
-4.6708 -16.0603 -4.4072 0.1618 0 1
-3.7498 -15.1357 -4.1088 0.1771 0 1
-2.9402 -14.3072 -3.8487 0.1911 0 1
-2.2225 -13.5551 -3.6195 0.2033 0 1
-1.5845 -12.8862 -3.4211 0.2203 0 1
-1.0098 -12.2607 -3.2416 0.2207 0 1
-0.4892 -11.6398 -3.0698 0.2330 0 1
-0.0203 -11.0449 -2.9103 0.2425 0 24
0.4035 -10.5214 -2.7744 0.2569 0 1
0.7878 -10.0150 -2.6471 0.2712 0 1
1.1332 -9.5043 -2.5221 0.2815 0 24
1.4562 -9.0903 -2.4258 0.2961 0 1
1.7472 -8.6633 -2.3287 0.3084 0 1
2.0078 -8.2338 -2.2332 0.3252 0 24
2.2599 -7.8783 -2.1597 0.3341 0 1
2.4869 -7.5164 -2.0862 0.3493 0 1
2.6965 -7.1707 -2.0187 0.3610 0 1
2.8897 -6.8374 -1.9560 0.3716 0 1
3.0684 -6.5171 -1.8981 0.3829 0 1
3.2338 -6.2085 -1.8446 0.3940 0 1
3.3872 -5.9108 -1.7951 0.4049 0 1
3.5290 -5.6222 -1.7491 0.4011 0 1
3.6518 -5.3297 -1.7024 0.4056 0 1
3.7637 -5.0459 -1.6587 0.4163 0 1
3.8667 -4.7714 -1.6183 0.4267 0 1
3.9615 -4.5056 -1.5809 0.4368 0 1
4.0485 -4.2478 -1.5462 0.4465 0 1
4.1284 -3.9971 -1.5142 0.4560 0 1
4.2076 -3.7584 -1.4866 0.4833 0 1
4.2850 -3.5287 -1.4627 0.4912 0 1
4.3567 -3.3033 -1.4407 0.4987 0 1
4.4229 -3.0818 -1.4205 0.5058 0 1
4.4849 -2.8645 -1.4023 0.5125 0 1
4.5424 -2.6506 -1.3858 0.5185 0 1
4.5952 -2.4396 -1.3709 0.5242 0 1
4.6436 -2.2310 -1.3575 0.5294 0 1
4.6878 -2.0247 -1.3455 0.5342 0 1
4.7278 -1.8204 -1.3349 0.5384 0 1
4.7639 -1.6178 -1.3257 0.5421 0 1
4.7961 -1.4166 -1.3178 0.5454 0 1
4.1246 -1.0402 -1.1209 0.8966 25 14
3.8773 -0.8137 -1.0439 0.6701 25 14
3.8359 -0.6454 -1.0250 0.8937 25 14
3.8267 -0.4868 -1.0164 0.9012 25 14
3.8178 -0.3305 -1.0098 0.9072 25 14
3.8114 -0.1762 -1.0054 0.8594 25 14
3.8061 -0.0229 -1.0029 0.8615 25 14
3.8072 0.1301 -1.0038 0.8608 25 14
3.8117 0.2838 -1.0072 0.9095 25 14
3.8179 0.4390 -1.0126 0.9046 25 14
3.8245 0.5963 -1.0199 0.8981 25 14
3.8388 0.7575 -1.0310 0.6785 25 14
4.1096 0.9839 -1.1135 0.9025 25 14
4.9206 1.3892 -1.3473 0.5357 0 1
4.9001 1.5985 -1.3581 0.5235 0 1
4.8733 1.8094 -1.3698 0.5191 0 1
4.8423 2.0227 -1.3828 0.5142 0 1
4.8071 2.2388 -1.3973 0.5085 0 1
4.7675 2.4580 -1.4134 0.5027 0 1
4.7233 2.6805 -1.4310 0.4965 0 1
4.6741 2.9067 -1.4504 0.4899 0 1
4.6197 3.1370 -1.4714 0.4829 0 1
4.5599 3.3717 -1.4943 0.4755 0 1
4.4951 3.6117 -1.5194 0.4677 0 1
4.4241 3.8571 -1.5466 0.4595 0 1
4.3466 4.1082 -1.5760 0.4509 0 1
4.2612 4.3645 -1.6073 0.4548 0 1
4.1628 4.6213 -1.6389 0.4460 0 1
4.0567 4.8844 -1.6730 0.4369 0 1
3.9434 5.1561 -1.7104 0.4255 0 1
3.8232 5.4383 -1.7517 0.4155 0 1
3.6932 5.7294 -1.7962 0.4052 0 1
3.5527 6.0302 -1.8442 0.3946 0 1
3.4007 6.3416 -1.8961 0.3838 0 1
3.2331 6.6580 -1.9503 0.4022 0 1
3.0465 6.9732 -2.0051 0.3819 0 1
2.8446 7.2966 -2.0636 0.3711 0 1
2.6273 7.6318 -2.1268 0.3601 0 1
2.3933 7.9798 -2.1952 0.3488 0 1
2.1494 8.3753 -2.2784 0.3180 0 1
1.8862 8.8040 -2.3725 0.3054 0 1
1.5934 9.2336 -2.4690 0.3166 0 1
1.2727 9.6816 -2.5731 0.3015 0 1
0.9225 10.1611 -2.6885 0.2885 0 1
0.5361 10.6339 -2.8056 0.2762 0 1
0.1139 11.1630 -2.9416 0.2507 0 1
-0.3523 11.7506 -3.0977 0.2360 0 1
-0.8672 12.3437 -3.2606 0.2312 0 24
-1.4475 13.0689 -3.4647 0.2119 0 1
-2.0927 13.8019 -3.6784 0.1996 0 1
-2.8256 14.6410 -3.9291 0.1784 0 1
-3.6569 15.5610 -4.2120 0.1672 0 1
-4.5938 16.5350 -4.5220 0.1589 0 1
-5.6616 17.6043 -4.8727 0.1486 0 1
-6.8772 18.7628 -5.2657 0.1369 0 1
-8.2961 20.0968 -5.7290 0.1186 0 1
-10.0283 21.7703 -6.3158 0.1115 0 1
-12.1213 23.7543 -7.0271 0.1011 0 1
-14.5739 25.9324 -7.8384 0.1031 0 1
-16.8226 27.3048 -8.4507 0.0804 0 2
-20.5611 30.5533 -9.7040 0.0700 0 2
-25.4445 34.7140 -11.3412 0.0599 0 25
-27.7454 34.8283 -11.7334 0.6472 0 3
-27.8932 32.2649 -11.2384 0.6757 0 3
-22.7784 24.3032 -8.7770 0.7122 0 5
-22.8555 22.5019 -8.4514 0.6714 0 5
-22.9707 20.8665 -8.1773 0.8182 0 5
-28.3351 23.7341 -9.7395 0.7796 0 3
-28.4145 21.9206 -9.4563 0.8029 0 3
-31.9422 22.6558 -10.3190 0.5650 0 3
-28.5520 18.5742 -8.9753 0.8460 0 3
-29.7228 17.6790 -9.1127 0.9984 0 3
-32.7788 17.7548 -9.8229 0.4665 0 3
-36.1297 17.7318 -10.6049 0.4321 0 3
-40.0672 17.7047 -11.5425 0.3970 0 3
-44.7704 17.6697 -12.6826 0.3613 0 3
-27.0294 9.4318 -7.5434 0.9056 0 22
-46.4136 8.2091 -12.4198 0.6766 0 6
-32.8394 -33.0776 -12.2819 0.8913 0 20
-28.8033 -31.4429 -11.2360 0.7099 0 20
-28.0743 -33.2334 -11.4634 0.6773 0 20
-23.5367 -30.2470 -10.0988 0.8940 0 20
-22.8387 -31.9164 -10.3414 0.8643 0 9
-19.4014 -29.5525 -9.3153 0.0729 0 2
-16.5471 -27.5568 -8.4697 0.5621 0 2
-13.4699 -24.6217 -7.3952 0.0880 0 1
-11.0795 -22.3386 -6.5705 0.1040 0 24
-9.1780 -20.5379 -5.9275 0.1116 0 1
-7.5706 -18.9496 -5.3770 0.1249 0 1
-6.2263 -17.6061 -4.9208 0.1431 0 1
-5.0947 -16.4844 -4.5464 0.1568 0 1
-4.1181 -15.5065 -4.2276 0.1721 0 1
-3.2648 -14.6405 -3.9525 0.1848 0 1
-2.5113 -13.8603 -3.7117 0.1982 0 1
-1.8418 -13.1579 -3.5009 0.2152 0 1
-1.2422 -12.5191 -3.3150 0.2273 0 1
-0.6993 -11.8926 -3.1391 0.2279 0 1
-0.2097 -11.2981 -2.9776 0.2402 0 1
0.2322 -10.7423 -2.8313 0.2517 0 1
0.6323 -10.2218 -2.6986 0.2641 0 1
0.9960 -9.7356 -2.5787 0.2784 0 1
1.3271 -9.2752 -2.4689 0.2909 0 1
1.6292 -8.8382 -2.3681 0.3033 0 1
1.8991 -8.3956 -2.2681 0.3197 0 24
2.1602 -8.0352 -2.1925 0.3291 0 1
2.3945 -7.6649 -2.1160 0.3444 0 1
2.6112 -7.3128 -2.0461 0.3561 0 1
2.8111 -6.9746 -1.9815 0.3668 0 1
2.9956 -6.6490 -1.9216 0.3782 0 1
3.1664 -6.3356 -1.8663 0.3894 0 1
3.3247 -6.0335 -1.8152 0.4004 0 1
3.4720 -5.7424 -1.7682 0.4075 0 1
3.6024 -5.4509 -1.7216 0.4010 0 1
3.7183 -5.1628 -1.6765 0.4118 0 1
3.8249 -4.8846 -1.6347 0.4224 0 1
3.9230 -4.6153 -1.5961 0.4326 0 1
4.0132 -4.3542 -1.5603 0.4425 0 1
4.0960 -4.1006 -1.5272 0.4521 0 1
4.1736 -3.8555 -1.4972 0.4799 0 1
4.2535 -3.6238 -1.4724 0.4880 0 1
4.3275 -3.3966 -1.4496 0.4957 0 1
4.3960 -3.1735 -1.4286 0.5029 0 1
4.4595 -2.9545 -1.4096 0.5098 0 1
4.5190 -2.7393 -1.3925 0.5161 0 1
4.5738 -2.5271 -1.3769 0.5219 0 1
4.6240 -2.3175 -1.3629 0.5273 0 1
4.6699 -2.1104 -1.3503 0.5322 0 1
4.7116 -1.9053 -1.3392 0.5367 0 1
4.7494 -1.7020 -1.3294 0.5406 0 1
4.7832 -1.5002 -1.3209 0.5441 0 1
4.8132 -1.2998 -1.3137 0.5471 0 1
3.9140 -0.8900 -1.0577 0.7371 25 14
3.8399 -0.7123 -1.0291 0.8902 25 14
3.8305 -0.5525 -1.0198 0.8983 25 14
3.8214 -0.3953 -1.0123 0.9049 25 14
3.8138 -0.2402 -1.0069 0.8581 25 14
3.8082 -0.0866 -1.0037 0.8608 25 14
3.8065 0.0663 -1.0032 0.8613 25 14
3.8092 0.2196 -1.0054 0.9111 25 14
3.8153 0.3742 -1.0102 0.9068 25 14
3.8217 0.5305 -1.0167 0.9010 25 14
3.8285 0.6892 -1.0250 0.8937 25 14
3.9010 0.8653 -1.0529 0.5927 25 14
4.9260 1.3022 -1.3426 0.5376 0 1
4.9100 1.5114 -1.3537 0.5252 0 1
4.8849 1.7213 -1.3648 0.5210 0 1
4.8557 1.9335 -1.3772 0.5163 0 1
4.8222 2.1484 -1.3911 0.5108 0 1
4.7846 2.3663 -1.4065 0.5052 0 1
4.7423 2.5874 -1.4235 0.4992 0 1
4.6952 2.8121 -1.4421 0.4927 0 1
4.6430 3.0406 -1.4624 0.4859 0 1
4.5855 3.2734 -1.4846 0.4786 0 1
4.5228 3.5112 -1.5087 0.4710 0 1
4.4544 3.7543 -1.5350 0.4629 0 1
4.3797 4.0029 -1.5635 0.4545 0 1
4.2983 4.2577 -1.5942 0.4458 0 1
4.2047 4.5137 -1.6254 0.4497 0 1
4.1018 4.7741 -1.6585 0.4408 0 1
3.9909 5.0412 -1.6942 0.4315 0 1
3.8744 5.3198 -1.7341 0.4197 0 1
3.7485 5.6070 -1.7772 0.4095 0 1
3.6125 5.9037 -1.8238 0.3990 0 1
3.4654 6.2106 -1.8740 0.3883 0 1
3.3064 6.5286 -1.9283 0.3774 0 1
3.1263 6.8417 -1.9821 0.3863 0 1
2.9304 7.1606 -2.0387 0.3756 0 1
2.7197 7.4907 -2.0999 0.3647 0 1
2.4929 7.8333 -2.1661 0.3535 0 1
2.2522 8.2036 -2.2416 0.3232 0 1
1.9987 8.6226 -2.3323 0.3107 0 1
1.7190 9.0552 -2.4287 0.3218 0 1
1.4095 9.4907 -2.5282 0.3092 0 1
1.0722 9.9579 -2.6391 0.2939 0 1
0.7011 10.4343 -2.7556 0.2812 0 1
0.2944 10.9314 -2.8815 0.2559 0 1
-0.1523 11.4999 -3.0305 0.2412 0 1
-0.6478 12.1155 -3.1970 0.2287 0 1
-1.1996 12.7809 -3.3826 0.2161 0 1
-1.8151 13.4891 -3.5864 0.2047 0 1
-2.5086 14.2775 -3.8197 0.1810 0 1
-3.2979 15.1676 -4.0901 0.1714 0 1
-4.1774 16.0738 -4.3761 0.1629 0 24
-5.1997 17.1466 -4.7213 0.1533 0 1
-6.3497 18.2631 -5.0949 0.1415 0 1
-7.6268 19.3885 -5.4899 0.1259 0 24
-9.2718 21.0474 -6.0603 0.1162 0 1
-11.2036 22.8935 -6.7161 0.1058 0 1
-13.5074 25.0047 -7.4886 0.0979 0 1
-16.3913 27.6290 -8.4650 0.0940 0 2
-18.8898 29.1091 -9.1437 0.0743 0 2
-23.2414 32.8466 -10.6026 0.0641 0 25
-26.0802 33.8857 -11.2673 0.6123 0 3
-25.6644 30.7102 -10.5459 0.9647 0 21
-22.7227 25.0712 -8.9158 0.6028 0 5
-22.8388 23.2503 -8.5878 0.7042 0 5
-22.9131 21.5243 -8.2837 0.7330 0 5
-23.0127 19.9402 -8.0236 0.7584 0 5
-28.3816 22.6624 -9.5702 0.7934 0 3
-30.8463 22.6633 -10.0860 0.5781 0 3
-33.1176 22.3413 -10.5265 0.8374 0 3
-28.7894 17.7822 -8.9164 0.5139 0 3
-33.2496 18.7357 -10.0565 0.8765 0 3
-34.6718 17.7418 -10.2627 0.4465 0 3
-38.3463 17.7165 -11.1305 0.4117 0 3
-38.5285 15.9559 -10.9884 0.8344 0 3
-26.9990 9.9308 -7.5802 0.9757 0 22
-27.0334 7.5435 -7.3954 0.9622 0 22
-32.7417 -31.4682 -12.5059 0.6646 0 20
-29.8009 -31.0385 -11.8496 0.6906 0 20
-28.0305 -31.6458 -11.6419 0.6949 0 20
-25.9922 -31.8338 -11.3176 0.7581 0 9
-22.7263 -30.2356 -10.4163 0.7330 0 9
-18.8188 -27.2504 -9.1200 0.0776 0 2
-16.4929 -26.0621 -8.4936 0.0982 0 2
-13.2336 -22.8978 -7.2831 0.0964 0 24
-11.1021 -21.1249 -6.5720 0.1087 0 24
-9.2994 -19.5648 -5.9655 0.1156 0 1
-7.7613 -18.1779 -5.4431 0.1286 0 1
-6.4561 -16.9787 -5.0023 0.1467 0 1
-5.3435 -15.9537 -4.6333 0.1603 0 1
-4.3795 -15.0585 -4.3187 0.1755 0 1
-3.5327 -14.2596 -4.0456 0.1899 0 1
-2.7815 -13.5348 -3.8052 0.2015 0 1
-2.1115 -12.8781 -3.5938 0.2185 0 1
-1.5094 -12.2760 -3.4061 0.2245 0 1
-0.9623 -11.6838 -3.2284 0.2309 0 1
-0.4674 -11.1198 -3.0649 0.2432 0 1
-0.0194 -10.5707 -2.9110 0.2528 0 24
0.3871 -10.0934 -2.7816 0.2670 0 1
0.7574 -9.6284 -2.6597 0.2813 0 1
1.0956 -9.1891 -2.5485 0.2935 0 1
1.4046 -8.7683 -2.4455 0.3061 0 1
1.6877 -8.3684 -2.3509 0.3198 0 1
1.9427 -7.9669 -2.2583 0.3347 0 24
2.1892 -7.6317 -2.1864 0.3473 0 1
2.4118 -7.2894 -2.1144 0.3591 0 1
2.6175 -6.9606 -2.0479 0.3698 0 1
2.8075 -6.6431 -1.9861 0.3813 0 1
2.9836 -6.3371 -1.9289 0.3926 0 1
3.1470 -6.0418 -1.8760 0.4037 0 1
3.2986 -5.7562 -1.8270 0.4145 0 1
3.4355 -5.4732 -1.7796 0.4043 0 1
3.5565 -5.1907 -1.7328 0.4152 0 1
3.6680 -4.9175 -1.6895 0.4258 0 1
3.7707 -4.6529 -1.6493 0.4362 0 1
3.8653 -4.3963 -1.6121 0.4463 0 1
3.9523 -4.1469 -1.5776 0.4560 0 1
4.0324 -3.9041 -1.5457 0.4655 0 1
4.1151 -3.6758 -1.5195 0.4927 0 1
4.1923 -3.4523 -1.4956 0.5006 0 1
4.2638 -3.2328 -1.4735 0.5081 0 1
4.3299 -3.0170 -1.4533 0.5152 0 1
4.3917 -2.8050 -1.4351 0.5218 0 1
4.4491 -2.5962 -1.4186 0.5278 0 1
4.5018 -2.3900 -1.4036 0.5335 0 1
4.5502 -2.1861 -1.3902 0.5387 0 1
4.5943 -1.9843 -1.3782 0.5434 0 1
4.6342 -1.7844 -1.3675 0.5476 0 1
4.6702 -1.5860 -1.3583 0.5514 0 1
4.7024 -1.3889 -1.3503 0.5546 0 1
4.1589 -1.0488 -1.1812 0.6765 25 14
3.8917 -0.8167 -1.0951 0.7419 25 14
3.8450 -0.6469 -1.0737 0.8385 25 14
3.8378 -0.4882 -1.0654 0.8450 25 14
3.8312 -0.3317 -1.0590 0.8501 25 14
3.8253 -0.1768 -1.0545 0.8537 25 14
3.8198 -0.0230 -1.0520 0.8558 25 14
3.8210 0.1305 -1.0529 0.8551 25 14
3.8232 0.2847 -1.0558 0.8528 25 14
3.8258 0.4399 -1.0605 0.8489 25 14
3.8322 0.5975 -1.0681 0.8937 25 14
3.8610 0.7619 -1.0838 0.6726 25 14
4.1162 0.9855 -1.1656 0.8984 25 14
4.8228 1.3616 -1.3801 0.5449 0 1
4.7999 1.5659 -1.3904 0.5329 0 1
4.7728 1.7721 -1.4020 0.5284 0 1
4.7415 1.9806 -1.4151 0.5236 0 1
4.7060 2.1917 -1.4296 0.5179 0 1
4.6661 2.4057 -1.4457 0.5121 0 1
4.6216 2.6228 -1.4634 0.5060 0 1
4.5721 2.8433 -1.4827 0.4994 0 1
4.5175 3.0676 -1.5038 0.4924 0 1
4.4576 3.2960 -1.5267 0.4850 0 1
4.3925 3.5293 -1.5517 0.4772 0 1
4.3214 3.7675 -1.5788 0.4690 0 1
4.2439 4.0111 -1.6081 0.4605 0 1
4.1595 4.2604 -1.6397 0.4516 0 1
4.0633 4.5109 -1.6719 0.4556 0 1
3.9577 4.7653 -1.7059 0.4465 0 1
3.8449 5.0273 -1.7429 0.4351 0 1
3.7254 5.2992 -1.7839 0.4251 0 1
3.5964 5.5793 -1.8280 0.4148 0 1
3.4572 5.8681 -1.8756 0.4043 0 1
3.3068 6.1665 -1.9269 0.3935 0 1
3.1439 6.4742 -1.9820 0.3798 0 1
2.9618 6.7793 -2.0373 0.3917 0 1
2.7632 7.0880 -2.0950 0.3809 0 1
2.5500 7.4071 -2.1573 0.3699 0 1
2.3207 7.7375 -2.2246 0.3587 0 1
2.0786 8.0993 -2.3027 0.3279 0 1
1.8215 8.5023 -2.3946 0.3153 0 1
1.5406 8.9276 -2.4949 0.3026 0 1
1.2286 9.3463 -2.5960 0.3114 0 1
0.8889 9.7911 -2.7074 0.2982 0 1
0.5157 10.2294 -2.8206 0.2863 0 1
0.1091 10.6988 -2.9465 0.2608 0 1
-0.3368 11.2345 -3.0952 0.2482 0 1
-0.8279 11.7842 -3.2532 0.2398 0 24
-1.3767 12.4299 -3.4440 0.2221 0 1
-1.9736 13.0161 -3.6254 0.2103 0 24
-2.6633 13.7999 -3.8704 0.1977 0 1
-3.4326 14.6065 -4.1320 0.1768 0 1
-4.2993 15.4751 -4.4230 0.1705 0 1
-5.2733 16.3969 -4.7432 0.1579 0 1
-6.3737 17.3890 -5.1002 0.1503 0 1
-7.5773 18.3555 -5.4686 0.1321 0 24
-9.1265 19.8127 -6.0072 0.1179 0 1
-10.9292 21.4181 -6.6218 0.1092 0 1
-13.0677 23.2523 -7.3453 0.1037 0 1
-15.4589 25.0914 -8.1160 0.1035 0 1
-17.7907 26.4366 -8.7753 0.0806 0 2
-21.5268 29.3691 -10.0278 0.0706 0 2
-26.3392 33.0631 -11.6411 0.0608 0 25
-22.5428 26.0760 -9.4924 0.6786 0 5
-22.6263 24.1409 -9.1116 0.7088 0 5
-22.7452 22.3933 -8.7900 0.7705 0 5
-22.8429 20.7504 -8.4986 0.8322 0 5
-22.9491 19.2226 -8.2440 0.6986 0 5
-23.0338 17.7696 -8.0114 0.7794 0 5
-31.9408 22.6549 -10.7840 0.5633 0 3
-28.4293 18.4944 -9.3399 0.8471 0 3
-29.6468 17.6338 -9.4994 0.8378 0 3
-32.7770 17.7539 -10.2654 0.4652 0 3
-38.0810 18.6894 -11.6819 0.9021 0 3
-38.0711 16.8226 -11.4622 0.5432 0 3
-44.7674 17.6685 -13.2538 0.3602 0 3
-26.9044 9.3882 -7.8472 0.9381 0 22
-26.9188 8.1964 -7.7491 0.9736 0 22
-46.2306 8.1767 -12.9289 0.9414 0 6
-31.2196 -31.4461 -12.2028 0.6811 0 20
-28.4261 -31.0310 -11.5890 0.7061 0 20
-26.6723 -31.5738 -11.3822 0.9701 0 9
-23.1127 -29.7022 -10.3643 0.9949 0 9
-20.3727 -28.4703 -9.6409 0.0734 0 2
-16.8784 -25.7095 -8.4694 0.0836 0 2
-14.4590 -24.0794 -7.7348 0.0787 0 1
-11.9799 -21.8981 -6.8739 0.1013 0 1
-10.0273 -20.2171 -6.2147 0.1132 0 1
-8.3700 -18.7298 -5.6495 0.1255 0 1
-6.9696 -17.4453 -5.1734 0.1418 0 1
-5.7853 -16.3590 -4.7785 0.1556 0 1
-4.7640 -15.4144 -4.4430 0.1706 0 1
-3.8726 -14.5823 -4.1550 0.1827 0 1
-3.0840 -13.8299 -3.9021 0.1964 0 1
-2.3809 -13.1409 -3.6777 0.2135 0 1
-1.7528 -12.5225 -3.4821 0.2255 0 1
-1.1837 -11.9292 -3.3013 0.2264 0 1
-0.6673 -11.3499 -3.1310 0.2381 0 1
-0.2006 -10.8074 -2.9767 0.2495 0 1
0.2225 -10.2968 -2.8362 0.2618 0 1
0.6074 -9.8186 -2.7091 0.2762 0 1
0.9585 -9.3690 -2.5936 0.2884 0 1
1.2793 -8.9411 -2.4873 0.3009 0 1
1.5728 -8.5324 -2.3893 0.3133 0 1
1.8366 -8.1193 -2.2924 0.3300 0 24
2.0911 -7.7785 -2.2182 0.3423 0 1
2.3212 -7.4302 -2.1437 0.3542 0 1
2.5339 -7.0961 -2.0750 0.3659 0 1
2.7302 -6.7738 -2.0112 0.3766 0 1
2.9119 -6.4632 -1.9522 0.3880 0 1
3.0804 -6.1635 -1.8975 0.3991 0 1
3.2368 -5.8740 -1.8470 0.4101 0 1
3.3821 -5.5936 -1.8001 0.4205 0 1
3.5074 -5.3071 -1.7518 0.4107 0 1
3.6227 -5.0302 -1.7071 0.4214 0 1
3.7290 -4.7621 -1.6656 0.4319 0 1
3.8269 -4.5022 -1.6272 0.4421 0 1
3.9170 -4.2499 -1.5916 0.4520 0 1
3.9999 -4.0044 -1.5587 0.4616 0 1
4.0812 -3.7701 -1.5301 0.4893 0 1
4.1609 -3.5449 -1.5053 0.4974 0 1
4.2347 -3.3237 -1.4825 0.5050 0 1
4.3030 -3.1064 -1.4615 0.5123 0 1
4.3664 -2.8928 -1.4424 0.5191 0 1
4.4258 -2.6828 -1.4252 0.5254 0 1
4.4804 -2.4755 -1.4097 0.5312 0 1
4.5306 -2.2707 -1.3956 0.5365 0 1
4.5764 -2.0681 -1.3830 0.5415 0 1
4.6181 -1.8674 -1.3718 0.5459 0 1
4.6557 -1.6684 -1.3620 0.5499 0 1
4.6895 -1.4708 -1.3534 0.5533 0 1
4.7194 -1.2745 -1.3462 0.5563 0 1
4.0041 -0.9105 -1.1308 0.0581 25 14
3.8489 -0.7140 -1.0780 0.7511 25 14
3.8407 -0.5540 -1.0686 0.8425 25 14
3.8339 -0.3966 -1.0614 0.8482 25 14
3.8277 -0.2411 -1.0562 0.8524 25 14
3.8220 -0.0869 -1.0528 0.8551 25 14
3.8203 0.0666 -1.0522 0.8556 25 14
3.8222 0.2204 -1.0543 0.8539 25 14
3.8246 0.3751 -1.0583 0.8507 25 14
3.8293 0.5316 -1.0647 0.8965 25 14
3.8362 0.6906 -1.0734 0.8892 25 14
3.9093 0.8671 -1.1027 0.7367 25 14
4.8284 1.2764 -1.3754 0.5468 0 1
4.8100 1.4806 -1.3859 0.5346 0 1
4.7846 1.6860 -1.3970 0.5303 0 1
4.7551 1.8935 -1.4095 0.5256 0 1
