ply
format ascii 1.0
element vertex 1572
property float32 x
property float32 y
property float32 z
property float32 I
end_header
4.9126 3.5372 -1.3817 0.9755
4.7824 4.0644 -1.4325 0.9746
4.6176 4.6119 -1.4896 0.9736
4.3039 5.4835 -1.5910 0.9718
3.7489 6.7861 -1.7695 0.9687
3.3838 7.4898 -1.8759 0.9668
2.9601 8.2636 -2.0035 0.9646
2.4668 9.1406 -2.1609 0.9619
2.1841 9.6132 -2.2501 0.9604
1.5353 10.6602 -2.4582 0.9568
-0.2364 13.3488 -3.0473 0.9467
-0.8226 14.1918 -3.2446 0.9433
-1.4956 15.1996 -3.4860 0.9393
-4.1719 18.7761 -4.3900 0.9241
-6.7549 21.9134 -5.2338 0.9102
-13.0911 29.3484 -7.3348 0.8765
-16.5642 33.4532 -8.5202 0.8580
-17.0788 26.0499 -7.1096 0.8800
-23.1401 25.2888 -7.8238 0.8688
-28.5352 28.7733 -9.2492 0.8468
-28.6601 26.6657 -8.9350 0.8516
-27.8708 23.9160 -8.3823 0.8601
-28.6392 22.6427 -8.3329 0.8609
-28.9067 19.2969 -7.9328 0.8671
-31.5180 17.5575 -8.2347 0.8624
-34.6037 17.4933 -8.8499 0.8529
-38.9984 15.9253 -9.6147 0.8413
-30.8747 -18.3644 -8.1993 0.8630
-33.3373 -32.8284 -10.6790 0.8253
-31.6332 -33.7588 -10.5593 0.8271
-28.7316 -39.2126 -11.0954 0.8192
-24.7612 -40.2083 -10.7779 0.8239
-21.4901 -38.2585 -10.0155 0.8352
-10.9268 -26.4897 -6.5403 0.8891
-6.8909 -21.4488 -5.1420 0.9117
-5.4410 -19.6087 -4.6447 0.9199
-4.2524 -18.1219 -4.2486 0.9265
-1.6395 -14.8549 -3.4111 0.9405
0.6015 -11.8259 -2.7027 0.9526
1.7365 -10.0335 -2.3241 0.9591
2.3237 -9.0342 -2.1291 0.9625
2.5792 -8.5823 -2.0454 0.9639
3.2246 -7.3689 -1.8359 0.9675
3.4062 -7.0033 -1.7775 0.9686
3.5754 -6.6571 -1.7247 0.9695
3.7317 -6.3247 -1.6761 0.9703
3.8763 -6.0047 -1.6313 0.9711
4.2121 -5.0642 -1.5034 0.9733
4.3054 -4.7725 -1.4670 0.9740
4.3894 -4.4891 -1.4330 0.9746
4.4662 -4.2147 -1.4016 0.9751
4.5363 -3.9487 -1.3727 0.9756
4.6095 -3.6977 -1.3488 0.9760
4.8052 -2.9826 -1.2909 0.9771
4.9596 -2.3044 -1.2482 0.9778
5.0025 -2.0842 -1.2369 0.9780
5.0413 -1.8664 -1.2270 0.9782
5.0762 -1.6507 -1.2183 0.9783
5.1073 -1.4367 -1.2109 0.9785
3.9577 -0.9435 -0.9286 0.9834
3.8302 -0.7519 -0.8909 0.9841
3.8280 -0.5928 -0.8841 0.9842
3.8228 -0.4356 -0.8782 0.9843
3.8092 0.0270 -0.8694 0.9845
3.8523 0.8131 -0.8986 0.9840
5.2315 1.5520 -1.2455 0.9779
5.1222 2.4689 -1.2978 0.9769
5.0824 2.7065 -1.3143 0.9767
5.0378 2.9485 -1.3323 0.9763
4.9882 3.1952 -1.3521 0.9760
4.9333 3.4471 -1.3736 0.9756
4.8728 3.7049 -1.3971 0.9752
4.7349 4.2412 -1.4509 0.9743
4.6499 4.5145 -1.4792 0.9738
4.5557 4.7934 -1.5094 0.9732
4.4538 5.0802 -1.5420 0.9727
3.8104 6.6725 -1.7538 0.9690
3.4510 7.3592 -1.8552 0.9672
3.0410 8.1255 -1.9802 0.9650
2.5605 8.9806 -2.1314 0.9624
1.9868 9.9350 -2.3125 0.9593
1.2969 11.0339 -2.5358 0.9554
0.4520 12.3357 -2.8174 0.9506
-0.0463 13.0067 -2.9687 0.9480
-0.6076 13.8811 -3.1713 0.9446
-6.2395 21.3081 -5.0676 0.9129
-15.0743 31.5596 -7.9828 0.8663
-16.5478 26.0363 -7.0413 0.8811
-26.2906 37.9101 -10.5298 0.8276
-28.1241 37.2627 -10.6555 0.8257
-30.8721 37.6563 -11.1140 0.8189
-23.0621 25.9311 -7.9207 0.8673
-28.5971 27.3722 -9.0352 0.8501
-31.3275 27.6615 -9.5388 0.8424
-28.8264 21.5954 -8.2210 0.8626
-28.9407 18.2488 -7.8091 0.8690
-30.8651 17.7707 -8.1290 0.8640
-37.4546 17.7258 -9.4578 0.8437
-43.6391 18.5452 -10.8224 0.8232
-27.3328 7.8977 -6.4937 0.8898
-30.9867 -16.2208 -7.9829 0.8663
-30.8794 -17.7805 -8.1329 0.8640
-3.6279 -16.5076 -4.0552 0.9328
-1.9952 -14.5846 -3.5319 0.9412
-1.3237 -13.7788 -3.3212 0.9447
-0.7244 -13.0181 -3.1283 0.9478
0.2900 -11.6992 -2.8079 0.9530
1.1098 -10.5144 -2.5368 0.9574
1.7784 -9.4755 -2.3132 0.9611
2.3324 -8.5641 -2.1297 0.9641
2.7973 -7.7529 -1.9775 0.9667
3.0031 -7.3799 -1.9117 0.9678
3.1919 -7.0218 -1.8507 0.9688
3.3661 -6.6790 -1.7945 0.9697
3.8125 -5.7263 -1.6506 0.9721
3.9300 -5.4177 -1.6059 0.9728
4.0390 -5.1216 -1.5650 0.9735
4.1367 -4.8328 -1.5263 0.9742
4.2260 -4.5533 -1.4905 0.9748
4.3827 -4.0202 -1.4269 0.9758
4.4568 -3.7699 -1.4006 0.9763
4.5305 -3.5301 -1.3780 0.9767
4.6620 -3.0647 -1.3386 0.9773
4.7212 -2.8388 -1.3218 0.9776
4.8255 -2.3967 -1.2927 0.9781
4.8711 -2.1800 -1.2804 0.9783
4.9125 -1.9656 -1.2695 0.9785
4.9500 -1.7534 -1.2600 0.9786
5.0133 -1.3340 -1.2447 0.9789
3.8199 -0.5364 -0.9255 0.9843
3.8148 -0.3801 -0.9198 0.9844
3.8040 -0.0721 -0.9129 0.9845
3.8051 0.0809 -0.9132 0.9845
3.8105 0.2344 -0.9160 0.9844
3.8158 0.3891 -0.9203 0.9843
3.8210 0.5455 -0.9261 0.9842
3.8244 0.7038 -0.9330 0.9841
5.0654 2.0404 -1.3102 0.9778
5.0324 2.2661 -1.3242 0.9776
4.9063 2.9655 -1.3755 0.9767
4.8543 3.2072 -1.3959 0.9764
4.7969 3.4539 -1.4182 0.9760
4.7342 3.7064 -1.4426 0.9756
4.5038 4.4983 -1.5273 0.9742
4.1905 5.3390 -1.6285 0.9725
4.0720 5.6407 -1.6692 0.9718
3.8042 6.2765 -1.7610 0.9703
3.6498 6.6067 -1.8110 0.9694
3.4710 6.9267 -1.8589 0.9686
3.2872 7.2759 -1.9156 0.9677
2.8671 8.0040 -2.0399 0.9656
2.6293 8.3875 -2.1090 0.9645
1.8076 9.7553 -2.3804 0.9600
1.4778 10.2609 -2.4873 0.9583
0.7138 11.3767 -2.7350 0.9542
0.2693 11.9788 -2.8748 0.9519
-0.7804 13.4651 -3.2361 0.9460
-1.4078 14.3076 -3.4494 0.9426
-2.1243 15.2654 -3.6980 0.9386
-4.9547 18.7136 -4.6447 0.9235
-6.2075 20.1376 -5.0560 0.9170
-7.6203 21.5975 -5.4950 0.9101
-9.4434 23.6855 -6.1180 0.9004
-14.3332 28.9476 -7.7502 0.8756
-15.7712 26.3027 -7.3584 0.8815
-29.2741 37.6658 -11.4458 0.8218
-28.1567 33.3696 -10.4758 0.8356
-22.9686 25.1014 -8.1635 0.8694
-23.0766 23.2691 -7.8630 0.8739
-28.6520 22.6527 -8.7635 0.8605
-28.7819 19.2137 -8.3031 0.8673
-31.8866 17.7628 -8.7576 0.8606
-38.2978 17.4658 -10.0994 0.8410
-43.3068 17.6847 -11.2237 0.8250
-27.2314 7.4525 -6.7740 0.8904
-25.0691 -17.7824 -7.3745 0.8812
-33.2707 -32.7628 -11.2034 0.8252
-30.4218 -35.1997 -11.1627 0.8258
-28.0630 -38.3002 -11.3922 0.8226
-22.7170 -36.8888 -10.3945 0.8368
-18.1740 -32.3550 -8.9038 0.8584
-12.0515 -26.1800 -6.9150 0.8882
-7.8359 -21.3974 -5.4674 0.9105
-5.0270 -18.1166 -4.5110 0.9256
-3.0508 -15.8379 -3.8699 0.9358
-1.5505 -14.0482 -3.3911 0.9435
-0.3723 -12.5928 -3.0227 0.9495
0.1268 -11.9260 -2.8616 0.9521
0.5746 -11.2964 -2.7139 0.9545
0.9774 -10.7108 -2.5805 0.9567
1.3406 -10.1603 -2.4589 0.9587
2.4919 -8.2919 -2.0774 0.9650
2.7211 -7.8896 -2.0024 0.9663
2.9325 -7.5093 -1.9342 0.9674
3.1271 -7.1461 -1.8716 0.9684
3.3063 -6.7981 -1.8138 0.9694
3.4724 -6.4654 -1.7608 0.9703
3.7690 -5.8385 -1.6674 0.9718
4.0017 -5.2247 -1.5790 0.9733
4.1954 -4.6507 -1.5028 0.9746
4.2798 -4.3770 -1.4688 0.9751
4.3571 -4.1118 -1.4374 0.9757
4.5052 -3.6140 -1.3858 0.9765
4.7009 -2.9179 -1.3275 0.9775
4.8085 -2.4737 -1.2974 0.9780
4.8555 -2.2560 -1.2846 0.9782
5.0032 -1.4074 -1.2470 0.9788
4.1107 -0.9799 -1.0139 0.9828
3.8273 -0.7513 -0.9358 0.9841
3.8217 -0.5919 -0.9279 0.9842
3.8166 -0.4349 -0.9217 0.9843
3.8114 -0.2798 -0.9169 0.9844
3.8060 -0.1260 -0.9137 0.9845
3.8140 0.3344 -0.9186 0.9844
3.8192 0.4902 -0.9239 0.9843
5.1225 1.5197 -1.2820 0.9783
5.1035 1.7400 -1.2937 0.9781
5.0761 1.9616 -1.3057 0.9779
5.0088 2.4142 -1.3341 0.9774
4.9684 2.6458 -1.3506 0.9771
4.9233 2.8814 -1.3687 0.9768
4.8177 3.3664 -1.4102 0.9761
4.1148 5.5333 -1.6545 0.9720
3.8546 6.1611 -1.7437 0.9705
3.7078 6.4929 -1.7940 0.9697
3.5342 6.8105 -1.8410 0.9689
3.3535 7.1513 -1.8951 0.9680
2.7150 8.2499 -2.0839 0.9649
2.4738 8.6764 -2.1647 0.9636
1.5974 10.0784 -2.4483 0.9589
0.8576 11.1424 -2.6813 0.9551
-0.0441 12.4108 -2.9778 0.9502
-0.5774 13.1910 -3.1680 0.9471
-1.1772 13.9931 -3.3693 0.9439
-1.8610 14.9168 -3.6068 0.9400
-2.6320 15.8750 -3.8609 0.9359
-4.5589 18.2592 -4.5155 0.9255
-5.7456 19.6214 -4.9055 0.9193
-8.7747 22.9471 -5.8945 0.9039
-10.8119 25.1912 -6.5773 0.8934
-15.7057 27.0543 -7.5057 0.8793
-16.5454 26.0325 -7.4008 0.8808
-27.9613 37.0471 -11.1364 0.8262
-22.9530 25.8084 -8.2869 0.8676
-23.0613 23.9214 -7.9723 0.8722
-23.1409 22.1497 -7.6857 0.8765
-28.6281 23.2998 -8.8562 0.8591
-28.7644 19.7961 -8.3780 0.8662
-28.8178 18.1713 -8.1741 0.8692
-33.6372 15.9192 -8.9288 0.8581
-41.6411 17.6961 -10.8558 0.8302
-27.2339 7.8691 -6.8016 0.8899
-22.3986 -4.5626 -5.4845 0.9103
-2.5984 -14.5983 -3.7319 0.9407
-1.8879 -13.8001 -3.5056 0.9442
-1.2580 -13.0945 -3.3108 0.9472
-0.1815 -11.7825 -2.9658 0.9526
1.0649 -10.0897 -2.5535 0.9590
1.3993 -9.5599 -2.4317 0.9609
1.7133 -9.1285 -2.3376 0.9624
2.2539 -8.2756 -2.1587 0.9652
2.7105 -7.5121 -2.0100 0.9676
2.9126 -7.1577 -1.9449 0.9686
3.2708 -6.4898 -1.8291 0.9705
3.5792 -5.8746 -1.7313 0.9720
3.8279 -5.2769 -1.6407 0.9735
3.9341 -4.9886 -1.5990 0.9741
4.1211 -4.4402 -1.5247 0.9753
4.3566 -3.6852 -1.4362 0.9767
4.4984 -3.2232 -1.3928 0.9774
4.7252 -2.3469 -1.3279 0.9785
4.8122 -1.9255 -1.3045 0.9788
3.8221 -0.5367 -0.9714 0.9842
3.8132 -0.3799 -0.9645 0.9843
3.8046 -0.2252 -0.9592 0.9844
3.7979 -0.0719 -0.9560 0.9845
3.7990 0.0807 -0.9564 0.9844
3.8044 0.2340 -0.9593 0.9844
3.8097 0.3885 -0.9638 0.9843
5.0116 1.5643 -1.3213 0.9786
4.9864 1.7792 -1.3325 0.9784
4.9571 1.9967 -1.3450 0.9782
4.9236 2.2171 -1.3590 0.9780
4.8434 2.6679 -1.3917 0.9775
4.7437 3.1341 -1.4310 0.9768
4.5542 3.8704 -1.5042 0.9756
4.3949 4.3895 -1.5633 0.9747
4.2985 4.6529 -1.5943 0.9742
4.1943 4.9230 -1.6278 0.9737
4.0824 5.2013 -1.6642 0.9731
3.8366 5.7915 -1.7484 0.9718
3.3771 6.7393 -1.8972 0.9694
3.1954 7.0729 -1.9534 0.9685
2.9955 7.4104 -2.0117 0.9676
2.7793 7.7588 -2.0743 0.9666
2.5459 8.1214 -2.1421 0.9655
2.3030 8.5337 -2.2246 0.9642
2.0394 8.9762 -2.3167 0.9627
1.7452 9.4181 -2.4107 0.9613
0.2580 11.4765 -2.8892 0.9538
-1.3321 13.5377 -3.4237 0.9454
-4.6052 17.3937 -4.5285 0.9285
-10.4566 23.4422 -6.4604 0.8995
-15.4427 28.2716 -8.1078 0.8756
-17.0917 26.0695 -7.8457 0.8793
-27.8561 35.8413 -11.4248 0.8292
-28.0034 33.1880 -10.9291 0.8360
-22.8611 24.9839 -8.5232 0.8696
-23.0317 21.4290 -7.9177 0.8783
-28.5153 19.0357 -8.6290 0.8681
-28.8799 17.6443 -8.5178 0.8697
-35.0917 17.7399 -9.8964 0.8503
-27.1220 9.8237 -7.2601 0.8878
-46.6316 8.8116 -11.9441 0.8222
-46.6261 6.8835 -11.8622 0.8233
-30.7037 -16.6304 -8.7884 0.8659
-30.6053 -18.2041 -8.9624 0.8634
-24.9478 -17.6963 -7.6982 0.8815
-31.4951 -33.6115 -11.5930 0.8270
-30.3643 -35.1331 -11.6872 0.8257
-22.8342 -33.9448 -10.2964 0.8447
-10.7438 -23.3390 -6.4665 0.8994
-8.7694 -21.2595 -5.7880 0.9095
-7.1471 -19.5163 -5.2309 0.9178
-5.8027 -18.0618 -4.7747 0.9247
-4.6794 -16.8638 -4.4047 0.9304
-3.7123 -15.8203 -4.0899 0.9352
-2.8701 -14.8997 -3.8190 0.9393
-2.1285 -14.0729 -3.5822 0.9430
-1.4720 -13.3365 -3.3770 0.9462
-0.3549 -12.0058 -3.0230 0.9517
0.1211 -11.3871 -2.8661 0.9541
1.2886 -9.7658 -2.4792 0.9602
1.6078 -9.2895 -2.3728 0.9619
2.4099 -8.0192 -2.1075 0.9661
2.6352 -7.6406 -2.0342 0.9672
3.0349 -6.9353 -1.9053 0.9693
3.5279 -5.9793 -1.7473 0.9718
3.7874 -5.3796 -1.6559 0.9732
3.8977 -5.0890 -1.6133 0.9739
3.9982 -4.8070 -1.5736 0.9745
4.0904 -4.5343 -1.5369 0.9751
4.6006 -2.8557 -1.3628 0.9779
4.7081 -2.4221 -1.3326 0.9784
4.8369 -1.7907 -1.2981 0.9790
4.9028 -1.3791 -1.2818 0.9792
4.1172 -0.9815 -1.0653 0.9827
3.8348 -0.7528 -0.9836 0.9840
3.8253 -0.5924 -0.9743 0.9842
3.8076 -0.2795 -0.9609 0.9844
3.7998 -0.1258 -0.9569 0.9844
3.7971 0.0269 -0.9557 0.9845
3.8025 0.1799 -0.9581 0.9844
3.8130 0.4894 -0.9675 0.9843
3.8550 0.8137 -0.9916 0.9839
5.0174 1.4885 -1.3172 0.9786
4.9679 1.9198 -1.3404 0.9783
4.8996 2.3616 -1.3689 0.9778
4.8133 2.8171 -1.4037 0.9773
4.7069 3.2890 -1.4452 0.9766
4.6457 3.5322 -1.4688 0.9762
4.5791 3.7813 -1.4946 0.9758
4.5062 4.0363 -1.5226 0.9754
4.4266 4.2978 -1.5528 0.9749
4.2319 4.8271 -1.6157 0.9739
4.0070 5.3883 -1.6900 0.9727
3.8828 5.6847 -1.7326 0.9720
3.7483 5.9913 -1.7787 0.9713
3.6027 6.3089 -1.8285 0.9705
3.4412 6.6313 -1.8803 0.9697
3.2609 6.9538 -1.9330 0.9688
2.6301 7.9920 -2.1176 0.9659
2.1360 8.8215 -2.2844 0.9633
1.8517 9.2597 -2.3766 0.9618
1.5403 9.7181 -2.4764 0.9602
1.2003 10.2118 -2.5878 0.9585
0.8247 10.7157 -2.7049 0.9566
-0.0422 11.8684 -2.9871 0.9522
-4.2440 16.9983 -4.4095 0.9303
-6.5540 19.4481 -5.1652 0.9188
-15.6226 26.9111 -7.8317 0.8795
-16.5541 26.0462 -7.7674 0.8805
-27.9536 34.0965 -11.0969 0.8337
-23.0034 22.0181 -8.0143 0.8769
-30.8620 17.7689 -8.9629 0.8634
-37.7687 16.0504 -10.3285 0.8443
-27.1201 9.0316 -7.1942 0.8888
-46.6205 9.4947 -11.9745 0.8218
-30.6488 -17.6477 -8.9012 0.8643
-2.4569 -13.8033 -3.6943 0.9437
-1.1981 -12.4715 -3.3014 0.9495
-0.6591 -11.8447 -3.1259 0.9521
1.0236 -9.6983 -2.5697 0.9605
2.4130 -7.6356 -2.1101 0.9674
2.6284 -7.2846 -2.0406 0.9685
3.0104 -6.6226 -1.9169 0.9704
3.1802 -6.3101 -1.8619 0.9712
3.7278 -5.1389 -1.6728 0.9741
3.8337 -4.8613 -1.6313 0.9747
3.9311 -4.5926 -1.5929 0.9753
4.0207 -4.3321 -1.5574 0.9758
4.1029 -4.0790 -1.5245 0.9764
4.1809 -3.8351 -1.4950 0.9768
4.3338 -3.3768 -1.4477 0.9775
4.4019 -3.1540 -1.4269 0.9778
4.4651 -2.9353 -1.4080 0.9781
4.5785 -2.5083 -1.3756 0.9786
4.7527 -1.6835 -1.3286 0.9794
4.7862 -1.4818 -1.3202 0.9795
4.8158 -1.2814 -1.3131 0.9796
3.9063 -0.8730 -1.0547 0.9836
3.8390 -0.6973 -1.0281 0.9840
3.8206 -0.3807 -1.0117 0.9842
3.8133 -0.2257 -1.0066 0.9843
3.8077 -0.0721 -1.0035 0.9844
3.8098 0.2343 -1.0058 0.9843
3.9169 0.8848 -1.0581 0.9835
4.9249 1.3226 -1.3437 0.9791
4.9079 1.5319 -1.3548 0.9790
4.8823 1.7421 -1.3659 0.9788
4.8527 1.9547 -1.3785 0.9786
4.7379 2.6098 -1.4253 0.9779
4.6903 2.8349 -1.4441 0.9776
4.6375 3.0640 -1.4646 0.9773
4.5794 3.2973 -1.4869 0.9769
4.4472 3.7794 -1.5378 0.9761
4.1945 4.5403 -1.6288 0.9748
3.2888 6.5632 -1.9344 0.9701
3.1062 6.8753 -1.9880 0.9693
2.9087 7.1955 -2.0451 0.9684
2.4675 7.8711 -2.1736 0.9665
2.2259 8.2480 -2.2511 0.9653
1.3740 9.5403 -2.5398 0.9609
0.6580 10.4869 -2.7687 0.9575
0.2471 10.9925 -2.8973 0.9555
-0.2048 11.5663 -3.0482 0.9533
-3.3937 15.2737 -4.1228 0.9373
-4.2853 16.1853 -4.4118 0.9331
-5.3236 17.2701 -4.7620 0.9280
-6.4916 18.3984 -5.1409 0.9225
-7.8379 19.6586 -5.5766 0.9162
-16.7291 27.9003 -8.5720 0.8741
-22.8475 23.0381 -8.5496 0.8744
-29.7386 27.6692 -10.7033 0.8453
-23.0210 19.7544 -7.9932 0.8821
-31.1585 22.6612 -10.1520 0.8527
-38.4909 17.5539 -11.1473 0.8395
-26.9821 8.5634 -7.4593 0.8895
-30.5626 -16.5540 -9.1587 0.8661
-24.8790 -17.6475 -8.0374 0.8815
-28.1216 -32.5382 -11.3322 0.8370
-23.3944 -31.9284 -10.4298 0.8490
-16.8062 -27.2907 -8.4453 0.8758
-14.1718 -25.2298 -7.6251 0.8872
-3.4896 -14.8712 -4.0250 0.9388
-2.0180 -13.3423 -3.5557 0.9457
-1.4006 -12.6900 -3.3641 0.9486
-0.8427 -12.0636 -3.1865 0.9512
-0.3387 -11.4567 -3.0202 0.9537
0.1158 -10.8909 -2.8699 0.9559
0.5270 -10.3607 -2.7336 0.9580
1.2401 -9.3987 -2.4980 0.9615
1.5498 -8.9547 -2.3946 0.9631
1.8263 -8.5034 -2.2917 0.9647
2.0934 -8.1391 -2.2145 0.9658
2.5545 -7.4065 -2.0644 0.9681
2.7589 -7.0647 -1.9985 0.9691
3.1219 -6.4188 -1.8808 0.9709
3.4334 -5.8191 -1.7803 0.9724
3.8977 -4.6863 -1.6061 0.9751
3.9900 -4.4229 -1.5696 0.9757
4.0748 -4.1673 -1.5358 0.9762
4.1526 -3.9188 -1.5045 0.9767
4.2330 -3.6847 -1.4788 0.9771
4.3086 -3.4563 -1.4555 0.9774
4.4431 -3.0117 -1.4144 0.9780
4.5039 -2.7957 -1.3968 0.9783
4.5599 -2.5826 -1.3809 0.9786
4.7012 -1.9587 -1.3420 0.9792
4.7400 -1.7549 -1.3318 0.9793
4.7748 -1.5527 -1.3230 0.9794
3.8237 -0.4357 -1.0141 0.9842
3.8153 -0.2801 -1.0080 0.9843
3.8078 0.1802 -1.0045 0.9844
3.8137 0.3344 -1.0088 0.9843
4.9159 1.4584 -1.3511 0.9790
4.8918 1.6678 -1.3618 0.9788
4.8636 1.8795 -1.3739 0.9787
4.7946 2.3110 -1.4025 0.9782
4.7535 2.5314 -1.4191 0.9780
4.7076 2.7552 -1.4373 0.9777
4.6005 3.2146 -1.4789 0.9771
4.5391 3.4511 -1.5025 0.9767
4.4722 3.6930 -1.5283 0.9763
4.3991 3.9403 -1.5562 0.9759
4.2292 4.4499 -1.6176 0.9749
4.1282 4.7088 -1.6501 0.9744
4.0193 4.9743 -1.6851 0.9739
3.7806 5.5352 -1.7663 0.9727
3.6472 5.8296 -1.8120 0.9720
2.9799 7.0815 -2.0244 0.9687
2.7728 7.4089 -2.0845 0.9678
1.1568 9.8422 -2.6113 0.9598
0.7943 10.3206 -2.7275 0.9581
0.3958 10.8015 -2.8481 0.9563
-0.0404 11.3587 -2.9930 0.9541
-1.0568 12.5620 -3.3218 0.9492
-1.6610 13.3141 -3.5355 0.9460
-2.3335 14.0745 -3.7593 0.9427
-3.1001 14.9483 -4.0227 0.9388
-3.9554 15.8421 -4.3025 0.9347
-10.7112 22.4251 -6.5485 0.9023
-12.9299 24.4888 -7.2970 0.8918
-15.4683 26.6453 -8.1184 0.8803
-17.1956 27.0555 -8.4472 0.8758
-22.7101 25.5353 -9.0046 0.8682
-22.8210 23.6722 -8.6642 0.8728
-23.0103 20.3176 -8.0885 0.8808
-26.8225 21.8302 -9.1127 0.8667
-33.6050 17.5898 -9.9946 0.8548
-37.4481 17.7227 -10.9168 0.8425
-27.0114 8.9954 -7.5018 0.8889
-46.4527 7.5311 -12.4001 0.8231
-30.5872 -16.0117 -9.0972 0.8669
-3.0274 -13.7751 -3.8840 0.9432
-1.1416 -11.8834 -3.2876 0.9517
-0.6291 -11.3064 -3.1184 0.9541
-0.1658 -10.7662 -2.9652 0.9563
0.6365 -9.7821 -2.6996 0.9601
0.9852 -9.3343 -2.5848 0.9618
1.5954 -8.5005 -2.3818 0.9648
2.3393 -7.4024 -2.1379 0.9683
3.0940 -6.1391 -1.8932 0.9719
3.2495 -5.8502 -1.8429 0.9726
3.5176 -5.2834 -1.7479 0.9740
3.6322 -5.0071 -1.7035 0.9747
3.7378 -4.7396 -1.6623 0.9753
3.8350 -4.4803 -1.6241 0.9758
3.9245 -4.2285 -1.5887 0.9763
4.0068 -3.9835 -1.5559 0.9768
4.3089 -3.0874 -1.4598 0.9782
4.3720 -2.8740 -1.4408 0.9785
4.4309 -2.6642 -1.4238 0.9788
4.4852 -2.4571 -1.4084 0.9790
4.5349 -2.2524 -1.3944 0.9792
4.6218 -1.8493 -1.3709 0.9796
4.7220 -1.2564 -1.3456 0.9799
3.8479 -0.6989 -1.0770 0.9839
3.8400 -0.5392 -1.0679 0.9840
3.8215 -0.0724 -1.0526 0.9843
3.8249 0.3900 -1.0588 0.9842
3.8300 0.5468 -1.0654 0.9841
4.1161 0.9299 -1.1621 0.9826
4.7820 1.7063 -1.3982 0.9792
4.7520 1.9141 -1.4108 0.9790
4.6363 2.5538 -1.4576 0.9783
4.4771 3.2236 -1.5193 0.9774
4.4137 3.4555 -1.5437 0.9770
4.3445 3.6922 -1.5701 0.9766
3.9917 4.6852 -1.6950 0.9748
3.7637 5.2137 -1.7708 0.9737
3.6377 5.4913 -1.8139 0.9730
3.5017 5.7774 -1.8604 0.9724
3.3548 6.0728 -1.9106 0.9716
3.0205 6.6857 -2.0203 0.9700
2.8262 6.9915 -2.0767 0.9692
2.3933 7.6344 -2.2033 0.9674
2.1534 7.9794 -2.2760 0.9663
1.9031 8.3762 -2.3655 0.9650
1.3272 9.2158 -2.5641 0.9621
0.9964 9.6542 -2.6728 0.9605
0.6333 10.0931 -2.7850 0.9589
-0.1960 11.0674 -3.0483 0.9551
-1.2043 12.2390 -3.3867 0.9503
-2.4490 13.5776 -3.7994 0.9444
-3.1893 14.3537 -4.0492 0.9408
-4.9495 16.0567 -4.6271 0.9327
-6.0289 17.0870 -4.9898 0.9276
-12.4018 22.7046 -7.1245 0.8982
-16.8307 25.6715 -8.4535 0.8804
-20.3142 28.4248 -9.6213 0.8651
-24.7639 31.8628 -11.1131 0.8458
-22.6192 24.7195 -9.2272 0.8702
-22.7019 22.8912 -8.8783 0.8748
-23.0168 18.1975 -8.0802 0.8854
-23.0436 16.7594 -7.8467 0.8885
-32.9831 22.0182 -10.9210 0.8483
-28.7039 15.9898 -9.0484 0.8726
-26.8978 9.7425 -7.8782 0.8881
-26.8693 8.5276 -7.7631 0.8896
-26.9567 7.3773 -7.6965 0.8905
-46.2878 6.8336 -12.8852 0.8236
-23.8817 -25.4864 -9.6184 0.8651
-27.9799 -32.3743 -11.7837 0.8373
-17.7757 -26.4249 -8.7703 0.8762
-12.5915 -22.4164 -7.0804 0.8988
-4.1080 -14.8047 -4.2310 0.9382
-3.2925 -14.0311 -3.9689 0.9420
-2.5663 -13.3228 -3.7364 0.9453
-1.9133 -12.6502 -3.5233 0.9483
-1.3348 -12.0939 -3.3507 0.9508
-0.8037 -11.5052 -3.1761 0.9533
0.1109 -10.4333 -2.8733 0.9576
0.5059 -9.9460 -2.7425 0.9595
0.8660 -9.4892 -2.6241 0.9612
1.1950 -9.0562 -2.5156 0.9628
1.4956 -8.6414 -2.4151 0.9643
2.2608 -7.5230 -2.1633 0.9679
2.6788 -6.8597 -2.0280 0.9699
2.8644 -6.5458 -1.9677 0.9708
3.0364 -6.2432 -1.9118 0.9716
3.4749 -5.3829 -1.7644 0.9738
3.5929 -5.1033 -1.7187 0.9744
3.8017 -4.5707 -1.6372 0.9756
3.9786 -4.0690 -1.5672 0.9767
4.2856 -3.1635 -1.4669 0.9781
4.4666 -2.5298 -1.4136 0.9789
4.6077 -1.9197 -1.3746 0.9795
4.7121 -1.3255 -1.3480 0.9799
4.1551 -0.9905 -1.1763 0.9824
3.8665 -0.7590 -1.0851 0.9838
3.8426 -0.5951 -1.0708 0.9840
3.8356 -0.4371 -1.0631 0.9841
3.8292 -0.2811 -1.0574 0.9842
3.8199 0.0271 -1.0520 0.9843
3.8217 0.1808 -1.0536 0.9843
3.8277 0.4913 -1.0627 0.9841
4.8316 1.2245 -1.3726 0.9795
4.8159 1.4287 -1.3834 0.9794
4.7915 1.6336 -1.3941 0.9792
4.7303 2.0501 -1.4197 0.9788
4.6934 2.2622 -1.4348 0.9786
4.6520 2.4773 -1.4514 0.9784
4.4982 3.1431 -1.5112 0.9775
4.3695 3.6082 -1.5606 0.9768
4.2963 3.8483 -1.5884 0.9764
4.2165 4.0938 -1.6184 0.9759
4.0289 4.5955 -1.6830 0.9750
3.8059 5.1179 -1.7564 0.9739
3.6832 5.3926 -1.7984 0.9733
3.4078 5.9677 -1.8925 0.9719
3.2535 6.2696 -1.9452 0.9711
2.4741 7.5179 -2.1796 0.9677
2.2389 7.8526 -2.2487 0.9667
1.7287 8.6446 -2.4277 0.9641
1.4373 9.0684 -2.5285 0.9626
0.3806 10.3847 -2.8617 0.9578
-0.0387 10.8785 -2.9958 0.9559
-1.5782 12.6505 -3.5108 0.9485
-2.9168 14.0644 -3.9556 0.9421
-4.6216 15.7828 -4.5289 0.9340
-5.6402 16.7365 -4.8637 0.9293
-11.6373 22.0406 -6.8638 0.9018
-18.9941 27.3889 -9.1788 0.8709
-22.7858 21.8098 -8.6861 0.8773
-22.8746 20.1978 -8.4036 0.8811
-28.4512 17.9402 -9.2626 0.8698
-28.3431 16.3186 -9.0065 0.8731
-26.9065 8.9605 -7.8098 0.8890
-26.9370 7.7833 -7.7215 0.8902
-46.2724 7.5019 -12.9092 0.8233
-2.8612 -13.0191 -3.8303 0.9460
-2.2170 -12.4555 -3.6353 0.9487
-1.0892 -11.3375 -3.2728 0.9537
0.6123 -9.4111 -2.7099 0.9615
0.9494 -8.9948 -2.5990 0.9631
1.2584 -8.5970 -2.4966 0.9645
1.5419 -8.2155 -2.4019 0.9658
1.7982 -7.8310 -2.3088 0.9671
2.2696 -7.1818 -2.1643 0.9691
2.4769 -6.8649 -2.0971 0.9701
2.6687 -6.5583 -2.0345 0.9710
2.8466 -6.2623 -1.9766 0.9718
3.0119 -5.9761 -1.9230 0.9725
3.1655 -5.6989 -1.8732 0.9732
3.3059 -5.4260 -1.8257 0.9739
3.4268 -5.1471 -1.7768 0.9746
3.5408 -4.8811 -1.7327 0.9752
3.6460 -4.6232 -1.6919 0.9758
3.7429 -4.3727 -1.6539 0.9763
3.9146 -3.8918 -1.5861 0.9773
4.0784 -3.4499 -1.5349 0.9780
4.1515 -3.2348 -1.5123 0.9783
4.2192 -3.0232 -1.4915 0.9786
4.2821 -2.8150 -1.4725 0.9789
4.3409 -2.6101 -1.4555 0.9791
4.4447 -2.2076 -1.4260 0.9796
4.4901 -2.0095 -1.4135 0.9797
4.5685 -1.6182 -1.3927 0.9800
4.6018 -1.4247 -1.3842 0.9802
3.8620 -0.5423 -1.1206 0.9839
3.8529 -0.3839 -1.1126 0.9840
3.8449 -0.2276 -1.1067 0.9841
3.8378 -0.0727 -1.1030 0.9842
3.8377 0.2361 -1.1048 0.9841
3.8403 0.3916 -1.1092 0.9841
3.8438 0.5488 -1.1157 0.9840
3.8536 0.7092 -1.1259 0.9838
4.7329 1.2710 -1.4082 0.9798
4.6851 1.6717 -1.4294 0.9795
4.6204 2.0806 -1.4560 0.9791
4.5817 2.2888 -1.4717 0.9789
4.4902 2.7140 -1.5076 0.9784
4.4371 2.9315 -1.5281 0.9781
4.2459 3.6084 -1.6011 0.9771
4.1703 3.8432 -1.6296 0.9767
3.9991 4.3288 -1.6934 0.9758
3.7863 4.8240 -1.7621 0.9748
3.6700 5.0839 -1.8017 0.9742
3.5450 5.3513 -1.8445 0.9736
3.4102 5.6265 -1.8905 0.9730
3.2649 5.9100 -1.9401 0.9723
2.9367 6.5002 -2.0496 0.9708
2.7479 6.7977 -2.1068 0.9699
2.3230 7.4102 -2.2315 0.9682
2.0866 7.7319 -2.3012 0.9672
1.8404 8.1003 -2.3869 0.9660
0.6102 9.7256 -2.8001 0.9603
-1.1486 11.6728 -3.3703 0.9524
-2.3230 12.8787 -3.7604 0.9470
-4.6514 15.0894 -4.5372 0.9364
-9.4129 19.0105 -6.0955 0.9155
-11.1978 20.5002 -6.7121 0.9074
-13.2599 22.1145 -7.4092 0.8982
-15.5299 23.6874 -8.1389 0.8888
-17.6856 24.7467 -8.7401 0.8811
-22.5223 24.6136 -9.5867 0.8704
-22.6097 22.7983 -9.2263 0.8749
-22.8652 18.0776 -8.3756 0.8858
-22.9458 16.6882 -8.1527 0.8886
-26.6550 17.7938 -9.2090 0.8751
-38.8353 17.7110 -12.2648 0.8372
-26.8342 7.3438 -7.9942 0.8907
-46.1105 8.7131 -13.4841 0.8226
-25.7661 -25.3728 -10.3909 0.8603
-28.5315 -30.4488 -11.9902 0.8406
-23.2468 -26.8978 -10.2155 0.8625
-16.5195 -24.5575 -8.5045 0.8841
-11.3370 -20.1832 -6.6518 0.9082
-9.5831 -18.7910 -6.0611 0.9160
-6.7907 -16.4627 -5.1171 0.9286
-4.7221 -14.6981 -4.4360 0.9378
-3.1159 -13.2789 -3.9193 0.9448
-1.2680 -11.4885 -3.3212 0.9530
0.4847 -9.5305 -2.7421 0.9611
1.4448 -8.3477 -2.4343 0.9654
1.7138 -7.9794 -2.3451 0.9666
1.9570 -7.6087 -2.2575 0.9678
2.9551 -6.0759 -1.9414 0.9723
3.1127 -5.7956 -1.8903 0.9730
3.2592 -5.5238 -1.8429 0.9737
3.3852 -5.2439 -1.7935 0.9744
3.5017 -4.9738 -1.7479 0.9750
4.1960 -3.0973 -1.4986 0.9785
4.3208 -2.6819 -1.4613 0.9791
4.3765 -2.4787 -1.4453 0.9793
4.4277 -2.2778 -1.4308 0.9795
4.4746 -2.0790 -1.4178 0.9797
4.5172 -1.8821 -1.4062 0.9798
4.5905 -1.4927 -1.3870 0.9801
4.6213 -1.3000 -1.3795 0.9802
4.1903 -0.9989 -1.2378 0.9822
3.8560 -0.4394 -1.1152 0.9840
3.8476 -0.2824 -1.1086 0.9841
3.8402 -0.1271 -1.1041 0.9841
3.8356 0.0272 -1.1022 0.9842
3.8466 0.6517 -1.1211 0.9839
3.9018 0.8236 -1.1459 0.9835
4.7374 1.2006 -1.4043 0.9799
4.7193 1.4001 -1.4145 0.9797
4.6330 2.0079 -1.4509 0.9792
4.5541 2.4252 -1.4826 0.9788
4.4564 2.8545 -1.5207 0.9782
4.3381 3.2984 -1.5659 0.9776
4.1179 3.9981 -1.6492 0.9764
3.7119 4.9915 -1.7874 0.9744
3.5901 5.2563 -1.8290 0.9739
3.4588 5.5286 -1.8739 0.9732
3.1643 6.0977 -1.9740 0.9718
2.9983 6.3938 -2.0292 0.9710
2.8167 6.6937 -2.0868 0.9702
2.6168 6.9919 -2.1452 0.9694
2.4022 7.2995 -2.2081 0.9685
2.1718 7.6174 -2.2760 0.9676
1.6703 8.3526 -2.4476 0.9652
1.3883 8.7591 -2.5483 0.9638
1.0781 9.1722 -2.6537 0.9623
-4.3333 14.7983 -4.4308 0.9378
-6.3130 16.5093 -5.0789 0.9291
-14.7329 23.1807 -7.8923 0.8920
-19.8333 26.2779 -9.4601 0.8720
-22.4698 25.2651 -9.7156 0.8687
-22.8038 20.1353 -8.7414 0.8811
-22.8520 18.5987 -8.4663 0.8846
-22.9173 17.1686 -8.2281 0.8877
-26.7914 16.8935 -9.1010 0.8765
-37.4437 17.7206 -11.9033 0.8416
-26.8302 7.7525 -8.0249 0.8903
-46.0923 7.4727 -13.4173 0.8234
-1.5511 -11.3385 -3.4261 0.9533
-1.0410 -10.8359 -3.2590 0.9556
-0.5762 -10.3554 -3.1050 0.9576
0.2348 -9.4723 -2.8367 0.9612
0.5898 -9.0650 -2.7196 0.9628
0.9158 -8.6771 -2.6122 0.9642
1.2157 -8.3056 -2.5130 0.9656
1.4918 -7.9482 -2.4211 0.9668
1.9785 -7.2644 -2.2540 0.9691
2.2035 -6.9727 -2.1892 0.9699
3.2217 -5.2878 -1.8538 0.9745
3.3416 -5.0191 -1.8052 0.9751
3.4534 -4.7606 -1.7607 0.9757
3.7437 -4.0337 -1.6476 0.9773
3.9138 -3.5902 -1.5900 0.9781
3.9924 -3.3771 -1.5655 0.9784
4.0652 -3.1675 -1.5429 0.9787
4.1327 -2.9612 -1.5221 0.9790
4.2539 -2.5578 -1.4860 0.9795
4.4027 -1.9703 -1.4440 0.9801
4.2773 -0.9559 -1.3121 0.9819
3.8970 -0.7079 -1.1858 0.9836
3.8771 -0.3863 -1.1665 0.9839
3.8577 -0.0731 -1.1551 0.9840
3.8616 0.2375 -1.1583 0.9840
3.8643 0.3940 -1.1629 0.9839
3.8680 0.5522 -1.1698 0.9838
4.1802 0.9443 -1.2830 0.9823
4.6399 1.2461 -1.4383 0.9801
4.5914 1.6383 -1.4595 0.9799
4.5610 1.8372 -1.4721 0.9797
4.4874 2.2417 -1.5017 0.9793
4.4439 2.4478 -1.5189 0.9790
4.3423 2.8689 -1.5581 0.9785
4.2838 3.0844 -1.5803 0.9782
4.0756 3.7559 -1.6593 0.9771
3.9048 4.2267 -1.7227 0.9763
3.8056 4.4668 -1.7568 0.9758
3.6959 4.7089 -1.7921 0.9753
3.5803 4.9596 -1.8313 0.9748
3.1787 5.7540 -1.9680 0.9729
3.0226 6.0320 -2.0199 0.9722
2.8546 6.3185 -2.0757 0.9715
2.6733 6.6132 -2.1355 0.9707
2.4720 6.9010 -2.1946 0.9699
2.2563 7.1975 -2.2582 0.9690
2.0249 7.5033 -2.3267 0.9681
1.5214 8.2103 -2.4998 0.9657
0.9295 9.0056 -2.7104 0.9629
0.2197 9.7743 -2.9270 0.9600
-1.6250 11.6776 -3.5297 0.9520
-3.5666 13.4709 -4.1719 0.9435
-4.3668 14.1663 -4.4381 0.9400
-7.3646 16.5104 -5.4123 0.9273
-10.1311 18.5474 -6.3271 0.9155
-11.9748 19.9712 -6.9714 0.9073
-14.0464 21.4246 -7.6697 0.8986
-16.5174 23.1121 -8.5047 0.8882
-24.3191 26.5773 -10.7851 0.8603
-17.7703 16.5337 -7.2667 0.9036
-31.1544 22.6583 -11.5329 0.8514
-28.1639 18.8011 -10.1379 0.8681
-31.9767 17.8130 -10.9584 0.8583
-33.2387 16.8032 -11.1503 0.8560
-25.1902 -26.8829 -11.0294 0.8574
-17.0119 -23.2177 -8.6171 0.8868
-12.0763 -19.6100 -6.8948 0.9083
-10.3093 -18.3535 -6.3022 0.9159
-5.3283 -14.5499 -4.6389 0.9374
-4.4478 -13.8445 -4.3534 0.9411
-2.9571 -12.6020 -3.8753 0.9474
-2.3213 -12.0505 -3.6740 0.9500
-1.7428 -11.5225 -3.4888 0.9525
-1.2152 -11.0101 -3.3162 0.9548
-0.7350 -10.5220 -3.1577 0.9569
0.4682 -9.2061 -2.7597 0.9622
0.8041 -8.8116 -2.6490 0.9637
1.1130 -8.4352 -2.5472 0.9651
1.3970 -8.0717 -2.4524 0.9664
1.6596 -7.7270 -2.3661 0.9675
1.9028 -7.3980 -2.2869 0.9686
2.1281 -7.0814 -2.2137 0.9696
2.5305 -6.4799 -2.0826 0.9714
2.7103 -6.1936 -2.0240 0.9722
3.0330 -5.6473 -1.9191 0.9736
3.1771 -5.3847 -1.8718 0.9742
3.3005 -5.1127 -1.8219 0.9749
3.4145 -4.8500 -1.7757 0.9755
3.5221 -4.5986 -1.7341 0.9761
3.6215 -4.3541 -1.6955 0.9766
3.7981 -3.8844 -1.6264 0.9776
3.8848 -3.6661 -1.5991 0.9779
3.9654 -3.4517 -1.5739 0.9783
4.0402 -3.2410 -1.5506 0.9786
4.2338 -2.6280 -1.4919 0.9794
4.3405 -2.2329 -1.4613 0.9798
4.4682 -1.6543 -1.4264 0.9803
4.2906 -1.0228 -1.3205 0.9818
3.8802 -0.4422 -1.1692 0.9838
3.8716 -0.2842 -1.1622 0.9839
3.8608 0.1827 -1.1571 0.9840
3.8632 0.3388 -1.1610 0.9839
3.8666 0.4963 -1.1671 0.9839
3.8710 0.6559 -1.1754 0.9837
3.9137 0.8261 -1.1975 0.9834
4.6260 1.3724 -1.4446 0.9801
4.5722 1.7669 -1.4675 0.9797
4.4132 2.5829 -1.5309 0.9789
4.3050 3.0081 -1.5723 0.9783
4.2433 3.2263 -1.5959 0.9780
4.1761 3.4485 -1.6214 0.9776
4.0233 3.9061 -1.6788 0.9769
3.0789 5.9332 -2.0012 0.9725
2.5445 6.7987 -2.1733 0.9701
2.3340 7.0921 -2.2353 0.9693
2.1083 7.3945 -2.3020 0.9684
1.8678 7.7141 -2.3762 0.9674
0.7118 9.2476 -2.7767 0.9620
0.3530 9.6342 -2.8862 0.9605
-0.0357 10.0380 -3.0052 0.9590
-0.4590 10.4859 -3.1423 0.9571
-0.9219 10.9585 -3.2923 0.9551
-1.4334 11.4894 -3.4664 0.9528
-1.9859 11.9780 -3.6349 0.9506
-2.6166 12.6170 -3.8577 0.9476
-3.3057 13.2401 -4.0855 0.9446
-4.0740 13.9127 -4.3401 0.9413
-4.9386 14.6547 -4.6298 0.9375
-11.2872 19.4431 -6.7306 0.9104
-17.3831 23.0316 -8.6387 0.8865
-20.5249 25.0353 -9.6920 0.8736
-24.3917 27.4261 -10.9883 0.8579
-22.5609 21.5946 -9.3497 0.8777
-22.8144 17.0915 -8.5343 0.8878
-28.2239 17.7968 -9.9892 0.8700
-28.7408 16.5476 -9.9287 0.8707
-32.1620 16.8345 -10.8679 0.8594
-37.4415 17.7196 -12.4012 0.8412
-45.9203 7.4448 -13.9272 0.8235
-35.1957 -31.0794 -14.0571 0.8220
-1.4819 -10.8321 -3.4056 0.9552
1.1756 -8.0315 -2.5284 0.9666
1.4448 -7.6978 -2.4397 0.9677
1.6944 -7.3787 -2.3582 0.9688
1.9202 -7.0503 -2.2761 0.9699
2.3401 -6.4858 -2.1478 0.9715
2.6980 -5.9353 -2.0309 0.9731
3.1412 -5.1557 -1.8806 0.9750
3.2602 -4.8969 -1.8325 0.9757
3.7472 -3.7253 -1.6459 0.9781
3.9093 -3.3069 -1.5950 0.9788
4.1698 -2.5072 -1.5156 0.9798
4.2236 -2.3138 -1.5001 0.9800
4.2729 -2.1223 -1.4861 0.9802
4.3180 -1.9325 -1.4736 0.9804
4.3590 -1.7441 -1.4625 0.9805
4.4290 -1.3712 -1.4442 0.9808
4.4585 -1.1863 -1.4371 0.9809
3.9226 -0.7125 -1.2419 0.9834
3.8993 -0.3885 -1.2206 0.9837
3.8879 -0.2301 -1.2132 0.9838
3.8829 0.2388 -1.2118 0.9838
3.8888 0.3965 -1.2176 0.9838
3.8998 0.7177 -1.2352 0.9835
4.2741 0.9655 -1.3649 0.9818
4.5497 1.2218 -1.4674 0.9805
4.5273 1.4131 -1.4773 0.9803
4.5009 1.6060 -1.4886 0.9802
4.4703 1.8007 -1.5012 0.9800
4.3963 2.1962 -1.5308 0.9796
4.3043 2.6016 -1.5667 0.9791
4.2510 2.8086 -1.5871 0.9789
4.1924 3.0186 -1.6092 0.9786
4.1290 3.2325 -1.6334 0.9783
4.0597 3.4502 -1.6596 0.9779
3.9844 3.6719 -1.6878 0.9776
3.9027 3.8979 -1.7182 0.9772
3.7180 4.3640 -1.7858 0.9763
3.4944 4.8405 -1.8596 0.9753
3.3715 5.0893 -1.9016 0.9747
3.0960 5.6043 -1.9944 0.9735
2.9420 5.8711 -2.0456 0.9729
2.7764 6.1455 -2.1006 0.9721
2.5982 6.4274 -2.1595 0.9714
2.4045 6.7125 -2.2210 0.9706
1.9664 7.2863 -2.3509 0.9689
1.4720 7.9438 -2.5166 0.9667
1.1966 8.3086 -2.6148 0.9654
0.8967 8.6880 -2.7206 0.9641
0.5684 9.0595 -2.8275 0.9627
0.2119 9.4255 -2.9367 0.9613
-0.1737 9.8065 -3.0552 0.9597
-2.0925 11.6012 -3.6720 0.9518
-5.8627 14.7046 -4.9310 0.9358
-7.9909 16.1384 -5.6095 0.9273
-9.2991 17.0243 -6.0425 0.9219
-10.8163 18.0390 -6.5518 0.9157
-12.6566 19.3048 -7.1905 0.9078
-14.7187 20.5953 -7.8852 0.8994
-16.7463 21.5468 -8.5005 0.8920
-22.2780 24.3467 -10.2797 0.8709
-17.7117 16.4792 -7.5358 0.9036
-22.6038 19.3964 -9.2779 0.8827
-22.6849 17.9350 -9.0079 0.8859
-31.1531 22.6573 -11.9991 0.8510
-28.0412 18.7192 -10.5022 0.8683
-29.2511 16.2947 -10.4300 0.8691
-37.5999 19.0079 -13.1238 0.8382
-33.4988 13.6795 -11.2712 0.8593
-36.4265 -30.5161 -14.8022 0.8195
-31.0350 -28.1969 -13.0614 0.8389
-26.2008 -25.8009 -11.4543 0.8572
-19.9190 -23.0473 -9.4888 0.8802
-17.4948 -21.9679 -8.7478 0.8890
-14.9033 -20.3399 -7.8545 0.8997
-12.7419 -18.9418 -7.1110 0.9088
-8.1204 -15.9229 -5.5677 0.9279
-4.1919 -13.0478 -4.2689 0.9442
-3.4736 -12.5183 -4.0467 0.9470
-2.8129 -11.9876 -3.8355 0.9497
-1.1626 -10.5334 -3.3010 0.9566
-0.2856 -9.6614 -3.0108 0.9603
0.0984 -9.2578 -2.8839 0.9620
0.4513 -8.8728 -2.7674 0.9635
0.7761 -8.5049 -2.6603 0.9649
1.8408 -7.1568 -2.3019 0.9695
2.4617 -6.3037 -2.1080 0.9720
2.6386 -6.0298 -2.0502 0.9728
2.8034 -5.7640 -1.9965 0.9735
2.9568 -5.5054 -1.9466 0.9742
3.3325 -4.7334 -1.8032 0.9760
3.4380 -4.4887 -1.7612 0.9766
3.5368 -4.2523 -1.7229 0.9771
3.6282 -4.0219 -1.6872 0.9776
3.7161 -3.8005 -1.6557 0.9780
3.9569 -3.1742 -1.5801 0.9790
4.0260 -2.9719 -1.5587 0.9793
4.2052 -2.3817 -1.5054 0.9800
4.3026 -1.9991 -1.4779 0.9803
4.3450 -1.8103 -1.4662 0.9805
4.4760 -1.0670 -1.4333 0.9809
3.9035 -0.4448 -1.2238 0.9837
3.8918 -0.2857 -1.2155 0.9838
3.8808 0.1836 -1.2102 0.9839
3.8871 0.3409 -1.2155 0.9838
3.8912 0.4994 -1.2220 0.9837
4.5566 1.1548 -1.4642 0.9805
4.5356 1.3456 -1.4737 0.9804
4.5107 1.5379 -1.4845 0.9802
4.4816 1.7319 -1.4966 0.9801
4.4482 1.9278 -1.5101 0.9799
4.4106 2.1259 -1.5251 0.9797
4.3686 2.3264 -1.5417 0.9795
4.2703 2.7354 -1.5797 0.9790
4.0848 3.3731 -1.6501 0.9781
4.0117 3.5933 -1.6776 0.9777
3.8462 4.0468 -1.7391 0.9769
3.6485 4.5154 -1.8083 0.9760
3.5355 4.7543 -1.8456 0.9755
3.2870 5.2539 -1.9305 0.9744
2.8361 6.0479 -2.0808 0.9724
2.6624 6.3271 -2.1383 0.9717
2.4755 6.6146 -2.2000 0.9708
1.5637 7.8193 -2.4839 0.9671
1.2962 8.1782 -2.5793 0.9659
0.6873 8.9299 -2.7898 0.9632
0.3406 9.2950 -2.8973 0.9618
-0.8848 10.5174 -3.2877 0.9567
-1.8943 11.4257 -3.6077 0.9526
-3.8334 13.0912 -4.2491 0.9445
-4.6413 13.7726 -4.5272 0.9409
-5.5295 14.4604 -4.8224 0.9372
-6.5040 15.1539 -5.1368 0.9332
-8.8185 16.7020 -5.8833 0.9239
-18.0118 21.9700 -8.8495 0.8878
-22.4506 21.4890 -9.6805 0.8779
-22.5453 19.9071 -9.3686 0.8816
-22.7271 17.0261 -8.8457 0.8878
-32.5239 22.3834 -12.2984 0.8475
-32.6833 18.8175 -11.7475 0.8538
-37.4392 17.7185 -12.9022 0.8407
-31.4129 -27.7390 -13.0540 0.8390
-1.9156 -10.7624 -3.5385 0.9551
-0.9556 -9.9472 -3.2347 0.9589
-0.5293 -9.5129 -3.0840 0.9607
0.5490 -8.4381 -2.7372 0.9651
0.8548 -8.0991 -2.6362 0.9663
1.1380 -7.7746 -2.5434 0.9675
1.6441 -7.1599 -2.3779 0.9696
2.2766 -6.3098 -2.1713 0.9722
3.0641 -5.0291 -1.9063 0.9755
3.1822 -4.7797 -1.8587 0.9761
3.3927 -4.3021 -1.7735 0.9772
3.4883 -4.0753 -1.7364 0.9777
3.5782 -3.8553 -1.7026 0.9781
3.7515 -3.4412 -1.6478 0.9788
3.9013 -3.0398 -1.6009 0.9794
3.9683 -2.8434 -1.5802 0.9797
4.0303 -2.6494 -1.5612 0.9799
4.1420 -2.2691 -1.5287 0.9803
4.1911 -2.0816 -1.5148 0.9805
4.2360 -1.8958 -1.5022 0.9807
4.2768 -1.7113 -1.4911 0.9808
4.3465 -1.3457 -1.4728 0.9811
4.3764 -1.1645 -1.4659 0.9811
4.4027 -0.9839 -1.4603 0.9812
4.4253 -0.8038 -1.4559 0.9813
3.9082 -0.2313 -1.2673 0.9837
3.8974 0.0828 -1.2619 0.9837
3.9033 0.2401 -1.2659 0.9837
3.9177 0.5593 -1.2810 0.9835
3.9258 0.7225 -1.2921 0.9834
4.4802 1.0121 -1.4868 0.9809
4.4623 1.1984 -1.4956 0.9808
4.3476 1.9577 -1.5434 0.9802
4.3083 2.1522 -1.5589 0.9800
4.1628 2.7503 -1.6150 0.9792
4.1043 2.9552 -1.6371 0.9790
3.8967 3.5910 -1.7153 0.9780
3.8152 3.8106 -1.7454 0.9776
3.5260 4.4924 -1.8486 0.9763
3.4118 4.7262 -1.8868 0.9758
3.2901 4.9665 -1.9284 0.9753
3.1586 5.2113 -1.9725 0.9747
3.0170 5.4613 -2.0196 0.9741
2.8650 5.7175 -2.0701 0.9735
2.3382 6.5275 -2.2444 0.9713
2.1326 6.8030 -2.3078 0.9705
1.9108 7.0802 -2.3738 0.9696
1.4254 7.6924 -2.5324 0.9676
1.1573 8.0358 -2.6280 0.9664
0.5485 8.7413 -2.8351 0.9638
0.2045 9.0986 -2.9459 0.9625
-0.1674 9.4531 -3.0604 0.9610
-1.0079 10.2433 -3.3317 0.9576
-1.4849 10.6705 -3.4873 0.9557
-1.9980 11.0772 -3.6435 0.9538
-3.2019 12.0933 -4.0494 0.9488
-3.8800 12.5872 -4.2636 0.9461
-4.6583 13.2025 -4.5318 0.9428
-6.4343 14.4248 -5.1127 0.9358
-8.5936 15.7327 -5.8028 0.9274
-15.2496 19.6210 -8.0439 0.9008
-19.4872 21.2967 -9.3441 0.8857
-22.4318 20.8709 -9.9179 0.8791
-22.4757 19.2865 -9.5867 0.8829
-22.5527 17.8305 -9.3062 0.8861
-27.9187 18.6374 -10.8658 0.8684
-29.8848 16.6477 -11.0732 0.8660
-37.4458 18.9300 -13.5818 0.8383
-30.0198 13.6906 -10.6801 0.8705
-33.4854 13.6740 -11.7080 0.8589
-24.8849 -17.6517 -9.8758 0.8796
-35.4372 -27.3414 -14.4882 0.8285
-27.5331 -25.0153 -12.0414 0.8552
-23.6131 -23.2527 -10.7273 0.8699
-20.3468 -21.7140 -9.6323 0.8824
-18.0610 -20.8976 -8.9407 0.8904
-15.5211 -19.4894 -8.0648 0.9005
-10.0728 -16.3567 -6.2180 0.9224
-8.7372 -15.5548 -5.7750 0.9277
-7.5502 -14.8049 -5.3795 0.9325
-6.5006 -14.1214 -5.0321 0.9367
-5.5725 -13.5093 -4.7303 0.9404
-4.7372 -12.9357 -4.4592 0.9437
-3.3008 -11.8957 -3.9961 0.9494
-2.1119 -10.9633 -3.6140 0.9541
-1.5908 -10.5176 -3.4432 0.9563
-1.1141 -10.0937 -3.2871 0.9582
-0.6765 -9.6839 -3.1423 0.9600
1.0406 -7.8865 -2.5750 0.9671
1.3059 -7.5453 -2.4787 0.9683
1.5604 -7.2650 -2.4053 0.9692
2.8839 -5.3696 -1.9729 0.9747
3.1417 -4.8667 -1.8750 0.9759
3.3578 -4.3841 -1.7875 0.9771
3.4555 -4.1546 -1.7492 0.9775
3.6370 -3.7197 -1.6840 0.9784
3.8024 -3.3099 -1.6318 0.9790
3.8765 -3.1097 -1.6087 0.9793
3.9453 -2.9123 -1.5873 0.9796
4.0089 -2.7174 -1.5677 0.9798
4.0685 -2.5254 -1.5500 0.9801
4.1236 -2.3355 -1.5340 0.9803
4.1743 -2.1475 -1.5195 0.9805
4.2207 -1.9611 -1.5065 0.9806
4.3011 -1.5924 -1.4846 0.9809
4.3663 -1.2282 -1.4682 0.9811
4.4380 -0.6873 -1.4537 0.9813
3.9013 -0.1291 -1.2635 0.9837
3.8956 0.0276 -1.2610 0.9838
3.9011 0.1846 -1.2642 0.9837
4.4693 1.1327 -1.4924 0.9808
4.3938 1.6980 -1.5248 0.9804
4.3604 1.8898 -1.5383 0.9802
4.3226 2.0835 -1.5533 0.9800
4.2805 2.2795 -1.5698 0.9798
4.1822 2.6789 -1.6077 0.9793
4.0639 3.0898 -1.6525 0.9788
3.8447 3.7328 -1.7346 0.9777
3.7589 3.9551 -1.7662 0.9773
3.4527 4.6429 -1.8729 0.9760
3.3340 4.8813 -1.9134 0.9755
2.5898 6.1544 -2.1614 0.9723
2.4061 6.4290 -2.2220 0.9716
2.2073 6.7071 -2.2856 0.9707
0.9716 8.2662 -2.6942 0.9656
0.3289 8.9743 -2.9069 0.9629
-0.0332 9.3268 -3.0190 0.9615
-0.4241 9.6899 -3.1396 0.9600
-0.8490 10.0925 -3.2784 0.9583
-1.3129 10.5235 -3.4328 0.9564
-3.6290 12.3932 -4.1801 0.9472
-5.1975 13.5923 -4.7105 0.9407
-8.1752 15.4836 -5.6677 0.9290
-9.4260 16.2370 -6.0773 0.9241
-10.8787 17.1166 -6.5649 0.9183
-14.5703 19.3048 -7.8289 0.9033
-18.5141 20.8173 -9.0179 0.8895
-22.5331 18.3392 -9.4043 0.8850
-22.6478 16.9667 -9.1600 0.8878
-27.8253 19.1498 -10.9338 0.8676
-28.2004 17.7820 -10.7915 0.8692
-32.5457 18.7383 -12.1562 0.8539
-37.4203 19.5869 -13.6718 0.8373
-37.4370 17.7174 -13.4067 0.8402
-32.2160 13.6907 -11.3307 0.8631
-24.9907 -17.2004 -9.8202 0.8802
-32.4713 -26.4297 -13.5524 0.8386
-2.3627 -10.7508 -3.6983 0.9546
-1.3596 -9.9383 -3.3702 0.9586
-0.5109 -9.1815 -3.0896 0.9619
-0.1359 -8.8252 -2.9655 0.9634
0.5305 -8.1532 -2.7451 0.9661
1.8123 -6.6541 -2.3171 0.9713
2.0175 -6.3841 -2.2495 0.9721
2.3952 -5.8860 -2.1351 0.9735
2.7184 -5.3937 -2.0293 0.9748
2.8637 -5.1556 -1.9815 0.9754
3.3162 -4.2051 -1.7993 0.9777
3.5023 -3.7736 -1.7298 0.9785
3.6744 -3.3705 -1.6753 0.9792
3.8235 -2.9792 -1.6285 0.9798
3.8900 -2.7873 -1.6079 0.9800
4.1118 -2.0423 -1.5425 0.9808
4.1972 -1.6794 -1.5189 0.9811
4.2338 -1.4997 -1.5091 0.9812
4.2967 -1.1433 -1.4939 0.9814
4.3228 -0.9661 -1.4882 0.9815
4.3641 -0.6128 -1.4806 0.9816
4.4002 -0.0833 -1.4787 0.9816
4.4086 0.0937 -1.4815 0.9816
4.4148 0.4502 -1.4910 0.9814
4.3964 0.9932 -1.5143 0.9812
4.3284 1.5444 -1.5441 0.9808
4.2625 1.9194 -1.5706 0.9805
4.1309 2.4968 -1.6217 0.9798
4.0776 2.6940 -1.6420 0.9796
3.9559 3.0971 -1.6880 0.9790
3.8870 3.3034 -1.7139 0.9787
3.6433 3.9437 -1.8039 0.9776
3.4459 4.3904 -1.8752 0.9767
3.3326 4.6165 -1.9130 0.9763
3.2116 4.8481 -1.9539 0.9758
2.6308 5.8230 -2.1468 0.9734
2.4583 6.0814 -2.2039 0.9727
2.2733 6.3463 -2.2649 0.9720
1.3814 7.4548 -2.5473 0.9685
1.1202 7.7785 -2.6404 0.9674
0.5295 8.4385 -2.8408 0.9650
0.1973 8.7772 -2.9497 0.9636
-0.1616 9.1220 -3.0653 0.9622
-0.5485 9.4637 -3.1850 0.9608
-0.9679 9.8365 -3.3209 0.9591
-1.4237 10.2311 -3.4706 0.9573
-4.4033 12.4798 -4.4463 0.9457
-6.0451 13.5522 -4.9857 0.9393
-6.9820 14.1009 -5.2866 0.9358
-17.3038 18.9106 -8.6121 0.8975
-22.3875 19.2108 -9.9115 0.8830
-22.4799 17.7729 -9.6282 0.8861
-24.9720 18.1619 -10.3745 0.8778
-29.0936 17.7749 -11.4549 0.8660
-37.2918 18.8522 -14.0394 0.8383
-43.2479 13.7257 -15.2448 0.8257
-24.7750 -17.5737 -10.2054 0.8797
-31.5445 -24.3380 -13.3862 0.8452
-27.2775 -22.8516 -11.9558 0.8606
-23.6823 -21.5167 -10.7505 0.8737
-20.6254 -20.3106 -9.7257 0.8850
-16.0511 -18.5720 -8.2474 0.9016
-12.1571 -16.5919 -6.9108 0.9169
-10.6436 -15.8225 -6.4070 0.9227
-9.3060 -15.1115 -5.9627 0.9278
-8.1207 -14.4572 -5.5712 0.9324
-4.4877 -12.2544 -4.3847 0.9464
-3.1435 -11.3286 -3.9500 0.9516
-2.0185 -10.4786 -3.5854 0.9560
-1.5238 -10.0747 -3.4234 0.9579
-0.6504 -9.3104 -3.1358 0.9614
-0.2645 -8.9491 -3.0080 0.9629
0.4205 -8.2679 -2.7815 0.9657
0.7251 -7.9460 -2.6808 0.9669
1.0080 -7.6391 -2.5888 0.9680
1.7417 -6.7715 -2.3491 0.9709
1.9470 -6.4787 -2.2729 0.9719
2.1500 -6.2337 -2.2155 0.9726
2.3335 -5.9754 -2.1553 0.9733
2.6646 -5.4787 -2.0469 0.9746
2.8139 -5.2394 -1.9982 0.9752
2.9467 -4.9942 -1.9483 0.9758
3.2817 -4.2847 -1.8133 0.9775
3.3773 -4.0605 -1.7745 0.9780
3.4695 -3.8459 -1.7403 0.9784
3.5607 -3.6416 -1.7112 0.9787
3.7251 -3.2426 -1.6593 0.9794
3.7988 -3.0473 -1.6362 0.9797
3.9898 -2.4765 -1.5777 0.9804
4.0446 -2.2908 -1.5617 0.9806
4.1833 -1.7429 -1.5226 0.9811
4.2213 -1.5629 -1.5124 0.9812
4.2556 -1.3838 -1.5035 0.9813
4.3378 -0.8515 -1.4852 0.9815
4.3579 -0.6749 -1.4816 0.9816
4.3875 -0.3221 -1.4781 0.9816
4.3970 -0.1456 -1.4781 0.9816
4.4060 0.0313 -1.4804 0.9816
4.4012 0.9290 -1.5113 0.9812
4.3635 1.2945 -1.5292 0.9810
4.3382 1.4791 -1.5399 0.9808
4.2754 1.8529 -1.5655 0.9805
4.2375 2.0425 -1.5805 0.9803
4.1953 2.2341 -1.5969 0.9801
4.1485 2.4280 -1.6150 0.9799
3.9788 3.0252 -1.6793 0.9791
3.8392 3.4388 -1.7317 0.9785
3.6750 3.8667 -1.7923 0.9777
3.5828 4.0867 -1.8260 0.9773
3.3731 4.5358 -1.8992 0.9764
3.2554 4.7663 -1.9393 0.9759
2.6886 5.7335 -2.1276 0.9736
2.5205 5.9898 -2.1834 0.9730
2.3399 6.2522 -2.2429 0.9722
1.9360 6.7902 -2.3723 0.9706
1.7092 7.0589 -2.4402 0.9698
1.2146 7.6630 -2.6068 0.9678
0.3172 8.6569 -2.9105 0.9641
-0.0320 9.0026 -3.0247 0.9627
-0.4089 9.3421 -3.1418 0.9613
-0.8159 9.6979 -3.2698 0.9598
-1.2596 10.0966 -3.4186 0.9580
-1.7381 10.4832 -3.5703 0.9562
-2.8209 11.2982 -3.9125 0.9520
-3.4568 11.8051 -4.1329 0.9494
-4.8835 12.7712 -4.5939 0.9439
-5.7362 13.3649 -4.8865 0.9405
-6.6418 13.9053 -5.1775 0.9370
-8.7393 15.0542 -5.8484 0.9292
-11.4471 16.5063 -6.7489 0.9187
-13.1370 17.4057 -7.3267 0.9121
-18.8857 19.5901 -9.1424 0.8915
-21.6503 20.7230 -10.0692 0.8812
-22.5431 16.8883 -9.4638 0.8879
-28.1990 17.7811 -11.2006 0.8688
-32.4083 18.6592 -12.5644 0.8540
-28.9557 13.7036 -10.7631 0.8736
-32.2118 13.6889 -11.7593 0.8627
-42.1019 15.9269 -15.1238 0.8270
-41.2692 13.7436 -14.6144 0.8323
-25.0234 -17.2229 -10.2063 0.8797
-32.6960 -24.4963 -13.7264 0.8416
-24.8809 -21.9710 -11.1523 0.8693
-1.2999 -9.5017 -3.3409 0.9602
-0.8824 -9.1857 -3.2147 0.9617
-0.1311 -8.5124 -2.9657 0.9646
0.2031 -8.1933 -2.8551 0.9659
0.5130 -7.8854 -2.7528 0.9671
1.0693 -7.3054 -2.5720 0.9692
1.3188 -7.0265 -2.4905 0.9702
2.1582 -5.9816 -2.2152 0.9734
2.7940 -5.0301 -2.0045 0.9759
2.9192 -4.7914 -1.9545 0.9765
3.0353 -4.5590 -1.9080 0.9771
3.2428 -4.1120 -1.8243 0.9781
3.3352 -3.8964 -1.7867 0.9785
3.6767 -3.1101 -1.6776 0.9798
3.7481 -2.9204 -1.6552 0.9801
3.8143 -2.7330 -1.6346 0.9803
3.8756 -2.5478 -1.6157 0.9805
3.9862 -2.1838 -1.5834 0.9809
4.0349 -2.0041 -1.5694 0.9811
4.0794 -1.8257 -1.5569 0.9812
4.1565 -1.4723 -1.5361 0.9815
4.1898 -1.2972 -1.5279 0.9816
4.2194 -1.1227 -1.5210 0.9817
4.2675 -0.7752 -1.5110 0.9818
4.3216 -0.0819 -1.5058 0.9819
4.3297 0.0920 -1.5086 0.9818
4.3343 0.2666 -1.5128 0.9818
4.3329 0.6186 -1.5247 0.9816
4.3268 0.7962 -1.5326 0.9815
4.3144 0.9747 -1.5409 0.9814
4.2728 1.3337 -1.5593 0.9812
4.2461 1.5151 -1.5705 0.9811
4.1801 1.8823 -1.5970 0.9808
4.1407 2.0685 -1.6124 0.9806
3.9370 2.8347 -1.6900 0.9797
3.8051 3.2338 -1.7396 0.9791
3.7306 3.4379 -1.7673 0.9787
3.2563 4.5108 -1.9380 0.9767
2.8689 5.1933 -2.0668 0.9752
2.7211 5.4303 -2.1159 0.9746
2.3932 5.9203 -2.2245 0.9733
2.2115 6.1737 -2.2845 0.9726
1.8074 6.6972 -2.4165 0.9710
1.5803 6.9553 -2.4847 0.9702
1.3397 7.2298 -2.5615 0.9693
1.0852 7.5354 -2.6521 0.9683
-0.5291 9.1291 -3.1855 0.9620
-1.3670 9.8235 -3.4551 0.9589
-1.8365 10.1815 -3.6041 0.9571
-2.3456 10.5569 -3.7673 0.9552
-3.5087 11.3824 -4.1493 0.9508
-4.1721 11.8244 -4.3681 0.9483
-5.6772 12.7276 -4.8549 0.9427
-7.5010 13.7324 -5.4510 0.9359
-8.5375 14.2386 -5.7835 0.9321
-10.9844 15.3700 -6.5811 0.9231
-17.6276 17.7747 -8.7207 0.8994
-17.5799 16.3566 -8.3650 0.9033
-22.7084 19.4861 -10.4240 0.8810
-22.3982 17.7084 -9.9467 0.8861
-29.0922 17.7740 -11.8764 0.8655
-29.9866 13.6755 -11.4812 0.8697
-43.2747 17.6715 -16.2837 0.8204
-32.9615 -4.4679 -11.5875 0.8686
-25.6120 -4.5262 -9.0605 0.8957
-34.9864 -22.7611 -14.5401 0.8380
-26.8361 -20.7053 -11.8078 0.8663
-20.7575 -18.8593 -9.7700 0.8880
-19.3028 -19.0081 -9.4373 0.8916
-14.3082 -16.5553 -7.6227 0.9115
-12.6502 -15.8845 -7.0739 0.9176
-11.1628 -15.2349 -6.5794 0.9231
-9.8333 -14.6179 -6.1373 0.9281
-7.5920 -13.5159 -5.4004 0.9364
-6.6309 -13.0022 -5.0845 0.9400
-4.9795 -12.0719 -4.5491 0.9462
-2.4440 -10.4154 -3.7269 0.9557
-1.0275 -9.3095 -3.2628 0.9611
-0.6260 -8.9622 -3.1297 0.9627
-0.2550 -8.6275 -3.0068 0.9641
0.7021 -7.6936 -2.6913 0.9678
0.9771 -7.4050 -2.6020 0.9689
1.9003 -6.3232 -2.3001 0.9724
2.2736 -5.8220 -2.1773 0.9739
2.8762 -4.8747 -1.9717 0.9763
3.1060 -4.4118 -1.8796 0.9774
3.3035 -3.9718 -1.7996 0.9784
3.3965 -3.7650 -1.7664 0.9788
3.6503 -3.1774 -1.6859 0.9797
3.7235 -2.9869 -1.6629 0.9800
3.9134 -2.4291 -1.6046 0.9807
3.9680 -2.2474 -1.5886 0.9809
4.1785 -1.3588 -1.5306 0.9816
4.2094 -1.1841 -1.5233 0.9816
4.2365 -1.0100 -1.5172 0.9817
4.2601 -0.8363 -1.5124 0.9818
4.2800 -0.6628 -1.5088 0.9818
4.2964 -0.4896 -1.5064 0.9819
4.3093 -0.3163 -1.5052 0.9819
4.3186 -0.1430 -1.5053 0.9819
4.3331 0.2050 -1.5112 0.9818
4.3342 0.5563 -1.5222 0.9817
4.3293 0.7335 -1.5297 0.9816
4.3201 0.9119 -1.5381 0.9815
4.2560 1.4510 -1.5664 0.9811
4.1930 1.8172 -1.5919 0.9808
4.1128 2.1902 -1.6232 0.9805
4.0661 2.3797 -1.6412 0.9802
4.0145 2.5715 -1.6608 0.9800
3.9580 2.7656 -1.6821 0.9798
3.8967 2.9627 -1.7053 0.9795
3.5941 3.7817 -1.8175 0.9781
3.5025 3.9951 -1.8509 0.9777
3.4038 4.2126 -1.8867 0.9773
3.1793 4.6548 -1.9637 0.9764
2.9187 5.1110 -2.0503 0.9754
2.7743 5.3462 -2.0983 0.9748
2.4543 5.8325 -2.2044 0.9736
2.0869 6.3412 -2.3256 0.9721
1.8832 6.6051 -2.3927 0.9713
1.4250 7.1258 -2.5315 0.9697
0.6190 8.0426 -2.8100 0.9664
0.3063 8.3591 -2.9139 0.9652
-0.3945 9.0139 -3.1431 0.9625
-1.2099 9.6980 -3.4046 0.9594
-1.6669 10.0541 -3.5503 0.9578
-2.1609 10.4199 -3.7071 0.9559
-2.6919 10.7815 -3.8712 0.9540
-3.2892 11.2329 -4.0774 0.9516
-3.9181 11.6265 -4.2740 0.9494
-6.2452 13.0751 -5.0478 0.9405
-7.1586 13.5581 -5.3410 0.9371
-8.1612 14.0582 -5.6628 0.9335
-9.2643 14.5764 -6.0166 0.9295
-11.9414 15.8217 -6.9053 0.9195
-15.4499 17.3719 -8.0988 0.9062
-22.4443 16.8143 -9.7694 0.8880
-27.6449 19.0256 -11.6907 0.8675
-25.3801 16.0036 -10.4524 0.8807
-30.8494 17.7616 -12.4007 0.8600
-30.8106 16.1271 -12.1146 0.8630
-28.9589 13.7051 -11.1609 0.8731
-32.1523 13.6637 -12.1701 0.8625
-22.9234 -4.6695 -8.1496 0.9057
-29.5914 -17.0389 -11.8953 0.8653
-25.0245 -17.2237 -10.5829 0.8793
-28.0993 -21.0523 -12.2313 0.8618
-21.7079 -19.1691 -10.0886 0.8846
-1.2545 -9.1704 -3.3398 0.9614
-0.8496 -8.8433 -3.2057 0.9629
0.1964 -7.9211 -2.8591 0.9669
0.7767 -7.3588 -2.6701 0.9690
1.0376 -7.0890 -2.5852 0.9700
1.2810 -6.8250 -2.5057 0.9709
1.5080 -6.5670 -2.4313 0.9718
1.9111 -6.0476 -2.2886 0.9734
2.1029 -5.8282 -2.2357 0.9740
2.2759 -5.5930 -2.1789 0.9746
2.5894 -5.1378 -2.0760 0.9758
2.7271 -4.9097 -2.0265 0.9764
2.8510 -4.6794 -1.9772 0.9770
3.3586 -3.6188 -1.7815 0.9792
3.6750 -2.8635 -1.6811 0.9804
3.8019 -2.4993 -1.6417 0.9808
3.8591 -2.3204 -1.6248 0.9810
3.9118 -2.1430 -1.6095 0.9812
4.0046 -1.7922 -1.5831 0.9815
4.0448 -1.6184 -1.5720 0.9816
4.1698 -0.9319 -1.5417 0.9820
4.2369 -0.2508 -1.5315 0.9821
4.2453 -0.0804 -1.5321 0.9821
4.2554 0.6075 -1.5511 0.9819
4.1931 1.3088 -1.5850 0.9815
4.1354 1.6657 -1.6087 0.9812
4.1002 1.8464 -1.6226 0.9811
4.0608 2.0286 -1.6380 0.9809
3.9686 2.3987 -1.6733 0.9805
3.9155 2.5869 -1.6934 0.9802
3.8574 2.7775 -1.7152 0.9800
3.4849 3.7722 -1.8531 0.9784
3.3915 3.9808 -1.8870 0.9780
3.1822 4.4082 -1.9618 0.9771
2.7995 5.0675 -2.0890 0.9757
1.9615 6.2570 -2.3661 0.9725
1.0521 7.3053 -2.6632 0.9691
0.7837 7.5929 -2.7544 0.9681
0.4947 7.8840 -2.8504 0.9670
-2.7717 10.4686 -3.9076 0.9550
-3.3435 10.8465 -4.0955 0.9529
-7.9876 13.3215 -5.6048 0.9361
-11.4409 14.7205 -6.7273 0.9238
-12.9186 15.3104 -7.2284 0.9183
-17.8348 16.5937 -8.7901 0.9016
-20.0464 17.2019 -9.5316 0.8938
-22.5351 17.8167 -10.3659 0.8850
-24.7472 17.9984 -11.0416 0.8780
-27.5523 18.3928 -11.9536 0.8686
-31.8699 17.7535 -13.1637 0.8563
-43.2717 17.6703 -16.8657 0.8197
-42.2121 15.2893 -16.2000 0.8262
-43.1309 13.6886 -16.3282 0.8250
