ply
format ascii 1.0
element vertex 1381
property float32 x
property float32 y
property float32 z
property float32 CosAngle
property uint32 ObjIdx
property uint32 ObjTag
end_header
-19.3555 -24.2966 -9.2999 0.0822 0 2
-17.0132 -23.2148 -8.6166 0.8321 0 2
-14.0733 -20.9195 -7.5482 0.0984 0 24
-12.0750 -19.6090 -6.8943 0.1096 0 1
-10.3058 -18.3508 -6.3010 0.1213 0 1
-8.7770 -17.2166 -5.7854 0.1308 0 1
-7.4626 -16.2199 -5.3452 0.1456 0 1
-6.3185 -15.3292 -4.9638 0.1618 0 1
-5.3208 -14.5439 -4.6364 0.1769 0 1
-4.4399 -13.8379 -4.3508 0.1885 0 1
-3.6545 -13.1931 -4.0985 0.2025 0 1
-2.9488 -12.5948 -3.8726 0.2190 0 1
-2.3128 -12.0428 -3.6713 0.2250 0 1
-1.7342 -11.5142 -3.4860 0.2316 0 1
-1.2067 -11.0015 -3.3134 0.2436 0 1
-0.7266 -10.5131 -3.1549 0.2552 0 1
-0.2890 -10.0485 -3.0096 0.2685 0 1
0.1101 -9.5831 -2.8692 0.2772 0 24
0.4762 -9.1968 -2.7570 0.2931 0 1
0.8119 -8.8021 -2.6464 0.3054 0 1
1.1206 -8.4256 -2.5447 0.3176 0 1
1.4044 -8.0620 -2.4499 0.3315 0 1
1.6668 -7.7173 -2.3637 0.3470 0 1
1.9098 -7.3881 -2.2846 0.3590 0 1
2.1350 -7.0715 -2.2114 0.3709 0 1
2.3437 -6.7660 -2.1437 0.3816 0 1
2.5370 -6.4698 -2.0805 0.3932 0 1
2.7166 -6.1834 -2.0220 0.4046 0 1
2.8835 -5.9060 -1.9676 0.4158 0 1
3.0389 -5.6369 -1.9172 0.4267 0 1
3.1823 -5.3734 -1.8696 0.4219 0 1
3.3054 -5.1014 -1.8198 0.4334 0 1
3.4194 -4.8388 -1.7738 0.4381 0 1
3.5267 -4.5874 -1.7323 0.4486 0 1
3.6259 -4.3428 -1.6937 0.4588 0 1
3.7174 -4.1048 -1.6579 0.4688 0 1
3.8025 -3.8734 -1.6250 0.4977 0 1
3.8890 -3.6550 -1.5978 0.5062 0 1
3.9694 -3.4405 -1.5726 0.5143 0 1
4.0440 -3.2297 -1.5494 0.5220 0 1
4.1132 -3.0221 -1.5280 0.5293 0 1
4.1771 -2.8175 -1.5084 0.5362 0 1
4.2372 -2.6163 -1.4909 0.5425 0 1
4.2925 -2.4176 -1.4749 0.5484 0 1
4.3434 -2.2209 -1.4605 0.5539 0 1
4.3899 -2.0262 -1.4475 0.5589 0 1
4.4323 -1.8332 -1.4360 0.5634 0 1
4.4706 -1.6417 -1.4258 0.5674 0 1
4.5049 -1.4515 -1.4170 0.5709 0 1
4.5354 -1.2623 -1.4094 0.5740 0 1
4.2879 -1.0094 -1.3188 0.3397 25 14
3.9020 -0.7543 -1.1898 0.7265 25 14
3.8891 -0.5906 -1.1777 0.7427 25 14
3.8795 -0.4303 -1.1686 0.7485 25 14
3.8710 -0.2723 -1.1618 0.7901 25 14
3.8604 -0.1157 -1.1562 0.7939 25 14
3.8558 0.0396 -1.1544 0.7951 25 14
3.8610 0.1952 -1.1574 0.7557 25 14
3.8635 0.3516 -1.1614 0.7531 25 14
3.8669 0.5095 -1.1677 0.7491 25 14
3.8714 0.6696 -1.1762 0.7436 25 14
3.9203 0.8417 -1.2004 0.7311 25 14
4.6450 1.1947 -1.4359 0.5658 0 1
4.6239 1.3899 -1.4455 0.5537 0 1
4.5986 1.5867 -1.4564 0.5495 0 1
4.5693 1.7853 -1.4687 0.5449 0 1
4.5357 1.9861 -1.4824 0.5399 0 1
4.4977 2.1892 -1.4976 0.5341 0 1
4.4554 2.3949 -1.5144 0.5282 0 1
4.4083 2.6035 -1.5327 0.5218 0 1
4.3562 2.8151 -1.5528 0.5151 0 1
4.2989 3.0300 -1.5746 0.5080 0 1
4.2366 3.2489 -1.5984 0.5004 0 1
4.1687 3.4719 -1.6242 0.4925 0 1
4.0947 3.6992 -1.6520 0.4842 0 1
4.0143 3.9312 -1.6821 0.4755 0 1
3.9270 4.1682 -1.7145 0.4665 0 1
3.8309 4.4089 -1.7486 0.4706 0 1
3.7230 4.6501 -1.7834 0.4614 0 1
3.6086 4.8989 -1.8216 0.4497 0 1
3.4866 5.1556 -1.8633 0.4396 0 1
3.3552 5.4191 -1.9082 0.4293 0 1
3.2136 5.6898 -1.9563 0.4157 0 1
3.0600 5.9664 -2.0075 0.4051 0 1
2.8946 6.2513 -2.0624 0.3943 0 1
2.7163 6.5447 -2.1214 0.3837 0 1
2.5192 6.8344 -2.1807 0.3953 0 1
2.3066 7.1293 -2.2433 0.3842 0 1
2.0786 7.4333 -2.3108 0.3730 0 1
1.8367 7.7597 -2.3873 0.3416 0 1
1.5812 8.1263 -2.4785 0.3290 0 1
1.3031 8.5109 -2.5777 0.3164 0 1
0.9998 8.9155 -2.6858 0.3036 0 1
0.6654 9.2983 -2.7908 0.3125 0 1
0.3023 9.6877 -2.9017 0.3006 0 1
-0.0914 10.0945 -3.0222 0.2886 0 1
-0.5206 10.5519 -3.1629 0.2624 0 1
-0.9899 11.0248 -3.3139 0.2547 0 24
-1.5094 11.5643 -3.4915 0.2322 0 1
-2.0702 12.0572 -3.6625 0.2251 0 24
-2.6981 12.6408 -3.8697 0.2104 0 24
-3.4124 13.3345 -4.1207 0.1967 0 1
-4.1947 14.0170 -4.3803 0.1810 0 1
-5.0748 14.7668 -4.6747 0.1743 0 1
-6.0508 15.5420 -4.9932 0.1654 0 1
-7.1318 16.3413 -5.3379 0.1545 0 1
-8.3620 17.2333 -5.7346 0.1380 0 1
-9.8130 18.3091 -6.2190 0.1204 0 1
-11.5866 19.6736 -6.8354 0.1050 0 1
-13.6228 21.1373 -7.5285 0.1073 0 1
-15.7865 22.4557 -8.2178 0.1102 0 1
-17.8466 23.3311 -8.7940 0.0869 0 2
-21.0962 25.3932 -9.8835 0.0773 0 2
-25.1092 27.8619 -11.2288 0.0681 0 25
-22.4895 23.0209 -9.6349 0.7161 0 5
-27.7826 26.2387 -11.4407 0.7471 0 3
-22.7040 19.7761 -9.0141 0.8027 0 5
-22.7595 18.2672 -8.7370 0.8080 0 5
-22.8348 16.8631 -8.4984 0.8667 0 5
-32.6822 22.1603 -11.8216 0.8393 0 3
-28.3854 17.6226 -10.0026 0.9985 0 3
-28.4112 16.0923 -9.7754 0.8783 0 3
-33.0849 17.0191 -11.1386 0.8959 0 3
-36.3771 16.8979 -12.0082 0.4102 0 3
-42.4638 17.6846 -13.7712 0.3746 0 3
-45.9399 8.9967 -14.0148 0.9562 0 22
-45.9738 7.0962 -13.9266 0.9920 0 22
-30.7513 -25.4845 -11.9569 0.7888 0 20
-34.5672 -31.0758 -13.9158 0.6346 0 20
-29.6284 -28.8741 -12.3856 0.9618 0 9
-26.2350 -27.7109 -11.4243 0.9611 0 9
-23.0791 -26.4310 -10.5050 0.7345 0 9
-19.7517 -24.5478 -9.4327 0.0810 0 2
-17.0784 -23.0674 -8.5927 0.8344 0 2
-14.3673 -21.1335 -7.6506 0.0815 0 24
-12.3098 -19.7740 -6.9733 0.1081 0 1
-10.5053 -18.4947 -6.3678 0.1200 0 1
-8.9505 -17.3475 -5.8440 0.1295 0 1
-7.6127 -16.3363 -5.3957 0.1442 0 1
-6.4479 -15.4297 -5.0065 0.1605 0 1
-5.4344 -14.6332 -4.6732 0.1755 0 1
-4.5413 -13.9204 -4.3837 0.1871 0 1
-3.7451 -13.2684 -4.1275 0.2011 0 1
-3.0298 -12.6630 -3.8980 0.2176 0 1
-2.3866 -12.1085 -3.6948 0.2235 0 1
-1.7943 -11.5313 -3.4938 0.2317 0 24
-1.2678 -11.0619 -3.3334 0.2422 0 1
-0.7823 -10.5709 -3.1734 0.2537 0 1
-0.3398 -10.1030 -3.0264 0.2651 0 1
0.0640 -9.6632 -2.8930 0.2793 0 1
0.4336 -9.2459 -2.7711 0.2916 0 1
0.7728 -8.8489 -2.6593 0.3039 0 1
1.0846 -8.4703 -2.5565 0.3161 0 1
1.3713 -8.1049 -2.4609 0.3285 0 1
1.6361 -7.7580 -2.3737 0.3456 0 1
1.8760 -7.4057 -2.2872 0.3569 0 24
2.1086 -7.1091 -2.2200 0.3695 0 1
2.3193 -6.8025 -2.1517 0.3802 0 1
2.5143 -6.5051 -2.0879 0.3918 0 1
2.6955 -6.2175 -2.0288 0.4033 0 1
2.8640 -5.9391 -1.9740 0.4145 0 1
3.0206 -5.6690 -1.9231 0.4254 0 1
3.1664 -5.4065 -1.8758 0.4359 0 1
3.2910 -5.1338 -1.8257 0.4321 0 1
3.4058 -4.8697 -1.7791 0.4368 0 1
3.5142 -4.6174 -1.7372 0.4474 0 1
3.6143 -4.3721 -1.6983 0.4576 0 1
3.7067 -4.1332 -1.6621 0.4676 0 1
3.7919 -3.9004 -1.6286 0.4772 0 1
3.8789 -3.6812 -1.6010 0.5052 0 1
3.9600 -3.4663 -1.5756 0.5133 0 1
4.0353 -3.2550 -1.5521 0.5211 0 1
4.1051 -3.0470 -1.5305 0.5284 0 1
4.1697 -2.8421 -1.5107 0.5353 0 1
4.2301 -2.6405 -1.4929 0.5418 0 1
4.2861 -2.4415 -1.4767 0.5477 0 1
4.3375 -2.2446 -1.4621 0.5532 0 1
4.3845 -2.0497 -1.4490 0.5583 0 1
4.4274 -1.8565 -1.4373 0.5629 0 1
4.4662 -1.6648 -1.4270 0.5669 0 1
4.5010 -1.4744 -1.4180 0.5705 0 1
4.5319 -1.2851 -1.4103 0.5736 0 1
4.2926 -1.0326 -1.3218 0.3390 25 14
3.9042 -0.7745 -1.1916 0.7254 25 14
3.8904 -0.6102 -1.1789 0.7419 25 14
3.8806 -0.4496 -1.1696 0.7479 25 14
3.8720 -0.2913 -1.1625 0.7524 25 14
3.8616 -0.1346 -1.1568 0.7935 25 14
3.8552 0.0208 -1.1542 0.7953 25 14
3.8606 0.1764 -1.1570 0.7934 25 14
3.8631 0.3326 -1.1608 0.7535 25 14
3.8665 0.4903 -1.1668 0.7496 25 14
3.8708 0.6501 -1.1751 0.7444 25 14
3.9111 0.8199 -1.1963 0.7336 25 14
4.6466 1.1710 -1.4346 0.5663 0 1
4.6266 1.3662 -1.4442 0.5542 0 1
4.6019 1.5628 -1.4550 0.5501 0 1
4.5731 1.7612 -1.4671 0.5455 0 1
4.5400 1.9617 -1.4806 0.5405 0 1
4.5025 2.1645 -1.4956 0.5348 0 1
4.4608 2.3699 -1.5122 0.5289 0 1
4.4143 2.5781 -1.5304 0.5226 0 1
4.3628 2.7893 -1.5503 0.5159 0 1
4.3062 3.0038 -1.5718 0.5088 0 1
4.2444 3.2222 -1.5954 0.5014 0 1
4.1772 3.4447 -1.6209 0.4935 0 1
4.1040 3.6714 -1.6486 0.4852 0 1
4.0244 3.9029 -1.6783 0.4766 0 1
3.9379 4.1393 -1.7104 0.4676 0 1
3.8434 4.3801 -1.7446 0.4716 0 1
3.7365 4.6207 -1.7790 0.4625 0 1
3.6227 4.8683 -1.8167 0.4509 0 1
3.5018 5.1242 -1.8581 0.4409 0 1
3.3716 5.3868 -1.9026 0.4306 0 1
3.2314 5.6569 -1.9504 0.4200 0 1
3.0792 5.9325 -2.0011 0.4064 0 1
2.9153 6.2164 -2.0556 0.3956 0 1
2.7386 6.5087 -2.1140 0.3850 0 1
2.5440 6.7993 -2.1734 0.3966 0 1
2.3331 7.0932 -2.2355 0.3856 0 1
2.1070 7.3960 -2.3023 0.3744 0 1
1.8662 7.7165 -2.3768 0.3431 0 1
1.6132 8.0810 -2.4670 0.3306 0 1
1.3380 8.4634 -2.5652 0.3179 0 1
1.0380 8.8654 -2.6723 0.3052 0 1
0.7074 9.2523 -2.7780 0.3140 0 1
0.3477 9.6397 -2.8878 0.3020 0 1
-0.0421 10.0443 -3.0071 0.2901 0 1
-0.4666 10.4940 -3.1448 0.2639 0 1
-0.9309 10.9672 -3.2952 0.2561 0 24
-1.4441 11.4999 -3.4699 0.2336 0 1
-1.9986 11.9899 -3.6391 0.2269 0 24
-2.6185 12.5675 -3.8433 0.2125 0 24
-3.3236 13.2558 -4.0914 0.1981 0 1
-4.0951 13.9308 -4.3471 0.1862 0 1
-4.9638 14.6759 -4.6382 0.1709 0 1
-5.9278 15.4482 -4.9537 0.1668 0 1
-6.9940 16.2406 -5.2938 0.1558 0 1
-35.3262 -25.0278 -13.4858 0.8369 0 20
-34.8670 -29.1828 -14.1631 0.5958 0 9
-28.0765 -25.4889 -11.8121 0.5720 0 9
-26.4342 -26.0133 -11.5525 0.9401 0 9
-23.2040 -24.7496 -10.5678 0.8133 0 9
-19.9354 -23.0563 -9.4943 0.0835 0 2
-17.4973 -21.9641 -8.7473 0.9274 0 2
-14.9099 -20.3449 -7.8570 0.0745 0 1
-12.7434 -18.9426 -7.1115 0.1132 0 1
-10.9819 -17.8339 -6.5239 0.1214 0 1
-9.4471 -16.8218 -6.0097 0.1357 0 1
-8.1158 -15.9196 -5.5661 0.1465 0 1
-6.9431 -15.0909 -5.1744 0.1610 0 1
-5.9151 -14.3507 -4.8350 0.1710 0 1
-5.0090 -13.6915 -4.5413 0.1873 0 1
-4.1845 -13.0419 -4.2665 0.1977 0 24
-3.4659 -12.5121 -4.0442 0.2128 0 1
-2.8051 -11.9811 -3.8330 0.2235 0 1
-2.2047 -11.4800 -3.6413 0.2352 0 1
-1.6555 -10.9914 -3.4624 0.2418 0 1
-1.1545 -10.5256 -3.2984 0.2538 0 1
-0.6965 -10.0775 -3.1466 0.2663 0 1
-0.2777 -9.6531 -3.0081 0.2786 0 1
0.1063 -9.2493 -2.8813 0.2908 0 1
0.4590 -8.8642 -2.7649 0.3031 0 1
0.7837 -8.4961 -2.6577 0.3153 0 1
1.0831 -8.1436 -2.5590 0.3274 0 1
1.3595 -7.8040 -2.4675 0.3447 0 1
1.6157 -7.4805 -2.3839 0.3568 0 1
1.8477 -7.1475 -2.2996 0.3680 0 24
2.0736 -6.8681 -2.2348 0.3806 0 1
2.2781 -6.5768 -2.1681 0.3913 0 1
2.4681 -6.2940 -2.1059 0.4028 0 1
2.6448 -6.0200 -2.0482 0.4142 0 1
2.8093 -5.7540 -1.9946 0.4253 0 1
2.9626 -5.4954 -1.9447 0.4360 0 1
3.1021 -5.2380 -1.8963 0.4313 0 1
3.2243 -4.9762 -1.8470 0.4429 0 1
3.3372 -4.7225 -1.8013 0.4541 0 1
3.4425 -4.4779 -1.7594 0.4580 0 1
3.5412 -4.2414 -1.7211 0.4682 0 1
3.6323 -4.0109 -1.6856 0.4781 0 1
3.7205 -3.7899 -1.6543 0.5069 0 1
3.8065 -3.5775 -1.6272 0.5154 0 1
3.8865 -3.3687 -1.6021 0.5235 0 1
3.9608 -3.1632 -1.5789 0.5311 0 1
4.0296 -2.9607 -1.5576 0.5384 0 1
4.0934 -2.7610 -1.5380 0.5453 0 1
4.1531 -2.5644 -1.5204 0.5517 0 1
4.2083 -2.3701 -1.5045 0.5575 0 1
4.2590 -2.1778 -1.4900 0.5630 0 1
4.3054 -1.9872 -1.4771 0.5679 0 1
4.3476 -1.7982 -1.4655 0.5724 0 1
4.3857 -1.6105 -1.4553 0.5764 0 1
4.4199 -1.4241 -1.4465 0.5799 0 1
4.4503 -1.2386 -1.4389 0.5861 0 1
4.4778 -1.0541 -1.4329 0.5885 0 1
3.9278 -0.7593 -1.2461 0.7193 25 14
3.9141 -0.5944 -1.2332 0.7355 25 14
3.9026 -0.4329 -1.2231 0.7782 25 14
3.8910 -0.2737 -1.2150 0.7834 25 14
3.8803 -0.1163 -1.2092 0.7871 25 14
3.8757 0.0398 -1.2073 0.7884 25 14
3.8812 0.1962 -1.2105 0.7863 25 14
3.8876 0.3538 -1.2160 0.7828 25 14
3.8916 0.5128 -1.2227 0.7418 25 14
3.8965 0.6739 -1.2318 0.7277 25 14
4.2701 0.9168 -1.3604 0.3415 25 14
4.5549 1.1715 -1.4650 0.5665 0 1
4.5335 1.3627 -1.4746 0.5628 0 1
4.5081 1.5554 -1.4855 0.5587 0 1
4.4786 1.7499 -1.4978 0.5541 0 1
4.4448 1.9463 -1.5115 0.5491 0 1
4.4067 2.1449 -1.5266 0.5433 0 1
4.3642 2.3459 -1.5434 0.5374 0 1
4.3170 2.5496 -1.5617 0.5311 0 1
4.2649 2.7560 -1.5817 0.5243 0 1
4.2075 2.9656 -1.6035 0.5172 0 1
4.1453 3.1788 -1.6272 0.5097 0 1
4.0774 3.3958 -1.6529 0.5018 0 1
4.0035 3.6168 -1.6806 0.4935 0 1
3.9233 3.8421 -1.7105 0.4849 0 1
3.8363 4.0720 -1.7427 0.4760 0 1
3.7422 4.3068 -1.7772 0.4667 0 1
3.6361 4.5416 -1.8122 0.4708 0 1
3.5224 4.7819 -1.8500 0.4591 0 1
3.4014 5.0296 -1.8913 0.4491 0 1
3.2714 5.2836 -1.9357 0.4388 0 1
3.1305 5.5427 -1.9829 0.4253 0 1
2.9789 5.8082 -2.0333 0.4147 0 1
2.8158 6.0811 -2.0875 0.4040 0 1
2.6403 6.3617 -2.1455 0.3934 0 1
2.4508 6.6489 -2.2073 0.4049 0 1
2.2422 6.9304 -2.2690 0.3939 0 1
2.0189 7.2199 -2.3352 0.3827 0 1
1.7797 7.5188 -2.4068 0.3514 0 1
1.5303 7.8647 -2.4958 0.3388 0 1
1.2595 8.2264 -2.5923 0.3262 0 1
0.9651 8.6053 -2.6973 0.3135 0 1
0.6426 8.9802 -2.8044 0.3034 0 1
0.2916 9.3448 -2.9123 0.3106 0 1
-0.0881 9.7230 -3.0288 0.2986 0 1
-0.4997 10.1281 -3.1587 0.2725 0 1
-0.9501 10.5822 -3.3096 0.2600 0 1
-1.4422 11.0488 -3.4709 0.2513 0 1
-1.9738 11.4961 -3.6334 0.2361 0 24
-2.5753 12.0659 -3.8431 0.2187 0 1
-3.2313 12.6269 -4.0600 0.2070 0 1
-3.9583 13.2272 -4.3008 0.1952 0 1
-4.7669 13.8709 -4.5687 0.1837 0 1
-5.6704 14.5648 -4.8686 0.1735 0 1
-6.6607 15.2617 -5.1870 0.1676 0 1
-7.7570 15.9865 -5.5350 0.1571 0 1
-9.0267 16.8420 -5.9522 0.1364 0 1
-10.4923 17.8155 -6.4403 0.1199 0 1
-12.2793 19.0526 -7.0606 0.1047 0 1
-14.3336 20.3891 -7.7635 0.1079 0 1
-16.7014 21.8340 -8.5628 0.1085 0 2
-18.4685 22.2302 -9.0025 0.0880 0 2
-21.6151 23.9848 -10.0574 0.0788 0 2
-25.4370 26.0380 -11.3387 0.0699 0 25
-22.5103 21.2594 -9.6447 0.8129 0 5
-22.5716 19.6607 -9.3242 0.8030 0 5
-22.6819 18.2050 -9.0596 0.7845 0 5
-22.7505 16.8009 -8.8096 0.8205 0 5
-32.5392 22.0633 -12.2461 0.8401 0 3
-28.6385 17.7798 -10.5002 0.5094 0 3
-29.3130 16.6031 -10.4938 0.7702 0 3
-37.5878 19.3355 -13.1667 0.8965 0 3
-29.4800 13.6941 -10.1253 0.2858 0 5
-32.9532 13.7238 -11.1194 0.4056 0 5
-45.7508 7.0617 -14.4199 0.9148 0 22
-30.6309 -25.3847 -12.3920 0.9906 0 20
-30.1494 -27.1042 -12.6285 0.2872 0 9
-27.1136 -26.4233 -11.7931 0.5097 0 9
-23.5568 -24.8821 -10.6732 0.8014 0 9
-20.3188 -23.2698 -9.6228 0.0824 0 2
-17.5755 -21.8431 -8.7331 0.9289 0 2
-15.2704 -20.6254 -7.9939 0.0732 0 1
-12.9720 -19.0811 -7.1871 0.1121 0 1
-11.1825 -17.9632 -6.5911 0.1201 0 1
-9.6205 -16.9369 -6.0675 0.1344 0 1
-8.2678 -16.0243 -5.6167 0.1452 0 1
-7.0759 -15.1843 -5.2182 0.1596 0 1
-6.0333 -14.4374 -4.8741 0.1696 0 1
-5.1135 -13.7691 -4.5752 0.1859 0 1
-4.2902 -13.1510 -4.3090 0.1997 0 1
-3.5505 -12.5789 -4.0714 0.2114 0 1
-2.8817 -12.0436 -3.8574 0.2220 0 1
-2.2651 -11.4923 -3.6487 0.2310 0 24
-1.7193 -11.0495 -3.4833 0.2403 0 1
-1.2127 -10.5807 -3.3174 0.2523 0 1
-0.7497 -10.1305 -3.1642 0.2629 0 1
-0.3264 -9.7033 -3.0242 0.2771 0 1
0.0616 -9.2971 -2.8961 0.2894 0 1
0.4179 -8.9098 -2.7784 0.3016 0 1
0.7458 -8.5398 -2.6702 0.3138 0 1
1.0482 -8.1854 -2.5705 0.3260 0 1
1.3271 -7.8440 -2.4781 0.3432 0 1
1.5808 -7.4954 -2.3861 0.3548 0 24
1.8199 -7.1844 -2.3086 0.3667 0 24
2.0477 -6.9039 -2.2431 0.3792 0 1
2.2542 -6.6116 -2.1759 0.3899 0 1
2.4458 -6.3278 -2.1132 0.4015 0 1
2.6241 -6.0527 -2.0550 0.4128 0 1
2.7900 -5.7858 -2.0009 0.4240 0 1
2.9446 -5.5263 -1.9505 0.4347 0 1
3.0866 -5.2703 -1.9025 0.4299 0 1
3.2100 -5.0074 -1.8528 0.4415 0 1
3.3240 -4.7528 -1.8066 0.4527 0 1
3.4301 -4.5069 -1.7642 0.4568 0 1
3.5297 -4.2697 -1.7256 0.4670 0 1
3.6217 -4.0385 -1.6897 0.4769 0 1
3.7096 -3.8158 -1.6577 0.5059 0 1
3.7964 -3.6030 -1.6304 0.5144 0 1
3.8771 -3.3938 -1.6050 0.5225 0 1
3.9521 -3.1879 -1.5816 0.5302 0 1
4.0216 -2.9850 -1.5601 0.5376 0 1
4.0859 -2.7850 -1.5403 0.5445 0 1
4.1461 -2.5881 -1.5225 0.5509 0 1
4.2019 -2.3935 -1.5063 0.5568 0 1
4.2531 -2.2009 -1.4917 0.5624 0 1
4.3000 -2.0102 -1.4786 0.5674 0 1
4.3427 -1.8210 -1.4668 0.5719 0 1
4.3813 -1.6332 -1.4565 0.5760 0 1
4.4160 -1.4466 -1.4475 0.5795 0 1
4.4468 -1.2610 -1.4398 0.5826 0 1
4.4747 -1.0764 -1.4336 0.5882 0 1
3.9301 -0.7796 -1.2480 0.7182 25 14
3.9154 -0.6141 -1.2345 0.7347 25 14
3.9041 -0.4523 -1.2243 0.7775 25 14
3.8923 -0.2928 -1.2159 0.7828 25 14
3.8815 -0.1353 -1.2098 0.7868 25 14
3.8751 0.0209 -1.2071 0.7885 25 14
3.8805 0.1773 -1.2100 0.7866 25 14
3.8868 0.3347 -1.2152 0.7833 25 14
3.8911 0.4934 -1.2218 0.7424 25 14
3.8956 0.6542 -1.2305 0.7371 25 14
3.9231 0.8224 -1.2486 0.7288 25 14
4.5572 1.1485 -1.4639 0.5669 0 1
4.5363 1.3395 -1.4734 0.5633 0 1
4.5114 1.5320 -1.4841 0.5592 0 1
4.4824 1.7263 -1.4962 0.5547 0 1
4.4492 1.9224 -1.5097 0.5497 0 1
4.4115 2.1207 -1.5247 0.5443 0 1
4.3696 2.3215 -1.5413 0.5381 0 1
4.3230 2.5248 -1.5594 0.5318 0 1
4.2715 2.7309 -1.5792 0.5252 0 1
4.2148 2.9401 -1.6007 0.5181 0 1
4.1531 3.1528 -1.6242 0.5107 0 1
4.0859 3.3694 -1.6497 0.5028 0 1
4.0128 3.5899 -1.6772 0.4945 0 1
3.9333 3.8146 -1.7068 0.4860 0 1
3.8472 4.0439 -1.7386 0.4771 0 1
3.7540 4.2781 -1.7729 0.4678 0 1
3.6495 4.5131 -1.8079 0.4719 0 1
3.5364 4.7523 -1.8452 0.4603 0 1
3.4165 4.9993 -1.8862 0.4503 0 1
3.2876 5.2525 -1.9302 0.4401 0 1
3.1481 5.5111 -1.9770 0.4265 0 1
2.9978 5.7757 -2.0270 0.4160 0 1
2.8362 6.0477 -2.0807 0.4053 0 1
2.6622 6.3273 -2.1383 0.3947 0 1
2.4751 6.6152 -2.2001 0.3836 0 1
2.2682 6.8959 -2.2613 0.3953 0 1
2.0467 7.1844 -2.3269 0.3841 0 1
1.8093 7.4814 -2.3976 0.3728 0 1
1.5615 7.8221 -2.4846 0.3404 0 1
1.2935 8.1817 -2.5802 0.3278 0 1
1.0020 8.5585 -2.6841 0.3151 0 1
0.6831 8.9346 -2.7912 0.3048 0 1
0.3355 9.3001 -2.8988 0.3120 0 1
-0.0405 9.6764 -3.0142 0.3001 0 1
-0.4479 10.0748 -3.1413 0.2740 0 1
-0.8935 10.5259 -3.2906 0.2615 0 1
-1.3806 10.9936 -3.4514 0.2527 0 1
-1.9063 11.4362 -3.6115 0.2387 0 24
-2.5003 12.0004 -3.8183 0.2201 0 1
-3.1484 12.5571 -4.0326 0.2084 0 1
-3.8530 13.1073 -4.2556 0.1956 0 24
-4.6644 13.7906 -4.5348 0.1851 0 1
-5.5565 14.4803 -4.8312 0.1749 0 1
-6.5352 15.1754 -5.1468 0.1664 0 1
-24.8862 -17.6313 -9.8724 0.8376 0 20
-34.7275 -26.7656 -14.1925 0.9791 0 9
-30.0592 -25.1587 -12.6883 0.5526 0 9
-27.4908 -24.9572 -12.0187 0.4558 0 9
-23.6424 -23.2660 -10.7371 0.0764 0 2
-20.3669 -21.7236 -9.6390 0.0852 0 2
-18.0647 -20.8928 -8.9403 0.9653 0 2
-15.5316 -19.4965 -8.0687 0.0743 0 1
-13.3379 -18.1999 -7.3039 0.1142 0 1
-11.5997 -17.2425 -6.7268 0.1219 0 1
-10.0718 -16.3560 -6.2176 0.1341 0 1
-8.7345 -15.5530 -5.7740 0.1451 0 1
-7.5462 -14.8022 -5.3781 0.1604 0 1
-6.4955 -14.1179 -5.0304 0.1702 0 1
-5.5666 -13.5052 -4.7284 0.1863 0 1
-4.7308 -12.9311 -4.4571 0.1999 0 1
-3.9779 -12.3981 -4.2147 0.2114 0 1
-3.2937 -11.8902 -3.9937 0.2221 0 1
-2.6727 -11.4156 -3.7951 0.2337 0 1
-2.1042 -10.9568 -3.6115 0.2400 0 1
-1.5831 -10.5108 -3.4407 0.2519 0 1
-1.1063 -10.0866 -3.2845 0.2645 0 1
-0.6687 -9.6765 -3.1397 0.2764 0 1
-0.2671 -9.2852 -3.0068 0.2886 0 1
0.1024 -8.9111 -2.8847 0.3008 0 1
0.4429 -8.5527 -2.7722 0.3130 0 1
0.7572 -8.2087 -2.6684 0.3252 0 1
1.0478 -7.8782 -2.5726 0.3423 0 1
1.3129 -7.5368 -2.4764 0.3543 0 24
1.5673 -7.2563 -2.4030 0.3665 0 1
1.7939 -6.9396 -2.3202 0.3779 0 24
2.0091 -6.6545 -2.2501 0.3883 0 24
2.2157 -6.3966 -2.1913 0.4009 0 1
2.4023 -6.1265 -2.1301 0.4124 0 1
2.5762 -5.8640 -2.0733 0.4237 0 1
2.7384 -5.6087 -2.0203 0.4346 0 1
2.8895 -5.3599 -1.9710 0.4454 0 1
3.0253 -5.1084 -1.9218 0.4407 0 1
3.1465 -4.8562 -1.8730 0.4522 0 1
3.2586 -4.6114 -1.8278 0.4634 0 1
3.3623 -4.3735 -1.7857 0.4743 0 1
3.4599 -4.1440 -1.7475 0.4776 0 1
3.5506 -3.9206 -1.7122 0.4874 0 1
3.6414 -3.7093 -1.6826 0.5161 0 1
3.7269 -3.5027 -1.6555 0.5246 0 1
3.8064 -3.2993 -1.6305 0.5326 0 1
3.8803 -3.0989 -1.6074 0.5402 0 1
3.9489 -2.9014 -1.5862 0.5475 0 1
4.0123 -2.7064 -1.5666 0.5543 0 1
4.0718 -2.5142 -1.5490 0.5607 0 1
4.1267 -2.3242 -1.5331 0.5665 0 1
4.1772 -2.1360 -1.5187 0.5720 0 1
4.2234 -1.9494 -1.5057 0.5769 0 1
4.2655 -1.7642 -1.4941 0.5814 0 1
4.3035 -1.5803 -1.4840 0.5854 0 1
4.3375 -1.3975 -1.4751 0.5889 0 1
4.3683 -1.2158 -1.4677 0.5950 0 1
4.3956 -1.0348 -1.4617 0.5974 0 1
4.4192 -0.8543 -1.4570 0.5994 0 1
4.4393 -0.6742 -1.4535 0.6008 0 1
4.4558 -0.4942 -1.4512 0.6018 0 1
3.9113 -0.2751 -1.2692 0.7766 25 14
3.9005 -0.1169 -1.2631 0.7803 25 14
3.8960 0.0400 -1.2612 0.7815 25 14
3.9016 0.1973 -1.2645 0.7794 25 14
3.9081 0.3557 -1.2703 0.7759 25 14
3.9156 0.5159 -1.2784 0.7710 25 14
3.9225 0.6784 -1.2885 0.7203 25 14
4.4829 0.9625 -1.4842 0.5877 0 1
4.4676 1.1491 -1.4932 0.5755 0 1
4.4461 1.3364 -1.5028 0.5719 0 1
4.4205 1.5252 -1.5137 0.5677 0 1
4.3909 1.7156 -1.5259 0.5632 0 1
4.3570 1.9078 -1.5396 0.5582 0 1
4.3187 2.1020 -1.5547 0.5527 0 1
4.2761 2.2986 -1.5715 0.5465 0 1
4.2289 2.4975 -1.5898 0.5402 0 1
4.1767 2.6990 -1.6097 0.5335 0 1
4.1194 2.9034 -1.6313 0.5264 0 1
4.0572 3.1113 -1.6550 0.5190 0 1
3.9894 3.3226 -1.6806 0.5111 0 1
3.9157 3.5375 -1.7081 0.5028 0 1
3.8358 3.7563 -1.7378 0.4942 0 1
3.7492 3.9794 -1.7698 0.4853 0 1
3.6555 4.2071 -1.8041 0.4761 0 1
3.5526 4.4373 -1.8400 0.4802 0 1
3.4396 4.6696 -1.8773 0.4685 0 1
3.3198 4.9089 -1.9182 0.4585 0 1
3.1905 5.1531 -1.9619 0.4451 0 1
3.0511 5.4020 -2.0082 0.4348 0 1
2.9014 5.6572 -2.0580 0.4243 0 1
2.7407 5.9189 -2.1113 0.4136 0 1
2.5680 6.1875 -2.1685 0.4030 0 1
2.3824 6.4633 -2.2298 0.3919 0 1
2.1810 6.7410 -2.2934 0.4036 0 1
1.9621 7.0169 -2.3585 0.3924 0 1
1.7280 7.3004 -2.4284 0.3811 0 1
1.4822 7.6178 -2.5121 0.3486 0 1
1.2185 7.9584 -2.6061 0.3360 0 1
0.9323 8.3129 -2.7077 0.3228 0 1
0.6200 8.6640 -2.8117 0.3109 0 1
0.2815 9.0233 -2.9222 0.3205 0 1
-0.0849 9.3756 -3.0349 0.3086 0 1
-0.4806 9.7411 -3.1570 0.2967 0 1
-0.9115 10.1519 -3.2993 0.2701 0 1
-1.3812 10.5821 -3.4544 0.2615 0 1
-1.8858 10.9832 -3.6072 0.2479 0 24
-2.4514 11.4850 -3.8014 0.2311 0 1
-3.0555 11.9399 -3.9894 0.2182 0 24
-3.7328 12.4736 -4.2146 0.2047 0 24
-4.4962 13.0832 -4.4781 0.1941 0 1
-5.3278 13.6848 -4.7536 0.1828 0 1
-6.2413 14.3009 -5.0508 0.1756 0 1
-7.2450 14.9312 -5.3721 0.1676 0 1
-8.3557 15.5901 -5.7256 0.1558 0 1
-9.6370 16.3633 -6.1470 0.1367 0 1
-11.0459 17.1389 -6.6002 0.1199 0 24
-12.8899 18.3354 -7.2549 0.1090 0 1
-14.8762 19.4479 -7.9257 0.1146 0 1
-16.7490 20.1605 -8.4841 0.6783 0 2
-18.9586 21.0371 -9.1668 0.0895 0 2
-21.9669 22.4859 -10.1754 0.0807 0 2
-22.4001 21.1553 -9.9733 0.7910 0 5
-22.4566 19.5606 -9.6400 0.7735 0 5
-22.5420 18.0927 -9.3563 0.7778 0 5
-22.6445 16.7226 -9.1120 0.7673 0 5
-32.3964 21.9665 -12.6699 0.8409 0 3
-26.2930 16.3236 -10.0177 0.9433 0 3
-28.2242 15.9864 -10.4998 0.6373 0 3
-32.7004 16.8214 -11.9033 0.9911 0 3
-29.4784 13.6933 -10.5212 0.5300 0 5
-32.8599 13.6850 -11.5221 0.3975 0 5
-42.2408 13.7233 -14.3766 0.4072 0 5
-24.8973 -17.4577 -9.8429 0.8401 0 20
-36.3915 -27.7667 -14.8171 0.5924 0 9
-30.5692 -25.3336 -12.8514 0.6009 0 20
-26.9689 -24.2450 -11.7388 0.6461 0 9
-24.0799 -23.4669 -10.8837 0.0754 0 2
-20.7334 -21.8998 -9.7618 0.0841 0 2
-18.1476 -20.7833 -8.9312 0.9663 0 2
-15.8767 -19.7318 -8.1980 0.0731 0 1
-13.5641 -18.3207 -7.3788 0.1132 0 1
-11.7996 -17.3566 -6.7936 0.1207 0 1
-10.2459 -16.4587 -6.2756 0.1329 0 1
-8.8876 -15.6467 -5.8248 0.1438 0 1
-7.6821 -14.8893 -5.4233 0.1541 0 1
-6.6164 -14.1982 -5.0704 0.1688 0 1
-5.6735 -13.5765 -4.7629 0.1858 0 1
-4.8135 -12.9611 -4.4754 0.1950 0 24
-4.0651 -12.4610 -4.2428 0.2100 0 1
-3.3729 -11.9499 -4.0193 0.2194 0 1
-2.7448 -11.4717 -3.8182 0.2323 0 1
-2.1706 -11.0124 -3.6332 0.2386 0 1
-1.6437 -10.5636 -3.4605 0.2505 0 1
-1.1618 -10.1366 -3.3026 0.2625 0 1
-0.7197 -9.7250 -3.1566 0.2749 0 1
-0.3139 -9.3316 -3.0223 0.2871 0 1
0.0593 -8.9555 -2.8989 0.2993 0 1
0.4031 -8.5952 -2.7853 0.3115 0 1
0.7205 -8.2496 -2.6805 0.3237 0 1
1.0138 -7.9173 -2.5837 0.3358 0 1
1.2815 -7.5743 -2.4866 0.3530 0 24
1.5380 -7.2928 -2.4126 0.3651 0 1
1.7722 -6.9960 -2.3361 0.3770 0 1
1.9839 -6.6887 -2.2583 0.3868 0 24
2.1922 -6.4299 -2.1990 0.3995 0 1
2.3805 -6.1587 -2.1373 0.4110 0 1
2.5559 -5.8954 -2.0799 0.4224 0 1
2.7194 -5.6392 -2.0265 0.4332 0 1
2.8718 -5.3897 -1.9768 0.4441 0 1
3.0100 -5.1394 -1.9279 0.4393 0 1
3.1324 -4.8863 -1.8788 0.4508 0 1
3.2455 -4.6406 -1.8331 0.4621 0 1
3.3502 -4.4019 -1.7906 0.4730 0 1
3.4484 -4.1714 -1.7519 0.4763 0 1
3.5400 -3.9474 -1.7163 0.4862 0 1
3.6306 -3.7346 -1.6860 0.5151 0 1
3.7169 -3.5275 -1.6587 0.5236 0 1
3.7971 -3.3237 -1.6335 0.5316 0 1
3.8717 -3.1230 -1.6101 0.5393 0 1
3.9409 -2.9251 -1.5886 0.5466 0 1
4.0049 -2.7298 -1.5689 0.5535 0 1
4.0648 -2.5373 -1.5511 0.5600 0 1
4.1203 -2.3471 -1.5349 0.5658 0 1
4.1713 -2.1586 -1.5203 0.5714 0 1
4.2181 -1.9719 -1.5072 0.5763 0 1
4.2606 -1.7866 -1.4955 0.5809 0 1
4.2991 -1.6025 -1.4851 0.5849 0 1
4.3336 -1.4196 -1.4761 0.5885 0 1
4.3647 -1.2377 -1.4685 0.5946 0 1
4.3925 -1.0566 -1.4624 0.5971 0 1
4.4166 -0.8761 -1.4575 0.5992 0 1
4.4371 -0.6959 -1.4538 0.6007 0 1
4.4540 -0.5160 -1.4514 0.6017 0 1
3.9127 -0.2943 -1.2701 0.7760 25 14
3.9017 -0.1360 -1.2637 0.7799 25 14
3.8954 0.0211 -1.2609 0.7817 25 14
3.9009 0.1782 -1.2640 0.7798 25 14
3.9073 0.3364 -1.2694 0.7764 25 14
3.9146 0.4964 -1.2773 0.7717 25 14
3.9210 0.6585 -1.2870 0.7212 25 14
4.4841 0.9400 -1.4830 0.5882 0 1
4.4699 1.1265 -1.4921 0.5759 0 1
4.4489 1.3137 -1.5015 0.5723 0 1
4.4238 1.5023 -1.5123 0.5683 0 1
4.3947 1.6925 -1.5244 0.5638 0 1
4.3613 1.8845 -1.5379 0.5588 0 1
4.3236 2.0784 -1.5528 0.5534 0 1
4.2815 2.2747 -1.5694 0.5472 0 1
4.2348 2.4733 -1.5875 0.5410 0 1
4.1833 2.6745 -1.6072 0.5344 0 1
4.1266 2.8786 -1.6286 0.5273 0 1
4.0650 3.0860 -1.6520 0.5199 0 1
3.9979 3.2968 -1.6774 0.5120 0 1
3.9250 3.5113 -1.7047 0.5038 0 1
3.8458 3.7297 -1.7341 0.4953 0 1
3.7600 3.9522 -1.7658 0.4864 0 1
3.6672 4.1793 -1.7998 0.4772 0 1
3.5659 4.4097 -1.8357 0.4813 0 1
3.4536 4.6410 -1.8726 0.4697 0 1
3.3348 4.8797 -1.9131 0.4598 0 1
3.2067 5.1233 -1.9565 0.4463 0 1
3.0685 5.3716 -2.0025 0.4361 0 1
2.9201 5.6259 -2.0518 0.4256 0 1
2.7607 5.8869 -2.1047 0.4149 0 1
2.5896 6.1546 -2.1614 0.4043 0 1
2.4056 6.4295 -2.2221 0.3933 0 1
2.2064 6.7080 -2.2858 0.4049 0 1
1.9894 6.9831 -2.3503 0.3938 0 1
1.7572 7.2657 -2.4197 0.3825 0 1
1.5127 7.5776 -2.5012 0.3501 0 1
1.2515 7.9165 -2.5943 0.3375 0 1
0.9683 8.2702 -2.6953 0.3249 0 1
0.6591 8.6208 -2.7986 0.3123 0 1
0.3239 8.9794 -2.9085 0.3029 0 1
-0.0391 9.3323 -3.0208 0.3100 0 1
-0.4311 9.6962 -3.1417 0.2981 0 1
-0.8573 10.1003 -3.2812 0.2716 0 1
-1.3226 10.5317 -3.4358 0.2629 0 1
-1.8218 10.9296 -3.5867 0.2493 0 24
-2.3808 11.4267 -3.7782 0.2325 0 1
-2.9781 11.8780 -3.9639 0.2204 0 24
-3.6472 12.4073 -4.1861 0.2066 0 24
-4.4014 13.0130 -4.4466 0.1955 0 1
-5.2225 13.6100 -4.7187 0.1842 0 1
-6.1267 14.2269 -5.0140 0.1769 0 1
-39.6204 -25.7403 -15.8744 0.6136 0 9
-24.7763 -17.5534 -10.2019 0.8383 0 20
-31.6034 -24.3577 -13.4060 0.0633 0 2
-27.3212 -22.8671 -11.9704 0.0709 0 2
-23.7144 -21.5288 -10.7612 0.0789 0 2
-20.6486 -20.3199 -9.7334 0.0872 0 2
-18.6975 -19.9430 -9.1848 0.9954 0 2
-16.0634 -18.5781 -8.2516 0.0869 0 1
-13.8639 -17.4031 -7.4757 0.1156 0 1
-12.1607 -16.5936 -6.9120 0.1250 0 1
-10.6448 -15.8230 -6.4073 0.1346 0 1
-9.3052 -15.1109 -5.9624 0.1453 0 1
-8.1183 -14.4557 -5.5704 0.1606 0 1
-7.0552 -13.8392 -5.2191 0.1696 0 1
-6.1068 -13.2730 -4.9089 0.1865 0 1
-5.2537 -12.7461 -4.6320 0.1966 0 1
-4.4817 -12.2504 -4.3827 0.2094 0 1
-3.7785 -11.7764 -4.1553 0.2194 0 1
-3.1367 -11.3237 -3.9478 0.2323 0 1
-2.5512 -10.8968 -3.7601 0.2384 0 1
-2.0113 -10.4727 -3.5830 0.2502 0 1
-1.5165 -10.0686 -3.4210 0.2662 0 1
-1.0618 -9.6807 -3.2720 0.2743 0 1
-0.6430 -9.3036 -3.1333 0.2864 0 1
-0.2572 -8.9419 -3.0056 0.2986 0 1
0.0988 -8.5945 -2.8878 0.3107 0 1
0.4277 -8.2603 -2.7790 0.3229 0 1
0.7322 -7.9383 -2.6784 0.3350 0 1
1.0150 -7.6312 -2.5865 0.3520 0 1
1.2775 -7.3333 -2.5010 0.3642 0 1
1.5213 -7.0437 -2.4211 0.3762 0 1
1.7483 -6.7631 -2.3470 0.3881 0 1
1.9534 -6.4701 -2.2708 0.3978 0 24
2.1562 -6.2249 -2.2134 0.4105 0 1
2.3396 -5.9665 -2.1532 0.4219 0 1
2.5107 -5.7149 -2.0972 0.4332 0 1
2.6704 -5.4695 -2.0450 0.4440 0 1
2.8195 -5.2301 -1.9963 0.4548 0 1
2.9517 -4.9842 -1.9462 0.4501 0 1
3.0719 -4.7410 -1.8980 0.4615 0 1
3.1832 -4.5046 -1.8532 0.4727 0 1
3.2862 -4.2745 -1.8115 0.4835 0 1
3.3816 -4.0503 -1.7728 0.4868 0 1
3.4740 -3.8360 -1.7388 0.5165 0 1
3.5651 -3.6316 -1.7098 0.5253 0 1
3.6500 -3.4304 -1.6829 0.5337 0 1
3.7290 -3.2322 -1.6580 0.5417 0 1
3.8026 -3.0368 -1.6350 0.5493 0 1
3.8708 -2.8440 -1.6138 0.5565 0 1
3.9339 -2.6535 -1.5943 0.5633 0 1
3.9930 -2.4656 -1.5767 0.5697 0 1
4.0477 -2.2797 -1.5608 0.5755 0 1
4.0980 -2.0955 -1.5464 0.5809 0 1
4.1440 -1.9127 -1.5335 0.5858 0 1
4.1858 -1.7313 -1.5219 0.5903 0 1
4.2237 -1.5510 -1.5117 0.5943 0 1
4.2578 -1.3718 -1.5030 0.6009 0 1
4.2886 -1.1936 -1.4957 0.6038 0 1
4.3158 -1.0160 -1.4897 0.6062 0 1
4.3393 -0.8388 -1.4849 0.6082 0 1
4.3592 -0.6620 -1.4814 0.6096 0 1
4.3755 -0.4853 -1.4791 0.6106 0 1
4.3883 -0.3086 -1.4780 0.6110 0 1
4.3976 -0.1318 -1.4782 0.6110 0 1
4.4066 0.0453 -1.4806 0.6093 0 1
4.4124 0.2231 -1.4844 0.6077 0 1
4.4147 0.4018 -1.4894 0.6057 0 1
4.4135 0.5815 -1.4957 0.6032 0 1
4.4087 0.7625 -1.5032 0.6001 0 1
4.4002 0.9448 -1.5121 0.5966 0 1
4.3830 1.1273 -1.5205 0.5845 0 1
4.3613 1.3109 -1.5301 0.5808 0 1
4.3357 1.4959 -1.5410 0.5767 0 1
4.3059 1.6824 -1.5532 0.5722 0 1
4.2719 1.8706 -1.5669 0.5672 0 1
4.2336 2.0606 -1.5820 0.5618 0 1
4.1909 2.2528 -1.5986 0.5556 0 1
4.1436 2.4472 -1.6168 0.5493 0 1
4.0915 2.6440 -1.6367 0.5427 0 1
4.0342 2.8434 -1.6583 0.5356 0 1
3.9722 3.0461 -1.6818 0.5281 0 1
3.9046 3.2519 -1.7072 0.5203 0 1
3.8311 3.4610 -1.7347 0.5120 0 1
3.7514 3.6738 -1.7641 0.5035 0 1
3.6653 3.8904 -1.7958 0.4946 0 1
3.5722 4.1112 -1.8299 0.4854 0 1
3.4718 4.3363 -1.8664 0.4759 0 1
3.3601 4.5616 -1.9035 0.4779 0 1
3.2413 4.7928 -1.9440 0.4645 0 1
3.1128 5.0275 -1.9867 0.4545 0 1
2.9750 5.2674 -2.0325 0.4443 0 1
2.8273 5.5127 -2.0816 0.4338 0 1
2.6690 5.7640 -2.1341 0.4231 0 1
2.4991 6.0214 -2.1904 0.4126 0 1
2.3167 6.2851 -2.2506 0.4016 0 1
2.1211 6.5559 -2.3151 0.3904 0 1
1.9081 6.8238 -2.3806 0.4021 0 1
1.6790 7.0937 -2.4492 0.3908 0 1
1.4368 7.3843 -2.5275 0.3583 0 1
1.1798 7.7057 -2.6191 0.3458 0 1
0.9013 8.0365 -2.7170 0.3327 0 1
0.5986 8.3652 -2.8177 0.3208 0 1
0.2715 8.7029 -2.9254 0.3115 0 1
-0.0820 9.0498 -3.0407 0.3185 0 1
-0.4633 9.3896 -3.1586 0.3067 0 1
-0.8757 9.7526 -3.2899 0.2801 0 1
-1.3249 10.1502 -3.4392 0.2716 0 1
-1.8096 10.5395 -3.5929 0.2600 0 1
-2.3390 10.9584 -3.7648 0.2413 0 1
-2.9081 11.3640 -3.9411 0.2297 0 24
-3.5540 11.8762 -4.1650 0.2158 0 1
-4.2530 12.3754 -4.3966 0.2044 0 1
-5.0033 12.8514 -4.6335 0.1921 0 24
-5.8678 13.4450 -4.9288 0.1850 0 1
-6.7883 13.9900 -5.2245 0.1756 0 1
-7.8005 14.5542 -5.5480 0.1678 0 1
-8.9221 15.1493 -5.9070 0.1562 0 1
-10.2017 15.8291 -6.3271 0.1397 0 1
-11.6993 16.6418 -6.8348 0.1202 0 1
-13.4332 17.5614 -7.4286 0.1085 0 1
-15.3526 18.4796 -8.0720 0.1148 0 1
-16.8703 18.7198 -8.4667 0.1003 0 2
-19.3132 19.7695 -9.2857 0.0914 0 2
-17.4234 16.4552 -8.0520 0.7731 0 6
-22.3771 19.4913 -9.9705 0.7656 0 5
-22.4551 18.0229 -9.6740 0.8226 0 5
-22.5415 16.6466 -9.4149 0.7657 0 5
-27.7820 18.8377 -11.2777 0.8415 0 3
-28.6357 17.7781 -11.3245 0.5058 0 3
-31.1857 17.6638 -12.0418 0.1793 0 3
-37.2788 19.1766 -14.0850 0.8975 0 3
-29.5158 13.7107 -10.9345 0.4722 0 5
-32.8269 13.6712 -11.9475 0.2975 0 5
-26.3487 8.5602 -9.3082 0.8685 0 6
-24.7877 -17.3809 -10.1716 0.8408 0 20
-32.1752 -24.5497 -13.5977 0.0624 0 2
-27.8002 -23.0388 -12.1309 0.0700 0 2
-24.1195 -21.6834 -10.8970 0.0779 0 2
-20.9944 -20.4599 -9.8493 0.0862 0 2
-18.7930 -19.8502 -9.1841 0.9955 0 2
-16.3505 -18.7252 -8.3522 0.0858 0 1
-14.0854 -17.5056 -7.5491 0.1145 0 1
-12.3561 -16.6892 -6.9768 0.1255 0 1
-10.8182 -15.9131 -6.4650 0.1334 0 1
-9.4587 -15.1941 -6.0133 0.1441 0 1
-8.2540 -14.5313 -5.6149 0.1593 0 1
-7.1781 -13.9123 -5.2598 0.1683 0 1
-6.2157 -13.3383 -4.9441 0.1851 0 1
-5.3528 -12.8090 -4.6643 0.1953 0 1
-4.5713 -12.3092 -4.4117 0.2081 0 1
-3.8451 -11.7864 -4.1654 0.2193 0 24
-3.2111 -11.3766 -3.9717 0.2309 0 1
-2.6195 -10.9481 -3.7822 0.2425 0 1
-2.0741 -10.5230 -3.6036 0.2488 0 1
-1.5740 -10.1159 -3.4397 0.2648 0 1
-1.1149 -9.7273 -3.2896 0.2731 0 1
-0.6918 -9.3483 -3.1495 0.2849 0 1
-0.3022 -8.9849 -3.0205 0.2971 0 1
0.0572 -8.6358 -2.9016 0.3093 0 1
0.3893 -8.3001 -2.7917 0.3214 0 1
0.6966 -7.9766 -2.6902 0.3336 0 1
0.9819 -7.6678 -2.5973 0.3506 0 1
1.2468 -7.3690 -2.5110 0.3627 0 1
1.4928 -7.0783 -2.4305 0.3748 0 1
1.7217 -6.7966 -2.3556 0.3867 0 1
1.9288 -6.5027 -2.2789 0.3964 0 24
2.1332 -6.2567 -2.2209 0.4091 0 1
2.3181 -5.9974 -2.1603 0.4205 0 1
2.4906 -5.7449 -2.1038 0.4318 0 1
2.6517 -5.4989 -2.0511 0.4427 0 1
2.8020 -5.2587 -2.0020 0.4535 0 1
2.9366 -5.0141 -1.9523 0.4487 0 1
3.0579 -4.7700 -1.9037 0.4601 0 1
3.1702 -4.5329 -1.8585 0.4713 0 1
3.2741 -4.3020 -1.8164 0.4822 0 1
3.3703 -4.0770 -1.7772 0.4929 0 1
3.4625 -3.8610 -1.7424 0.5154 0 1
3.5544 -3.6561 -1.7132 0.5242 0 1
3.6400 -3.4546 -1.6861 0.5327 0 1
3.7198 -3.2560 -1.6609 0.5407 0 1
3.7939 -3.0603 -1.6377 0.5484 0 1
3.8628 -2.8672 -1.6163 0.5557 0 1
3.9265 -2.6764 -1.5966 0.5625 0 1
3.9861 -2.4882 -1.5788 0.5689 0 1
4.0413 -2.3021 -1.5627 0.5748 0 1
4.0921 -2.1177 -1.5481 0.5803 0 1
4.1387 -1.9348 -1.5350 0.5853 0 1
4.1810 -1.7532 -1.5232 0.5898 0 1
4.2193 -1.5728 -1.5129 0.5938 0 1
4.2538 -1.3934 -1.5039 0.6005 0 1
4.2851 -1.2151 -1.4965 0.6035 0 1
4.3127 -1.0374 -1.4903 0.6060 0 1
4.3366 -0.8602 -1.4854 0.6080 0 1
4.3569 -0.6834 -1.4817 0.6095 0 1
4.3737 -0.5067 -1.4793 0.6105 0 1
4.3869 -0.3300 -1.4781 0.6110 0 1
4.3966 -0.1532 -1.4781 0.6110 0 1
4.4056 0.0238 -1.4802 0.6095 0 1
4.4119 0.2015 -1.4839 0.6080 0 1
4.4147 0.3801 -1.4887 0.6060 0 1
4.4139 0.5597 -1.4949 0.6035 0 1
4.4095 0.7405 -1.5023 0.6005 0 1
4.4015 0.9227 -1.5110 0.5971 0 1
4.3853 1.1052 -1.5195 0.5849 0 1
4.3641 1.2887 -1.5289 0.5813 0 1
4.3390 1.4735 -1.5396 0.5773 0 1
4.3097 1.6598 -1.5517 0.5728 0 1
4.2763 1.8477 -1.5651 0.5678 0 1
4.2385 2.0375 -1.5801 0.5625 0 1
4.1963 2.2294 -1.5965 0.5563 0 1
4.1496 2.4235 -1.6146 0.5501 0 1
4.0980 2.6200 -1.6342 0.5435 0 1
4.0414 2.8191 -1.6556 0.5365 0 1
3.9800 3.0214 -1.6789 0.5291 0 1
3.9130 3.2268 -1.7041 0.5212 0 1
3.8403 3.4355 -1.7312 0.5131 0 1
3.7614 3.6478 -1.7605 0.5045 0 1
3.6761 3.8640 -1.7919 0.4957 0 1
3.5838 4.0842 -1.8256 0.4865 0 1
3.4843 4.3089 -1.8618 0.4771 0 1
3.3739 4.5340 -1.8988 0.4791 0 1
3.2562 4.7647 -1.9390 0.4657 0 1
3.1288 4.9989 -1.9814 0.4558 0 1
2.9922 5.2381 -2.0268 0.4456 0 1
2.8457 5.4828 -2.0755 0.4351 0 1
2.6887 5.7333 -2.1276 0.4244 0 1
2.5203 5.9899 -2.1834 0.4139 0 1
2.3395 6.2528 -2.2431 0.4029 0 1
2.1455 6.5227 -2.3070 0.3918 0 1
1.9348 6.7916 -2.3726 0.4034 0 1
1.7076 7.0606 -2.4406 0.3922 0 1
1.4665 7.3463 -2.5169 0.3598 0 1
1.2120 7.6661 -2.6077 0.3473 0 1
0.9363 7.9975 -2.7054 0.3341 0 1
0.6364 8.3248 -2.8051 0.3222 0 1
0.3125 8.6617 -2.9121 0.3129 0 1
-0.0377 9.0081 -3.0266 0.3011 0 1
-0.4156 9.3479 -3.1438 0.3081 0 1
-0.8238 9.7051 -3.2725 0.2816 0 1
-1.2689 10.1041 -3.4215 0.2730 0 1
-1.7488 10.4916 -3.5736 0.2614 0 1
-2.2723 10.9058 -3.7429 0.2427 0 1
-2.8355 11.3092 -3.9173 0.2311 0 24
-3.4739 11.8176 -4.1385 0.2172 0 1
-4.1649 12.3136 -4.3674 0.2058 0 1
-4.9065 12.7865 -4.6015 0.1937 0 24
-5.7624 13.3809 -4.8949 0.1863 0 1
-33.4636 -4.4922 -11.7620 0.1190 0 20
-25.6121 -4.4938 -9.0585 0.8595 0 20
-40.2066 -23.8775 -16.2901 0.0538 0 2
-35.0602 -22.7777 -14.5648 0.0602 0 2
-24.6666 -17.4757 -10.5309 0.8388 0 20
-26.8803 -20.7175 -11.8225 0.0742 0 2
-23.6160 -19.7660 -10.7282 0.0817 0 2
-20.7830 -18.8676 -9.7785 0.0897 0 2
-19.3207 -19.0131 -9.4430 0.1148 0 2
-16.3065 -17.3927 -8.3054 0.0892 0 1
-14.3174 -16.5589 -7.6257 0.1188 0 1
-12.6560 -15.8868 -7.0758 0.1278 0 1
-11.1660 -15.2362 -6.5804 0.1356 0 1
-9.8343 -14.6183 -6.1376 0.1506 0 1
-8.6550 -14.0552 -5.7501 0.1607 0 1
-7.5898 -13.5146 -5.3996 0.1694 0 1
-6.6276 -13.0003 -5.0834 0.1860 0 1
-5.7429 -12.4822 -4.7864 0.1941 0 24
-4.9746 -12.0688 -4.5474 0.2085 0 1
-4.2389 -11.5866 -4.2980 0.2195 0 24
-3.5960 -11.2076 -4.1003 0.2297 0 1
-2.9931 -10.8051 -3.9058 0.2426 0 1
-2.4374 -10.4104 -3.7247 0.2486 0 1
-1.9189 -9.9918 -3.5444 0.2615 0 24
-1.4554 -9.6628 -3.4041 0.2726 0 1
-1.0204 -9.3034 -3.2604 0.2843 0 1
-0.6189 -8.9558 -3.1273 0.2964 0 1
-0.2480 -8.6208 -3.0044 0.3085 0 1
0.0953 -8.2976 -2.8907 0.3206 0 1
0.4135 -7.9853 -2.7855 0.3328 0 1
0.7090 -7.6864 -2.6890 0.3498 0 1
0.9839 -7.3976 -2.5997 0.3618 0 1
1.2397 -7.1163 -2.5164 0.3739 0 1
1.4777 -6.8418 -2.4384 0.3858 0 1
1.6996 -6.5749 -2.3657 0.3977 0 1
1.9066 -6.3149 -2.2980 0.4084 0 1
2.0995 -6.0610 -2.2345 0.4200 0 1
2.2796 -5.8135 -2.1753 0.4314 0 1
2.4480 -5.5720 -2.1201 0.4424 0 1
2.6053 -5.3361 -2.0686 0.4534 0 1
2.7524 -5.1055 -2.0205 0.4642 0 1
2.8812 -4.8650 -1.9697 0.4594 0 1
3.0002 -4.6304 -1.9220 0.4707 0 1
3.1106 -4.4019 -1.8777 0.4819 0 1
3.2129 -4.1792 -1.8364 0.4927 0 1
3.3077 -3.9617 -1.7979 0.5032 0 1
3.4009 -3.7554 -1.7650 0.5256 0 1
3.4913 -3.5565 -1.7361 0.5343 0 1
3.5757 -3.3605 -1.7094 0.5427 0 1
3.6542 -3.1674 -1.6846 0.5507 0 1
3.7273 -2.9767 -1.6617 0.5583 0 1
3.7951 -2.7884 -1.6406 0.5655 0 1
3.8580 -2.6022 -1.6211 0.5722 0 1
3.9167 -2.4185 -1.6036 0.5786 0 1
3.9711 -2.2365 -1.5877 0.5844 0 1
4.0212 -2.0562 -1.5733 0.5898 0 1
4.0669 -1.8772 -1.5604 0.5947 0 1
4.1086 -1.6993 -1.5489 0.5991 0 1
4.1462 -1.5226 -1.5387 0.6031 0 1
4.1806 -1.3470 -1.5301 0.6096 0 1
4.2113 -1.1721 -1.5228 0.6126 0 1
4.2383 -0.9977 -1.5168 0.6150 0 1
4.2616 -0.8238 -1.5120 0.6169 0 1
4.2813 -0.6502 -1.5085 0.6184 0 1
4.2974 -0.4767 -1.5062 0.6193 0 1
4.3101 -0.3031 -1.5052 0.6197 0 1
4.3192 -0.1295 -1.5053 0.6197 0 1
4.3278 0.0445 -1.5077 0.6180 0 1
4.3334 0.2191 -1.5115 0.6165 0 1
4.3354 0.3946 -1.5165 0.6145 0 1
4.3338 0.5711 -1.5228 0.6119 0 1
4.3287 0.7487 -1.5303 0.6089 0 1
4.3187 0.9273 -1.5388 0.5966 0 1
4.3009 1.1062 -1.5470 0.5934 0 1
4.2791 1.2862 -1.5566 0.5898 0 1
4.2534 1.4675 -1.5674 0.5857 0 1
4.2236 1.6502 -1.5797 0.5811 0 1
4.1896 1.8345 -1.5933 0.5762 0 1
4.1512 2.0205 -1.6083 0.5708 0 1
4.1084 2.2084 -1.6249 0.5646 0 1
4.0612 2.3985 -1.6431 0.5584 0 1
4.0091 2.5907 -1.6628 0.5517 0 1
3.9519 2.7854 -1.6843 0.5447 0 1
3.8900 2.9831 -1.7077 0.5372 0 1
3.8226 3.1837 -1.7330 0.5294 0 1
3.7494 3.3873 -1.7602 0.5212 0 1
3.6702 3.5942 -1.7895 0.5127 0 1
3.5845 3.8046 -1.8210 0.5038 0 1
3.4920 4.0188 -1.8547 0.4947 0 1
3.3923 4.2371 -1.8908 0.4852 0 1
3.2837 4.4578 -1.9288 0.4872 0 1
3.1653 4.6804 -1.9683 0.4739 0 1
3.0382 4.9071 -2.0106 0.4639 0 1
2.9022 5.1384 -2.0558 0.4537 0 1
2.7564 5.3745 -2.1042 0.4433 0 1
2.6004 5.6159 -2.1559 0.4327 0 1
2.4333 5.8628 -2.2113 0.4222 0 1
2.2541 6.1152 -2.2704 0.4112 0 1
2.0621 6.3737 -2.3337 0.4000 0 1
1.8564 6.6389 -2.4015 0.3887 0 1
1.6325 6.8969 -2.4690 0.4004 0 1
1.3937 7.1631 -2.5422 0.3680 0 1
1.1432 7.4667 -2.6314 0.3555 0 1
0.8720 7.7759 -2.7258 0.3425 0 1
0.5785 8.0843 -2.8235 0.3307 0 1
0.2621 8.4020 -2.9284 0.3214 0 1
-0.0790 8.7260 -3.0399 0.3096 0 1
-0.4470 9.0602 -3.1601 0.3166 0 1
-0.8428 9.3861 -3.2829 0.3047 0 1
-1.2726 9.7494 -3.4251 0.2817 0 1
-1.7351 10.1055 -3.5719 0.2701 0 1
-2.2357 10.4746 -3.7311 0.2515 0 1
-2.7739 10.8395 -3.8978 0.2419 0 24
-3.3802 11.2953 -4.1073 0.2284 0 1
-4.0183 11.6924 -4.3070 0.2151 0 24
-4.7295 12.1481 -4.5413 0.2032 0 24
-5.5305 12.6721 -4.8166 0.1918 0 1
-6.3796 13.1477 -5.0909 0.1850 0 1
-7.3074 13.6342 -5.3888 0.1747 0 1
-8.3263 14.1377 -5.7157 0.1667 0 1
-9.4480 14.6595 -6.0755 0.1568 0 1
-10.7213 15.2506 -6.4942 0.1396 0 1
-12.1900 15.9362 -6.9895 0.1227 0 1
-13.8974 16.7281 -7.5761 0.1102 0 1
-15.7623 17.4904 -8.2021 0.1097 0 1
-17.2177 17.6245 -8.5832 0.1022 0 2
-17.3317 16.3686 -8.3047 0.9851 0 6
-22.1800 19.3197 -10.2468 0.0856 0 2
-22.3765 17.9598 -9.9954 0.8148 0 5
-24.8087 18.3208 -10.7436 0.6069 0 21
-27.6594 18.7546 -11.6416 0.8421 0 3
-28.6343 17.7772 -11.7411 0.5039 0 3
-31.3522 17.7581 -12.5522 0.4713 0 3
-32.6725 16.8070 -12.7994 0.8630 0 3
-29.5400 13.7219 -11.3466 0.3790 0 5
-32.8607 13.6853 -12.4005 0.3977 0 5
-26.2405 8.5251 -9.6115 0.9818 0 6
-34.3865 -4.4458 -12.0786 0.1144 0 20
-26.0463 -4.4394 -9.2044 0.1520 0 20
-35.6402 -22.9086 -14.7593 0.0594 0 2
-24.6782 -17.3041 -10.4998 0.8413 0 20
-27.3082 -20.8362 -11.9660 0.0733 0 2
-23.9864 -19.8782 -10.8524 0.0808 0 2
-21.1052 -18.9735 -9.8865 0.0887 0 2
-19.5080 -19.0113 -9.4892 0.9907 0 2
-16.5768 -17.5094 -8.3996 0.0882 0 1
-14.5351 -16.6462 -7.6984 0.1158 0 1
-12.8463 -15.9656 -7.1387 0.1267 0 1
-11.3379 -15.3138 -6.6377 0.1344 0 1
-9.9856 -14.6882 -6.1873 0.1493 0 1
-8.7912 -14.1219 -5.7949 0.1595 0 1
-7.7138 -13.5802 -5.4407 0.1681 0 1
-6.7212 -13.0268 -5.1064 0.1813 0 24
-5.8628 -12.5811 -4.8353 0.1955 0 1
-5.0661 -12.1229 -4.5771 0.2072 0 1
-4.3390 -11.6836 -4.3417 0.2184 0 1
-3.6727 -11.2580 -4.1253 0.2283 0 1
-3.0632 -10.8525 -3.9283 0.2412 0 1
-2.5022 -10.4579 -3.7460 0.2472 0 1
-1.9783 -10.0372 -3.5638 0.2602 0 24
-1.5104 -9.7072 -3.4223 0.2711 0 1
-1.0712 -9.3464 -3.2772 0.2828 0 1
-0.6658 -8.9972 -3.1428 0.2949 0 1
-0.2913 -8.6607 -3.0188 0.3070 0 1
0.0552 -8.3361 -2.9040 0.3192 0 1
0.3763 -8.0225 -2.7978 0.3313 0 1
0.6744 -7.7220 -2.7003 0.3484 0 1
0.9517 -7.4321 -2.6102 0.3603 0 1
1.2097 -7.1501 -2.5262 0.3724 0 1
1.4498 -6.8746 -2.4475 0.3844 0 1
1.6736 -6.6068 -2.3743 0.3963 0 1
1.8762 -6.3255 -2.2984 0.4053 0 24
2.0768 -6.0914 -2.2419 0.4186 0 1
2.2585 -5.8431 -2.1823 0.4300 0 1
2.4282 -5.6009 -2.1266 0.4410 0 1
2.5868 -5.3643 -2.0747 0.4520 0 1
2.7351 -5.1331 -2.0262 0.4629 0 1
2.8661 -4.8938 -1.9757 0.4580 0 1
2.9863 -4.6584 -1.9276 0.4694 0 1
3.0977 -4.4292 -1.8829 0.4805 0 1
3.2009 -4.2058 -1.8412 0.4914 0 1
3.2966 -3.9878 -1.8024 0.5020 0 1
3.3896 -3.7796 -1.7686 0.5245 0 1
3.4807 -3.5804 -1.7395 0.5333 0 1
3.5658 -3.3841 -1.7125 0.5417 0 1
3.6450 -3.1906 -1.6875 0.5497 0 1
3.7187 -2.9996 -1.6644 0.5574 0 1
3.7872 -2.8111 -1.6430 0.5646 0 1
3.8506 -2.6246 -1.6234 0.5714 0 1
3.9098 -2.4406 -1.6056 0.5778 0 1
3.9648 -2.2585 -1.5895 0.5837 0 1
4.0153 -2.0779 -1.5750 0.5892 0 1
4.0616 -1.8987 -1.5619 0.5941 0 1
4.1038 -1.7208 -1.5502 0.5986 0 1
4.1419 -1.5439 -1.5399 0.6026 0 1
4.1767 -1.3682 -1.5311 0.6093 0 1
4.2078 -1.1932 -1.5236 0.6122 0 1
4.2352 -1.0188 -1.5175 0.6147 0 1
4.2589 -0.8448 -1.5126 0.6167 0 1
4.2791 -0.6712 -1.5089 0.6182 0 1
4.2957 -0.4976 -1.5065 0.6192 0 1
4.3087 -0.3241 -1.5052 0.6197 0 1
4.3183 -0.1505 -1.5052 0.6197 0 1
4.3269 0.0234 -1.5073 0.6182 0 1
4.3329 0.1979 -1.5110 0.6167 0 1
4.3353 0.3733 -1.5158 0.6147 0 1
4.3342 0.5496 -1.5220 0.6123 0 1
4.3295 0.7271 -1.5294 0.6093 0 1
4.3206 0.9057 -1.5379 0.5969 0 1
4.3032 1.0845 -1.5460 0.5938 0 1
4.2820 1.2644 -1.5553 0.5902 0 1
4.2567 1.4455 -1.5660 0.5862 0 1
4.2274 1.6281 -1.5781 0.5817 0 1
4.1939 1.8121 -1.5915 0.5768 0 1
4.1561 1.9979 -1.6064 0.5715 0 1
4.1138 2.1856 -1.6228 0.5653 0 1
4.0671 2.3753 -1.6408 0.5591 0 1
4.0156 2.5673 -1.6604 0.5525 0 1
3.9591 2.7617 -1.6816 0.5456 0 1
3.8978 2.9590 -1.7048 0.5382 0 1
3.8311 3.1592 -1.7299 0.5304 0 1
3.7586 3.3625 -1.7568 0.5222 0 1
3.6801 3.5690 -1.7859 0.5137 0 1
3.5952 3.7790 -1.8170 0.5049 0 1
3.5035 3.9927 -1.8505 0.4958 0 1
3.4048 4.2105 -1.8863 0.4864 0 1
3.2973 4.4310 -1.9241 0.4883 0 1
3.1800 4.6533 -1.9634 0.4751 0 1
3.0541 4.8794 -2.0053 0.4652 0 1
2.9191 5.1101 -2.0501 0.4550 0 1
2.7746 5.3457 -2.0981 0.4446 0 1
2.6199 5.5864 -2.1495 0.4340 0 1
2.4541 5.8327 -2.2044 0.4231 0 1
2.2764 6.0843 -2.2630 0.4125 0 1
2.0861 6.3421 -2.3258 0.4014 0 1
1.8821 6.6064 -2.3930 0.3901 0 1
1.6604 6.8654 -2.4606 0.4018 0 1
1.4230 7.1279 -2.5321 0.3905 0 1
1.1745 7.4294 -2.6203 0.3570 0 1
0.9061 7.7393 -2.7145 0.3440 0 1
0.6152 8.0465 -2.8113 0.3321 0 1
0.3017 8.3635 -2.9154 0.3228 0 1
-0.0364 8.6862 -3.0260 0.3110 0 1
-0.4010 9.0196 -3.1452 0.2992 0 1
-0.7933 9.3462 -3.2676 0.3062 0 1
-1.2188 9.7054 -3.4076 0.2794 0 1
-1.6772 10.0618 -3.5535 0.2715 0 1
-2.1728 10.4284 -3.7109 0.2600 0 1
-2.7056 10.7912 -3.8756 0.2431 0 24
-3.3052 11.2438 -4.0826 0.2298 0 1
-3.9365 11.6386 -4.2801 0.2163 0 24
-4.6399 12.0917 -4.5118 0.2048 0 24
-5.4317 12.6129 -4.7840 0.1931 0 1
-33.4707 -4.4932 -12.1858 0.1185 0 20
-25.4714 -4.4692 -9.3314 0.9873 0 20
-37.5033 -20.2770 -15.3839 0.0588 0 2
-33.2968 -19.7740 -13.9737 0.0647 0 2
-29.5731 -19.2129 -12.7253 0.0711 0 2
-24.5253 -17.3756 -10.8455 0.8393 0 20
-23.3618 -18.0057 -10.6430 0.0850 0 2
-21.1970 -17.7413 -9.9741 0.9244 0 2
-19.1148 -17.3532 -9.3156 0.0700 0 1
-16.5633 -16.2996 -8.3853 0.1096 0 1
-14.7145 -15.6947 -7.7629 0.1185 0 1
-13.0868 -15.1356 -7.2199 0.1295 0 1
-11.6301 -14.5990 -6.7351 0.1368 0 1
-10.3160 -14.0764 -6.2972 0.1463 0 1
-9.1510 -13.6025 -5.9156 0.1602 0 1
-8.0614 -13.0911 -5.5475 0.1729 0 24
-7.1252 -12.6874 -5.2506 0.1858 0 1
-6.2519 -12.2635 -4.9670 0.1973 0 1
-5.4534 -11.8530 -4.7079 0.2078 0 1
-4.7213 -11.4543 -4.4705 0.2188 0 1
-4.0482 -11.0654 -4.2516 0.2286 0 1
-3.4290 -10.6873 -4.0500 0.2399 0 1
-2.8595 -10.3230 -3.8652 0.2472 0 1
-2.3332 -9.9655 -3.6932 0.2628 0 1
-1.8402 -9.5819 -3.5207 0.2713 0 24
-1.3981 -9.2825 -3.3872 0.2826 0 1
-0.9819 -8.9519 -3.2495 0.2943 0 1
-0.5965 -8.6307 -3.1217 0.3064 0 1
-0.2393 -8.3198 -3.0033 0.3184 0 1
0.0921 -8.0184 -2.8935 0.3305 0 1
0.4002 -7.7289 -2.7926 0.3476 0 1
0.6871 -7.4488 -2.6992 0.3595 0 1
0.9545 -7.1762 -2.6122 0.3715 0 1
1.2038 -6.9103 -2.5310 0.3835 0 1
1.4362 -6.6496 -2.4548 0.3954 0 1
1.6533 -6.3956 -2.3836 0.4072 0 1
1.8497 -6.1265 -2.3092 0.4172 0 24
2.0452 -5.9043 -2.2547 0.4294 0 1
2.2222 -5.6671 -2.1965 0.4405 0 1
2.3878 -5.4351 -2.1421 0.4517 0 1
2.5428 -5.2081 -2.0913 0.4627 0 1
2.6863 -4.9830 -2.0427 0.4570 0 1
2.8134 -4.7505 -1.9922 0.4686 0 1
2.9313 -4.5240 -1.9451 0.4799 0 1
3.0407 -4.3031 -1.9012 0.4910 0 1
3.1423 -4.0873 -1.8603 0.5018 0 1
3.2370 -3.8771 -1.8225 0.5333 0 1
3.3313 -3.6784 -1.7907 0.5428 0 1
3.4201 -3.4839 -1.7616 0.5433 0 1
3.5038 -3.2930 -1.7350 0.5516 0 1
3.5818 -3.1046 -1.7104 0.5596 0 1
3.6544 -2.9185 -1.6875 0.5672 0 1
3.7218 -2.7345 -1.6665 0.5743 0 1
3.7843 -2.5525 -1.6471 0.5811 0 1
3.8427 -2.3727 -1.6296 0.5874 0 1
3.8968 -2.1947 -1.6138 0.5933 0 1
3.9466 -2.0180 -1.5994 0.5986 0 1
3.9921 -1.8426 -1.5865 0.6034 0 1
4.0336 -1.6683 -1.5750 0.6078 0 1
4.0714 -1.4951 -1.5650 0.6150 0 1
4.1057 -1.3228 -1.5565 0.6183 0 1
4.1361 -1.1512 -1.5492 0.6213 0 1
4.1629 -0.9800 -1.5432 0.6237 0 1
4.1860 -0.8092 -1.5384 0.6256 0 1
4.2056 -0.6387 -1.5349 0.6270 0 1
4.2215 -0.4682 -1.5326 0.6280 0 1
4.2340 -0.2978 -1.5316 0.6284 0 1
4.2430 -0.1272 -1.5317 0.6283 0 1
4.2512 0.0437 -1.5341 0.6267 0 1
4.2565 0.2152 -1.5379 0.6252 0 1
4.2582 0.3876 -1.5429 0.6231 0 1
4.2564 0.5608 -1.5491 0.6206 0 1
4.2510 0.7352 -1.5567 0.6176 0 1
4.2392 0.9102 -1.5645 0.6054 0 1
4.2212 1.0857 -1.5727 0.6022 0 1
4.1994 1.2623 -1.5823 0.5986 0 1
4.1736 1.4400 -1.5931 0.5945 0 1
4.1437 1.6191 -1.6053 0.5900 0 1
4.1097 1.7995 -1.6189 0.5851 0 1
4.0713 1.9816 -1.6339 0.5797 0 1
4.0285 2.1655 -1.6503 0.5735 0 1
3.9813 2.3513 -1.6684 0.5673 0 1
3.9293 2.5392 -1.6881 0.5607 0 1
3.8724 2.7293 -1.7095 0.5537 0 1
3.8107 2.9222 -1.7328 0.5463 0 1
3.7435 3.1177 -1.7579 0.5385 0 1
3.6706 3.3161 -1.7849 0.5303 0 1
3.5918 3.5174 -1.8140 0.5218 0 1
3.5066 3.7219 -1.8452 0.5130 0 1
3.4147 3.9299 -1.8786 0.5039 0 1
3.3158 4.1415 -1.9144 0.4945 0 1
3.2095 4.3571 -1.9527 0.4923 0 1
3.0922 4.5723 -1.9917 0.4832 0 1
2.9666 4.7914 -2.0335 0.4733 0 1
2.8322 5.0146 -2.0781 0.4631 0 1
2.6885 5.2421 -2.1258 0.4527 0 1
2.5348 5.4742 -2.1768 0.4421 0 1
2.3704 5.7112 -2.2313 0.4313 0 1
2.1943 5.9530 -2.2893 0.4207 0 1
2.0060 6.2001 -2.3514 0.4096 0 1
1.8044 6.4529 -2.4178 0.3984 0 1
1.5881 6.7093 -2.4878 0.4100 0 1
1.3542 6.9598 -2.5585 0.3987 0 1
1.1086 7.2405 -2.6431 0.3652 0 1
0.8445 7.5299 -2.7341 0.3523 0 1
0.5596 7.8197 -2.8288 0.3405 0 1
0.2533 8.1179 -2.9306 0.3287 0 1
-0.0763 8.4213 -3.0388 0.3195 0 1
-0.4309 8.7324 -3.1548 0.3078 0 1
-0.8128 9.0526 -3.2797 0.2961 0 1
-1.2237 9.3750 -3.4115 0.2879 0 1
-1.6659 9.7028 -3.5523 0.2802 0 1
-2.1426 10.0384 -3.7038 0.2688 0 1
-2.6594 10.3920 -3.8706 0.2501 0 1
-3.2224 10.7679 -4.0557 0.2387 0 1
-3.8195 11.1139 -4.2405 0.2251 0 24
-4.4982 11.5541 -4.4740 0.2131 0 1
-5.2255 11.9734 -4.7140 0.2022 0 1
-6.0001 12.3656 -4.9595 0.1906 0 24
-6.8663 12.8111 -5.2448 0.1852 0 1
-7.7955 13.2364 -5.5430 0.1752 0 1
-8.8180 13.6820 -5.8735 0.1681 0 1
-9.9290 14.1236 -6.2296 0.1578 0 1
-11.1851 14.6224 -6.6429 0.1408 0 1
-12.6175 15.1875 -7.1247 0.1204 0 1
-14.2810 15.8467 -7.6974 0.1119 0 1
-16.3935 16.7808 -8.4650 0.1252 0 2
-17.2877 16.3271 -8.5803 0.5011 0 6
-19.6191 17.0890 -9.3883 0.0964 0 2
-22.0577 17.7039 -10.2058 0.0886 0 2
-24.5852 18.1558 -11.0280 0.4097 0 21
-27.5370 18.6716 -12.0051 0.8425 0 3
-28.6329 17.7763 -12.1610 0.5020 0 3
-31.3505 17.7572 -13.0010 0.4695 0 3
-28.2045 14.5086 -11.4448 0.4398 0 21
-29.5313 13.7179 -11.7495 0.3726 0 5
-32.8526 13.6819 -12.8413 0.3726 0 5
-38.2529 14.1532 -14.7175 0.1481 0 21
-26.1492 8.4954 -9.9210 0.9492 0 6
-26.0506 -4.4402 -9.5356 0.1514 0 20
-38.0474 -20.3325 -15.5663 0.0581 0 2
-33.7789 -19.8385 -14.1353 0.0640 0 2
-29.9997 -19.2830 -12.8683 0.0703 0 2
-24.5388 -17.2064 -10.8143 0.9777 0 20
-23.6961 -18.0801 -10.7551 0.0841 0 2
-21.3235 -17.6714 -9.9931 0.9227 0 2
-19.4674 -17.5011 -9.4458 0.0691 0 1
-16.8227 -16.3944 -8.4760 0.0923 0 1
-14.9266 -15.7664 -7.8342 0.1174 0 1
-13.2740 -15.2019 -7.2823 0.1284 0 1
-11.7985 -14.6634 -6.7912 0.1357 0 1
-10.4679 -14.1387 -6.3478 0.1451 0 1
-9.2852 -13.6581 -5.9594 0.1590 0 1
-8.2150 -13.1963 -5.6090 0.1700 0 1
