ply
format ascii 1.0
element vertex 1371
property float32 x
property float32 y
property float32 z
property float32 CosAngle
property uint32 ObjIdx
property uint32 ObjTag
end_header
3.8442 -0.6310 -1.0728 0.8392 25 14
3.8371 -0.4723 -1.0647 0.8456 25 14
3.8306 -0.3157 -1.0585 0.8506 25 14
3.8247 -0.1606 -1.0542 0.8540 25 14
3.8196 -0.0066 -1.0519 0.8559 25 14
3.8212 0.1472 -1.0531 0.8549 25 14
3.8234 0.3017 -1.0562 0.8524 25 14
3.8262 0.4574 -1.0612 0.8995 25 14
3.8329 0.6155 -1.0691 0.8929 25 14
3.8706 0.7825 -1.0875 0.6703 25 14
4.1162 1.0061 -1.1669 0.8974 25 14
4.8204 1.3859 -1.3813 0.5364 0 1
4.7969 1.5907 -1.3917 0.5324 0 1
4.7692 1.7975 -1.4036 0.5279 0 1
4.7373 2.0067 -1.4168 0.5229 0 1
4.7012 2.2185 -1.4316 0.5172 0 1
4.6607 2.4333 -1.4479 0.5114 0 1
4.6154 2.6513 -1.4658 0.5051 0 1
4.5652 2.8727 -1.4854 0.4985 0 1
4.5098 3.0979 -1.5067 0.4914 0 1
4.4491 3.3273 -1.5300 0.4840 0 1
4.3831 3.5617 -1.5553 0.4761 0 1
4.3110 3.8010 -1.5828 0.4678 0 1
4.2324 4.0458 -1.6124 0.4592 0 1
4.1469 4.2964 -1.6444 0.4503 0 1
4.0486 4.5472 -1.6767 0.4543 0 1
3.9417 4.8030 -1.7111 0.4452 0 1
3.8278 5.0670 -1.7488 0.4336 0 1
3.7067 5.3406 -1.7903 0.4236 0 1
3.5760 5.6224 -1.8350 0.4133 0 1
3.4349 5.9132 -1.8832 0.4027 0 1
3.2825 6.2137 -1.9352 0.3918 0 1
3.1170 6.5232 -1.9909 0.3784 0 1
2.9312 6.8276 -2.0462 0.3900 0 1
2.7301 7.1385 -2.1047 0.3791 0 1
2.5139 7.4599 -2.1679 0.3681 0 1
2.2814 7.7929 -2.2361 0.3568 0 1
2.0375 8.1647 -2.3174 0.3258 0 1
1.7762 8.5720 -2.4108 0.3132 0 1
1.4896 8.9976 -2.5115 0.3243 0 1
1.1726 9.4212 -2.6145 0.3092 0 1
0.8266 9.8654 -2.7263 0.2962 0 1
0.4471 10.3083 -2.8414 0.2842 0 1
0.0335 10.7909 -2.9717 0.2585 0 1
-0.4211 11.3339 -3.1234 0.2460 0 1
-0.9216 11.8865 -3.2832 0.2374 0 24
-1.4825 12.5459 -3.4790 0.2199 0 1
-2.1035 13.2142 -3.6848 0.2076 0 1
-2.7980 13.9388 -3.9151 0.1954 0 1
-3.5873 14.7645 -4.1842 0.1754 0 1
-4.4741 15.6423 -4.4804 0.1684 0 1
-5.4740 16.5834 -4.8092 0.1569 0 1
-6.6011 17.5868 -5.1731 0.1482 0 1
-7.8503 18.6033 -5.5606 0.1294 0 24
-9.4577 20.1127 -6.1206 0.1157 0 1
-11.3274 21.7688 -6.7579 0.1070 0 1
-13.5319 23.6319 -7.4993 0.1016 0 1
-15.9659 25.4501 -8.2736 0.1015 0 1
-18.4815 26.9840 -9.0069 0.0786 0 2
-22.4140 30.0563 -10.3252 0.0685 0 2
-27.5131 33.9531 -12.0347 0.0588 0 25
-22.5683 25.6669 -9.4121 0.6874 0 5
-22.6589 23.7691 -9.0434 0.6966 0 5
-22.7789 22.0468 -8.7300 0.7381 0 5
-22.8940 20.4398 -8.4518 0.7179 0 5
-22.9580 18.8934 -8.1880 0.7978 0 5
-23.0367 17.4523 -7.9590 0.7386 0 5
-32.5399 22.6508 -10.9183 0.5564 0 3
-28.4431 18.1453 -9.2910 0.8515 0 3
-33.0892 19.2817 -10.5465 0.8709 0 3
-33.2224 17.6085 -10.3546 0.7827 0 3
-33.2847 15.9607 -10.1655 0.8549 0 3
-41.0654 17.6967 -12.3142 0.3878 0 3
-26.9063 9.1082 -7.8227 0.9417 0 22
-26.9302 7.9240 -7.7306 0.9539 0 22
-46.2818 7.7274 -12.9218 0.9908 0 22
-33.1061 -31.4734 -12.5794 0.6607 0 20
-30.1249 -31.0402 -11.9119 0.6870 0 20
-28.0520 -31.3338 -11.5817 0.6986 0 20
-26.1483 -31.6852 -11.3133 0.8499 0 9
-22.8308 -30.0507 -10.3930 0.8096 0 9
-19.2752 -27.6099 -9.2729 0.0763 0 2
-16.5705 -25.8965 -8.4666 0.6198 0 2
-13.6353 -23.3261 -7.4407 0.0823 0 1
-11.3390 -21.3229 -6.6507 0.1070 0 24
-9.5030 -19.7482 -6.0353 0.1142 0 1
-7.9293 -18.3311 -5.5002 0.1290 0 1
-6.5958 -17.1062 -5.0489 0.1453 0 1
-5.4621 -16.0631 -4.6723 0.1590 0 1
-4.4812 -15.1531 -4.3516 0.1742 0 1
-3.6210 -14.3430 -4.0738 0.1886 0 1
-2.8591 -13.6108 -3.8300 0.2001 0 1
-2.1795 -12.9448 -3.6150 0.2172 0 1
-1.5700 -12.3386 -3.4253 0.2292 0 1
-1.0163 -11.7443 -3.2463 0.2296 0 1
-0.5153 -11.1753 -3.0808 0.2419 0 1
-0.0620 -10.6227 -2.9254 0.2515 0 24
0.3490 -10.1408 -2.7943 0.2658 0 1
0.7233 -9.6719 -2.6709 0.2801 0 1
1.0650 -9.2295 -2.5585 0.2924 0 1
1.3772 -8.8064 -2.4546 0.3049 0 1
1.6630 -8.4038 -2.3592 0.3173 0 1
1.9204 -7.9993 -2.2655 0.3336 0 24
2.1689 -7.6622 -2.1930 0.3462 0 1
2.3935 -7.3181 -2.1204 0.3581 0 1
2.6010 -6.9877 -2.0533 0.3689 0 1
2.7926 -6.6686 -1.9910 0.3804 0 1
2.9700 -6.3612 -1.9333 0.3917 0 1
3.1346 -6.0645 -1.8800 0.4029 0 1
3.2874 -5.7777 -1.8306 0.4137 0 1
3.4261 -5.4947 -1.7832 0.4095 0 1
3.5481 -5.2109 -1.7361 0.4144 0 1
3.6604 -4.9366 -1.6924 0.4251 0 1
3.7639 -4.6710 -1.6520 0.4355 0 1
3.8592 -4.4133 -1.6145 0.4456 0 1
3.9469 -4.1630 -1.5798 0.4554 0 1
4.0275 -3.9194 -1.5476 0.4649 0 1
4.1101 -3.6898 -1.5211 0.4922 0 1
4.1878 -3.4656 -1.4970 0.5001 0 1
4.2598 -3.2455 -1.4748 0.5077 0 1
4.3263 -3.0291 -1.4544 0.5148 0 1
4.3885 -2.8165 -1.4360 0.5214 0 1
4.4462 -2.6072 -1.4194 0.5275 0 1
4.4993 -2.4005 -1.4044 0.5332 0 1
4.5479 -2.1961 -1.3908 0.5385 0 1
4.5923 -1.9939 -1.3787 0.5432 0 1
4.6325 -1.7935 -1.3680 0.5474 0 1
4.6687 -1.5947 -1.3586 0.5512 0 1
4.7011 -1.3972 -1.3506 0.5545 0 1
4.1594 -1.0561 -1.1818 0.6762 25 14
3.8947 -0.8237 -1.0963 0.7410 25 14
3.8452 -0.6528 -1.0741 0.8382 25 14
3.8380 -0.4937 -1.0656 0.8448 25 14
3.8314 -0.3368 -1.0592 0.8500 25 14
3.8254 -0.1817 -1.0547 0.8536 25 14
3.8200 -0.0275 -1.0520 0.8558 25 14
3.8210 0.1263 -1.0528 0.8551 25 14
3.8231 0.2806 -1.0557 0.8528 25 14
3.8257 0.4362 -1.0604 0.8490 25 14
3.8320 0.5939 -1.0679 0.8938 25 14
3.8593 0.7582 -1.0831 0.6730 25 14
4.1162 0.9822 -1.1654 0.8986 25 14
4.8231 1.3581 -1.3799 0.5450 0 1
4.8003 1.5627 -1.3902 0.5329 0 1
4.7732 1.7693 -1.4019 0.5285 0 1
4.7419 1.9781 -1.4149 0.5236 0 1
4.7064 2.1896 -1.4295 0.5180 0 1
4.6665 2.4039 -1.4456 0.5122 0 1
4.6219 2.6214 -1.4633 0.5060 0 1
4.5724 2.8423 -1.4826 0.4994 0 1
4.5177 3.0670 -1.5037 0.4924 0 1
4.4576 3.2958 -1.5267 0.4850 0 1
4.3924 3.5295 -1.5517 0.4772 0 1
4.3212 3.7682 -1.5789 0.4690 0 1
4.2435 4.0122 -1.6082 0.4604 0 1
4.1590 4.2620 -1.6399 0.4515 0 1
4.0625 4.5129 -1.6722 0.4555 0 1
3.9567 4.7679 -1.7062 0.4464 0 1
3.8436 5.0304 -1.7434 0.4350 0 1
3.7238 5.3030 -1.7844 0.4250 0 1
3.5944 5.5836 -1.8287 0.4147 0 1
3.4547 5.8731 -1.8764 0.4041 0 1
3.3039 6.1722 -1.9279 0.3933 0 1
3.1404 6.4806 -1.9832 0.3796 0 1
2.9575 6.7861 -2.0386 0.3914 0 1
2.7583 7.0956 -2.0965 0.3806 0 1
2.5442 7.4155 -2.1590 0.3696 0 1
2.3140 7.7469 -2.2265 0.3584 0 1
2.0713 8.1109 -2.3053 0.3275 0 1
1.8131 8.5153 -2.3976 0.3149 0 1
1.5307 8.9418 -2.4983 0.3260 0 1
1.2173 9.3616 -2.5997 0.3109 0 1
0.8757 9.8069 -2.7114 0.2978 0 1
0.5006 10.2468 -2.8252 0.2858 0 1
0.0919 10.7198 -2.9522 0.2603 0 1
-0.3566 11.2579 -3.1018 0.2477 0 1
-0.8506 11.8091 -3.2605 0.2392 0 24
-1.4031 12.4589 -3.4527 0.2216 0 1
-2.0040 13.0484 -3.6355 0.2101 0 24
-2.6989 13.8367 -3.8822 0.1970 0 1
-3.4746 14.6499 -4.1463 0.1762 0 1
-4.3479 15.5216 -4.4390 0.1699 0 1
-5.3304 16.4503 -4.7621 0.1573 0 1
-6.4398 17.4467 -5.1214 0.1497 0 1
-7.6582 18.4289 -5.4958 0.1315 0 24
-9.2268 19.9037 -6.0415 0.1172 0 1
-11.0521 21.5266 -6.6638 0.1085 0 1
-13.2138 23.3720 -7.3938 0.1030 0 1
-15.6218 25.2069 -8.1666 0.1028 0 1
-18.0157 26.6152 -8.8507 0.0800 0 2
-21.8203 29.5968 -10.1262 0.0699 0 2
-26.7332 33.3623 -11.7732 0.0601 0 25
-22.5514 25.9325 -9.4641 0.6806 0 5
-22.6387 24.0097 -9.0876 0.7320 0 5
-22.7584 22.2694 -8.7687 0.7760 0 5
-22.8669 20.6416 -8.4834 0.8440 0 5
-22.9462 19.0953 -8.2209 0.7511 0 5
-23.0365 17.6514 -7.9922 0.7959 0 5
-32.1668 22.6533 -10.8345 0.5607 0 3
-28.4346 18.3595 -9.3209 0.8488 0 3
-27.6128 16.2935 -8.8293 0.6557 0 3
-33.0547 17.7520 -10.3325 0.4621 0 3
-38.0862 18.5202 -11.6627 0.9036 0 3
-38.3597 16.7801 -11.5302 0.9824 0 3
-42.9253 16.7539 -12.6895 0.9745 0 3
-26.9049 9.2721 -7.8369 0.9394 0 22
-26.9277 8.0836 -7.7424 0.9744 0 22
-23.4149 -4.5339 -6.5679 0.9154 16 6
-30.7396 -31.3288 -12.0870 0.0361 0 20
-28.0867 -31.0292 -11.5257 0.7100 0 20
-27.2960 -32.7097 -11.7322 0.8778 0 9
-22.9307 -29.8417 -10.3640 0.7223 0 9
-19.7817 -28.0077 -9.4428 0.0749 0 2
-16.6117 -25.6505 -8.4157 0.6235 0 2
-14.0080 -23.6655 -7.5733 0.0809 0 1
-11.6444 -21.6112 -6.7604 0.1040 0 1
-9.7404 -19.9614 -6.1166 0.1127 0 1
-8.1276 -18.5109 -5.5674 0.1274 0 1
-6.7633 -17.2584 -5.1046 0.1437 0 1
-5.6062 -16.1955 -4.7197 0.1576 0 1
-4.6065 -15.2692 -4.3921 0.1726 0 1
-3.7319 -14.4487 -4.1096 0.1848 0 1
-2.9577 -13.7071 -3.8616 0.1985 0 1
-2.2619 -12.9990 -3.6335 0.2107 0 24
-1.6493 -12.4186 -3.4499 0.2276 0 1
-1.0885 -11.8248 -3.2702 0.2279 0 1
-0.5805 -11.2504 -3.1023 0.2403 0 1
3.9494 -3.8016 -1.5752 0.4944 0 1
4.0320 -3.5800 -1.5493 0.5026 0 1
4.1086 -3.3624 -1.5255 0.5105 0 1
4.1796 -3.1484 -1.5036 0.5179 0 1
4.2452 -2.9379 -1.4835 0.5250 0 1
4.3066 -2.7309 -1.4653 0.5315 0 1
4.3636 -2.5268 -1.4489 0.5376 0 1
4.4159 -2.3251 -1.4340 0.5431 0 1
4.4639 -2.1255 -1.4207 0.5483 0 1
4.5076 -1.9279 -1.4087 0.5530 0 1
4.5472 -1.7319 -1.3982 0.5571 0 1
4.5828 -1.5374 -1.3890 0.5608 0 1
4.6145 -1.3441 -1.3811 0.5640 0 1
4.1931 -1.0403 -1.2414 0.6696 25 14
3.8947 -0.8014 -1.1426 0.7396 25 14
3.8677 -0.6349 -1.1262 0.7478 25 14
3.8580 -0.4748 -1.1169 0.7541 25 14
3.8494 -0.3172 -1.1098 0.7589 25 14
3.8417 -0.1614 -1.1049 0.7623 25 14
3.8348 -0.0067 -1.1019 0.8021 25 14
3.8366 0.1478 -1.1032 0.7634 25 14
3.8387 0.3029 -1.1064 0.7612 25 14
3.8417 0.4593 -1.1117 0.7576 25 14
3.8456 0.6176 -1.1192 0.7525 25 14
3.8857 0.7855 -1.1391 0.7418 25 14
4.1468 1.0135 -1.2266 0.6776 25 14
4.7239 1.3582 -1.4124 0.5456 0 1
4.7001 1.5586 -1.4229 0.5416 0 1
4.6722 1.7610 -1.4347 0.5371 0 1
4.6401 1.9655 -1.4480 0.5322 0 1
4.6037 2.1725 -1.4627 0.5265 0 1
4.5629 2.3823 -1.4791 0.5207 0 1
4.5174 2.5950 -1.4970 0.5145 0 1
4.4670 2.8109 -1.5165 0.5078 0 1
4.4114 3.0303 -1.5379 0.5008 0 1
4.3506 3.2537 -1.5611 0.4934 0 1
4.2845 3.4816 -1.5864 0.4855 0 1
4.2124 3.7141 -1.6137 0.4773 0 1
4.1338 3.9515 -1.6432 0.4687 0 1
4.0484 4.1944 -1.6751 0.4598 0 1
3.9533 4.4402 -1.7083 0.4638 0 1
3.8470 4.6877 -1.7425 0.4547 0 1
3.7337 4.9424 -1.7799 0.4432 0 1
3.6135 5.2062 -1.8210 0.4332 0 1
3.4838 5.4775 -1.8653 0.4229 0 1
3.3441 5.7569 -1.9130 0.4123 0 1
3.1932 6.0446 -1.9643 0.3986 0 1
3.0292 6.3394 -2.0189 0.3879 0 1
2.8511 6.6410 -2.0767 0.3997 0 1
2.6534 6.9380 -2.1344 0.3889 0 1
2.4412 7.2443 -2.1966 0.3778 0 1
2.2134 7.5607 -2.2637 0.3666 0 1
1.9717 7.9010 -2.3399 0.3356 0 1
1.7166 8.2844 -2.4311 0.3230 0 1
1.4383 8.6878 -2.5304 0.3104 0 1
1.1330 9.1026 -2.6358 0.3214 0 1
0.7971 9.5135 -2.7432 0.3062 0 1
0.4305 9.9257 -2.8548 0.2942 0 1
0.0322 10.3579 -2.9763 0.2822 0 1
-0.4032 10.8526 -3.1206 0.2561 0 1
-0.8810 11.3631 -3.2749 0.2479 0 24
-1.4123 11.9520 -3.4582 0.2301 0 1
-1.9876 12.4857 -3.6329 0.2184 0 24
-2.6350 13.1265 -3.8471 0.2050 0 24
-3.3770 13.8990 -4.1100 0.1899 0 1
-4.1963 14.6712 -4.3848 0.1741 0 1
-5.1156 15.4974 -4.6894 0.1673 0 1
-6.1455 16.3730 -5.0252 0.1587 0 1
-7.2984 17.2955 -5.3942 0.1473 0 1
-8.6338 18.3606 -5.8300 0.1237 0 1
-10.2497 19.6976 -6.3804 0.1130 0 1
-12.1981 21.3025 -7.0537 0.1065 0 1
-14.3684 22.9037 -7.7691 0.1130 0 24
-16.7497 24.4556 -8.5174 0.6058 0 2
-19.3306 25.9216 -9.2915 0.0792 0 2
-23.1999 28.6303 -10.5887 0.0695 0 25
-27.6247 31.4175 -12.0212 0.6846 0 3
-22.5447 23.6494 -9.3886 0.7167 0 5
-22.6626 21.9342 -9.0625 0.7173 0 5
-22.7704 20.3294 -8.7712 0.8372 0 5
-22.8400 18.7963 -8.4996 0.7070 0 5
-22.9014 17.3499 -8.2558 0.8426 0 5
-32.5385 22.6498 -11.3919 0.5547 0 3
-26.7834 17.0864 -9.1288 0.8525 0 3
-32.9505 19.2009 -10.9584 0.8718 0 3
-33.4857 17.7481 -10.8899 0.4561 0 3
-36.9752 17.7304 -11.7830 0.9881 0 3
-42.7792 18.4352 -13.3852 0.9221 0 3
-26.8088 7.8882 -8.0299 0.3414 0 22
-46.1076 9.6195 -13.5341 0.9851 0 22
-46.1097 7.6987 -13.4328 0.9878 0 22
-23.3368 -4.6514 -6.8376 0.3951 16 6
-35.8969 -31.4764 -13.7186 0.6301 0 20
-32.6700 -31.0588 -12.9528 0.6572 0 20
-30.1291 -31.0446 -12.4309 0.6848 0 20
-25.2578 -28.2127 -10.8809 0.9858 0 9
-23.1858 -28.0954 -10.4672 0.7316 0 9
-20.1160 -26.4774 -9.5548 0.0770 0 2
-16.8599 -24.1503 -8.4633 0.0870 0 2
-14.5040 -22.6670 -7.7325 0.0733 0 1
-12.1357 -20.7607 -6.9099 0.1068 0 24
-10.2964 -19.3624 -6.3014 0.1155 0 1
-8.6903 -18.0594 -5.7588 0.1281 0 1
-7.3122 -16.9045 -5.2924 0.1416 0 1
-6.1318 -15.9027 -4.8975 0.1580 0 1
-5.1112 -15.0313 -4.5620 0.1728 0 1
-4.2165 -14.2582 -4.2724 0.1849 0 1
-3.4223 -13.5560 -4.0175 0.1989 0 1
-2.7113 -12.9071 -3.7897 0.2155 0 1
-2.0748 -12.3225 -3.5907 0.2215 0 1
-1.4961 -11.7579 -3.4058 0.2282 0 1
-0.9702 -11.2106 -3.2334 0.2398 0 1
-0.4931 -10.6922 -3.0756 0.2512 0 1
-0.0595 -10.1809 -2.9255 0.2616 0 24
0.3353 -9.7427 -2.8012 0.2778 0 1
0.6961 -9.3087 -2.6823 0.2901 0 1
1.0267 -8.8970 -2.5735 0.3024 0 1
1.3296 -8.5022 -2.4728 0.3148 0 1
1.6079 -8.1253 -2.3800 0.3285 0 1
1.8595 -7.7457 -2.2889 0.3434 0 24
2.1027 -7.4281 -2.2183 0.3560 0 1
2.3227 -7.1017 -2.1470 0.3679 0 1
2.5263 -6.7870 -2.0809 0.3786 0 1
2.7147 -6.4827 -2.0195 0.3901 0 1
2.8896 -6.1889 -1.9626 0.4014 0 1
3.0520 -5.9047 -1.9099 0.4125 0 1
3.2030 -5.6293 -1.8610 0.4233 0 1
3.3378 -5.3531 -1.8127 0.4190 0 1
3.4571 -5.0774 -1.7651 0.4240 0 1
3.5689 -4.8132 -1.7218 0.4346 0 1
3.6720 -4.5570 -1.6816 0.4450 0 1
3.7671 -4.3080 -1.6444 0.4551 0 1
3.8546 -4.0657 -1.6099 0.4649 0 1
3.9377 -3.8321 -1.5788 0.4932 0 1
4.0211 -3.6099 -1.5527 0.5015 0 1
4.0985 -3.3917 -1.5287 0.5094 0 1
4.1702 -3.1773 -1.5065 0.5169 0 1
4.2366 -2.9663 -1.4861 0.5240 0 1
4.2985 -2.7588 -1.4677 0.5307 0 1
4.3561 -2.5544 -1.4510 0.5368 0 1
4.4091 -2.3524 -1.4360 0.5424 0 1
4.4576 -2.1525 -1.4224 0.5477 0 1
4.5019 -1.9547 -1.4103 0.5524 0 1
4.5420 -1.7585 -1.3995 0.5566 0 1
4.5782 -1.5637 -1.3901 0.5604 0 1
4.6104 -1.3703 -1.3821 0.5636 0 1
4.1949 -1.0651 -1.2436 0.6684 25 14
3.9054 -0.8259 -1.1470 0.7367 25 14
3.8691 -0.6569 -1.1277 0.7469 25 14
3.8592 -0.4964 -1.1181 0.7533 25 14
3.8505 -0.3385 -1.1107 0.7583 25 14
3.8427 -0.1825 -1.1054 0.7619 25 14
3.8354 -0.0276 -1.1021 0.8020 25 14
3.8364 0.1268 -1.1030 0.7636 25 14
3.8383 0.2818 -1.1059 0.7616 25 14
3.8412 0.4379 -1.1109 0.7582 25 14
3.8450 0.5959 -1.1180 0.7533 25 14
3.8756 0.7614 -1.1349 0.7446 25 14
4.1462 0.9894 -1.2248 0.6786 25 14
4.7268 1.3310 -1.4111 0.5462 0 1
4.7036 1.5312 -1.4214 0.5422 0 1
4.6762 1.7333 -1.4330 0.5378 0 1
4.6447 1.9376 -1.4461 0.5329 0 1
4.6089 2.1442 -1.4606 0.5273 0 1
4.5687 2.3536 -1.4768 0.5215 0 1
4.5239 2.5658 -1.4944 0.5153 0 1
4.4742 2.7813 -1.5138 0.5088 0 1
4.4193 3.0002 -1.5349 0.5018 0 1
4.3592 3.2230 -1.5578 0.4944 0 1
4.2939 3.4503 -1.5828 0.4866 0 1
4.2225 3.6822 -1.6099 0.4784 0 1
4.1449 3.9189 -1.6391 0.4699 0 1
4.0605 4.1610 -1.6706 0.4610 0 1
3.9671 4.4069 -1.7038 0.4650 0 1
3.8619 4.6537 -1.7377 0.4560 0 1
3.7494 4.9071 -1.7745 0.4445 0 1
3.6303 5.1699 -1.8152 0.4345 0 1
3.5020 5.4402 -1.8591 0.4243 0 1
3.3637 5.7184 -1.9063 0.4138 0 1
3.2145 6.0052 -1.9572 0.4001 0 1
3.0522 6.2987 -2.0112 0.3893 0 1
2.8769 6.6013 -2.0692 0.4011 0 1
2.6811 6.8970 -2.1263 0.3903 0 1
2.4710 7.2020 -2.1879 0.3794 0 1
2.2454 7.5170 -2.2543 0.3682 0 1
2.0047 7.8503 -2.3281 0.3373 0 1
1.7526 8.2312 -2.4182 0.3247 0 1
1.4776 8.6317 -2.5163 0.3121 0 1
1.1764 9.0475 -2.6217 0.3231 0 1
0.8446 9.4589 -2.7288 0.3078 0 1
0.4821 9.8685 -2.8390 0.2958 0 1
0.0883 10.2979 -2.9592 0.2838 0 1
-0.3416 10.7830 -3.1000 0.2578 0 1
-0.8135 11.2930 -3.2534 0.2496 0 24
-1.3372 11.8734 -3.4333 0.2318 0 1
-1.9049 12.4030 -3.6057 0.2211 0 24
-2.5571 13.1097 -3.8380 0.2073 0 1
-3.2733 13.8012 -4.0757 0.1915 0 1
-4.0790 14.5619 -4.3454 0.1757 0 1
-4.9846 15.3829 -4.6465 0.1689 0 1
-5.9994 16.2537 -4.9784 0.1602 0 1
-7.1330 17.1651 -5.3412 0.1487 0 1
-8.4334 18.1922 -5.7618 0.1323 0 1
-10.0144 19.5054 -6.3003 0.1145 0 1
-11.9168 21.0780 -6.9576 0.1079 0 1
-14.0908 22.7366 -7.6862 0.1031 0 1
-16.7097 24.6858 -8.5656 0.1007 0 2
-18.8686 25.5932 -9.1367 0.0806 0 2
-22.6193 28.2282 -10.3940 0.0708 0 2
-27.3860 31.4919 -11.9921 0.0614 0 25
-22.5344 23.8990 -9.4386 0.6968 0 5
-22.6549 22.1681 -9.1078 0.7178 0 5
-22.7367 20.5240 -8.8014 0.8144 0 5
-22.8257 18.9950 -8.5329 0.7904 0 5
-22.8858 17.5360 -8.2847 0.8221 0 5
-32.1654 22.6523 -11.3045 0.5590 0 3
-28.3124 18.2806 -9.6839 0.8498 0 3
-28.5465 16.8445 -9.5243 0.8940 0 3
-33.0530 17.7511 -10.7806 0.4607 0 3
-37.9324 18.4454 -12.1200 0.9044 0 3
-42.7713 18.7099 -13.4146 0.9200 0 3
-43.0178 16.7900 -13.2691 0.2232 0 3
-26.7991 8.0450 -8.0401 0.8750 0 22
-23.3366 -4.5187 -6.8302 0.9156 16 6
-30.2426 -17.0437 -9.9751 0.9930 0 6
-33.0322 -31.0608 -13.0288 0.6534 0 20
-30.4626 -31.0465 -12.4982 0.6811 0 20
-25.8481 -28.5561 -11.0677 0.2174 0 9
-23.5085 -28.1711 -10.5431 0.8518 0 9
-20.6161 -26.8295 -9.7225 0.0757 0 2
-17.2634 -24.4422 -8.5985 0.0856 0 2
-14.9125 -23.0268 -7.8830 0.0663 0 24
-12.4122 -20.9695 -7.0019 0.1053 0 24
-10.5346 -19.5515 -6.3816 0.1140 0 1
-8.8947 -18.2283 -5.8281 0.1266 0 1
-7.4861 -17.0499 -5.3506 0.1426 0 1
-6.2811 -16.0279 -4.9466 0.1564 0 1
-5.2421 -15.1438 -4.6048 0.1678 0 1
-4.3321 -14.3594 -4.3098 0.1833 0 1
-3.5250 -13.6478 -4.0503 0.1973 0 1
-2.7964 -12.9593 -3.8095 0.2082 0 24
-2.1577 -12.4004 -3.6167 0.2258 0 1
-1.5718 -11.8349 -3.4306 0.2266 0 1
-1.0387 -11.2837 -3.2560 0.2381 0 1
-0.5553 -10.7608 -3.0962 0.2504 0 1
3.8640 -3.7193 -1.6056 0.5037 0 1
3.9461 -3.5038 -1.5799 0.5119 0 1
4.0224 -3.2919 -1.5561 0.5197 0 1
4.0932 -3.0833 -1.5342 0.5271 0 1
4.1586 -2.8779 -1.5141 0.5342 0 1
4.2198 -2.6758 -1.4959 0.5407 0 1
4.2765 -2.4764 -1.4795 0.5467 0 1
4.3287 -2.2791 -1.4646 0.5523 0 1
4.3765 -2.0839 -1.4512 0.5575 0 1
4.4201 -1.8905 -1.4392 0.5621 0 1
4.4596 -1.6985 -1.4287 0.5662 0 1
4.4951 -1.5080 -1.4194 0.5699 0 1
4.5267 -1.3185 -1.4115 0.5731 0 1
4.2996 -1.0667 -1.3262 0.3378 25 14
3.9075 -0.8041 -1.1943 0.7237 25 14
3.8922 -0.6389 -1.1809 0.7407 25 14
3.8823 -0.4778 -1.1710 0.7469 25 14
3.8734 -0.3192 -1.1636 0.7517 25 14
3.8635 -0.1623 -1.1577 0.7929 25 14
3.8544 -0.0067 -1.1539 0.7955 25 14
3.8595 0.1487 -1.1563 0.7938 25 14
3.8627 0.3048 -1.1600 0.7540 25 14
3.8658 0.4622 -1.1656 0.7504 25 14
3.8700 0.6215 -1.1734 0.7454 25 14
3.8975 0.7879 -1.1905 0.7372 25 14
4.1822 1.0222 -1.2889 0.6697 25 14
4.6306 1.3313 -1.4425 0.5548 0 1
4.6066 1.5276 -1.4530 0.5508 0 1
4.5785 1.7257 -1.4648 0.5464 0 1
4.5462 1.9257 -1.4781 0.5415 0 1
4.5095 2.1281 -1.4928 0.5358 0 1
4.4685 2.3330 -1.5091 0.5300 0 1
4.4229 2.5407 -1.5270 0.5238 0 1
4.3723 2.7513 -1.5466 0.5171 0 1
4.3166 2.9652 -1.5678 0.5101 0 1
4.2558 3.1828 -1.5910 0.5027 0 1
4.1897 3.4045 -1.6162 0.4949 0 1
4.1176 3.6305 -1.6434 0.4867 0 1
4.0391 3.8610 -1.6728 0.4782 0 1
3.9539 4.0965 -1.7045 0.4693 0 1
3.8616 4.3372 -1.7386 0.4601 0 1
3.7562 4.5771 -1.7726 0.4642 0 1
3.6435 4.8230 -1.8096 0.4527 0 1
3.5242 5.0777 -1.8504 0.4427 0 1
3.3958 5.3390 -1.8943 0.4324 0 1
3.2574 5.6077 -1.9415 0.4219 0 1
3.1074 5.8823 -1.9917 0.4083 0 1
2.9457 6.1646 -2.0454 0.3976 0 1
2.7714 6.4553 -2.1032 0.3870 0 1
2.5804 6.7472 -2.1627 0.3986 0 1
2.3722 7.0395 -2.2239 0.3876 0 1
2.1490 7.3406 -2.2899 0.3764 0 1
1.9096 7.6523 -2.3612 0.3454 0 1
1.6605 8.0138 -2.4501 0.3329 0 1
1.3895 8.3928 -2.5468 0.3202 0 1
1.0942 8.7911 -2.6522 0.3075 0 1
0.7694 9.1838 -2.7591 0.3161 0 1
0.4150 9.5682 -2.8672 0.3042 0 1
0.0309 9.9696 -2.9847 0.2922 0 1
-0.3867 10.4079 -3.1181 0.2662 0 1
-0.8437 10.8813 -3.2674 0.2582 0 24
-1.3477 11.4048 -3.4381 0.2379 0 1
-1.8928 11.8903 -3.6045 0.2302 0 24
-2.5136 12.5217 -3.8235 0.2120 0 1
-3.1923 13.1388 -4.0479 0.2003 0 1
-3.9483 13.8041 -4.2984 0.1883 0 1
-4.7980 14.5354 -4.5826 0.1730 0 1
-5.7449 15.3058 -4.8944 0.1665 0 1
-6.7825 16.0730 -5.2228 0.1575 0 24
-7.9664 16.9412 -5.6046 0.1472 0 1
-9.3487 17.9661 -6.0633 0.1306 0 1
-11.0107 19.2289 -6.6337 0.1082 0 1
-12.9878 20.7029 -7.3167 0.1104 0 1
-15.1224 22.0795 -8.0120 0.1130 0 1
-16.9799 22.7694 -8.5035 0.0899 0 2
-20.0384 24.7288 -9.5288 0.0802 0 2
-23.7941 27.0610 -10.7879 0.0709 0 25
-22.4563 23.5566 -9.7434 0.7137 0 5
-22.5490 21.8242 -9.3948 0.7354 0 5
-22.6405 20.2135 -9.0865 0.8259 0 5
-22.7360 18.7107 -8.8153 0.7682 0 5
-22.8164 17.2855 -8.5697 0.7464 0 5
-32.5370 22.6488 -11.8685 0.5529 0 3
-28.1996 17.9899 -10.0141 0.8534 0 3
-28.7897 16.7763 -9.9757 0.3985 0 3
-31.7673 16.8372 -10.7638 0.4546 0 3
-33.2659 15.9518 -11.0450 0.5893 0 3
-42.6093 18.3620 -13.8904 0.9227 0 3
-45.9215 9.5806 -14.0440 0.9968 0 22
-45.9280 7.6684 -13.9403 0.9852 0 22
-23.2356 -4.6312 -7.0931 0.7171 16 6
-35.4459 -31.0809 -14.1136 0.6257 0 20
-32.6691 -31.0579 -13.4949 0.9979 0 9
-27.5719 -28.4097 -11.8523 0.4162 0 9
-23.5329 -26.2860 -10.5624 0.6992 0 9
-20.8056 -25.2112 -9.7860 0.0781 0 2
-17.6091 -23.1776 -8.7144 0.0877 0 2
-15.4051 -22.0665 -8.0569 0.0741 0 1
-12.9308 -20.2083 -7.1825 0.1049 0 1
-11.0310 -18.8708 -6.5440 0.1168 0 1
-9.4068 -17.6895 -5.9981 0.1262 0 1
-8.0051 -16.6356 -5.5270 0.1423 0 1
-6.7873 -15.6909 -5.1182 0.1570 0 1
-5.7336 -14.8700 -4.7713 0.1684 0 1
-4.8063 -14.1345 -4.4695 0.1835 0 1
-3.9815 -13.4635 -4.2033 0.1974 0 1
-3.2431 -12.8460 -3.9665 0.2088 0 1
-2.5792 -12.2785 -3.7562 0.2199 0 1
-1.9689 -11.6935 -3.5501 0.2286 0 24
-1.4275 -11.2183 -3.3856 0.2384 0 1
-0.9277 -10.7204 -3.2215 0.2499 0 1
-0.4725 -10.2451 -3.0704 0.2613 0 1
-0.0571 -9.7719 -2.9256 0.2717 0 24
0.3226 -9.3728 -2.8077 0.2878 0 1
0.6708 -8.9698 -2.6929 0.3001 0 1
0.9907 -8.5857 -2.5874 0.3123 0 1
1.2850 -8.2167 -2.4898 0.3247 0 1
1.5561 -7.8633 -2.3998 0.3384 0 1
1.8020 -7.5062 -2.3111 0.3532 0 24
2.0399 -7.2065 -2.2423 0.3658 0 1
2.2556 -6.8965 -2.1723 0.3776 0 1
2.4553 -6.5963 -2.1072 0.3883 0 1
2.6406 -6.3058 -2.0467 0.3997 0 1
2.8129 -6.0246 -1.9906 0.4110 0 1
2.9731 -5.7521 -1.9385 0.4220 0 1
3.1222 -5.4873 -1.8901 0.4326 0 1
3.2534 -5.2177 -1.8409 0.4285 0 1
3.3710 -4.9509 -1.7932 0.4399 0 1
3.4813 -4.6951 -1.7499 0.4441 0 1
3.5840 -4.4477 -1.7101 0.4545 0 1
3.6787 -4.2069 -1.6731 0.4645 0 1
3.7660 -3.9723 -1.6387 0.4742 0 1
3.8523 -3.7490 -1.6093 0.5025 0 1
3.9353 -3.5328 -1.5833 0.5108 0 1
4.0124 -3.3205 -1.5592 0.5187 0 1
4.0839 -3.1115 -1.5371 0.5262 0 1
4.1500 -2.9057 -1.5167 0.5332 0 1
4.2117 -2.7031 -1.4983 0.5399 0 1
4.2691 -2.5034 -1.4816 0.5459 0 1
4.3219 -2.3058 -1.4665 0.5515 0 1
4.3703 -2.1104 -1.4529 0.5568 0 1
4.4144 -1.9167 -1.4408 0.5615 0 1
4.4544 -1.7246 -1.4300 0.5657 0 1
4.4905 -1.5338 -1.4206 0.5695 0 1
4.5226 -1.3442 -1.4125 0.5727 0 1
4.5510 -1.1556 -1.4057 0.5755 0 1
3.9162 -0.8282 -1.1984 0.7323 25 14
3.8937 -0.6611 -1.1824 0.7398 25 14
3.8836 -0.4996 -1.1722 0.7461 25 14
3.8746 -0.3406 -1.1644 0.7511 25 14
3.8649 -0.1835 -1.1584 0.7924 25 14
3.8548 -0.0278 -1.1541 0.7954 25 14
3.8588 0.1275 -1.1559 0.7941 25 14
3.8623 0.2835 -1.1594 0.7544 25 14
3.8653 0.4407 -1.1647 0.7510 25 14
3.8693 0.5997 -1.1722 0.7462 25 14
3.8873 0.7637 -1.1860 0.7399 25 14
4.1815 0.9978 -1.2870 0.6707 25 14
4.6335 1.3048 -1.4411 0.5553 0 1
4.6101 1.5008 -1.4515 0.5514 0 1
4.5825 1.6986 -1.4631 0.5470 0 1
4.5508 1.8984 -1.4762 0.5422 0 1
4.5147 2.1004 -1.4907 0.5369 0 1
4.4744 2.3050 -1.5068 0.5308 0 1
4.4294 2.5122 -1.5245 0.5246 0 1
4.3795 2.7225 -1.5438 0.5181 0 1
4.3245 2.9359 -1.5648 0.5111 0 1
4.2644 3.1529 -1.5877 0.5038 0 1
4.1990 3.3741 -1.6127 0.4960 0 1
4.1277 3.5995 -1.6396 0.4878 0 1
4.0502 3.8294 -1.6687 0.4793 0 1
3.9659 4.0641 -1.7000 0.4705 0 1
3.8746 4.3042 -1.7338 0.4613 0 1
3.7710 4.5442 -1.7679 0.4654 0 1
3.6591 4.7889 -1.8043 0.4540 0 1
3.5410 5.0427 -1.8447 0.4441 0 1
3.4138 5.3031 -1.8881 0.4338 0 1
3.2768 5.5707 -1.9349 0.4234 0 1
3.1285 5.8446 -1.9847 0.4097 0 1
2.9684 6.1257 -2.0379 0.3990 0 1
2.7959 6.4153 -2.0951 0.3885 0 1
2.6076 6.7081 -2.1547 0.4000 0 1
2.4014 6.9992 -2.2153 0.3891 0 1
2.1803 7.2991 -2.2806 0.3779 0 1
1.9430 7.6086 -2.3510 0.3666 0 1
1.6956 7.9637 -2.4376 0.3346 0 1
1.4277 8.3402 -2.5332 0.3219 0 1
1.1359 8.7357 -2.6373 0.3092 0 1
0.8155 9.1328 -2.7451 0.3177 0 1
0.4649 9.5150 -2.8520 0.3058 0 1
0.0850 9.9140 -2.9682 0.2939 0 1
-0.3276 10.3439 -3.0983 0.2679 0 1
-0.7792 10.8175 -3.2469 0.2608 0 24
-1.2768 11.3369 -3.4155 0.2463 0 1
-1.8148 11.8167 -3.5792 0.2320 0 24
-2.4266 12.4411 -3.7948 0.2136 0 1
-3.0813 12.9915 -3.9973 0.2028 0 24
-3.8405 13.7105 -4.2627 0.1899 0 1
-4.6765 14.4320 -4.5418 0.1746 0 1
-5.6099 15.1982 -4.8501 0.1680 0 1
-6.6315 15.9583 -5.1737 0.1585 0 24
-7.7979 16.8214 -5.5508 0.1486 0 1
-9.1485 17.8188 -5.9966 0.1320 0 1
-10.7622 19.0357 -6.5467 0.1096 0 1
-12.7132 20.5138 -7.2252 0.1118 0 1
-14.8339 21.9146 -7.9225 0.1143 0 1
-16.7729 22.7506 -8.4620 0.6333 0 2
-19.5860 24.4428 -9.3771 0.0815 0 2
-23.2344 26.7179 -10.6003 0.0721 0 25
-24.3872 25.8640 -10.6425 0.7109 0 21
-22.5370 22.0527 -9.4399 0.7319 0 5
-22.6471 20.4431 -9.1339 0.5156 0 5
-22.7315 18.9165 -8.8535 0.7649 0 5
-22.8147 17.4815 -8.6049 0.7991 0 5
-32.1639 22.6513 -11.7775 0.5572 0 3
-28.1904 18.2019 -10.0460 0.8507 0 3
-32.8027 19.3559 -11.4027 0.8701 0 3
-31.3567 16.8401 -10.6557 0.4592 0 3
-36.8136 17.9013 -12.2552 0.9052 0 3
-42.6010 18.6355 -13.9208 0.9207 0 3
-23.2658 -4.5050 -7.0947 0.6927 16 6
-30.1789 -17.0078 -10.3710 0.3762 0 6
-35.8422 -31.0832 -14.2035 0.6217 0 20
-32.5668 -30.6232 -13.3833 0.3510 0 9
-27.4593 -27.9857 -11.7379 0.9710 0 9
-23.3678 -25.8160 -10.4248 0.7994 0 9
-21.2928 -25.5158 -9.9493 0.0768 0 2
-18.0075 -23.4347 -8.8480 0.0864 0 2
-15.8417 -22.4292 -8.2209 0.0726 0 1
-13.2149 -20.4055 -7.2782 0.1027 0 1
-11.2708 -19.0413 -6.6244 0.1154 0 1
-9.6147 -17.8442 -6.0683 0.1247 0 1
-8.1826 -16.7689 -5.5861 0.1408 0 1
-6.9433 -15.8137 -5.1706 0.1505 0 1
-5.8694 -14.9774 -4.8159 0.1668 0 1
-4.9260 -14.2304 -4.5083 0.1819 0 1
-4.0881 -13.5508 -4.2374 0.1958 0 1
-3.3391 -12.9281 -3.9974 0.2071 0 1
-2.6658 -12.3544 -3.7838 0.2183 0 1
-2.0552 -11.8112 -3.5892 0.2301 0 1
-1.4992 -11.2880 -3.4091 0.2368 0 1
-0.9930 -10.7870 -3.2431 0.2483 0 1
-0.5319 -10.3083 -3.0902 0.2596 0 1
3.7816 -3.6401 -1.6350 0.5129 0 1
3.8633 -3.4302 -1.6093 0.5211 0 1
3.9393 -3.2238 -1.5856 0.5289 0 1
4.0097 -3.0205 -1.5637 0.5363 0 1
4.0749 -2.8200 -1.5436 0.5433 0 1
4.1358 -2.6225 -1.5255 0.5498 0 1
4.1923 -2.4276 -1.5090 0.5558 0 1
4.2443 -2.2347 -1.4942 0.5613 0 1
4.2920 -2.0437 -1.4808 0.5665 0 1
4.3354 -1.8542 -1.4688 0.5711 0 1
4.3748 -1.6662 -1.4582 0.5753 0 1
4.4101 -1.4794 -1.4490 0.5789 0 1
4.4416 -1.2937 -1.4410 0.5821 0 1
4.4700 -1.1090 -1.4346 0.5878 0 1
3.9334 -0.8094 -1.2509 0.7165 25 14
3.9173 -0.6430 -1.2365 0.7335 25 14
3.9063 -0.4808 -1.2260 0.7764 25 14
3.8943 -0.3209 -1.2172 0.7820 25 14
3.8834 -0.1631 -1.2107 0.7862 25 14
3.8743 -0.0067 -1.2068 0.7887 25 14
3.8795 0.1495 -1.2093 0.7871 25 14
3.8856 0.3066 -1.2141 0.7840 25 14
3.8904 0.4651 -1.2205 0.7431 25 14
3.8948 0.6255 -1.2287 0.7381 25 14
3.9095 0.7904 -1.2424 0.7325 25 14
4.5605 1.1147 -1.4624 0.5675 0 1
4.5403 1.3054 -1.4716 0.5640 0 1
4.5161 1.4976 -1.4821 0.5600 0 1
4.4879 1.6915 -1.4939 0.5555 0 1
4.4554 1.8873 -1.5072 0.5506 0 1
4.4185 2.0852 -1.5219 0.5453 0 1
4.3774 2.2854 -1.5382 0.5392 0 1
4.3317 2.4882 -1.5561 0.5330 0 1
4.2810 2.6938 -1.5756 0.5264 0 1
4.2253 2.9024 -1.5968 0.5194 0 1
4.1645 3.1145 -1.6199 0.5120 0 1
4.0984 3.3303 -1.6450 0.5042 0 1
4.0263 3.5500 -1.6721 0.4960 0 1
3.9480 3.7740 -1.7013 0.4875 0 1
3.8632 4.0024 -1.7327 0.4787 0 1
3.7712 4.2357 -1.7666 0.4695 0 1
3.6691 4.4709 -1.8016 0.4736 0 1
3.5570 4.7086 -1.8382 0.4621 0 1
3.4387 4.9545 -1.8786 0.4522 0 1
3.3115 5.2065 -1.9220 0.4419 0 1
3.1740 5.4641 -1.9684 0.4284 0 1
3.0257 5.7275 -2.0177 0.4179 0 1
2.8661 5.9981 -2.0707 0.4072 0 1
2.6945 6.2763 -2.1276 0.3967 0 1
2.5098 6.5626 -2.1886 0.3856 0 1
2.3066 6.8447 -2.2499 0.3973 0 1
2.0878 7.1317 -2.3147 0.3861 0 1
1.8534 7.4271 -2.3845 0.3748 0 1
1.6076 7.7587 -2.4681 0.3426 0 1
1.3436 8.1154 -2.5623 0.3300 0 1
1.0566 8.4889 -2.6647 0.3174 0 1
0.7429 8.8667 -2.7716 0.3070 0 1
0.4005 9.2335 -2.8789 0.3142 0 1
0.0298 9.6071 -2.9926 0.3022 0 1
-0.3714 9.9963 -3.1159 0.2903 0 1
-0.8096 10.4422 -3.2625 0.2638 0 1
-1.2894 10.9114 -3.4225 0.2549 0 1
-1.8064 11.3473 -3.5791 0.2409 0 24
-2.3893 11.9028 -3.7816 0.2223 0 1
-3.0129 12.4004 -3.9750 0.2119 0 24
-3.7168 12.9945 -4.2100 0.1977 0 24
-4.5127 13.6710 -4.4845 0.1872 0 1
-5.3878 14.3544 -4.7759 0.1769 0 1
-6.3494 15.0465 -5.0871 0.1684 0 1
-7.4116 15.7613 -5.4253 0.1603 0 1
-8.6210 16.5675 -5.8176 0.1411 0 1
-10.0206 17.4997 -6.2815 0.1292 0 1
-11.7034 18.6556 -6.8600 0.1078 0 1
-13.6796 19.9730 -7.5409 0.1007 0 1
-15.7469 21.1161 -8.2051 0.1144 0 1
-17.6212 21.7458 -8.7184 0.0909 0 2
-20.5956 23.4233 -9.7156 0.0816 0 2
-24.1919 25.3773 -10.9213 0.0726 0 25
-27.6090 26.7216 -11.9685 0.7405 0 3
-22.5519 20.1343 -9.4172 0.6921 0 5
-22.6620 18.6498 -9.1422 0.7754 0 5
-22.7018 17.1986 -8.8717 0.8665 0 5
-32.5101 22.6300 -12.3386 0.9812 0 3
-28.0783 17.9125 -10.3745 0.8542 0 3
-27.9822 16.3057 -10.0882 0.9515 0 3
-33.4821 17.7461 -11.8039 0.4531 0 3
-36.9574 17.7219 -12.7672 0.4189 0 3
-31.8394 13.7208 -10.7996 0.3456 0 5
-23.1400 -4.6121 -7.3498 0.9295 16 6
-37.5179 -25.6208 -14.1517 0.2167 0 20
-32.6587 -28.6369 -13.5300 0.7865 0 9
-27.6058 -26.2443 -11.8648 0.9603 0 9
-24.7973 -25.5508 -11.0910 0.9523 0 9
-21.3352 -23.8312 -9.9636 0.0796 0 2
-18.2364 -22.0980 -8.9247 0.0888 0 2
-16.1552 -21.2640 -8.3184 0.0648 0 24
-13.5767 -19.4474 -7.3880 0.1049 0 1
-11.7099 -18.3002 -6.7676 0.1170 0 1
-10.0805 -17.2448 -6.2221 0.1274 0 1
-8.6661 -16.2966 -5.7494 0.1418 0 1
-7.4270 -15.4342 -5.3354 0.1512 0 1
-6.3425 -14.6626 -4.9763 0.1661 0 1
-5.3867 -13.9702 -4.6640 0.1824 0 1
-4.5345 -13.3352 -4.3874 0.1961 0 1
-3.7710 -12.7517 -4.1422 0.2077 0 1
-3.0813 -12.2054 -3.9212 0.2184 0 1
-2.4560 -11.6920 -3.7215 0.2301 0 1
-1.8857 -11.1998 -3.5378 0.2366 0 1
-1.3644 -10.7229 -3.3671 0.2486 0 1
-0.8886 -10.2682 -3.2104 0.2591 0 1
-0.4535 -9.8331 -3.0662 0.2733 0 1
-0.0548 -9.3920 -2.9256 0.2816 0 24
0.3107 -9.0278 -2.8138 0.2978 0 1
0.6471 -8.6526 -2.7028 0.3100 0 1
0.9570 -8.2936 -2.6006 0.3222 0 1
1.2429 -7.9480 -2.5059 0.3360 0 1
1.5076 -7.6184 -2.4191 0.3516 0 1
1.7529 -7.3018 -2.3391 0.3636 0 1
1.9747 -6.9761 -2.2584 0.3747 0 24
2.1918 -6.7015 -2.1963 0.3873 0 1
2.3878 -6.4149 -2.1321 0.3979 0 1
2.5700 -6.1372 -2.0726 0.4093 0 1
2.7397 -5.8679 -2.0172 0.4206 0 1
2.8977 -5.6062 -1.9658 0.4313 0 1
3.0449 -5.3515 -1.9179 0.4421 0 1
3.1727 -5.0882 -1.8678 0.4379 0 1
3.2895 -4.8311 -1.8206 0.4493 0 1
3.3974 -4.5819 -1.7768 0.4536 0 1
3.4995 -4.3428 -1.7373 0.4639 0 1
3.5938 -4.1098 -1.7006 0.4739 0 1
3.6813 -3.8829 -1.6667 0.5032 0 1
3.7700 -3.6689 -1.6386 0.5118 0 1
3.8526 -3.4586 -1.6127 0.5200 0 1
3.9293 -3.2517 -1.5887 0.5279 0 1
4.0004 -3.0480 -1.5666 0.5353 0 1
4.0664 -2.8471 -1.5463 0.5424 0 1
4.1277 -2.6492 -1.5278 0.5490 0 1
4.1849 -2.4540 -1.5112 0.5550 0 1
4.2375 -2.2608 -1.4961 0.5606 0 1
4.2858 -2.0696 -1.4825 0.5658 0 1
4.3298 -1.8799 -1.4703 0.5705 0 1
4.3696 -1.6917 -1.4596 0.5747 0 1
4.4055 -1.5048 -1.4501 0.5785 0 1
4.4375 -1.3189 -1.4420 0.5817 0 1
4.4663 -1.1341 -1.4354 0.5875 0 1
3.9360 -0.8324 -1.2532 0.7153 25 14
3.9188 -0.6653 -1.2381 0.7325 25 14
3.9080 -0.5027 -1.2274 0.7755 25 14
3.8959 -0.3425 -1.2182 0.7813 25 14
3.8848 -0.1845 -1.2115 0.7857 25 14
3.8746 -0.0279 -1.2070 0.7886 25 14
3.8787 0.1282 -1.2089 0.7874 25 14
3.8847 0.2852 -1.2133 0.7845 25 14
3.8899 0.4435 -1.2195 0.7437 25 14
3.8941 0.6035 -1.2275 0.7389 25 14
3.9035 0.7669 -1.2392 0.7233 25 14
4.2790 1.0211 -1.3703 0.3390 25 14
4.5433 1.2793 -1.4703 0.5645 0 1
4.5196 1.4714 -1.4806 0.5605 0 1
4.4919 1.6650 -1.4923 0.5561 0 1
4.4600 1.8605 -1.5053 0.5513 0 1
4.4238 2.0581 -1.5198 0.5461 0 1
4.3833 2.2580 -1.5359 0.5400 0 1
4.3382 2.4605 -1.5535 0.5339 0 1
4.2882 2.6657 -1.5728 0.5273 0 1
4.2332 2.8739 -1.5938 0.5204 0 1
4.1730 3.0854 -1.6166 0.5131 0 1
4.1077 3.3007 -1.6414 0.5053 0 1
4.0365 3.5199 -1.6683 0.4972 0 1
3.9591 3.7432 -1.6972 0.4887 0 1
3.8751 3.9711 -1.7283 0.4799 0 1
3.7842 4.2037 -1.7618 0.4708 0 1
3.6838 4.4390 -1.7968 0.4748 0 1
3.5724 4.6756 -1.8329 0.4634 0 1
3.4553 4.9207 -1.8729 0.4535 0 1
3.3293 5.1719 -1.9160 0.4433 0 1
3.1934 5.4289 -1.9619 0.4298 0 1
3.0465 5.6913 -2.0108 0.4194 0 1
2.8885 5.9609 -2.0633 0.4087 0 1
2.7186 6.2381 -2.1196 0.3982 0 1
2.5357 6.5231 -2.1801 0.3871 0 1
2.3352 6.8063 -2.2414 0.3988 0 1
2.1185 7.0921 -2.3056 0.3877 0 1
1.8863 7.3864 -2.3747 0.3764 0 1
1.6419 7.7114 -2.4559 0.3443 0 1
1.3808 8.0660 -2.5491 0.3318 0 1
1.0971 8.4371 -2.6502 0.3191 0 1
0.7872 8.8160 -2.7571 0.3061 0 1
0.4487 9.1838 -2.8641 0.3158 0 1
0.0820 9.5554 -2.9766 0.3039 0 1
-0.3149 9.9424 -3.0986 0.2919 0 1
-0.7477 10.3800 -3.2417 0.2655 0 1
-1.2218 10.8483 -3.4006 0.2531 0 1
-1.7326 11.2813 -3.5553 0.2425 0 24
-2.3076 11.8305 -3.7546 0.2239 0 1
-2.9228 12.3233 -3.9452 0.2133 0 24
-3.6167 12.9114 -4.1766 0.1994 0 24
-4.4013 13.5827 -4.4475 0.1887 0 1
-5.2631 14.2587 -4.7344 0.1736 0 1
-6.2131 14.9514 -5.0434 0.1698 0 1
-7.2605 15.6620 -5.3774 0.1617 0 1
-8.4436 16.4458 -5.7585 0.1425 0 1
-9.8193 17.3680 -6.2148 0.1306 0 1
-11.4545 18.4827 -6.7733 0.1092 0 1
-13.3943 19.7878 -7.4432 0.1020 0 1
-15.4626 20.9733 -8.1167 0.1156 0 1
-17.2564 21.5356 -8.5962 0.0922 0 2
-20.1582 23.1805 -9.5690 0.0828 0 2
-23.6598 25.0926 -10.7429 0.0738 0 25
-27.5921 26.9992 -12.0250 0.7370 0 3
-22.5548 20.3598 -9.4647 0.7684 0 5
-22.6535 18.8517 -9.1802 0.7722 0 5
-22.6898 17.3858 -8.9040 0.7927 0 5
-32.1625 22.6503 -12.2536 0.5553 0 3
-28.0687 18.1233 -10.4074 0.8515 0 3
-32.6642 19.2742 -11.8141 0.8709 0 3
-32.8084 17.6197 -11.6002 0.4849 0 3
-32.8657 15.9816 -11.3837 0.9710 0 3
-31.3656 13.7206 -10.6641 0.3689 0 5
-23.2023 -4.4927 -7.3616 0.3636 16 6
-37.6547 -25.4132 -14.1506 0.1651 0 20
-33.9739 -24.9757 -13.1347 0.8277 0 20
-32.0400 -27.7858 -13.2106 0.9943 0 9
-27.6978 -26.0447 -11.8430 0.9746 0 9
-24.5586 -25.0294 -10.9228 0.3750 0 9
-21.8036 -24.0878 -10.1206 0.0783 0 2
-18.6250 -22.3190 -9.0550 0.0875 0 2
-16.7234 -21.7636 -8.5495 0.0566 0 1
-13.8556 -19.6173 -7.4812 0.1036 0 1
-11.9501 -18.4525 -6.8480 0.1156 0 1
-10.2888 -17.3821 -6.2919 0.1260 0 1
-8.8468 -16.4191 -5.8097 0.1403 0 1
-7.5873 -15.5490 -5.3893 0.1497 0 1
-6.4820 -14.7630 -5.0224 0.1659 0 1
-5.5100 -14.0603 -4.7040 0.1808 0 1
-4.6448 -13.4181 -4.4230 0.1923 0 1
-3.8575 -12.7863 -4.1602 0.2030 0 24
-3.1711 -12.2775 -3.9499 0.2168 0 1
-2.5376 -11.7602 -3.7475 0.2285 0 1
-1.9524 -11.2205 -3.5477 0.2370 0 24
-1.4325 -10.7862 -3.3894 0.2470 0 1
-0.9509 -10.3292 -3.2311 0.2584 0 1
-0.5104 -9.8908 -3.0850 0.2716 0 1
3.7021 -3.5636 -1.6633 0.5221 0 1
3.7834 -3.3593 -1.6377 0.5303 0 1
3.8589 -3.1581 -1.6141 0.5380 0 1
3.9291 -2.9597 -1.5923 0.5454 0 1
3.9940 -2.7640 -1.5722 0.5523 0 1
4.0546 -2.5710 -1.5541 0.5589 0 1
4.1109 -2.3804 -1.5377 0.5648 0 1
4.1626 -2.1917 -1.5228 0.5704 0 1
4.2101 -2.0047 -1.5094 0.5755 0 1
4.2534 -1.8192 -1.4974 0.5801 0 1
4.2925 -1.6349 -1.4868 0.5842 0 1
4.3278 -1.4518 -1.4776 0.5879 0 1
4.3594 -1.2698 -1.4698 0.5941 0 1
4.3878 -1.0886 -1.4634 0.5967 0 1
4.4125 -0.9080 -1.4582 0.5988 0 1
4.4337 -0.7278 -1.4544 0.6004 0 1
4.4512 -0.5478 -1.4517 0.6015 0 1
3.9147 -0.3226 -1.2715 0.7752 25 14
3.9036 -0.1640 -1.2647 0.7793 25 14
3.8945 -0.0068 -1.2606 0.7819 25 14
3.8998 0.1502 -1.2633 0.7802 25 14
3.9060 0.3082 -1.2683 0.7771 25 14
3.9132 0.4678 -1.2757 0.7726 25 14
3.9200 0.6295 -1.2852 0.7308 25 14
3.9314 0.7948 -1.2983 0.7149 25 14
4.4732 1.0933 -1.4906 0.5765 0 1
4.4529 1.2802 -1.4998 0.5730 0 1
4.4286 1.4686 -1.5103 0.5690 0 1
4.4002 1.6584 -1.5221 0.5646 0 1
4.3676 1.8501 -1.5354 0.5597 0 1
4.3306 2.0437 -1.5501 0.5544 0 1
4.2893 2.2394 -1.5663 0.5483 0 1
4.2435 2.4376 -1.5841 0.5421 0 1
4.1928 2.6383 -1.6035 0.5356 0 1
4.1371 2.8418 -1.6247 0.5286 0 1
4.0764 3.0486 -1.6477 0.5213 0 1
4.0103 3.2588 -1.6727 0.5135 0 1
3.9385 3.4726 -1.6996 0.5053 0 1
3.8604 3.6902 -1.7287 0.4968 0 1
3.7759 3.9120 -1.7599 0.4880 0 1
3.6844 4.1382 -1.7935 0.4789 0 1
3.5853 4.3688 -1.8294 0.4830 0 1
3.4740 4.5986 -1.8656 0.4715 0 1
3.3567 4.8363 -1.9056 0.4616 0 1
3.2306 5.0793 -1.9485 0.4481 0 1
3.0941 5.3265 -1.9939 0.4379 0 1
2.9476 5.5797 -2.0426 0.4275 0 1
2.7903 5.8393 -2.0949 0.4168 0 1
2.6213 6.1058 -2.1509 0.4063 0 1
2.4397 6.3794 -2.2108 0.3953 0 1
2.2441 6.6591 -2.2746 0.4069 0 1
2.0296 6.9329 -2.3383 0.3958 0 1
1.8003 7.2141 -2.4068 0.3846 0 1
1.5577 7.5178 -2.4852 0.3524 0 1
1.3003 7.8541 -2.5769 0.3398 0 1
1.0212 8.2050 -2.6764 0.3272 0 1
0.7169 8.5565 -2.7794 0.3145 0 1
0.3866 8.9135 -2.8880 0.3051 0 1
0.0288 9.2677 -2.9999 0.3122 0 1
-0.3578 9.6291 -3.1191 0.3003 0 1
-0.7772 10.0234 -3.2543 0.2738 0 1
-1.2355 10.4557 -3.4080 0.2615 0 1
-1.7271 10.8496 -3.5562 0.2514 0 24
-2.2763 11.3398 -3.7439 0.2346 0 1
-2.8635 11.7858 -3.9260 0.2224 0 24
-3.5333 12.3531 -4.1590 0.2090 0 1
-4.2609 12.9082 -4.4001 0.1975 0 1
-5.0665 13.4984 -4.6670 0.1862 0 1
-5.9568 14.1162 -4.9595 0.1788 0 1
-6.9303 14.7378 -5.2717 0.1683 0 1
-8.0044 15.3827 -5.6131 0.1604 0 1
-9.2295 16.1183 -6.0122 0.1398 0 1
-10.6475 16.9724 -6.4855 0.1233 0 1
-12.3279 17.9994 -7.0619 0.1124 0 1
-14.2806 19.1498 -7.7325 0.1023 0 1
-16.5783 20.4589 -8.5237 0.1128 0 2
-18.1401 20.6307 -8.8924 0.0923 0 2
-20.9971 22.0259 -9.8502 0.0833 0 2
-24.3948 23.6106 -10.9893 0.0747 0 25
-22.4604 20.0527 -9.7463 0.7566 0 5
-22.5245 18.5366 -9.4426 0.7789 0 5
-22.6315 17.1453 -9.1906 0.8629 0 5
-28.0553 19.5291 -11.0649 0.0438 0 3
-27.9571 17.8352 -10.7343 0.8549 0 3
-32.5361 18.9594 -12.1894 0.8740 0 3
-33.4802 17.7452 -12.2655 0.4516 0 3
-36.9552 17.7208 -13.2664 0.4175 0 3
-31.8182 13.7117 -11.2150 0.4147 0 5
-40.6047 13.7453 -13.8762 0.2748 0 5
-23.0497 -4.5942 -7.6078 0.9299 16 6
-29.8527 -17.0399 -11.1265 0.9893 0 6
-25.1894 -17.2017 -9.8735 0.5309 0 20
-33.8047 -25.1374 -13.6361 0.8256 0 20
-32.4295 -26.2051 -13.4961 0.6677 0 9
-29.5074 -25.8737 -12.7033 0.0646 0 2
-25.2376 -23.9930 -11.2718 0.0728 0 2
-21.7009 -22.3603 -10.0862 0.0814 0 2
-18.7346 -20.9264 -9.0917 0.0903 0 2
-16.8089 -20.3682 -8.5483 0.0679 0 1
-14.1583 -18.6356 -7.5757 0.1103 0 1
-12.3227 -17.6511 -6.9682 0.1197 0 1
-10.7021 -16.7253 -6.4274 0.1298 0 1
-9.2883 -15.8896 -5.9577 0.1406 0 1
-8.0399 -15.1191 -5.5429 0.1523 0 1
-6.9322 -14.4060 -5.1750 0.1654 0 1
-5.9522 -13.7604 -4.8530 0.1824 0 1
-5.0788 -13.1719 -4.5696 0.1927 0 1
-4.2925 -12.6234 -4.3159 0.2065 0 1
-3.5800 -12.1059 -4.0864 0.2158 0 1
-2.9217 -11.5731 -3.8637 0.2277 0 24
-2.3433 -11.1555 -3.6898 0.2404 0 1
-1.8016 -10.6999 -3.5123 0.2468 0 1
-1.3064 -10.2664 -3.3500 0.2588 0 1
-0.8525 -9.8505 -3.2005 0.2711 0 1
-0.4358 -9.4514 -3.0626 0.2833 0 1
-0.0528 -9.0377 -2.9255 0.2912 0 24
0.2996 -8.7051 -2.8195 0.3077 0 1
0.6248 -8.3552 -2.7121 0.3199 0 1
0.9253 -8.0189 -2.6129 0.3321 0 1
1.2037 -7.6974 -2.5219 0.3492 0 1
1.4618 -7.3868 -2.4374 0.3613 0 1
1.7014 -7.0870 -2.3592 0.3733 0 1
1.9182 -6.7766 -2.2797 0.3838 0 24
2.1310 -6.5157 -2.2190 0.3959 0 1
2.3234 -6.2420 -2.1559 0.4075 0 1
2.5027 -5.9763 -2.0973 0.4189 0 1
2.6698 -5.7181 -2.0427 0.4301 0 1
2.8255 -5.4665 -1.9919 0.4408 0 1
2.9700 -5.2197 -1.9440 0.4357 0 1
3.0953 -4.9641 -1.8936 0.4473 0 1
3.2112 -4.7162 -1.8469 0.4586 0 1
3.3185 -4.4754 -1.8035 0.4696 0 1
3.4184 -4.2422 -1.7635 0.4732 0 1
3.5122 -4.0165 -1.7271 0.4832 0 1
3.6025 -3.7998 -1.6949 0.5124 0 1
3.6906 -3.5916 -1.6670 0.5210 0 1
3.7727 -3.3869 -1.6411 0.5292 0 1
3.8490 -3.1853 -1.6172 0.5370 0 1
3.9198 -2.9865 -1.5951 0.5444 0 1
3.9855 -2.7905 -1.5749 0.5514 0 1
4.0465 -2.5971 -1.5564 0.5580 0 1
4.1035 -2.4062 -1.5398 0.5641 0 1
4.1559 -2.2173 -1.5247 0.5697 0 1
4.2039 -2.0300 -1.5111 0.5748 0 1
4.2477 -1.8443 -1.4990 0.5795 0 1
4.2874 -1.6599 -1.4882 0.5837 0 1
4.3232 -1.4767 -1.4788 0.5874 0 1
4.3552 -1.2944 -1.4707 0.5938 0 1
4.3842 -1.1132 -1.4642 0.5964 0 1
4.4094 -0.9325 -1.4589 0.5986 0 1
4.4310 -0.7523 -1.4548 0.6002 0 1
4.4490 -0.5723 -1.4520 0.6014 0 1
3.9163 -0.3443 -1.2726 0.7745 25 14
3.9051 -0.1854 -1.2655 0.7789 25 14
3.8947 -0.0281 -1.2607 0.7818 25 14
3.8990 0.1288 -1.2628 0.7805 25 14
3.9051 0.2867 -1.2675 0.7776 25 14
3.9122 0.4460 -1.2746 0.7733 25 14
3.9194 0.6074 -1.2838 0.7316 25 14
3.9296 0.7721 -1.2963 0.7160 25 14
4.4757 1.0680 -1.4894 0.5770 0 1
4.4559 1.2547 -1.4984 0.5735 0 1
4.4321 1.4429 -1.5088 0.5696 0 1
4.4043 1.6325 -1.5204 0.5652 0 1
4.3722 1.8239 -1.5335 0.5604 0 1
4.3359 2.0172 -1.5480 0.5552 0 1
4.2952 2.2127 -1.5640 0.5491 0 1
4.2500 2.4105 -1.5816 0.5430 0 1
4.2000 2.6109 -1.6008 0.5365 0 1
4.1450 2.8140 -1.6217 0.5296 0 1
4.0849 3.0202 -1.6444 0.5223 0 1
4.0196 3.2300 -1.6692 0.5146 0 1
3.9486 3.4433 -1.6958 0.5065 0 1
3.8714 3.6604 -1.7246 0.4980 0 1
3.7878 3.8815 -1.7555 0.4892 0 1
3.6973 4.1071 -1.7888 0.4801 0 1
3.5995 4.3374 -1.8245 0.4707 0 1
3.4893 4.5668 -1.8604 0.4749 0 1
3.3732 4.8037 -1.9000 0.4629 0 1
3.2484 5.0461 -1.9426 0.4495 0 1
3.1132 5.2925 -1.9876 0.4393 0 1
2.9681 5.5449 -2.0358 0.4289 0 1
2.8123 5.8036 -2.0875 0.4183 0 1
2.6450 6.0692 -2.1430 0.4078 0 1
2.4652 6.3417 -2.2024 0.3968 0 1
2.2720 6.6220 -2.2662 0.3856 0 1
2.0597 6.8953 -2.3294 0.3973 0 1
1.8324 7.1754 -2.3972 0.3861 0 1
1.5912 7.4731 -2.4732 0.3541 0 1
1.3365 7.8075 -2.5640 0.3415 0 1
1.0606 8.1564 -2.6624 0.3289 0 1
0.7598 8.5085 -2.7651 0.3161 0 1
0.4331 8.8643 -2.8728 0.3067 0 1
0.0791 9.2196 -2.9844 0.3138 0 1
-0.3034 9.5792 -3.1023 0.3019 0 1
-0.7179 9.9663 -3.2344 0.2755 0 1
-1.1708 10.3957 -3.3863 0.2632 0 1
-1.6572 10.7904 -3.5337 0.2539 0 24
-2.1993 11.2753 -3.7185 0.2362 0 1
-2.7792 11.7178 -3.8982 0.2251 0 24
-3.4398 12.2801 -4.1280 0.2109 0 1
-4.1576 12.8308 -4.3659 0.1991 0 1
-4.9520 13.4159 -4.6291 0.1878 0 1
-5.8320 14.0345 -4.9195 0.1803 0 1
-6.7919 14.6512 -5.2273 0.1697 0 1
-7.8204 15.2321 -5.5424 0.1594 0 24
-9.0520 16.0107 -5.9535 0.1436 0 1
-10.4367 16.8404 -6.4131 0.1247 0 1
-12.0856 17.8545 -6.9789 0.1146 0 1
-13.9972 18.9857 -7.6352 0.1036 0 1
-16.0047 19.9734 -8.2848 0.1082 0 1
-17.7869 20.4537 -8.7740 0.0935 0 2
-20.5796 21.8259 -9.7103 0.0845 0 2
-23.8959 23.3825 -10.8220 0.0758 0 25
-22.4511 20.2662 -9.7902 0.7532 0 5
-22.5156 18.7369 -9.4817 0.7906 0 5
-22.6064 17.3219 -9.2188 0.8602 0 5
-27.8694 19.6269 -11.0338 0.8317 0 3
-27.9472 18.0448 -10.7682 0.8522 0 3
-32.5259 19.1926 -12.2248 0.8715 0 3
-33.0476 17.7482 -12.1424 0.4561 0 3
-36.5149 17.7561 -13.1430 0.9063 0 3
-31.3667 13.7211 -11.0822 0.3705 0 5
-25.5410 -17.2377 -9.9742 0.0413 0 20
-33.8227 -24.8645 -13.5883 0.8285 0 20
-32.5705 -26.0257 -13.4953 0.8340 0 9
-29.0809 -25.2196 -12.4600 0.4165 0 9
-25.7709 -24.2328 -11.4506 0.0717 0 2
-22.1452 -22.5697 -10.2351 0.0802 0 2
-19.1092 -21.1111 -9.2173 0.0890 0 2
-17.2520 -20.6737 -8.7160 0.0672 0 1
-14.4291 -18.7779 -7.6655 0.0910 0 1
-12.5574 -17.7793 -7.0458 0.1184 0 1
-10.9092 -16.8452 -6.4963 0.1284 0 1
-9.4699 -15.9987 -6.0179 0.1392 0 1
-8.2014 -15.2213 -5.5967 0.1508 0 1
-7.0750 -14.4991 -5.2222 0.1639 0 1
-6.0779 -13.8425 -4.8936 0.1809 0 1
-5.1925 -13.2503 -4.6066 0.1912 0 1
-4.3948 -12.6959 -4.3488 0.2049 0 1
-3.6730 -12.1749 -4.1164 0.2156 0 1
-3.0171 -11.6812 -3.9052 0.2271 0 1
-2.4204 -11.2169 -3.7144 0.2388 0 1
-1.8724 -10.7605 -3.5355 0.2452 0 1
-1.3711 -10.3241 -3.3712 0.2571 0 1
-0.9119 -9.9063 -3.2202 0.2695 0 1
-0.4904 -9.5046 -3.0807 0.2817 0 1
3.6254 -3.4897 -1.6907 0.5312 0 1
3.7062 -3.2907 -1.6652 0.5393 0 1
3.7813 -3.0945 -1.6416 0.5471 0 1
3.8510 -2.9009 -1.6199 0.5544 0 1
3.9157 -2.7098 -1.5999 0.5613 0 1
3.9759 -2.5211 -1.5817 0.5679 0 1
4.0319 -2.3347 -1.5654 0.5738 0 1
4.0835 -2.1500 -1.5505 0.5794 0 1
4.1307 -1.9669 -1.5372 0.5844 0 1
4.1738 -1.7851 -1.5252 0.5890 0 1
4.2128 -1.6046 -1.5146 0.5931 0 1
4.2478 -1.4250 -1.5054 0.5968 0 1
4.2798 -1.2466 -1.4977 0.6030 0 1
4.3081 -1.0688 -1.4913 0.6056 0 1
4.3326 -0.8916 -1.4862 0.6077 0 1
4.3536 -0.7147 -1.4823 0.6092 0 1
4.3710 -0.5380 -1.4796 0.6103 0 1
4.3848 -0.3613 -1.4782 0.6109 0 1
4.3951 -0.1846 -1.4780 0.6110 0 1
4.4041 -0.0076 -1.4797 0.6097 0 1
4.4110 0.1699 -1.4831 0.6083 0 1
4.4144 0.3483 -1.4878 0.6064 0 1
4.4142 0.5277 -1.4937 0.6040 0 1
4.4105 0.7083 -1.5008 0.6011 0 1
4.4031 0.8901 -1.5093 0.5977 0 1
4.3886 1.0726 -1.5179 0.5855 0 1
4.3682 1.2559 -1.5271 0.5820 0 1
4.3437 1.4404 -1.5376 0.5780 0 1
4.3152 1.6264 -1.5494 0.5736 0 1
4.2825 1.8141 -1.5626 0.5688 0 1
4.2455 2.0035 -1.5773 0.5635 0 1
4.2041 2.1949 -1.5934 0.5574 0 1
4.1583 2.3886 -1.6112 0.5512 0 1
4.1076 2.5847 -1.6306 0.5447 0 1
4.0519 2.7833 -1.6516 0.5378 0 1
3.9913 2.9850 -1.6745 0.5304 0 1
3.9254 3.1898 -1.6994 0.5227 0 1
3.8537 3.3979 -1.7262 0.5146 0 1
3.7760 3.6095 -1.7551 0.5061 0 1
3.6918 3.8249 -1.7861 0.4973 0 1
3.6009 4.0444 -1.8194 0.4882 0 1
3.5027 4.2682 -1.8551 0.4788 0 1
3.3942 4.4930 -1.8919 0.4808 0 1
3.2780 4.7229 -1.9316 0.4709 0 1
3.1524 4.9564 -1.9735 0.4576 0 1
3.0175 5.1946 -2.0184 0.4474 0 1
2.8729 5.4383 -2.0664 0.4370 0 1
2.7178 5.6877 -2.1179 0.4264 0 1
2.5515 5.9432 -2.1731 0.4156 0 1
2.3730 6.2049 -2.2320 0.4049 0 1
2.1815 6.4735 -2.2951 0.3938 0 1
1.9742 6.7436 -2.3608 0.4054 0 1
1.7497 7.0115 -2.4280 0.3942 0 1
1.5105 7.2897 -2.5012 0.3621 0 1
1.2595 7.6073 -2.5907 0.3496 0 1
0.9880 7.9376 -2.6875 0.3370 0 1
0.6924 8.2646 -2.7865 0.3244 0 1
0.3730 8.6002 -2.8922 0.3150 0 1
0.0278 8.9443 -3.0051 0.3032 0 1
-0.3450 9.2856 -3.1220 0.3102 0 1
-0.7470 9.6343 -3.2467 0.2839 0 1
-1.1854 10.0314 -3.3938 0.2716 0 1
-1.6588 10.4201 -3.5451 0.2635 0 1
-2.1735 10.8273 -3.7104 0.2448 0 1
-2.7280 11.2279 -3.8821 0.2344 0 24
-3.3552 11.7304 -4.0992 0.2196 0 1
-4.0197 12.1776 -4.3086 0.2076 0 24
-4.7630 12.6896 -4.5539 0.1959 0 24
-5.6041 13.2803 -4.8430 0.1847 0 1
-6.4996 13.8221 -5.1318 0.1776 0 1
-7.4842 14.3830 -5.4475 0.1684 0 1
-8.5688 14.9644 -5.7937 0.1592 0 1
-9.7976 15.6177 -6.1943 0.1427 0 1
-11.2213 16.3838 -6.6720 0.1231 0 1
-12.8772 17.2679 -7.2373 0.1114 0 1
-14.7680 18.2248 -7.8812 0.1176 0 1
-16.7287 19.0255 -8.5118 0.6992 0 2
-18.5321 19.4401 -9.0238 0.0941 0 2
-21.2425 20.5597 -9.9325 0.0855 0 2
-22.3477 19.9520 -10.0655 0.7726 0 5
-22.4228 18.4530 -9.7568 0.7937 0 5
-22.5409 17.0768 -9.5013 0.8166 0 5
-27.7569 19.3214 -11.3628 0.8352 0 3
-27.8772 17.7842 -11.1099 0.6228 0 3
-32.3984 18.8791 -12.5986 0.8745 0 3
-30.3703 16.0968 -11.5485 0.4499 0 3
-36.9530 17.7198 -13.7692 0.4160 0 3
-31.8040 13.7056 -11.6356 0.4018 0 5
-40.5588 13.7297 -14.3867 0.3678 0 5
-22.9620 -4.5767 -7.8666 0.9998 16 6
-29.7837 -17.0005 -11.5222 0.3760 0 6
-25.2224 -17.2242 -10.2617 0.5289 0 20
-33.0937 -24.6087 -13.8561 0.3337 0 9
-29.0640 -23.4855 -12.5546 0.0676 0 2
-25.1869 -22.0852 -11.2548 0.0754 0 2
-21.9036 -20.8234 -10.1541 0.0836 0 2
-19.0996 -19.6799 -9.2141 0.0921 0 2
-17.2157 -19.2297 -8.6717 0.0698 0 1
-14.7058 -17.8198 -7.7626 0.0929 0 1
-12.8643 -16.9324 -7.1446 0.1226 0 1
-11.2719 -16.1460 -6.6160 0.1304 0 1
-9.8599 -15.4091 -6.1463 0.1409 0 1
-8.6088 -14.7272 -5.7315 0.1511 0 1
-7.4987 -14.1014 -5.3660 0.1650 0 1
-6.4995 -13.5066 -5.0361 0.1818 0 1
-5.6107 -12.9708 -4.7482 0.1928 0 1
-4.8046 -12.4607 -4.4870 0.2054 0 1
-4.0729 -11.9778 -4.2506 0.2160 0 1
-3.4049 -11.5138 -4.0341 0.2260 0 1
-2.7968 -11.0785 -3.8390 0.2389 0 1
-2.2377 -10.6527 -3.6572 0.2451 0 1
-1.7241 -10.2396 -3.4887 0.2570 0 1
-1.2530 -9.8472 -3.3352 0.2694 0 1
-0.8190 -9.4638 -3.1916 0.2812 0 1
-0.4194 -9.0957 -3.0593 0.2933 0 1
-0.0508 -8.7071 -2.9255 0.3045 0 24
0.2892 -8.4027 -2.8248 0.3177 0 1
0.6039 -8.0755 -2.7208 0.3298 0 1
0.8957 -7.7620 -2.6252 0.3469 0 1
1.1668 -7.4611 -2.5373 0.3590 0 1
1.4184 -7.1674 -2.4548 0.3710 0 1
1.6524 -6.8830 -2.3783 0.3830 0 1
1.8645 -6.5868 -2.3000 0.3928 0 24
2.0731 -6.3386 -2.2407 0.4055 0 1
2.2620 -6.0771 -2.1786 0.4170 0 1
2.4383 -5.8226 -2.1209 0.4284 0 1
2.6028 -5.5746 -2.0671 0.4392 0 1
2.7564 -5.3327 -2.0169 0.4502 0 1
2.8969 -5.0914 -1.9681 0.4451 0 1
3.0211 -4.8451 -1.9184 0.4566 0 1
3.1361 -4.6059 -1.8722 0.4679 0 1
3.2426 -4.3732 -1.8291 0.4789 0 1
3.3412 -4.1464 -1.7891 0.4896 0 1
3.4337 -3.9267 -1.7526 0.4924 0 1
3.5264 -3.7195 -1.7221 0.5215 0 1
3.6140 -3.5170 -1.6943 0.5301 0 1
3.6955 -3.3176 -1.6686 0.5382 0 1
3.7714 -3.1210 -1.6447 0.5460 0 1
3.8419 -2.9271 -1.6228 0.5534 0 1
3.9072 -2.7356 -1.6025 0.5604 0 1
3.9679 -2.5466 -1.5841 0.5670 0 1
4.0246 -2.3600 -1.5675 0.5730 0 1
4.0767 -2.1750 -1.5525 0.5787 0 1
4.1246 -1.9917 -1.5389 0.5838 0 1
4.1682 -1.8098 -1.5267 0.5884 0 1
4.2077 -1.6290 -1.5160 0.5926 0 1
4.2433 -1.4494 -1.5065 0.5963 0 1
4.2757 -1.2708 -1.4987 0.6026 0 1
4.3044 -1.0930 -1.4921 0.6052 0 1
4.3295 -0.9156 -1.4868 0.6074 0 1
4.3509 -0.7387 -1.4828 0.6091 0 1
4.3688 -0.5620 -1.4799 0.6102 0 1
4.3831 -0.3854 -1.4783 0.6109 0 1
4.3939 -0.2086 -1.4779 0.6110 0 1
4.4029 -0.0317 -1.4793 0.6098 0 1
4.4103 0.1457 -1.4826 0.6085 0 1
4.4141 0.3240 -1.4871 0.6066 0 1
4.4145 0.5033 -1.4928 0.6043 0 1
4.4112 0.6837 -1.4998 0.6015 0 1
4.4043 0.8653 -1.5081 0.5982 0 1
4.3911 1.0478 -1.5168 0.5859 0 1
4.3712 1.2309 -1.5258 0.5825 0 1
4.3473 1.4152 -1.5361 0.5786 0 1
4.3193 1.6010 -1.5477 0.5742 0 1
4.2872 1.7884 -1.5607 0.5694 0 1
4.2508 1.9776 -1.5752 0.5642 0 1
