ply
format ascii 1.0
element vertex 1399
property float32 x
property float32 y
property float32 z
property float32 CosAngle
property uint32 ObjIdx
property uint32 ObjTag
end_header
-7.0760 7.7275 -5.2986 0.2471 0 1
-7.6233 7.6811 -5.4726 0.2392 0 1
-8.1936 7.6173 -5.6574 0.2229 0 1
-8.7890 7.5355 -5.8545 0.2153 0 1
-9.3982 7.4237 -6.0564 0.2081 0 1
-10.0174 7.2786 -6.2617 0.2013 0 1
-10.6474 7.1005 -6.4718 0.1930 0 1
-11.2855 6.8873 -6.6858 0.1868 0 1
-11.9234 6.6340 -6.9000 0.1817 0 1
-12.5565 6.3393 -7.1131 0.1739 0 1
-13.1828 6.0033 -7.3251 0.1688 0 1
-13.7894 5.6218 -7.5305 0.1647 0 1
-14.3666 5.1940 -7.7253 0.1605 0 1
-14.9145 4.7235 -7.9113 0.1543 0 1
-15.3576 4.1926 -8.0504 0.1522 0 24
-15.8643 3.6526 -8.2324 0.1494 0 1
-16.2485 3.0591 -8.3611 0.1482 0 1
-16.5643 2.4338 -8.4664 0.1463 0 1
-16.8082 1.7830 -8.5475 0.1449 0 1
-16.9757 1.1131 -8.6029 0.1439 0 1
-17.0630 0.4313 -8.6314 0.1435 0 1
-17.0683 -0.2549 -8.6323 0.1440 0 1
-16.9951 -0.9380 -8.6074 0.1444 0 1
-16.7766 -1.6044 -8.5225 0.1456 0 24
-16.6127 -2.2657 -8.4787 0.1473 0 1
-16.3152 -2.8973 -8.3796 0.1491 0 1
-15.9508 -3.4993 -8.2580 0.1513 0 1
-15.5260 -4.0665 -8.1162 0.1542 0 1
-15.0436 -4.5937 -7.9542 0.1565 0 1
-14.5095 -5.0767 -7.7735 0.1601 0 1
-13.9345 -5.5136 -7.5781 0.1627 0 1
-13.3236 -5.9018 -7.3690 0.1665 0 1
-12.6921 -6.2439 -7.1529 0.1719 0 1
-12.0501 -6.5423 -6.9339 0.1819 0 1
-11.4116 -6.8032 -6.7184 0.1878 0 1
-10.7717 -7.0235 -6.5028 0.1939 0 1
-10.1351 -7.2051 -6.2884 0.2005 0 1
-9.5236 -7.3641 -6.0879 0.2148 0 1
-8.9231 -7.4917 -5.8919 0.2219 0 1
-8.3027 -7.5602 -5.6785 0.2283 0 24
-7.7290 -7.6281 -5.4915 0.2362 0 24
-7.1881 -7.6887 -5.3227 0.2407 0 1
-6.6390 -7.6997 -5.1412 0.2492 0 1
-6.1088 -7.6893 -4.9662 0.2580 0 1
-5.5798 -7.6345 -4.7819 0.2676 0 24
-5.0901 -7.5867 -4.6200 0.2774 0 24
-4.6206 -7.5240 -4.4651 0.2874 0 24
-4.1840 -7.4707 -4.3300 0.2960 0 1
-3.7532 -7.3828 -4.1882 0.3086 0 1
-3.3423 -7.2854 -4.0534 0.3188 0 1
-2.9482 -7.1740 -3.9223 0.3271 0 1
-2.5730 -7.0550 -3.7975 0.3379 0 1
-2.2160 -6.9297 -3.6791 0.3517 0 1
-1.8771 -6.8009 -3.5678 0.3627 0 1
-1.5547 -6.6672 -3.4620 0.3738 0 1
-1.2482 -6.5292 -3.3616 0.3849 0 1
-0.9566 -6.3864 -3.2656 0.3952 0 1
-0.6795 -6.2395 -3.1739 0.4065 0 1
-0.4165 -6.0902 -3.0869 0.4179 0 1
-0.1668 -5.9391 -3.0045 0.4294 0 1
0.0702 -5.7862 -2.9263 0.4393 0 1
0.2951 -5.6320 -2.8520 0.4507 0 1
0.5083 -5.4770 -2.7816 0.4621 0 1
0.7106 -5.3216 -2.7150 0.4737 0 1
0.9025 -5.1658 -2.6519 0.4849 0 1
1.0844 -5.0099 -2.5922 0.4961 0 1
1.2566 -4.8531 -2.5351 0.5075 0 1
1.4196 -4.6960 -2.4809 0.5186 0 1
1.5740 -4.5393 -2.4296 0.5295 0 1
1.7201 -4.3831 -2.3811 0.5403 0 1
1.8469 -4.2012 -2.3207 0.5500 0 24
1.9751 -4.0434 -2.2756 0.5610 0 24
2.0989 -3.8919 -2.2361 0.5779 0 1
2.2136 -3.7367 -2.1963 0.5884 0 1
2.3218 -3.5826 -2.1589 0.5986 0 1
2.4237 -3.4296 -2.1237 0.6085 0 1
2.5198 -3.2776 -2.0907 0.6181 0 1
2.6102 -3.1266 -2.0597 0.6274 0 1
2.6952 -2.9766 -2.0306 0.6364 0 1
2.7750 -2.8275 -2.0034 0.6450 0 1
2.8499 -2.6793 -1.9781 0.6533 0 1
2.9199 -2.5319 -1.9544 0.6574 0 1
2.9849 -2.3850 -1.9321 0.6650 0 1
3.0455 -2.2389 -1.9115 0.6722 0 1
3.1023 -2.0940 -1.8927 0.6835 0 1
3.1560 -1.9503 -1.8761 0.6895 0 1
3.2057 -1.8072 -1.8609 0.6951 0 1
3.2515 -1.6644 -1.8472 0.7003 0 1
3.2935 -1.5221 -1.8347 0.7051 0 1
3.3317 -1.3801 -1.8237 0.7093 0 1
3.3663 -1.2384 -1.8139 0.7132 0 1
3.3976 -1.0970 -1.8055 0.7087 0 1
3.4256 -0.9558 -1.7985 0.7115 0 1
3.4501 -0.8147 -1.7927 0.7138 0 1
3.4711 -0.6736 -1.7881 0.7156 0 1
3.4888 -0.5326 -1.7847 0.7170 0 1
3.5030 -0.3914 -1.7824 0.7179 0 1
3.5138 -0.2501 -1.7814 0.7183 0 1
3.5212 -0.1087 -1.7815 0.7183 0 1
3.5265 0.0329 -1.7834 0.7167 0 1
3.5284 0.1750 -1.7865 0.7049 0 1
3.5247 0.3172 -1.7896 0.7037 0 1
3.5175 0.4597 -1.7939 0.7020 0 1
3.5068 0.6025 -1.7993 0.6999 0 1
3.4925 0.7457 -1.8059 0.6973 0 1
3.4746 0.8893 -1.8137 0.6943 0 1
3.4531 1.0334 -1.8227 0.6909 0 1
3.4278 1.1779 -1.8329 0.6870 0 1
3.3988 1.3229 -1.8444 0.6828 0 1
3.3659 1.4685 -1.8571 0.6781 0 1
3.3291 1.6147 -1.8711 0.6845 0 1
3.2891 1.7620 -1.8869 0.6788 0 1
3.2450 1.9101 -1.9041 0.6726 0 1
3.1966 2.0589 -1.9228 0.6660 0 1
3.1423 2.2076 -1.9420 0.6530 0 1
3.0851 2.3581 -1.9636 0.6458 0 1
3.0232 2.5095 -1.9869 0.6382 0 1
2.9564 2.6619 -2.0118 0.6303 0 1
2.8846 2.8153 -2.0383 0.6221 0 1
2.8077 2.9697 -2.0667 0.6136 0 1
2.7253 3.1252 -2.0969 0.6048 0 1
2.6372 3.2817 -2.1290 0.5956 0 1
2.5433 3.4392 -2.1631 0.5862 0 1
2.4429 3.5975 -2.1990 0.5812 0 1
2.3341 3.7535 -2.2352 0.5718 0 1
2.2187 3.9102 -2.2735 0.5622 0 1
2.0965 4.0675 -2.3140 0.5524 0 1
1.9552 4.1997 -2.3426 0.5439 0 24
1.8198 4.3587 -2.3886 0.5335 0 24
1.6766 4.5184 -2.4371 0.5228 0 24
1.5324 4.7013 -2.5005 0.5117 0 1
1.3708 4.8604 -2.5537 0.5015 0 1
1.2001 5.0193 -2.6098 0.4907 0 1
1.0200 5.1782 -2.6689 0.4800 0 1
0.8302 5.3384 -2.7321 0.4689 0 1
0.6299 5.4984 -2.7987 0.4578 0 1
0.4187 5.6578 -2.8689 0.4466 0 1
0.1959 5.8164 -2.9430 0.4353 0 1
-0.0390 5.9670 -3.0175 0.4233 0 24
-0.2867 6.1287 -3.1026 0.4137 0 1
-0.5476 6.2822 -3.1889 0.4025 0 1
-0.8225 6.4333 -3.2797 0.3914 0 1
-1.1119 6.5815 -3.3754 0.3803 0 1
-1.4160 6.7234 -3.4746 0.3729 0 1
-1.7350 6.8585 -3.5775 0.3618 0 1
-2.0700 6.9882 -3.6856 0.3512 0 1
-2.4215 7.1117 -3.7991 0.3407 0 1
-2.7901 7.2280 -3.9180 0.3304 0 1
-3.1763 7.3362 -4.0426 0.3203 0 1
-3.5804 7.4347 -4.1729 0.3105 0 1
-4.0027 7.5223 -4.3090 0.3007 0 1
-4.4436 7.5978 -4.4510 0.2911 0 1
-4.9034 7.6598 -4.5992 0.2788 0 1
-5.3840 7.7095 -4.7552 0.2696 0 1
-5.8819 7.7401 -4.9161 0.2631 0 1
-6.3954 7.7484 -5.0806 0.2546 0 1
-6.9259 7.7354 -5.2506 0.2463 0 1
-13.8517 -4.3997 -7.5529 0.1668 0 1
-13.3229 -4.8294 -7.3646 0.1698 0 24
-12.8362 -5.2459 -7.2064 0.1739 0 1
-12.2438 -5.5881 -6.9943 0.1797 0 24
-11.7266 -5.9327 -6.8297 0.1884 0 1
-11.1531 -6.2178 -6.6360 0.1942 0 1
-10.5726 -6.4644 -6.4401 0.2002 0 1
-9.9919 -6.6755 -6.2449 0.2140 0 1
-9.4289 -6.8631 -6.0607 0.2205 0 1
-8.8689 -7.0177 -5.8774 0.2253 0 1
-8.3145 -7.1408 -5.6958 0.2325 0 1
-7.7689 -7.2348 -5.5170 0.2373 0 1
-7.2306 -7.2976 -5.3388 0.2452 0 1
-6.7063 -7.3361 -5.1654 0.2535 0 1
-6.1981 -7.3530 -4.9977 0.2639 0 1
-5.7069 -7.3508 -4.8362 0.2727 0 1
-5.2307 -7.3274 -4.6786 0.2799 0 1
-4.7714 -7.2866 -4.5264 0.2893 0 1
-4.3302 -7.2312 -4.3802 0.2990 0 1
-3.8965 -7.1437 -4.2288 0.3107 0 24
-3.5036 -7.0868 -4.1084 0.3214 0 1
-3.1153 -6.9960 -3.9799 0.3294 0 1
-2.7436 -6.8944 -3.8562 0.3400 0 1
-2.3889 -6.7853 -3.7384 0.3537 0 1
-2.0515 -6.6716 -3.6274 0.3645 0 1
-1.7297 -6.5519 -3.5216 0.3755 0 1
-1.4231 -6.4271 -3.4210 0.3865 0 1
-1.1311 -6.2978 -3.3253 0.3976 0 1
-0.8528 -6.1627 -3.2332 0.4079 0 1
-0.5880 -6.0241 -3.1455 0.4191 0 1
-0.3362 -5.8830 -3.0623 0.4290 0 1
-0.0967 -5.7270 -2.9767 0.4425 0 24
0.1302 -5.5815 -2.9014 0.4539 0 24
0.3465 -5.4470 -2.8364 0.4631 0 1
0.5517 -5.2991 -2.7687 0.4746 0 1
0.7465 -5.1504 -2.7046 0.4859 0 1
0.9315 -5.0012 -2.6437 0.4971 0 1
1.1071 -4.8515 -2.5861 0.5082 0 1
1.2734 -4.7006 -2.5309 0.5194 0 1
1.4310 -4.5493 -2.4784 0.5304 0 1
1.5804 -4.3982 -2.4288 0.5413 0 1
1.7207 -4.2442 -2.3800 0.5329 0 1
1.8441 -4.0707 -2.3224 0.5616 0 24
1.9685 -3.9181 -2.2787 0.5735 0 24
2.0893 -3.7724 -2.2411 0.5892 0 1
2.2006 -3.6219 -2.2024 0.5996 0 1
2.3057 -3.4722 -2.1661 0.6096 0 1
2.4049 -3.3234 -2.1319 0.6194 0 1
2.4983 -3.1755 -2.0998 0.6289 0 1
2.5862 -3.0284 -2.0696 0.6381 0 1
2.6689 -2.8821 -2.0413 0.6469 0 1
2.7465 -2.7366 -2.0149 0.6554 0 1
2.8192 -2.5917 -1.9901 0.6597 0 1
2.8870 -2.4474 -1.9669 0.6675 0 1
2.9502 -2.3037 -1.9453 0.6749 0 1
3.0091 -2.1608 -1.9252 0.6820 0 1
3.0651 -2.0193 -1.9075 0.6930 0 1
3.1172 -1.8785 -1.8914 0.6989 0 1
3.1654 -1.7381 -1.8767 0.7044 0 1
3.2098 -1.5980 -1.8634 0.7094 0 1
3.2504 -1.4583 -1.8514 0.7140 0 1
3.2873 -1.3188 -1.8407 0.7181 0 1
3.3207 -1.1796 -1.8314 0.7218 0 1
3.3505 -1.0405 -1.8233 0.7250 0 1
3.3769 -0.9016 -1.8164 0.7277 0 1
3.4001 -0.7629 -1.8109 0.7220 0 1
3.4200 -0.6241 -1.8067 0.7237 0 1
3.4365 -0.4853 -1.8036 0.7250 0 1
3.4496 -0.3464 -1.8017 0.7257 0 1
3.4594 -0.2074 -1.8010 0.7260 0 1
3.4657 -0.0682 -1.8014 0.7258 0 1
3.4705 0.0712 -1.8039 0.7133 0 1
3.4692 0.2109 -1.8063 0.7124 0 1
3.4645 0.3509 -1.8097 0.7111 0 1
3.4564 0.4911 -1.8143 0.7093 0 1
3.4447 0.6316 -1.8200 0.7070 0 1
3.4294 0.7725 -1.8269 0.7044 0 1
3.4106 0.9137 -1.8349 0.7013 0 1
3.3881 1.0554 -1.8442 0.6978 0 1
3.3620 1.1974 -1.8547 0.6938 0 1
3.3321 1.3400 -1.8664 0.7012 0 1
3.2990 1.4834 -1.8798 0.6962 0 1
3.2620 1.6275 -1.8945 0.6908 0 1
3.2211 1.7722 -1.9106 0.6850 0 1
3.1761 1.9177 -1.9281 0.6788 0 1
3.1262 2.0634 -1.9466 0.6722 0 1
3.0711 2.2092 -1.9660 0.6591 0 1
3.0129 2.3568 -1.9879 0.6518 0 1
2.9502 2.5052 -2.0114 0.6442 0 1
2.8826 2.6545 -2.0365 0.6363 0 1
2.8101 2.8046 -2.0633 0.6280 0 1
2.7324 2.9556 -2.0918 0.6195 0 1
2.6493 3.1075 -2.1222 0.6106 0 1
2.5606 3.2603 -2.1544 0.6015 0 1
2.4661 3.4140 -2.1887 0.5920 0 1
2.3648 3.5677 -2.2244 0.5872 0 1
2.2556 3.7195 -2.2606 0.5778 0 1
2.1400 3.8717 -2.2990 0.5681 0 1
2.0051 3.9994 -2.3250 0.5600 0 24
1.8882 4.1774 -2.3824 0.5482 0 1
1.7419 4.3069 -2.4144 0.5393 0 24
1.5988 4.4613 -2.4629 0.5287 0 24
1.4544 4.6373 -2.5257 0.5177 0 1
1.2934 4.7905 -2.5787 0.5075 0 1
1.1236 4.9432 -2.6344 0.4967 0 1
0.9447 5.0961 -2.6935 0.4860 0 1
0.7563 5.2493 -2.7562 0.4750 0 1
0.5578 5.4019 -2.8222 0.4639 0 1
0.3486 5.5535 -2.8917 0.4527 0 1
0.1282 5.7038 -2.9649 0.4415 0 1
-0.1036 5.8460 -3.0386 0.4284 0 24
-0.3475 5.9920 -3.1192 0.4192 0 24
-0.6047 6.1421 -3.2074 0.4089 0 1
-0.8748 6.2829 -3.2966 0.3979 0 1
-1.1587 6.4202 -3.3904 0.3869 0 1
-1.4564 6.5510 -3.4876 0.3796 0 1
-1.7680 6.6742 -3.5881 0.3690 0 1
-2.0946 6.7914 -3.6935 0.3581 0 1
-2.4366 6.9020 -3.8038 0.3478 0 1
-2.7944 7.0048 -3.9193 0.3375 0 1
-3.1683 7.0988 -4.0399 0.3275 0 1
-3.5585 7.1827 -4.1658 0.3178 0 1
-3.9653 7.2551 -4.2968 0.3081 0 1
-4.3887 7.3149 -4.4332 0.2986 0 1
-4.8288 7.3607 -4.5749 0.2894 0 1
-5.2860 7.3917 -4.7226 0.2774 0 1
-5.7603 7.4065 -4.8761 0.2710 0 1
-6.2468 7.3982 -5.0320 0.2626 0 1
-6.7475 7.3687 -5.1924 0.2545 0 1
-7.2611 7.3161 -5.3568 0.2467 0 1
-7.7843 7.2368 -5.5235 0.2422 0 1
-8.3303 7.1422 -5.7025 0.2258 0 1
-8.8917 7.0236 -5.8886 0.2187 0 1
-9.4602 6.8737 -6.0771 0.2119 0 1
-10.0341 6.6915 -6.2678 0.2080 0 1
-10.6145 6.4777 -6.4623 0.1983 0 1
-11.1940 6.2282 -6.6572 0.1925 0 1
-11.7109 5.9124 -6.8177 0.1842 0 24
-12.3200 5.6104 -7.0352 0.1826 0 1
-12.8635 5.2443 -7.2192 0.1751 0 1
-13.3799 4.8373 -7.3938 0.1714 0 1
-13.8125 4.3745 -7.5296 0.1676 0 24
-14.3065 3.9056 -7.7070 0.1657 0 1
-14.6998 3.3845 -7.8392 0.1603 0 1
-15.0446 2.8325 -7.9558 0.1579 0 1
-15.2686 2.2435 -8.0201 0.1573 0 24
-15.5408 1.6485 -8.1216 0.1560 0 1
-15.6896 1.0288 -8.1712 0.1555 0 1
-15.7083 0.3971 -8.1660 0.1549 0 24
-15.7723 -0.2355 -8.1976 0.1550 0 1
-15.7095 -0.8671 -8.1765 0.1554 0 1
-15.5754 -1.4895 -8.1312 0.1566 0 1
-15.3177 -2.0891 -8.0341 0.1578 0 24
-15.1122 -2.6837 -7.9765 0.1595 0 1
-14.7913 -3.2449 -7.8696 0.1617 0 1
-14.4147 -3.7754 -7.7438 0.1619 0 1
-13.9811 -4.2693 -7.5970 0.1658 0 1
-13.5023 -4.7243 -7.4341 0.1695 0 1
-12.9858 -5.1382 -7.2576 0.1727 0 1
-12.4398 -5.5103 -7.0707 0.1773 0 1
-11.8841 -5.8464 -6.8829 0.1869 0 1
-11.3136 -6.1424 -6.6902 0.1927 0 1
-10.7345 -6.3996 -6.4947 0.1985 0 1
-10.1517 -6.6193 -6.2981 0.2046 0 1
-9.5505 -6.7895 -6.0896 0.2176 0 24
-9.0244 -6.9781 -5.9284 0.2233 0 1
-8.4678 -7.1095 -5.7460 0.2304 0 1
-7.9200 -7.2117 -5.5666 0.2379 0 1
-7.3790 -7.2827 -5.3879 0.2430 0 1
-6.8507 -7.3278 -5.2132 0.2512 0 1
-6.3376 -7.3502 -5.0436 0.2615 0 1
-5.8419 -7.3533 -4.8806 0.2703 0 1
-5.3616 -7.3359 -4.7221 0.2773 0 1
-4.8974 -7.2995 -4.5681 0.2867 0 1
-4.4512 -7.2480 -4.4203 0.2963 0 1
-4.0236 -7.1843 -4.2793 0.3086 0 1
-3.6143 -7.1096 -4.1448 0.3186 0 1
-3.2218 -7.0227 -4.0154 0.3265 0 1
-2.8452 -6.9234 -3.8900 0.3371 0 1
-2.4859 -6.8162 -3.7705 0.3477 0 1
-2.1438 -6.7038 -3.6577 0.3615 0 1
-1.8177 -6.5858 -3.5505 0.3724 0 1
-1.5069 -6.4623 -3.4485 0.3834 0 1
-1.2109 -6.3342 -3.3514 0.3945 0 1
-0.9288 -6.2007 -3.2584 0.4047 0 1
-0.6603 -6.0630 -3.1695 0.4159 0 1
-0.4050 -5.9225 -3.0850 0.4273 0 1
-0.1623 -5.7794 -3.0047 0.4372 0 1
0.0684 -5.6344 -2.9284 0.4486 0 1
0.2868 -5.4753 -2.8494 0.4619 0 24
0.4956 -5.3403 -2.7872 0.4713 0 1
0.6933 -5.1918 -2.7221 0.4828 0 1
0.8810 -5.0428 -2.6603 0.4940 0 1
1.0591 -4.8932 -2.6018 0.5051 0 1
1.2280 -4.7427 -2.5460 0.5163 0 1
1.3880 -4.5914 -2.4927 0.5274 0 1
1.5396 -4.4402 -2.4423 0.5383 0 1
1.6832 -4.2890 -2.3944 0.5297 0 1
1.8082 -4.1132 -2.3350 0.5587 0 24
1.9346 -3.9605 -2.2906 0.5705 0 24
2.0572 -3.8144 -2.2522 0.5863 0 1
2.1703 -3.6637 -2.2130 0.5967 0 1
2.2771 -3.5138 -2.1760 0.6069 0 1
2.3779 -3.3647 -2.1412 0.6167 0 1
2.4728 -3.2165 -2.1085 0.6263 0 1
2.5623 -3.0692 -2.0778 0.6355 0 1
2.6464 -2.9227 -2.0490 0.6445 0 1
2.7254 -2.7770 -2.0221 0.6531 0 1
2.7996 -2.6320 -1.9969 0.6575 0 1
2.8686 -2.4874 -1.9732 0.6654 0 1
2.9331 -2.3436 -1.9511 0.6729 0 1
2.9931 -2.2005 -1.9306 0.6801 0 1
3.0498 -2.0586 -1.9122 0.6913 0 1
3.1031 -1.9176 -1.8957 0.6973 0 1
3.1524 -1.7771 -1.8807 0.7029 0 1
3.1978 -1.6370 -1.8670 0.7080 0 1
3.2395 -1.4971 -1.8546 0.7127 0 1
3.2774 -1.3576 -1.8436 0.7170 0 1
3.3118 -1.2183 -1.8339 0.7208 0 1
3.3426 -1.0792 -1.8254 0.7242 0 1
3.3699 -0.9403 -1.8182 0.7270 0 1
3.3940 -0.8015 -1.8123 0.7215 0 1
3.4148 -0.6627 -1.8078 0.7233 0 1
3.4323 -0.5239 -1.8044 0.7247 0 1
3.4463 -0.3851 -1.8021 0.7256 0 1
3.4570 -0.2461 -1.8011 0.7260 0 1
3.4643 -0.1070 -1.8012 0.7259 0 1
3.4694 0.0324 -1.8031 0.7244 0 1
3.4699 0.1721 -1.8055 0.7127 0 1
3.4662 0.3119 -1.8086 0.7115 0 1
3.4590 0.4521 -1.8129 0.7098 0 1
3.4483 0.5925 -1.8183 0.7077 0 1
3.4340 0.7332 -1.8249 0.7052 0 1
3.4162 0.8744 -1.8326 0.7022 0 1
3.3948 1.0159 -1.8415 0.6988 0 1
3.3696 1.1579 -1.8516 0.6950 0 1
3.3407 1.3003 -1.8630 0.6907 0 1
3.3086 1.4435 -1.8759 0.6977 0 1
3.2727 1.5873 -1.8903 0.6924 0 1
3.2329 1.7319 -1.9060 0.6867 0 1
3.1891 1.8771 -1.9231 0.6806 0 1
3.1408 2.0230 -1.9415 0.6740 0 1
3.0865 2.1683 -1.9603 0.6675 0 1
3.0296 2.3156 -1.9817 0.6539 0 1
2.9681 2.4638 -2.0047 0.6464 0 1
2.9019 2.6129 -2.0293 0.6385 0 1
2.8308 2.7628 -2.0556 0.6304 0 1
2.7545 2.9135 -2.0837 0.6219 0 1
2.6730 3.0652 -2.1135 0.6131 0 1
2.5858 3.2177 -2.1453 0.6040 0 1
2.4930 3.3712 -2.1790 0.5947 0 1
2.3940 3.5255 -2.2147 0.5898 0 1
2.2866 3.6772 -2.2503 0.5804 0 1
2.1729 3.8293 -2.2881 0.5708 0 1
2.0524 3.9819 -2.3280 0.5610 0 1
1.9135 4.1102 -2.3562 0.5526 0 24
1.7803 4.2641 -2.4014 0.5422 0 24
1.6394 4.4183 -2.4491 0.5316 0 24
1.4977 4.5947 -2.5114 0.5206 0 1
1.3391 4.7479 -2.5637 0.5100 0 1
1.1717 4.9007 -2.6186 0.4997 0 1
0.9954 5.0534 -2.6766 0.4891 0 1
0.8097 5.2068 -2.7384 0.4781 0 1
0.6140 5.3595 -2.8035 0.4670 0 1
0.4079 5.5114 -2.8720 0.4558 0 1
0.1907 5.6621 -2.9442 0.4446 0 1
-0.0380 5.8111 -3.0200 0.4343 0 1
-0.2784 5.9520 -3.0965 0.4223 0 24
-0.5320 6.1024 -3.1833 0.4120 0 1
-0.7983 6.2440 -3.2714 0.4009 0 1
-1.0783 6.3824 -3.3639 0.3899 0 1
-1.3721 6.5153 -3.4602 0.3802 0 1
-1.6799 6.6405 -3.5597 0.3719 0 1
-2.0022 6.7595 -3.6637 0.3614 0 1
-2.3399 6.8720 -3.7726 0.3506 0 1
-2.6932 6.9771 -3.8866 0.3403 0 1
-3.0626 7.0736 -4.0058 0.3302 0 1
-3.4483 7.1606 -4.1303 0.3205 0 1
-3.8505 7.2362 -4.2598 0.3108 0 1
-4.2692 7.2997 -4.3947 0.3012 0 1
-4.7047 7.3495 -4.5350 0.2919 0 1
-5.1568 7.3842 -4.6806 0.2799 0 1
-5.6272 7.4048 -4.8333 0.2711 0 1
-6.1100 7.4026 -4.9882 0.2649 0 1
-6.6069 7.3792 -5.1473 0.2568 0 1
-12.9292 -4.1067 -7.2420 0.1777 0 1
-12.4886 -4.5270 -7.0914 0.1805 0 1
-12.0221 -4.9131 -6.9332 0.1902 0 1
-11.4840 -5.2414 -6.7390 0.1899 0 24
-11.0293 -5.5799 -6.5985 0.1992 0 1
-10.5081 -5.8582 -6.4225 0.2046 0 1
-9.9813 -6.1029 -6.2455 0.2165 0 1
-9.4620 -6.3215 -6.0748 0.2226 0 1
-8.9413 -6.5082 -5.9038 0.2290 0 1
-8.4224 -6.6645 -5.7336 0.2358 0 1
-7.9082 -6.7919 -5.5650 0.2430 0 1
-7.3972 -6.8885 -5.3961 0.2478 0 1
-6.8952 -6.9592 -5.2299 0.2557 0 1
-6.4060 -7.0077 -5.0685 0.2658 0 1
-5.9299 -7.0350 -4.9118 0.2742 0 1
-5.4670 -7.0418 -4.7591 0.2810 0 1
-5.0170 -7.0281 -4.6098 0.2901 0 1
-4.5826 -6.9983 -4.4657 0.2995 0 1
-4.1652 -6.9557 -4.3281 0.3116 0 1
-3.7638 -6.9003 -4.1961 0.3214 0 1
-3.3782 -6.8333 -4.0693 0.3314 0 1
-3.0066 -6.7519 -3.9457 0.3394 0 1
-2.6507 -6.6611 -3.8272 0.3499 0 1
-2.3111 -6.5641 -3.7150 0.3635 0 1
-1.9799 -6.4388 -3.5962 0.3732 0 24
-1.6765 -6.3504 -3.5063 0.3851 0 1
-1.3806 -6.2349 -3.4091 0.3961 0 1
-1.0982 -6.1146 -3.3165 0.4072 0 1
-0.8286 -5.9879 -3.2271 0.4172 0 1
-0.5717 -5.8576 -3.1419 0.4270 0 1
-0.3271 -5.7242 -3.0608 0.4383 0 1
-0.0942 -5.5771 -2.9777 0.4519 0 24
0.1271 -5.4502 -2.9103 0.4610 0 1
0.3378 -5.3105 -2.8407 0.4723 0 1
0.5382 -5.1694 -2.7746 0.4837 0 1
0.7286 -5.0273 -2.7118 0.4949 0 1
0.9097 -4.8842 -2.6523 0.5060 0 1
1.0817 -4.7405 -2.5957 0.5170 0 1
1.2449 -4.5955 -2.5417 0.5282 0 1
1.3997 -4.4496 -2.4901 0.5392 0 1
1.5464 -4.3037 -2.4413 0.5499 0 1
1.6834 -4.1522 -2.3919 0.5415 0 1
1.8061 -3.9867 -2.3365 0.5709 0 24
1.9288 -3.8390 -2.2935 0.5819 0 24
2.0483 -3.6983 -2.2569 0.5976 0 1
2.1581 -3.5519 -2.2188 0.6078 0 1
2.2619 -3.4063 -2.1828 0.6178 0 1
2.3599 -3.2613 -2.1490 0.6276 0 1
2.4522 -3.1170 -2.1172 0.6370 0 1
2.5392 -2.9734 -2.0874 0.6461 0 1
2.6211 -2.8304 -2.0594 0.6549 0 1
2.6979 -2.6881 -2.0331 0.6595 0 1
2.7696 -2.5461 -2.0084 0.6676 0 1
2.8368 -2.4048 -1.9853 0.6754 0 1
2.8995 -2.2641 -1.9639 0.6828 0 1
2.9579 -2.1240 -1.9440 0.6944 0 1
3.0137 -1.9855 -1.9266 0.7007 0 1
3.0654 -1.8473 -1.9106 0.7066 0 1
3.1132 -1.7094 -1.8960 0.7120 0 1
3.1572 -1.5718 -1.8828 0.7170 0 1
3.1975 -1.4346 -1.8709 0.7216 0 1
3.2341 -1.2975 -1.8603 0.7257 0 1
3.2672 -1.1606 -1.8509 0.7293 0 1
3.2968 -1.0238 -1.8429 0.7325 0 1
3.3229 -0.8872 -1.8361 0.7353 0 1
3.3456 -0.7506 -1.8304 0.7375 0 1
3.3650 -0.6141 -1.8260 0.7393 0 1
3.3811 -0.4775 -1.8229 0.7325 0 1
3.3941 -0.3409 -1.8210 0.7333 0 1
3.4037 -0.2041 -1.8203 0.7336 0 1
3.4100 -0.0671 -1.8207 0.7334 0 1
3.4134 0.0701 -1.8226 0.7210 0 1
3.4121 0.2075 -1.8249 0.7201 0 1
3.4073 0.3451 -1.8283 0.7188 0 1
3.3991 0.4830 -1.8328 0.7170 0 1
3.3875 0.6211 -1.8385 0.7148 0 1
3.3723 0.7596 -1.8454 0.7121 0 1
3.3535 0.8984 -1.8534 0.7091 0 1
3.3314 1.0377 -1.8627 0.7176 0 1
3.3058 1.1775 -1.8734 0.7135 0 1
3.2766 1.3177 -1.8854 0.7089 0 1
3.2437 1.4586 -1.8986 0.7040 0 1
3.2069 1.6000 -1.9133 0.6986 0 1
3.1663 1.7420 -1.9292 0.6928 0 1
3.1216 1.8847 -1.9466 0.6866 0 1
3.0718 2.0275 -1.9648 0.6801 0 1
3.0167 2.1701 -1.9838 0.6736 0 1
2.9589 2.3145 -2.0054 0.6599 0 1
2.8967 2.4598 -2.0287 0.6523 0 1
2.8297 2.6057 -2.0535 0.6444 0 1
2.7578 2.7524 -2.0800 0.6362 0 1
2.6809 2.8999 -2.1083 0.6277 0 1
2.5986 3.0481 -2.1383 0.6189 0 1
2.5109 3.1971 -2.1702 0.6098 0 1
2.4175 3.3468 -2.2040 0.6004 0 1
2.3176 3.4965 -2.2394 0.5956 0 1
2.2100 3.6441 -2.2752 0.5863 0 1
2.0960 3.7920 -2.3130 0.5767 0 1
1.9634 3.9161 -2.3386 0.5686 0 24
1.8374 4.0649 -2.3814 0.5584 0 24
1.7134 4.2366 -2.4396 0.5468 0 1
1.5714 4.3848 -2.4866 0.5364 0 1
1.4151 4.5121 -2.5245 0.5268 0 24
1.2637 4.6803 -2.5880 0.5164 0 1
1.0972 4.8271 -2.6426 0.5057 0 1
0.9221 4.9740 -2.7006 0.4951 0 1
0.7378 5.1207 -2.7619 0.4841 0 1
0.5438 5.2664 -2.8264 0.4730 0 1
0.3396 5.4109 -2.8943 0.4619 0 1
0.1249 5.5538 -2.9656 0.4508 0 1
-0.1008 5.6876 -3.0368 0.4375 0 24
-0.3383 5.8327 -3.1190 0.4295 0 1
-0.5866 5.9583 -3.1962 0.4194 0 24
-0.8493 6.1000 -3.2878 0.4074 0 1
-1.1240 6.2282 -3.3786 0.3965 0 1
-1.4117 6.3500 -3.4726 0.3869 0 1
-1.7125 6.4647 -3.5702 0.3787 0 1
-2.0270 6.5722 -3.6716 0.3683 0 1
-2.3556 6.6727 -3.7776 0.3579 0 1
-2.6988 6.7652 -3.8883 0.3477 0 1
-3.0567 6.8488 -4.0038 0.3374 0 1
-3.4295 6.9223 -4.1241 0.3276 0 1
-3.8172 6.9841 -4.2490 0.3182 0 1
-4.2198 7.0333 -4.3786 0.3088 0 1
-4.6372 7.0686 -4.5131 0.2996 0 1
-5.0691 7.0885 -4.6522 0.2906 0 1
-5.5156 7.0920 -4.7962 0.2790 0 1
-5.9747 7.0759 -4.9439 0.2730 0 1
-6.4446 7.0379 -5.0944 0.2649 0 1
-6.9253 6.9778 -5.2482 0.2572 0 1
-7.4152 6.8937 -5.4050 0.2497 0 1
-7.9129 6.7843 -5.5643 0.2471 0 1
-8.4339 6.6620 -5.7376 0.2321 0 1
-8.9607 6.5108 -5.9130 0.2252 0 1
-9.4902 6.3287 -6.0895 0.2187 0 1
-10.0154 6.1121 -6.2636 0.2132 0 1
-10.5417 5.8653 -6.4400 0.2032 0 1
-11.0617 5.5846 -6.6151 0.1978 0 1
-11.5112 5.2420 -6.7523 0.1909 0 24
-12.0492 4.9124 -6.9464 0.1889 0 1
-12.5107 4.5231 -7.1018 0.1822 0 1
-12.9448 4.0997 -7.2488 0.1787 0 1
-13.3433 3.6427 -7.3839 0.1755 0 1
-13.6967 3.1536 -7.5032 0.1738 0 1
-13.9989 2.6356 -7.6045 0.1715 0 1
-14.2486 2.0936 -7.6882 0.1695 0 1
-14.4395 1.5317 -7.7517 0.1681 0 1
-14.5707 0.9554 -7.7952 0.1660 0 1
-14.5870 0.3687 -7.7897 0.1659 0 24
-14.6471 -0.2187 -7.8201 0.1660 0 1
-14.5914 -0.8053 -7.8014 0.1664 0 1
-14.4733 -1.3841 -7.7617 0.1673 0 1
-14.2947 -1.9496 -7.7018 0.1686 0 1
-14.0560 -2.4961 -7.6211 0.1680 0 1
-13.7665 -3.0201 -7.5239 0.1702 0 1
-13.3817 -3.5049 -7.3847 0.1735 0 24
-13.0445 -3.9833 -7.2812 0.1758 0 1
-12.6154 -4.4140 -7.1350 0.1794 0 1
-12.1530 -4.8087 -6.9772 0.1890 0 1
-11.6741 -5.1711 -6.8162 0.1935 0 1
-11.1722 -5.4962 -6.6468 0.1977 0 1
-10.6541 -5.7843 -6.4718 0.2031 0 1
-10.1267 -6.0372 -6.2939 0.2088 0 1
-9.5725 -6.2416 -6.1006 0.2216 0 24
-9.0861 -6.4594 -5.9514 0.2272 0 1
-8.5664 -6.6240 -5.7808 0.2339 0 1
-8.0507 -6.7592 -5.6117 0.2410 0 1
-7.5387 -6.8645 -5.4429 0.2457 0 1
-7.0338 -6.9420 -5.2757 0.2534 0 1
-6.5408 -6.9963 -5.1129 0.2635 0 1
-6.0610 -7.0294 -4.9549 0.2719 0 1
-5.5949 -7.0424 -4.8016 0.2805 0 1
-5.1406 -7.0336 -4.6508 0.2876 0 1
-4.7019 -7.0081 -4.5053 0.2969 0 1
-4.2797 -6.9688 -4.3658 0.3089 0 1
-3.8624 -6.8964 -4.2197 0.3181 0 24
-3.4839 -6.8530 -4.1041 0.3286 0 1
-3.1084 -6.7756 -3.9796 0.3365 0 1
-2.7481 -6.6872 -3.8596 0.3469 0 1
-2.4040 -6.5917 -3.7457 0.3605 0 1
-2.0754 -6.4899 -3.6374 0.3712 0 1
-1.7613 -6.3816 -3.5341 0.3821 0 1
-1.4615 -6.2675 -3.4356 0.3930 0 1
-1.1754 -6.1485 -3.3418 0.4041 0 1
-0.9023 -6.0235 -3.2515 0.4141 0 1
-0.6419 -5.8943 -3.1652 0.4238 0 1
-0.3940 -5.7616 -3.0829 0.4351 0 1
-0.1580 -5.6262 -3.0047 0.4465 0 1
0.0665 -5.4777 -2.9244 0.4599 0 24
0.2803 -5.3495 -2.8597 0.4691 0 1
0.4834 -5.2088 -2.7926 0.4806 0 1
0.6766 -5.0669 -2.7289 0.4918 0 1
0.8602 -4.9241 -2.6685 0.5029 0 1
1.0347 -4.7805 -2.6112 0.5140 0 1
1.2004 -4.6360 -2.5565 0.5252 0 1
1.3574 -4.4902 -2.5042 0.5361 0 1
1.5064 -4.3443 -2.4546 0.5469 0 1
1.6465 -4.1955 -2.4061 0.5383 0 1
1.7708 -4.0279 -2.3489 0.5672 0 24
1.8984 -3.8864 -2.3090 0.5841 0 1
2.0130 -3.7326 -2.2639 0.5904 0 24
2.1282 -3.5926 -2.2291 0.6050 0 1
2.2337 -3.4467 -2.1926 0.6151 0 1
2.3332 -3.3015 -2.1582 0.6249 0 1
2.4271 -3.1570 -2.1259 0.6344 0 1
2.5156 -3.0132 -2.0955 0.6436 0 1
2.5988 -2.8701 -2.0670 0.6525 0 1
2.6770 -2.7277 -2.0403 0.6572 0 1
2.7501 -2.5855 -2.0151 0.6654 0 1
2.8186 -2.4440 -1.9916 0.6733 0 1
2.8825 -2.3032 -1.9697 0.6807 0 1
2.9420 -2.1629 -1.9493 0.6879 0 1
2.9986 -2.0240 -1.9313 0.6990 0 1
3.0514 -1.8857 -1.9149 0.7050 0 1
3.1003 -1.7477 -1.8999 0.7105 0 1
3.1453 -1.6101 -1.8863 0.7157 0 1
3.1866 -1.4727 -1.8741 0.7203 0 1
3.2243 -1.3356 -1.8631 0.7246 0 1
3.2583 -1.1987 -1.8534 0.7284 0 1
3.2889 -1.0619 -1.8450 0.7317 0 1
3.3160 -0.9252 -1.8378 0.7345 0 1
3.3396 -0.7886 -1.8319 0.7369 0 1
3.3599 -0.6521 -1.8271 0.7388 0 1
3.3769 -0.5155 -1.8236 0.7323 0 1
3.3908 -0.3789 -1.8214 0.7331 0 1
3.4014 -0.2421 -1.8204 0.7336 0 1
3.4086 -0.1052 -1.8205 0.7335 0 1
3.4131 0.0319 -1.8221 0.7212 0 1
3.4128 0.1692 -1.8241 0.7204 0 1
3.4090 0.3068 -1.8272 0.7192 0 1
3.4018 0.4446 -1.8315 0.7176 0 1
3.3911 0.5827 -1.8368 0.7155 0 1
3.3768 0.7210 -1.8433 0.7129 0 1
3.3591 0.8598 -1.8510 0.7100 0 1
3.3378 0.9989 -1.8600 0.7186 0 1
3.3133 1.1385 -1.8703 0.7147 0 1
3.2851 1.2787 -1.8819 0.7102 0 1
3.2532 1.4193 -1.8948 0.7054 0 1
3.2176 1.5606 -1.9091 0.7001 0 1
3.1780 1.7025 -1.9246 0.6945 0 1
3.1344 1.8450 -1.9416 0.6884 0 1
3.0863 1.9879 -1.9598 0.6819 0 1
3.0324 2.1304 -1.9784 0.6755 0 1
2.9754 2.2742 -1.9993 0.6619 0 1
2.9145 2.4193 -2.0221 0.6545 0 1
2.8488 2.5651 -2.0465 0.6467 0 1
2.7783 2.7116 -2.0725 0.6385 0 1
2.7028 2.8588 -2.1002 0.6301 0 1
2.6220 3.0068 -2.1298 0.6214 0 1
2.5359 3.1556 -2.1611 0.6123 0 1
2.4440 3.3050 -2.1944 0.6031 0 1
2.3463 3.4553 -2.2297 0.5935 0 1
2.2405 3.6030 -2.2650 0.5889 0 1
2.1283 3.7508 -2.3023 0.5794 0 1
1.9972 3.8748 -2.3271 0.5714 0 24
1.8841 4.0471 -2.3832 0.5597 0 1
1.7420 4.1724 -2.4137 0.5509 0 24
1.6117 4.3436 -2.4733 0.5393 0 1
1.4572 4.4706 -2.5102 0.5298 0 24
1.3084 4.6393 -2.5733 0.5189 0 1
1.1444 4.7863 -2.6272 0.5087 0 1
0.9717 4.9331 -2.6841 0.4981 0 1
0.7900 5.0800 -2.7445 0.4871 0 1
0.5987 5.2260 -2.8081 0.4761 0 1
0.3975 5.3708 -2.8750 0.4650 0 1
0.1857 5.5142 -2.9454 0.4539 0 1
-0.0370 5.6558 -3.0194 0.4428 0 1
-0.2711 5.7945 -3.0967 0.4325 0 1
-0.5163 5.9221 -3.1735 0.4223 0 24
-0.7752 6.0636 -3.2634 0.4105 0 1
-1.0463 6.1929 -3.3529 0.3995 0 1
-1.3303 6.3168 -3.4462 0.3899 0 1
-1.6275 6.4337 -3.5428 0.3816 0 1
-1.9381 6.5430 -3.6430 0.3712 0 1
-2.2628 6.6455 -3.7477 0.3608 0 1
-2.6019 6.7403 -3.8571 0.3505 0 1
-2.9556 6.8265 -3.9712 0.3402 0 1
-3.3243 6.9029 -4.0901 0.3303 0 1
-3.7078 6.9681 -4.2137 0.3209 0 1
-4.1063 7.0210 -4.3421 0.3114 0 1
-4.5196 7.0603 -4.4752 0.3021 0 1
-4.9475 7.0846 -4.6130 0.2931 0 1
-5.3897 7.0924 -4.7554 0.2843 0 1
-5.8460 7.0828 -4.9027 0.2753 0 1
-6.3128 7.0507 -5.0522 0.2671 0 1
-12.1162 -3.8485 -6.9687 0.1925 0 1
-11.7274 -4.2511 -6.8379 0.1968 0 1
-11.3092 -4.6218 -6.6971 0.2010 0 1
-10.8667 -4.9596 -6.5479 0.2048 0 1
-10.4032 -5.2632 -6.3910 0.2099 0 1
-9.9304 -5.5361 -6.2323 0.2217 0 1
-9.4570 -5.7823 -6.0763 0.2274 0 1
-8.9776 -5.9979 -5.9185 0.2335 0 1
-8.4957 -6.1839 -5.7601 0.2396 0 1
-8.0142 -6.3415 -5.6021 0.2464 0 1
-7.5329 -6.4695 -5.4431 0.2507 0 1
-7.0561 -6.5709 -5.2854 0.2601 0 1
-6.5879 -6.6490 -5.1309 0.2680 0 1
-6.1292 -6.7048 -4.9796 0.2761 0 1
-5.6813 -6.7399 -4.8321 0.2845 0 1
-5.2433 -6.7536 -4.6868 0.2913 0 1
-4.8179 -6.7491 -4.5456 0.3003 0 1
-4.4073 -6.7305 -4.4101 0.3122 0 1
-4.0108 -6.6978 -4.2794 0.3217 0 1
-3.6284 -6.6520 -4.1536 0.3314 0 1
-3.2597 -6.5936 -4.0320 0.3390 0 1
-2.9041 -6.5217 -3.9134 0.3492 0 1
-2.5635 -6.4418 -3.8005 0.3627 0 1
-2.2373 -6.3545 -3.6929 0.3732 0 1
-1.9183 -6.2385 -3.5778 0.3831 0 24
-1.6259 -6.1587 -3.4917 0.3947 0 1
-1.3400 -6.0517 -3.3977 0.4057 0 1
-1.0667 -5.9395 -3.3079 0.4154 0 1
-0.8054 -5.8205 -3.2210 0.4251 0 1
-0.5561 -5.6978 -3.1382 0.4363 0 1
-0.3178 -5.5603 -3.0530 0.4505 0 24
-0.0917 -5.4332 -2.9787 0.4612 0 24
0.1239 -5.3122 -2.9128 0.4701 0 1
0.3295 -5.1792 -2.8448 0.4813 0 1
0.5252 -5.0445 -2.7802 0.4927 0 1
0.7114 -4.9085 -2.7188 0.5038 0 1
0.8887 -4.7713 -2.6605 0.5149 0 1
1.0572 -4.6332 -2.6050 0.5258 0 1
1.2174 -4.4938 -2.5521 0.5369 0 1
1.3693 -4.3531 -2.5015 0.5478 0 1
1.5135 -4.2121 -2.4535 0.5585 0 1
1.6472 -4.0631 -2.4033 0.5501 0 1
1.7692 -3.9053 -2.3502 0.5796 0 24
1.8937 -3.7691 -2.3122 0.5953 0 1
2.0044 -3.6192 -2.2679 0.6016 0 24
2.1168 -3.4839 -2.2346 0.6160 0 1
2.2193 -3.3420 -2.1991 0.6259 0 1
2.3161 -3.2007 -2.1657 0.6356 0 1
2.4074 -3.0599 -2.1342 0.6450 0 1
2.4934 -2.9197 -2.1047 0.6540 0 1
2.5743 -2.7799 -2.0769 0.6590 0 1
2.6501 -2.6405 -2.0507 0.6674 0 1
2.7212 -2.5016 -2.0262 0.6755 0 1
2.7877 -2.3632 -2.0033 0.6832 0 1
2.8498 -2.2253 -1.9820 0.6905 0 1
2.9081 -2.0883 -1.9626 0.7021 0 1
2.9634 -1.9523 -1.9453 0.7083 0 1
3.0146 -1.8167 -1.9294 0.7142 0 1
3.0620 -1.6813 -1.9149 0.7196 0 1
3.1057 -1.5462 -1.9018 0.7245 0 1
3.1456 -1.4113 -1.8899 0.7291 0 1
3.1820 -1.2766 -1.8794 0.7332 0 1
3.2148 -1.1420 -1.8701 0.7368 0 1
3.2441 -1.0075 -1.8621 0.7400 0 1
3.2700 -0.8731 -1.8553 0.7427 0 1
3.2925 -0.7387 -1.8497 0.7449 0 1
3.3117 -0.6043 -1.8454 0.7467 0 1
3.3276 -0.4699 -1.8422 0.7480 0 1
3.3402 -0.3354 -1.8402 0.7488 0 1
3.3494 -0.2008 -1.8394 0.7491 0 1
3.3555 -0.0660 -1.8397 0.7490 0 1
3.3575 0.0689 -1.8409 0.7411 0 1
3.3561 0.2041 -1.8431 0.7402 0 1
3.3514 0.3394 -1.8465 0.7388 0 1
3.3434 0.4750 -1.8511 0.7370 0 1
3.3319 0.6109 -1.8569 0.7347 0 1
3.3170 0.7472 -1.8638 0.7320 0 1
3.2987 0.8837 -1.8720 0.7288 0 1
3.2768 1.0207 -1.8814 0.7251 0 1
3.2514 1.1581 -1.8920 0.7211 0 1
3.2224 1.2959 -1.9039 0.7166 0 1
3.1896 1.4343 -1.9171 0.7116 0 1
3.1531 1.5731 -1.9316 0.7063 0 1
3.1126 1.7125 -1.9474 0.7005 0 1
3.0682 1.8525 -1.9647 0.6944 0 1
3.0186 1.9924 -1.9826 0.6880 0 1
2.9640 2.1322 -2.0015 0.6815 0 1
2.9062 2.2733 -2.0226 0.6678 0 1
2.8445 2.4154 -2.0456 0.6603 0 1
2.7781 2.5582 -2.0702 0.6525 0 1
2.7069 2.7016 -2.0964 0.6443 0 1
2.6307 2.8456 -2.1243 0.6358 0 1
2.5493 2.9903 -2.1540 0.6271 0 1
2.4625 3.1355 -2.1855 0.6180 0 1
2.3702 3.2813 -2.2189 0.6087 0 1
2.2718 3.4274 -2.2541 0.6040 0 1
2.1656 3.5710 -2.2893 0.5947 0 1
2.0532 3.7146 -2.3266 0.5852 0 1
1.9228 3.8353 -2.3518 0.5771 0 24
1.7988 3.9794 -2.3939 0.5670 0 24
1.6766 4.1455 -2.4512 0.5554 0 1
1.5370 4.2887 -2.4974 0.5452 0 1
1.3899 4.4316 -2.5459 0.5348 0 1
1.2349 4.5738 -2.5970 0.5248 0 1
1.0717 4.7151 -2.6506 0.5146 0 1
0.9003 4.8563 -2.7074 0.5040 0 1
0.7199 4.9969 -2.7674 0.4931 0 1
0.5303 5.1361 -2.8304 0.4821 0 1
0.3310 5.2739 -2.8967 0.4711 0 1
0.1216 5.4098 -2.9662 0.4601 0 1
-0.0981 5.5358 -3.0351 0.4466 0 24
-0.3291 5.6741 -3.1156 0.4388 0 1
-0.5712 5.8015 -3.1956 0.4278 0 1
-0.8231 5.9118 -3.2719 0.4183 0 24
-1.0910 6.0451 -3.3673 0.4060 0 1
-1.3691 6.1587 -3.4584 0.3966 0 1
-1.6598 6.2655 -3.5530 0.3860 0 1
-1.9629 6.3644 -3.6509 0.3780 0 1
-2.2791 6.4558 -3.7529 0.3677 0 1
-2.6086 6.5391 -3.8592 0.3576 0 1
-2.9515 6.6132 -3.9698 0.3476 0 1
-3.3081 6.6773 -4.0848 0.3379 0 1
-3.6783 6.7300 -4.2042 0.3296 0 1
-4.0616 6.7698 -4.3277 0.3202 0 1
-4.4582 6.7958 -4.4553 0.3110 0 1
-4.8677 6.8068 -4.5872 0.3021 0 1
-5.2895 6.8012 -4.7230 0.2934 0 1
-5.7230 6.7779 -4.8627 0.2886 0 1
-6.1659 6.7336 -5.0049 0.2804 0 1
-6.6183 6.6684 -5.1502 0.2725 0 1
-7.0787 6.5808 -5.2981 0.2649 0 1
-7.5454 6.4692 -5.4482 0.2576 0 1
-8.0195 6.3346 -5.6020 0.2426 0 1
-8.5075 6.1815 -5.7646 0.2358 0 1
-8.9531 5.9706 -5.8990 0.2297 0 24
-9.4816 5.7864 -6.0889 0.2239 0 1
-9.9580 5.5405 -6.2467 0.2182 0 1
-10.4300 5.2657 -6.4047 0.2086 0 1
-10.8903 4.9593 -6.5596 0.2041 0 1
-11.3301 4.6192 -6.7071 0.1997 0 1
-11.7484 4.2475 -6.8481 0.1963 0 1
-12.1364 3.8436 -6.9785 0.1939 0 1
-12.4907 3.4099 -7.0976 0.1863 0 1
-12.8113 2.9497 -7.2065 0.1835 0 1
-13.0848 2.4635 -7.2987 0.1824 0 1
-13.3078 1.9553 -7.3732 0.1804 0 1
-13.4298 1.4246 -7.4031 0.1791 0 24
-13.5962 0.8915 -7.4690 0.1781 0 1
-13.6087 0.3440 -7.4622 0.1776 0 24
-13.6633 -0.2040 -7.4906 0.1776 0 1
-13.6118 -0.7513 -7.4729 0.1780 0 1
-13.5060 -1.2916 -7.4374 0.1782 0 1
-13.3463 -1.8202 -7.3837 0.1795 0 1
-13.1327 -2.3322 -7.3115 0.1814 0 1
-12.8699 -2.8234 -7.2226 0.1837 0 1
-12.5632 -3.2905 -7.1190 0.1863 0 1
-12.2179 -3.7309 -7.0027 0.1915 0 1
-11.8390 -4.1423 -6.8756 0.1958 0 1
-11.4281 -4.5219 -6.7371 0.1998 0 1
-10.9927 -4.8693 -6.5905 0.2035 0 1
-10.5337 -5.1821 -6.4351 0.2084 0 1
-10.0605 -5.4621 -6.2752 0.2202 0 1
-9.5570 -5.6976 -6.0992 0.2259 0 24
-9.1114 -5.9409 -5.9625 0.2317 0 1
-8.6299 -6.1350 -5.8042 0.2378 0 1
-8.1480 -6.3004 -5.6460 0.2445 0 1
-7.6419 -6.4161 -5.4697 0.2520 0 24
-7.1879 -6.5450 -5.3289 0.2580 0 1
-6.7173 -6.6296 -5.1736 0.2658 0 1
-6.2558 -6.6914 -5.0213 0.2738 0 1
-5.7850 -6.7093 -4.8562 0.2812 0 24
-5.3640 -6.7518 -4.7270 0.2888 0 1
-4.9349 -6.7520 -4.5844 0.2978 0 1
-4.5201 -6.7371 -4.4473 0.3095 0 1
-4.1197 -6.7082 -4.3153 0.3190 0 1
-3.7333 -6.6660 -4.1881 0.3287 0 1
-3.3612 -6.6116 -4.0657 0.3386 0 1
-3.0016 -6.5427 -3.9459 0.3464 0 1
-2.6567 -6.4646 -3.8313 0.3597 0 1
-2.3266 -6.3796 -3.7224 0.3703 0 1
-2.0036 -6.2655 -3.6059 0.3800 0 24
-1.7078 -6.1874 -3.5186 0.3917 0 1
-1.4183 -6.0820 -3.4234 0.4026 0 1
-1.1415 -5.9713 -3.3326 0.4136 0 1
-0.8769 -5.8540 -3.2448 0.4220 0 1
-0.6243 -5.7323 -3.1609 0.4332 0 1
-0.3826 -5.5950 -3.0742 0.4476 0 24
-0.1538 -5.4793 -3.0048 0.4557 0 1
0.0649 -5.3489 -2.9323 0.4670 0 1
0.2733 -5.2164 -2.8634 0.4782 0 1
0.4717 -5.0821 -2.7978 0.4896 0 1
0.6605 -4.9465 -2.7356 0.5008 0 1
0.8402 -4.8096 -2.6764 0.5118 0 1
1.0112 -4.6717 -2.6202 0.5228 0 1
1.1737 -4.5328 -2.5667 0.5339 0 1
1.3278 -4.3923 -2.5153 0.5448 0 1
1.4742 -4.2514 -2.4666 0.5556 0 1
1.6110 -4.1050 -2.4173 0.5469 0 1
1.7386 -3.9548 -2.3681 0.5583 0 1
1.8572 -3.8019 -2.3195 0.5870 0 24
1.9733 -3.6589 -2.2788 0.5987 0 24
2.0872 -3.5234 -2.2449 0.6132 0 1
2.1914 -3.3814 -2.2088 0.6232 0 1
2.2897 -3.2400 -2.1748 0.6329 0 1
2.3825 -3.0990 -2.1428 0.6424 0 1
2.4700 -2.9586 -2.1127 0.6515 0 1
2.5523 -2.8188 -2.0845 0.6566 0 1
2.6295 -2.6792 -2.0578 0.6651 0 1
2.7019 -2.5401 -2.0328 0.6732 0 1
2.7696 -2.4016 -2.0095 0.6811 0 1
2.8330 -2.2636 -1.9878 0.6885 0 1
2.8921 -2.1262 -1.9676 0.7003 0 1
2.9484 -1.9901 -1.9499 0.7066 0 1
3.0008 -1.8544 -1.9337 0.7126 0 1
3.0492 -1.7190 -1.9188 0.7181 0 1
3.0939 -1.5838 -1.9053 0.7232 0 1
3.1349 -1.4488 -1.8931 0.7279 0 1
3.1722 -1.3140 -1.8822 0.7321 0 1
3.2060 -1.1794 -1.8726 0.7358 0 1
3.2363 -1.0449 -1.8642 0.7391 0 1
3.2632 -0.9105 -1.8571 0.7420 0 1
3.2866 -0.7761 -1.8512 0.7443 0 1
3.3067 -0.6417 -1.8465 0.7462 0 1
3.3235 -0.5073 -1.8429 0.7477 0 1
3.3370 -0.3729 -1.8406 0.7486 0 1
3.3472 -0.2383 -1.8395 0.7491 0 1
3.3541 -0.1036 -1.8395 0.7491 0 1
3.3573 0.0314 -1.8404 0.7413 0 1
3.3569 0.1664 -1.8424 0.7405 0 1
3.3531 0.3017 -1.8455 0.7393 0 1
3.3459 0.4373 -1.8497 0.7375 0 1
3.3354 0.5731 -1.8552 0.7354 0 1
3.3215 0.7092 -1.8618 0.7328 0 1
3.3041 0.8457 -1.8696 0.7297 0 1
3.2833 0.9825 -1.8787 0.7262 0 1
3.2589 1.1198 -1.8889 0.7222 0 1
3.2308 1.2575 -1.9005 0.7179 0 1
3.1991 1.3957 -1.9133 0.7131 0 1
3.1636 1.5344 -1.9274 0.7078 0 1
3.1243 1.6737 -1.9429 0.7022 0 1
3.0810 1.8135 -1.9597 0.6961 0 1
3.0331 1.9536 -1.9777 0.6897 0 1
2.9796 2.0932 -1.9961 0.6833 0 1
2.9225 2.2338 -2.0164 0.6699 0 1
2.8621 2.3758 -2.0390 0.6624 0 1
2.7970 2.5184 -2.0632 0.6547 0 1
2.7272 2.6616 -2.0889 0.6466 0 1
2.6524 2.8055 -2.1164 0.6382 0 1
2.5725 2.9500 -2.1456 0.6295 0 1
2.4872 3.0950 -2.1765 0.6206 0 1
2.3965 3.2407 -2.2094 0.6114 0 1
2.2999 3.3869 -2.2442 0.6019 0 1
2.1957 3.5310 -2.2793 0.5973 0 1
2.0851 3.6746 -2.3160 0.5879 0 1
1.9562 3.7952 -2.3405 0.5799 0 24
1.8340 3.9393 -2.3820 0.5698 0 24
1.7141 4.1056 -2.4388 0.5583 0 1
1.5766 4.2489 -2.4843 0.5480 0 1
1.4316 4.3919 -2.5322 0.5377 0 1
1.2735 4.5154 -2.5718 0.5278 0 24
1.1180 4.6759 -2.6354 0.5176 0 1
0.9488 4.8170 -2.6913 0.5071 0 1
0.7710 4.9579 -2.7504 0.4962 0 1
0.5840 5.0975 -2.8126 0.4852 0 1
0.3875 5.2357 -2.8779 0.4742 0 1
0.1809 5.3722 -2.9465 0.4631 0 1
-0.0360 5.5065 -3.0186 0.4521 0 1
-0.2638 5.6381 -3.0940 0.4419 0 1
-0.5027 5.7664 -3.1729 0.4309 0 1
-0.7532 5.8913 -3.2557 0.4199 0 1
-1.0129 5.9953 -3.3330 0.4115 0 24
-1.2906 6.1279 -3.4328 0.3995 0 1
-1.5776 6.2364 -3.5263 0.3889 0 1
-1.8773 6.3376 -3.6233 0.3809 0 1
-2.1898 6.4311 -3.7241 0.3706 0 1
-2.5155 6.5168 -3.8292 0.3604 0 1
-2.8548 6.5936 -3.9386 0.3504 0 1
-3.2075 6.6605 -4.0524 0.3406 0 1
-3.5740 6.7167 -4.1707 0.3322 0 1
-3.9537 6.7601 -4.2929 0.3228 0 1
-4.3466 6.7900 -4.4194 0.3135 0 1
-4.7525 6.8053 -4.5501 0.3045 0 1
-5.1709 6.8045 -4.6848 0.2958 0 1
-5.6012 6.7861 -4.8234 0.2873 0 1
-6.0417 6.7480 -4.9650 0.2826 0 1
-11.3435 -3.6030 -6.6969 0.1992 0 24
-11.0502 -4.0056 -6.6135 0.2076 0 1
-10.6688 -4.3601 -6.4850 0.2117 0 1
-10.2626 -4.6839 -6.3474 0.2156 0 1
-9.8441 -4.9803 -6.2075 0.2271 0 1
-9.4170 -5.2499 -6.0664 0.2324 0 1
-8.9797 -5.4905 -5.9222 0.2380 0 1
-8.5357 -5.7026 -5.7760 0.2440 0 1
-8.0880 -5.8871 -5.6287 0.2504 0 1
-7.6131 -6.0241 -5.4625 0.2573 0 24
-7.1885 -6.1738 -5.3317 0.2631 0 1
-6.7430 -6.2794 -5.1845 0.2705 0 1
-6.3038 -6.3622 -5.0394 0.2783 0 1
-5.8723 -6.4238 -4.8971 0.2864 0 1
-5.4491 -6.4645 -4.7572 0.2928 0 1
-5.0348 -6.4850 -4.6195 0.3040 0 1
-4.6330 -6.4902 -4.4868 0.3130 0 1
-4.2432 -6.4799 -4.3582 0.3222 0 1
-3.8539 -6.4359 -4.2209 0.3313 0 24
-3.5008 -6.4182 -4.1136 0.3414 0 1
-3.1478 -6.3672 -3.9965 0.3489 0 1
-2.8075 -6.3049 -3.8834 0.3621 0 1
-2.4809 -6.2344 -3.7755 0.3724 0 1
-2.1672 -6.1555 -3.6719 0.3829 0 1
-1.8662 -6.0691 -3.5727 0.3936 0 1
-1.5777 -5.9760 -3.4777 0.4043 0 1
-1.3013 -5.8767 -3.3867 0.4130 0 1
-1.0366 -5.7716 -3.2994 0.4234 0 1
-0.7832 -5.6601 -3.2151 0.4345 0 1
-0.5399 -5.5316 -3.1272 0.4489 0 24
-0.3101 -5.4259 -3.0579 0.4568 0 1
-0.0894 -5.2950 -2.9797 0.4704 0 24
0.1208 -5.1795 -2.9151 0.4792 0 1
0.3214 -5.0527 -2.8487 0.4905 0 1
0.5126 -4.9241 -2.7856 0.5017 0 1
0.6948 -4.7939 -2.7255 0.5127 0 1
0.8683 -4.6622 -2.6684 0.5237 0 1
1.0335 -4.5294 -2.6141 0.5346 0 1
1.1907 -4.3953 -2.5622 0.5456 0 1
1.3399 -4.2596 -2.5125 0.5564 0 1
1.4813 -4.1224 -2.4648 0.5472 0 1
1.6122 -3.9767 -2.4145 0.5586 0 1
1.7370 -3.8341 -2.3684 0.5929 0 1
1.8526 -3.6874 -2.3219 0.5991 0 24
1.9654 -3.5486 -2.2825 0.6098 0 24
2.0765 -3.4176 -2.2501 0.6241 0 1
2.1777 -3.2794 -2.2150 0.6340 0 1
2.2733 -3.1416 -2.1820 0.6436 0 1
2.3636 -3.0043 -2.1508 0.6529 0 1
2.4485 -2.8672 -2.1215 0.6581 0 1
2.5284 -2.7303 -2.0938 0.6668 0 1
2.6034 -2.5940 -2.0679 0.6752 0 1
2.6738 -2.4580 -2.0436 0.6832 0 1
2.7397 -2.3225 -2.0209 0.6909 0 1
2.8013 -2.1874 -1.9998 0.6982 0 1
2.8594 -2.0533 -1.9807 0.7097 0 1
2.9142 -1.9199 -1.9636 0.7159 0 1
2.9650 -1.7868 -1.9478 0.7217 0 1
3.0120 -1.6538 -1.9334 0.7270 0 1
3.0552 -1.5211 -1.9204 0.7320 0 1
3.0948 -1.3885 -1.9086 0.7365 0 1
3.1309 -1.2561 -1.8981 0.7406 0 1
3.1634 -1.1237 -1.8889 0.7442 0 1
3.1925 -0.9915 -1.8809 0.7473 0 1
3.2182 -0.8592 -1.8742 0.7500 0 1
3.2405 -0.7270 -1.8687 0.7522 0 1
3.2595 -0.5948 -1.8643 0.7540 0 1
3.2752 -0.4625 -1.8611 0.7553 0 1
3.2876 -0.3302 -1.8591 0.7561 0 1
3.2968 -0.1977 -1.8583 0.7564 0 1
3.3024 -0.0650 -1.8585 0.7491 0 1
3.3040 0.0678 -1.8594 0.7485 0 1
3.3025 0.2008 -1.8617 0.7476 0 1
3.2978 0.3340 -1.8651 0.7462 0 1
3.2897 0.4674 -1.8696 0.7444 0 1
3.2783 0.6011 -1.8753 0.7421 0 1
3.2635 0.7351 -1.8823 0.7394 0 1
3.2452 0.8694 -1.8904 0.7362 0 1
3.2234 1.0041 -1.8997 0.7326 0 1
3.1981 1.1391 -1.9102 0.7286 0 1
3.1692 1.2746 -1.9220 0.7241 0 1
3.1367 1.4105 -1.9351 0.7192 0 1
3.1003 1.5468 -1.9495 0.7139 0 1
3.0602 1.6837 -1.9653 0.7082 0 1
3.0160 1.8210 -1.9824 0.7021 0 1
2.9667 1.9581 -2.0001 0.6957 0 1
2.9125 2.0951 -2.0187 0.6893 0 1
2.8547 2.2330 -2.0393 0.6757 0 1
2.7935 2.3721 -2.0621 0.6682 0 1
2.7277 2.5118 -2.0864 0.6604 0 1
2.6572 2.6520 -2.1123 0.6523 0 1
2.5818 2.7927 -2.1400 0.6439 0 1
2.5012 2.9339 -2.1693 0.6352 0 1
2.4154 3.0755 -2.2004 0.6262 0 1
2.3242 3.2176 -2.2334 0.6170 0 1
2.2272 3.3601 -2.2683 0.6075 0 1
2.1224 3.4998 -2.3031 0.6031 0 1
1.9992 3.6169 -2.3253 0.5954 0 24
1.8946 3.7789 -2.3786 0.5839 0 1
1.7613 3.8966 -2.4061 0.5755 0 24
1.6409 4.0572 -2.4625 0.5640 0 1
1.5036 4.1957 -2.5078 0.5538 0 1
1.3592 4.3336 -2.5555 0.5435 0 1
1.2023 4.4530 -2.5953 0.5335 0 24
1.0471 4.6068 -2.6582 0.5235 0 1
0.8792 4.7427 -2.7140 0.5129 0 1
0.7027 4.8774 -2.7727 0.5021 0 1
0.5174 5.0107 -2.8343 0.4912 0 1
0.3227 5.1421 -2.8990 0.4802 0 1
0.1185 5.2714 -2.9668 0.4692 0 1
-0.0956 5.3903 -3.0334 0.4562 0 24
-0.3203 5.5221 -3.1123 0.4481 0 1
-0.5555 5.6423 -3.1901 0.4372 0 1
-0.8018 5.7586 -3.2714 0.4263 0 1
-1.0595 5.8705 -3.3565 0.4155 0 1
-1.3240 5.9557 -3.4329 0.4077 0 24
-1.6093 6.0751 -3.5362 0.3957 0 1
-1.9020 6.1670 -3.6312 0.3877 0 1
-2.2065 6.2501 -3.7295 0.3775 0 1
-2.5232 6.3250 -3.8316 0.3674 0 1
-2.8522 6.3908 -3.9378 0.3575 0 1
-3.1937 6.4464 -4.0479 0.3478 0 1
-3.5476 6.4910 -4.1622 0.3378 0 1
-3.9137 6.5232 -4.2803 0.3302 0 1
-4.2912 6.5413 -4.4019 0.3211 0 1
-4.6802 6.5446 -4.5271 0.3122 0 1
-5.0799 6.5318 -4.6559 0.3036 0 1
-5.4897 6.5016 -4.7879 0.2952 0 1
-5.9097 6.4538 -4.9238 0.2855 0 1
-6.3367 6.3847 -5.0615 0.2828 0 1
-6.7692 6.2931 -5.2005 0.2753 0 1
-7.2066 6.1787 -5.3412 0.2680 0 1
-7.6468 6.0403 -5.4830 0.2611 0 1
-8.0932 5.8805 -5.6290 0.2463 0 1
-8.5468 5.6996 -5.7802 0.2399 0 1
-8.9963 5.4902 -5.9301 0.2345 0 1
-9.4358 5.2500 -6.0757 0.2289 0 1
-9.8649 4.9804 -6.2179 0.2236 0 1
-10.2827 4.6826 -6.3574 0.2144 0 1
-10.6386 4.3373 -6.4644 0.2153 0 24
-11.0682 4.0016 -6.6222 0.2070 0 1
-11.4245 3.6182 -6.7429 0.2033 0 1
-11.7442 3.2062 -6.8499 0.2015 0 1
-12.0285 2.7695 -6.9451 0.1987 0 1
-12.2740 2.3108 -7.0275 0.1964 0 1
-12.4740 1.8328 -7.0941 0.1913 0 1
-12.6282 1.3396 -7.1454 0.1899 0 1
-12.7341 0.8350 -7.1804 0.1890 0 1
-12.7436 0.3221 -7.1727 0.1885 0 24
-12.7946 -0.1911 -7.1999 0.1885 0 1
-12.7483 -0.7036 -7.1840 0.1889 0 1
-12.6518 -1.2099 -7.1513 0.1898 0 1
-12.5067 -1.7057 -7.1023 0.1911 0 1
-12.3144 -2.1868 -7.0373 0.1923 0 1
-12.0795 -2.6500 -6.9584 0.1966 0 1
-11.8048 -3.0919 -6.8662 0.1993 0 1
-11.4377 -3.4926 -6.7290 0.1987 0 24
-11.1509 -3.9015 -6.6472 0.2058 0 1
-10.7773 -4.2644 -6.5215 0.2106 0 1
-10.3778 -4.5969 -6.3865 0.2143 0 1
-9.9606 -4.9001 -6.2460 0.2257 0 1
-9.5059 -5.1610 -6.0861 0.2306 0 24
-9.1022 -5.4264 -5.9626 0.2364 0 1
-8.6297 -5.6269 -5.7967 0.2422 0 24
-8.2127 -5.8385 -5.6697 0.2486 0 1
-7.7638 -6.0033 -5.5221 0.2539 0 1
-7.3132 -6.1401 -5.3730 0.2611 0 1
-6.8664 -6.2523 -5.2252 0.2684 0 1
-6.4253 -6.3414 -5.0795 0.2761 0 1
-5.9915 -6.4087 -4.9364 0.2841 0 1
-5.5663 -6.4557 -4.7962 0.2904 0 1
-5.1489 -6.4810 -4.6574 0.2990 0 1
-4.7436 -6.4903 -4.5233 0.3105 0 1
-4.3504 -6.4842 -4.3935 0.3196 0 1
-3.9694 -6.4636 -4.2679 0.3290 0 1
-3.6010 -6.4298 -4.1466 0.3387 0 1
-3.2449 -6.3829 -4.0289 0.3461 0 1
-2.9007 -6.3228 -3.9142 0.3592 0 1
-2.5705 -6.2549 -3.8050 0.3695 0 1
-2.2532 -6.1783 -3.7003 0.3800 0 1
-1.9420 -6.0728 -3.5874 0.3898 0 24
-1.6567 -6.0026 -3.5037 0.4013 0 1
-1.3770 -5.9050 -3.4117 0.4099 0 1
-1.1091 -5.8016 -3.3235 0.4217 0 1
-0.8525 -5.6915 -3.2382 0.4314 0 1
-0.6059 -5.5632 -3.1487 0.4459 0 24
-0.3733 -5.4593 -3.0789 0.4537 0 1
-0.1499 -5.3382 -3.0048 0.4649 0 1
0.0633 -5.2143 -2.9342 0.4761 0 1
0.2666 -5.0882 -2.8669 0.4873 0 1
0.4603 -4.9601 -2.8029 0.4986 0 1
0.6450 -4.8302 -2.7419 0.5097 0 1
0.8209 -4.6990 -2.6840 0.5207 0 1
0.9884 -4.5664 -2.6289 0.5316 0 1
1.1478 -4.4329 -2.5765 0.5424 0 1
1.2991 -4.2974 -2.5261 0.5534 0 1
1.4429 -4.1613 -2.4782 0.5641 0 1
1.5766 -4.0172 -2.4282 0.5554 0 1
1.7026 -3.8729 -2.3804 0.5899 0 1
1.8201 -3.7260 -2.3333 0.5961 0 24
1.9346 -3.5872 -2.2932 0.6069 0 24
2.0473 -3.4561 -2.2602 0.6213 0 1
2.1501 -3.3178 -2.2246 0.6313 0 1
2.2473 -3.1799 -2.1909 0.6409 0 1
2.3390 -3.0424 -2.1593 0.6503 0 1
2.4254 -2.9053 -2.1295 0.6556 0 1
2.5067 -2.7684 -2.1013 0.6644 0 1
2.5830 -2.6319 -2.0749 0.6729 0 1
2.6547 -2.4958 -2.0502 0.6810 0 1
2.7218 -2.3602 -2.0271 0.6888 0 1
2.7846 -2.2250 -2.0055 0.6962 0 1
2.8435 -2.0904 -1.9858 0.7079 0 1
2.8993 -1.9570 -1.9682 0.7142 0 1
2.9512 -1.8238 -1.9521 0.7201 0 1
2.9993 -1.6908 -1.9373 0.7256 0 1
3.0436 -1.5580 -1.9239 0.7307 0 1
3.0842 -1.4254 -1.9117 0.7353 0 1
3.1212 -1.2929 -1.9009 0.7395 0 1
3.1547 -1.1605 -1.8914 0.7432 0 1
3.1847 -1.0283 -1.8830 0.7465 0 1
3.2114 -0.8960 -1.8760 0.7493 0 1
3.2346 -0.7638 -1.8701 0.7517 0 1
3.2545 -0.6316 -1.8654 0.7536 0 1
3.2712 -0.4993 -1.8619 0.7550 0 1
3.2845 -0.3670 -1.8596 0.7559 0 1
3.2946 -0.2345 -1.8584 0.7564 0 1
3.3014 -0.1019 -1.8585 0.7564 0 1
3.3038 0.0309 -1.8590 0.7487 0 1
3.3033 0.1638 -1.8609 0.7479 0 1
3.2995 0.2969 -1.8640 0.7467 0 1
3.2923 0.4303 -1.8682 0.7450 0 1
3.2818 0.5639 -1.8736 0.7428 0 1
3.2679 0.6978 -1.8802 0.7402 0 1
3.2506 0.8320 -1.8880 0.7372 0 1
3.2299 0.9666 -1.8970 0.7337 0 1
3.2055 1.1015 -1.9072 0.7298 0 1
3.1777 1.2368 -1.9186 0.7254 0 1
3.1461 1.3726 -1.9314 0.7206 0 1
3.1108 1.5088 -1.9454 0.7154 0 1
3.0717 1.6455 -1.9607 0.7098 0 1
3.0287 1.7827 -1.9775 0.7038 0 1
2.9810 1.9200 -1.9951 0.6974 0 1
2.9280 2.0570 -2.0134 0.6911 0 1
2.8709 2.1944 -2.0332 0.6777 0 1
2.8110 2.3334 -2.0556 0.6704 0 1
2.7465 2.4729 -2.0795 0.6626 0 1
2.6773 2.6130 -2.1050 0.6546 0 1
2.6032 2.7535 -2.1321 0.6463 0 1
2.5242 2.8946 -2.1610 0.6377 0 1
2.4399 3.0361 -2.1916 0.6288 0 1
2.3501 3.1781 -2.2240 0.6196 0 1
2.2548 3.3204 -2.2584 0.6102 0 1
2.1522 3.4610 -2.2932 0.6057 0 1
2.0431 3.6006 -2.3294 0.5963 0 1
1.9163 3.7179 -2.3535 0.5883 0 24
1.7960 3.8577 -2.3943 0.5783 0 24
1.6778 4.0186 -2.4503 0.5668 0 1
1.5425 4.1572 -2.4950 0.5567 0 1
1.4001 4.2953 -2.5420 0.5464 0 1
1.2451 4.4146 -2.5808 0.5365 0 24
1.0924 4.5691 -2.6434 0.5264 0 1
0.9268 4.7050 -2.6982 0.5159 0 1
0.7527 4.8401 -2.7561 0.5051 0 1
0.5698 4.9738 -2.8169 0.4942 0 1
0.3778 5.1057 -2.8807 0.4833 0 1
0.1763 5.2357 -2.9476 0.4723 0 1
-0.0351 5.3633 -3.0178 0.4613 0 1
-0.2567 5.4881 -3.0913 0.4512 0 1
-0.4890 5.6092 -3.1681 0.4403 0 1
-0.7321 5.7266 -3.2484 0.4294 0 1
-0.9866 5.8399 -3.3325 0.4185 0 1
-1.2484 5.9277 -3.4085 0.4100 0 24
-1.5301 6.0483 -3.5104 0.3986 0 1
-1.8195 6.1424 -3.6046 0.3881 0 1
-2.1205 6.2278 -3.7017 0.3803 0 1
-2.4338 6.3051 -3.8028 0.3702 0 1
-2.7595 6.3735 -3.9078 0.3603 0 1
-3.0975 6.4320 -4.0169 0.3505 0 1
-3.4479 6.4796 -4.1299 0.3404 0 1
-3.8108 6.5157 -4.2472 0.3328 0 1
-4.1850 6.5377 -4.3677 0.3236 0 1
-4.5709 6.5452 -4.4919 0.3147 0 1
-4.9677 6.5370 -4.6197 0.3060 0 1
-5.3748 6.5118 -4.7509 0.2975 0 1
-5.7918 6.4688 -4.8855 0.2878 0 1
-10.7589 -3.4174 -6.5175 0.2141 0 1
-10.4379 -3.7836 -6.4100 0.2176 0 1
-10.0896 -4.1234 -6.2929 0.2217 0 1
-9.7249 -4.4385 -6.1718 0.2329 0 1
-9.3436 -4.7271 -6.0456 0.2377 0 1
-8.9486 -4.9888 -5.9151 0.2439 0 1
-8.5435 -5.2238 -5.7815 0.2495 0 1
-8.1311 -5.4323 -5.6458 0.2555 0 1
-7.6861 -5.5946 -5.4886 0.2608 0 24
-7.2918 -5.7698 -5.3684 0.2663 0 1
-6.8710 -5.9011 -5.2292 0.2734 0 1
-6.4531 -6.0094 -5.0910 0.2808 0 1
-6.0400 -6.0960 -4.9546 0.2887 0 1
-5.6332 -6.1623 -4.8203 0.2967 0 1
-5.2325 -6.2076 -4.6873 0.3055 0 1
-4.8413 -6.2358 -4.5579 0.3142 0 1
-4.4599 -6.2477 -4.4318 0.3231 0 1
-4.0890 -6.2444 -4.3094 0.3323 0 1
-3.7291 -6.2274 -4.1907 0.3417 0 1
-3.3805 -6.1976 -4.0759 0.3513 0 1
-3.0423 -6.1537 -3.9633 0.3617 0 1
-2.7165 -6.1003 -3.8554 0.3719 0 1
-2.4026 -6.0376 -3.7517 0.3821 0 1
-2.1006 -5.9664 -3.6520 0.3926 0 1
-1.8103 -5.8873 -3.5561 0.4010 0 1
-1.5315 -5.8012 -3.4641 0.4117 0 1
-1.2641 -5.7090 -3.3759 0.4233 0 1
-1.0045 -5.5931 -3.2809 0.4356 0 24
-0.7599 -5.4916 -3.2008 0.4472 0 24
-0.5268 -5.3979 -3.1313 0.4549 0 1
-0.3021 -5.2856 -3.0566 0.4660 0 1
-0.0872 -5.1620 -2.9807 0.4789 0 24
0.1178 -5.0516 -2.9174 0.4882 0 1
0.3137 -4.9308 -2.8526 0.4995 0 1
0.5005 -4.8079 -2.7908 0.5106 0 1
0.6788 -4.6831 -2.7320 0.5215 0 1
0.8487 -4.5567 -2.6761 0.5325 0 1
1.0106 -4.4289 -2.6228 0.5433 0 1
1.1648 -4.2999 -2.5720 0.5542 0 1
1.3113 -4.1689 -2.5232 0.5649 0 1
1.4495 -4.0338 -2.4747 0.5557 0 1
1.5783 -3.8931 -2.4253 0.5904 0 1
1.7024 -3.7579 -2.3819 0.6011 0 1
1.8161 -3.6147 -2.3355 0.6073 0 24
1.9273 -3.4800 -2.2967 0.6190 0 24
2.0373 -3.3530 -2.2652 0.6321 0 1
2.1372 -3.2184 -2.2305 0.6419 0 1
2.2316 -3.0840 -2.1978 0.6515 0 1
2.3207 -2.9497 -2.1669 0.6570 0 1
2.4045 -2.8157 -2.1377 0.6659 0 1
2.4835 -2.6819 -2.1103 0.6746 0 1
2.5578 -2.5485 -2.0847 0.6829 0 1
2.6275 -2.4155 -2.0606 0.6909 0 1
2.6928 -2.2827 -2.0382 0.6985 0 1
2.7538 -2.1504 -2.0172 0.7057 0 1
2.8117 -2.0190 -1.9985 0.7172 0 1
2.8659 -1.8882 -1.9815 0.7233 0 1
2.9163 -1.7574 -1.9658 0.7291 0 1
2.9629 -1.6269 -1.9515 0.7344 0 1
3.0058 -1.4965 -1.9386 0.7393 0 1
3.0451 -1.3662 -1.9269 0.7438 0 1
3.0808 -1.2360 -1.9165 0.7479 0 1
3.1130 -1.1058 -1.9073 0.7514 0 1
3.1419 -0.9757 -1.8994 0.7546 0 1
3.1673 -0.8457 -1.8927 0.7573 0 1
3.1894 -0.7156 -1.8872 0.7595 0 1
3.2083 -0.5855 -1.8829 0.7612 0 1
3.2238 -0.4553 -1.8797 0.7625 0 1
3.2361 -0.3250 -1.8778 0.7633 0 1
3.2451 -0.1946 -1.8769 0.7636 0 1
3.2500 -0.0640 -1.8767 0.7564 0 1
3.2515 0.0667 -1.8776 0.7558 0 1
3.2500 0.1976 -1.8799 0.7549 0 1
3.2452 0.3287 -1.8832 0.7535 0 1
3.2372 0.4600 -1.8878 0.7517 0 1
3.2258 0.5915 -1.8934 0.7495 0 1
3.2110 0.7233 -1.9003 0.7468 0 1
3.1928 0.8554 -1.9084 0.7436 0 1
3.1711 0.9878 -1.9176 0.7400 0 1
3.1460 1.1205 -1.9281 0.7360 0 1
3.1172 1.2536 -1.9398 0.7316 0 1
3.0848 1.3871 -1.9528 0.7267 0 1
3.0487 1.5211 -1.9671 0.7214 0 1
3.0088 1.6554 -1.9827 0.7157 0 1
2.9650 1.7902 -1.9997 0.7097 0 1
2.9158 1.9246 -2.0171 0.7034 0 1
2.8622 2.0589 -2.0356 0.6970 0 1
2.8043 2.1936 -2.0556 0.6835 0 1
2.7437 2.3299 -2.0782 0.6761 0 1
2.6785 2.4665 -2.1022 0.6683 0 1
2.6087 2.6036 -2.1279 0.6603 0 1
2.5340 2.7411 -2.1552 0.6519 0 1
2.4544 2.8789 -2.1842 0.6433 0 1
2.3696 3.0171 -2.2149 0.6343 0 1
2.2794 3.1556 -2.2475 0.6251 0 1
2.1836 3.2944 -2.2819 0.6157 0 1
2.0805 3.4306 -2.3164 0.6114 0 1
1.9593 3.5447 -2.3383 0.6038 0 24
1.8452 3.6805 -2.3770 0.5939 0 24
1.7343 3.8369 -2.4310 0.5826 0 1
1.6062 3.9715 -2.4734 0.5726 0 1
1.4713 4.1055 -2.5179 0.5624 0 1
