ply
format ascii 1.0
element vertex 1377
property float32 x
property float32 y
property float32 z
property float32 CosAngle
property uint32 ObjIdx
property uint32 ObjTag
end_header
3.8137 0.4630 -0.6117 0.8641 25 14
3.8237 0.6210 -0.6168 0.8569 25 14
3.8356 0.7824 -0.6233 0.5648 25 14
5.9970 1.4765 -0.9835 0.4458 0 1
5.9918 1.7334 -0.9932 0.4464 0 1
5.9814 1.9942 -1.0040 0.4417 0 1
5.9673 2.2597 -1.0161 0.4366 0 1
5.9472 2.5298 -1.0291 0.4267 0 1
5.9177 2.8033 -1.0427 0.4211 0 1
5.8840 3.0827 -1.0578 0.4152 0 1
5.8458 3.3688 -1.0744 0.4087 0 1
5.8029 3.6623 -1.0927 0.4019 0 1
5.7548 3.9640 -1.1127 0.3946 0 1
5.7007 4.2744 -1.1346 0.4023 0 1
5.6295 4.5857 -1.1562 0.3945 0 1
5.5545 4.9088 -1.1804 0.3864 0 1
5.4725 5.2428 -1.2068 0.3738 0 1
5.3823 5.5882 -1.2355 0.3652 0 1
5.2840 5.9469 -1.2668 0.3561 0 1
5.1784 6.3225 -1.3014 0.3451 0 1
5.0471 6.6939 -1.3350 0.3721 0 1
4.8965 7.0682 -1.3692 0.3628 0 1
4.7345 7.4577 -1.4066 0.3532 0 1
4.5601 7.8646 -1.4476 0.3344 0 1
4.3872 8.3199 -1.4977 0.3232 0 1
4.1975 8.8000 -1.5525 0.3175 0 1
3.9868 9.3031 -1.6117 0.3059 0 1
3.7968 9.9460 -1.6952 0.2762 0 2
3.5458 10.5416 -1.7710 0.8786 0 2
3.1960 10.9381 -1.8146 0.8100 0 2
2.8361 11.3879 -1.8688 0.7276 0 2
2.5060 12.1207 -1.9709 0.2127 0 2
2.1419 12.9681 -2.0930 0.2003 0 2
1.7267 13.9112 -2.2322 0.1878 0 2
1.2874 15.4198 -2.4639 0.1993 0 2
0.7372 17.0952 -2.7247 0.1594 0 1
0.0536 18.4695 -2.9410 0.1482 0 1
-0.7592 20.3474 -3.2423 0.1359 0 1
-1.7434 22.4529 -3.5861 0.1267 0 1
-2.9272 24.7577 -3.9698 0.1165 0 1
-4.3605 27.3883 -4.4161 0.1114 0 1
-6.1717 30.7487 -4.9940 0.0934 0 1
-8.5740 35.2997 -5.7844 0.0734 0 1
-11.9532 41.8084 -6.9242 0.0651 0 1
-29.1080 39.0753 -7.7588 0.6040 0 3
-28.9815 35.8066 -7.3353 0.6339 0 3
-28.1082 32.0068 -6.7830 0.8699 0 3
-29.3765 30.8564 -6.7841 0.6908 0 3
-28.5116 27.6339 -6.3226 0.8390 0 3
-18.4868 16.5298 -3.9489 0.6030 0 22
-20.0637 16.5382 -4.1403 0.7241 0 22
-29.6046 22.4672 -5.9180 0.7918 0 3
-32.4933 22.6609 -6.3081 0.5704 0 3
-34.4610 22.0293 -6.5129 0.8353 0 3
-27.9295 16.3114 -5.1503 0.9909 0 3
-30.6802 16.3011 -5.5322 0.4968 0 3
-39.6513 19.0655 -7.0059 0.8909 0 3
-40.9676 17.7084 -7.1069 0.3979 0 3
-45.8641 17.6731 -7.8267 0.3613 0 3
-20.4527 -4.9000 -3.3490 0.1808 16 6
-35.6746 -33.7513 -7.8202 0.0778 0 20
-32.5173 -33.3405 -7.4160 0.9067 0 20
-31.6225 -35.1441 -7.5282 0.9547 0 20
1.8147 -13.2145 -2.2758 0.2168 0 1
2.2126 -12.3932 -2.1480 0.2238 0 1
2.5620 -11.6277 -2.0315 0.2318 0 1
2.8739 -10.9321 -1.9286 0.2462 0 1
3.1535 -10.2943 -1.8370 0.2585 0 1
3.4057 -9.7061 -1.7550 0.2690 0 1
3.6367 -9.1674 -1.6827 0.2806 0 1
3.8463 -8.6629 -1.6172 0.2919 0 1
4.0369 -8.1881 -1.5576 0.3026 0 1
4.2101 -7.7387 -1.5031 0.3135 0 1
4.3700 -7.3161 -1.4540 0.3271 0 1
4.5169 -6.9149 -1.4092 0.3375 0 1
4.6469 -6.5252 -1.3668 0.3388 0 1
4.7530 -6.1364 -1.3243 0.3497 0 1
4.8493 -5.7663 -1.2855 0.3602 0 1
4.9379 -5.4142 -1.2503 0.3739 0 1
5.0203 -5.0787 -1.2184 0.3836 0 1
5.0954 -4.7562 -1.1893 0.3930 0 1
5.1638 -4.4455 -1.1626 0.4021 0 1
5.2260 -4.1453 -1.1381 0.4107 0 1
5.2806 -3.8533 -1.1153 0.4252 0 1
5.3437 -3.5794 -1.0974 0.4322 0 1
5.4026 -3.3123 -1.0812 0.4387 0 1
5.4567 -3.0508 -1.0667 0.4447 0 1
5.5064 -2.7943 -1.0535 0.4502 0 1
5.5517 -2.5421 -1.0418 0.4553 0 1
5.5930 -2.2939 -1.0314 0.4600 0 1
5.6306 -2.0490 -1.0223 0.4640 0 1
5.6644 -1.8071 -1.0144 0.4676 0 1
5.6947 -1.5676 -1.0078 0.4707 0 1
3.9613 -0.9209 -0.6939 0.5426 25 14
3.8388 -0.7312 -0.6668 0.9607 25 14
3.8362 -0.5721 -0.6618 0.9679 25 14
3.8336 -0.4150 -0.6579 0.9736 25 14
3.8246 -0.2591 -0.6541 0.8644 25 14
3.8115 -0.1046 -0.6506 0.8690 25 14
3.8059 0.0485 -0.6494 0.8705 25 14
3.8146 0.2022 -0.6518 0.8674 25 14
3.8238 0.3572 -0.6553 0.8628 25 14
3.8308 0.5139 -0.6595 0.9713 25 14
3.8320 0.6718 -0.6638 0.9649 25 14
3.8929 0.8450 -0.6797 0.5540 25 14
5.8556 1.5198 -1.0322 0.4543 0 1
5.8489 1.7717 -1.0427 0.4497 0 1
5.8363 2.0274 -1.0542 0.4499 0 1
5.8197 2.2876 -1.0669 0.4447 0 1
5.7928 2.5503 -1.0799 0.4349 0 1
5.7609 2.8179 -1.0942 0.4292 0 1
5.7246 3.0912 -1.1100 0.4231 0 1
5.6837 3.3708 -1.1275 0.4166 0 1
5.6378 3.6576 -1.1466 0.4096 0 1
5.5866 3.9522 -1.1676 0.4022 0 1
5.5299 4.2555 -1.1905 0.3945 0 1
5.4578 4.5608 -1.2135 0.3976 0 1
5.3789 4.8750 -1.2386 0.3896 0 1
5.2930 5.1995 -1.2659 0.3812 0 1
5.1994 5.5353 -1.2957 0.3724 0 1
5.0974 5.8838 -1.3282 0.3633 0 1
4.9891 6.2495 -1.3644 0.3521 0 1
4.8613 6.6183 -1.4011 0.3792 0 1
4.7081 6.9814 -1.4367 0.3698 0 1
4.5434 7.3588 -1.4756 0.3601 0 1
4.3681 7.7557 -1.5187 0.3409 0 1
4.1914 8.1957 -1.5706 0.3296 0 1
3.9986 8.6606 -1.6276 0.3181 0 1
3.7846 9.1460 -1.6888 0.3122 0 1
3.5528 9.6685 -1.7575 0.2960 0 1
3.3316 10.3314 -1.8521 0.2698 0 2
3.0543 10.9612 -1.9414 0.2566 0 2
2.7274 11.5673 -2.0277 0.7172 0 2
2.3551 12.1567 -2.1127 0.6209 0 2
1.9687 12.9247 -2.2306 0.5138 0 2
1.5643 14.0393 -2.4102 0.3977 0 2
1.0800 15.2355 -2.6060 0.1842 0 2
0.4979 16.2802 -2.7790 0.1690 0 1
-0.1704 17.7056 -3.0211 0.1499 0 1
-0.9680 19.4146 -3.3166 0.1385 0 1
-1.9218 21.2921 -3.6476 0.1338 0 1
-3.0589 23.3581 -4.0194 0.1233 0 1
-4.4323 25.7572 -4.4593 0.1168 0 1
-6.1107 28.5846 -4.9873 0.1023 0 1
-8.2533 32.2145 -5.6739 0.0776 0 1
-11.2710 37.6324 -6.7026 0.0711 0 1
-15.3868 44.7472 -8.0735 0.0566 0 1
-23.0203 42.9534 -8.3148 0.3785 0 5
-23.2048 39.4071 -7.8027 0.5477 0 5
-28.9724 37.8931 -8.1385 0.6159 0 3
-27.3318 32.9166 -7.2999 0.9928 0 3
-29.1686 32.3869 -7.4366 0.6740 0 3
-29.2494 29.9624 -7.1442 0.7016 0 3
-17.4753 16.5179 -4.1028 0.6541 0 22
-29.3838 25.6183 -6.6513 0.7536 0 3
-28.5186 22.9137 -6.2419 0.9499 0 3
-29.4864 21.8008 -6.2567 0.8010 0 3
-33.3666 22.6541 -6.8811 0.5593 0 3
-29.5681 18.3840 -5.9405 0.8437 0 3
-34.3664 19.4976 -6.7415 0.8631 0 3
-34.4436 17.7511 -6.6113 0.4575 0 3
-38.4935 17.9188 -7.2445 0.8980 0 3
-44.5087 18.5809 -8.2292 0.9134 0 3
-27.8695 7.8598 -4.9406 0.5819 0 6
-34.5997 -33.5655 -8.2248 0.3896 0 20
-32.2423 -33.8978 -7.9821 0.9630 0 20
-31.1959 -35.5558 -8.0705 0.9523 0 20
-17.1385 -45.7532 -8.3361 0.9988 0 20
-14.0059 -42.5188 -7.6380 0.0573 0 1
-10.1191 -35.4551 -6.2909 0.0719 0 1
-7.4135 -30.5831 -5.3692 0.0820 0 24
-5.3411 -26.6741 -4.6415 0.0883 0 1
-3.7438 -23.5850 -4.0744 0.1070 0 1
-2.4981 -21.2120 -3.6442 0.1231 0 24
-1.5015 -19.4535 -3.3290 0.1344 0 1
-0.6629 -17.9869 -3.0710 0.1560 0 1
0.0557 -16.5775 -2.8285 0.1702 0 1
0.6721 -15.4193 -2.6333 0.1814 0 1
1.2077 -14.3859 -2.4631 0.2003 0 1
1.6793 -13.4790 -2.3176 0.2129 0 1
2.0942 -12.6432 -2.1866 0.2199 0 1
2.4578 -11.8599 -2.0665 0.2278 0 1
2.7803 -11.1418 -1.9593 0.2424 0 1
3.0696 -10.4876 -1.8645 0.2547 0 1
3.3294 -9.8833 -1.7794 0.2676 0 1
3.5671 -9.3314 -1.7045 0.2770 0 1
3.7831 -8.8167 -1.6369 0.2884 0 1
3.9795 -8.3333 -1.5756 0.2996 0 1
4.1578 -7.8760 -1.5196 0.3101 0 1
4.3216 -7.4452 -1.4688 0.3238 0 1
4.4725 -7.0378 -1.4227 0.3343 0 1
4.6111 -6.6495 -1.3806 0.3445 0 1
4.7210 -6.2554 -1.3371 0.3463 0 1
4.8203 -5.8797 -1.2972 0.3570 0 1
4.9107 -5.5217 -1.2608 0.3707 0 1
4.9955 -5.1817 -1.2280 0.3806 0 1
5.0727 -4.8553 -1.1981 0.3901 0 1
5.1432 -4.5411 -1.1706 0.3993 0 1
5.2073 -4.2378 -1.1455 0.4081 0 1
5.2627 -3.9422 -1.1219 0.4062 0 1
5.3243 -3.6638 -1.1027 0.4301 0 1
5.3848 -3.3949 -1.0861 0.4367 0 1
5.4404 -3.1318 -1.0710 0.4429 0 1
5.4914 -2.8737 -1.0575 0.4486 0 1
5.5380 -2.6203 -1.0453 0.4538 0 1
5.5806 -2.3709 -1.0345 0.4585 0 1
5.6193 -2.1250 -1.0250 0.4628 0 1
5.6543 -1.8822 -1.0168 0.4666 0 1
5.6856 -1.6420 -1.0097 0.4698 0 1
4.0256 -0.9892 -0.7073 0.5356 25 14
3.8396 -0.7813 -0.6685 0.9581 25 14
3.8370 -0.6214 -0.6632 0.9658 25 14
3.8344 -0.4637 -0.6590 0.9720 25 14
3.8288 -0.3076 -0.6554 0.8626 25 14
3.8155 -0.1526 -0.6515 0.8677 25 14
3.8033 0.0009 -0.6489 0.8712 25 14
3.8119 0.1542 -0.6509 0.8685 25 14
3.8209 0.3087 -0.6540 0.8644 25 14
3.8304 0.4651 -0.6583 0.9729 25 14
3.8316 0.6223 -0.6623 0.9671 25 14
3.8329 0.7818 -0.6674 0.9597 25 14
5.8570 1.4421 -1.0292 0.4556 0 1
5.8513 1.6928 -1.0393 0.4512 0 1
5.8407 1.9472 -1.0505 0.4515 0 1
5.8253 2.2060 -1.0628 0.4464 0 1
5.8019 2.4680 -1.0758 0.4366 0 1
5.7713 2.7339 -1.0896 0.4310 0 1
5.7364 3.0053 -1.1049 0.4251 0 1
5.6969 3.2830 -1.1219 0.4186 0 1
5.6526 3.5674 -1.1405 0.4118 0 1
5.6031 3.8595 -1.1609 0.4046 0 1
5.5482 4.1600 -1.1832 0.3970 0 1
5.4811 4.4648 -1.2062 0.4000 0 1
5.4042 4.7760 -1.2305 0.3921 0 1
5.3205 5.0972 -1.2572 0.3838 0 1
5.2294 5.4294 -1.2862 0.3752 0 1
5.1301 5.7738 -1.3178 0.3662 0 1
5.0232 6.1330 -1.3526 0.3552 0 1
4.9068 6.5079 -1.3906 0.3821 0 1
4.7570 6.8668 -1.4253 0.3728 0 1
4.5961 7.2396 -1.4631 0.3631 0 1
4.4228 7.6278 -1.5044 0.3532 0 1
4.2481 8.0560 -1.5539 0.3332 0 1
4.0605 8.5129 -1.6092 0.3217 0 1
3.8534 8.9920 -1.6691 0.3159 0 1
3.6266 9.5002 -1.7350 0.2999 0 1
3.3816 10.0535 -1.8098 0.2875 0 1
3.1438 10.7593 -1.9125 0.2605 0 2
2.8397 11.4025 -2.0049 0.7254 0 2
2.4702 11.9475 -2.0816 0.6302 0 2
2.0888 12.6466 -2.1870 0.5241 0 2
1.6930 13.6399 -2.3451 0.4088 0 2
1.2430 14.8889 -2.5492 0.1883 0 2
0.6878 15.9487 -2.7237 0.1654 0 1
0.0500 17.2267 -2.9392 0.1598 0 1
-0.7032 18.8460 -3.2177 0.1427 0 1
-1.6085 20.7152 -3.5451 0.1377 0 1
-2.6819 22.6831 -3.8971 0.1247 0 1
-3.9780 24.9858 -4.3168 0.1151 0 1
-5.5449 27.6262 -4.8076 0.1051 0 1
-7.5176 30.9505 -5.4343 0.0915 0 1
-10.2419 35.8229 -6.3570 0.0744 0 1
-13.9453 42.2694 -7.5943 0.0647 0 1
-23.1557 40.4747 -7.9560 0.5117 0 5
-28.0229 37.6186 -8.0036 0.9457 0 3
-29.0457 35.8860 -7.8771 0.6363 0 3
-29.1412 33.1831 -7.5350 0.6652 0 3
-27.5825 28.9720 -6.8251 0.6931 0 3
-29.2994 28.3975 -6.9618 0.7200 0 3
-18.4895 16.5323 -4.2318 0.6877 0 22
-20.0502 16.5270 -4.4333 0.6473 0 22
-29.4716 22.3663 -6.3125 0.7939 0 3
-29.3766 20.4874 -6.1107 0.6462 0 3
-34.3142 21.9355 -6.9487 0.8373 0 3
-30.4405 17.7779 -6.0146 0.5029 0 3
-31.1677 16.5601 -6.0218 0.5007 0 3
-35.4862 17.0628 -6.7182 0.1325 0 3
-44.4992 19.2350 -8.2714 0.9087 0 3
-45.8611 17.6719 -8.3856 0.3607 0 3
-31.6028 -16.3054 -6.0674 0.4167 0 6
-26.3382 -14.9589 -5.1680 0.5776 15 6
-32.5671 -33.3916 -7.9583 0.9659 0 20
-31.5239 -35.0346 -8.0412 0.9558 0 20
1.7288 -12.5886 -2.3132 0.2213 0 1
2.1108 -11.8231 -2.1864 0.2293 0 1
2.4498 -11.1186 -2.0726 0.2440 0 1
2.7546 -10.4786 -1.9724 0.2564 0 1
3.0287 -9.8867 -1.8824 0.2682 0 1
3.2767 -9.3384 -1.8016 0.2815 0 1
3.5032 -8.8309 -1.7295 0.2907 0 1
3.7104 -8.3568 -1.6645 0.3020 0 1
3.8991 -7.9086 -1.6052 0.3126 0 1
4.0722 -7.4852 -1.5512 0.3265 0 1
4.2317 -7.0846 -1.5023 0.3371 0 1
4.3783 -6.7026 -1.4574 0.3475 0 1
4.5057 -6.3268 -1.4140 0.3488 0 1
4.6128 -5.9555 -1.3713 0.3596 0 1
4.7104 -5.6012 -1.3323 0.3701 0 1
4.8015 -5.2646 -1.2971 0.3837 0 1
4.8851 -4.9418 -1.2650 0.3935 0 1
4.9613 -4.6310 -1.2355 0.4029 0 1
5.0309 -4.3310 -1.2085 0.4119 0 1
5.0908 -4.0381 -1.1829 0.4103 0 1
5.1516 -3.7592 -1.1610 0.4350 0 1
5.2151 -3.4933 -1.1427 0.4420 0 1
5.2745 -3.2338 -1.1263 0.4485 0 1
5.3290 -2.9794 -1.1115 0.4545 0 1
5.3791 -2.7297 -1.0981 0.4600 0 1
5.4248 -2.4840 -1.0862 0.4650 0 1
5.4664 -2.2419 -1.0756 0.4697 0 1
5.5042 -2.0030 -1.0663 0.4738 0 1
5.5382 -1.7668 -1.0583 0.4774 0 1
5.5686 -1.5329 -1.0515 0.4805 0 1
3.9464 -0.9175 -0.7376 0.5469 25 14
3.8380 -0.7311 -0.7113 0.9712 25 14
3.8363 -0.5721 -0.7061 0.9783 25 14
3.8346 -0.4151 -0.7022 0.9838 25 14
3.8322 -0.2596 -0.6992 0.9755 25 14
3.8280 -0.1051 -0.6971 0.8636 25 14
3.8225 0.0488 -0.6959 0.8651 25 14
3.8296 0.2030 -0.6981 0.9770 25 14
3.8308 0.3579 -0.7004 0.9738 25 14
3.8320 0.5140 -0.7038 0.9691 25 14
3.8332 0.6720 -0.7085 0.9628 25 14
3.8896 0.8443 -0.7246 0.5534 25 14
5.7212 1.4849 -1.0760 0.4641 0 1
5.7132 1.7306 -1.0867 0.4595 0 1
5.7012 1.9804 -1.0987 0.4597 0 1
5.6824 2.2336 -1.1115 0.4500 0 1
5.6537 2.4891 -1.1246 0.4447 0 1
5.6208 2.7493 -1.1391 0.4391 0 1
5.5834 3.0149 -1.1551 0.4330 0 1
5.5413 3.2864 -1.1728 0.4264 0 1
5.4941 3.5644 -1.1922 0.4189 0 1
5.4417 3.8497 -1.2135 0.4116 0 1
5.3836 4.1430 -1.2367 0.4039 0 1
5.3148 4.4413 -1.2609 0.4075 0 1
5.2351 4.7447 -1.2862 0.3995 0 1
5.1484 5.0575 -1.3138 0.3911 0 1
5.0541 5.3807 -1.3439 0.3823 0 1
4.9516 5.7154 -1.3766 0.3732 0 1
4.8422 6.0655 -1.4129 0.3621 0 1
4.7256 6.4336 -1.4532 0.3520 0 1
4.5762 6.7858 -1.4900 0.3797 0 1
4.4128 7.1472 -1.5291 0.3700 0 1
4.2371 7.5230 -1.5718 0.3600 0 1
4.0607 7.9401 -1.6235 0.3396 0 1
3.8695 8.3811 -1.6805 0.3281 0 1
3.6602 8.8456 -1.7427 0.3222 0 1
3.4301 9.3347 -1.8104 0.3060 0 1
3.1814 9.8656 -1.8871 0.2936 0 1
2.9075 10.4344 -1.9719 0.2809 0 1
2.6312 11.1592 -2.0872 0.2531 0 2
2.2960 11.8515 -2.1976 0.2392 0 2
1.9213 12.6134 -2.3227 0.2250 0 2
1.4997 13.4594 -2.4654 0.2106 0 2
1.0122 14.2786 -2.6059 0.1433 0 1
0.4684 15.3173 -2.7898 0.1818 0 1
-0.1594 16.5593 -3.0147 0.1659 0 1
-0.8997 18.0448 -3.2891 0.1466 0 1
-1.7781 19.7001 -3.6009 0.1396 0 1
-2.8118 21.4715 -3.9422 0.1312 0 1
-4.0491 23.5304 -4.3466 0.1217 0 1
-5.5387 25.9088 -4.8232 0.1150 0 1
-7.3516 28.6950 -5.3925 0.0999 0 1
-9.7883 32.6821 -6.2107 0.0800 0 1
-13.0616 37.9851 -7.3124 0.0703 0 1
-16.8956 43.3813 -8.4752 0.0563 0 2
-16.0821 30.0074 -6.1978 0.5086 0 15
-16.3221 27.7188 -5.8559 0.5455 0 15
-28.8049 37.6741 -8.6334 0.6182 0 3
-28.9164 34.8251 -8.2404 0.6477 0 3
-29.0145 32.2158 -7.8927 0.6762 0 3
-29.1009 29.8102 -7.5839 0.7038 0 3
-17.4704 16.5133 -4.3763 0.7624 0 22
-29.0062 25.2891 -7.0056 0.4746 0 3
-29.3047 23.5452 -6.8434 0.7799 0 3
-29.3552 21.7038 -6.6460 0.8030 0 3
-29.4019 19.9623 -6.4696 0.8249 0 3
-29.4432 18.3063 -6.3115 0.8456 0 3
-29.6763 16.8367 -6.2113 0.6506 0 3
-31.6121 16.2919 -6.4742 0.4960 0 3
-34.3750 16.0016 -6.9026 0.5141 0 3
-44.3349 18.5084 -8.7461 0.9152 0 3
-27.7541 9.0461 -5.3141 0.9366 0 22
-27.7336 7.8215 -5.2457 0.8435 0 22
-17.8484 -4.5132 -3.3515 0.2507 16 6
-31.4456 -16.7263 -6.4840 0.7796 0 22
-31.3964 -18.3555 -6.6207 0.8438 0 22
-34.8873 -33.8444 -8.8486 0.2232 0 20
-32.1991 -33.8524 -8.5052 0.9946 0 20
-30.9304 -35.2532 -8.5377 0.9912 0 20
-16.1594 -43.1394 -8.3862 0.0668 0 2
-11.7700 -35.7312 -6.8485 0.0693 0 1
-8.8189 -30.8997 -5.8498 0.0796 0 1
-6.5395 -26.9774 -5.0534 0.0879 0 1
-4.7696 -23.8198 -4.4224 0.1050 0 1
-3.3898 -21.3546 -3.9362 0.1217 0 24
-2.3089 -19.6057 -3.5938 0.1326 0 1
-1.3958 -18.0847 -3.3020 0.1520 0 1
-0.6173 -16.7500 -3.0513 0.1680 0 1
0.0524 -15.5974 -2.8395 0.1792 0 1
0.6347 -14.5621 -2.6535 0.1917 0 1
1.1466 -13.6586 -2.4952 0.2106 0 1
1.5992 -12.8359 -2.3548 0.2231 0 1
1.9918 -12.0251 -2.2189 0.2253 0 24
2.3481 -11.3304 -2.1065 0.2380 0 1
2.6632 -10.6726 -2.0025 0.2525 0 1
2.9463 -10.0664 -1.9094 0.2648 0 1
3.2019 -9.5047 -1.8258 0.2777 0 1
3.4345 -8.9846 -1.7510 0.2871 0 1
3.6479 -8.5015 -1.6841 0.2985 0 1
3.8423 -8.0459 -1.6232 0.3092 0 1
4.0196 -7.6142 -1.5674 0.3231 0 1
4.1835 -7.2073 -1.5171 0.3338 0 1
4.3339 -6.8197 -1.4710 0.3443 0 1
4.4702 -6.4464 -1.4281 0.3453 0 1
4.5805 -6.0693 -1.3842 0.3563 0 1
4.6810 -5.7099 -1.3441 0.3669 0 1
4.7739 -5.3679 -1.3077 0.3806 0 1
4.8598 -5.0411 -1.2747 0.3905 0 1
4.9383 -4.7267 -1.2444 0.4000 0 1
5.0099 -4.4234 -1.2167 0.4091 0 1
5.0730 -4.1285 -1.1907 0.4076 0 1
5.1310 -3.8435 -1.1671 0.4327 0 1
5.1956 -3.5753 -1.1481 0.4399 0 1
5.2565 -3.3141 -1.1312 0.4465 0 1
5.3125 -3.0582 -1.1159 0.4526 0 1
5.3639 -2.8071 -1.1021 0.4583 0 1
5.4110 -2.5602 -1.0897 0.4635 0 1
5.4538 -2.3170 -1.0787 0.4682 0 1
5.4928 -2.0772 -1.0691 0.4726 0 1
5.5280 -1.8402 -1.0606 0.4763 0 1
5.5595 -1.6056 -1.0535 0.4796 0 1
4.1867 -1.0288 -0.7848 0.8679 25 14
3.8385 -0.7811 -0.7131 0.9687 25 14
3.8369 -0.6214 -0.7076 0.9762 25 14
3.8351 -0.4638 -0.7033 0.9822 25 14
3.8330 -0.3079 -0.7000 0.9744 25 14
3.8305 -0.1532 -0.6979 0.9774 25 14
3.8198 0.0009 -0.6954 0.8657 25 14
3.8285 0.1549 -0.6975 0.8631 25 14
3.8304 0.3095 -0.6996 0.9750 25 14
3.8316 0.4652 -0.7026 0.9707 25 14
3.8328 0.6225 -0.7069 0.9649 25 14
3.8341 0.7820 -0.7123 0.9575 25 14
4.2163 1.0381 -0.7905 0.8617 25 14
5.7161 1.6536 -1.0833 0.4610 0 1
5.7056 1.9022 -1.0949 0.4561 0 1
5.6894 2.1545 -1.1075 0.4562 0 1
5.6631 2.4090 -1.1203 0.4464 0 1
5.6315 2.6677 -1.1344 0.4409 0 1
5.5955 2.9315 -1.1500 0.4349 0 1
5.5549 3.2011 -1.1671 0.4285 0 1
5.5094 3.4770 -1.1860 0.4211 0 1
5.4586 3.7600 -1.2066 0.4139 0 1
5.4023 4.0507 -1.2292 0.4063 0 1
5.3383 4.3485 -1.2534 0.4099 0 1
5.2607 4.6492 -1.2781 0.4020 0 1
5.1762 4.9590 -1.3050 0.3937 0 1
5.0844 5.2788 -1.3342 0.3851 0 1
4.9845 5.6098 -1.3661 0.3761 0 1
4.8765 5.9540 -1.4010 0.3651 0 1
4.7631 6.3172 -1.4403 0.3552 0 1
4.6248 6.6759 -1.4784 0.3827 0 1
4.4650 7.0331 -1.5166 0.3731 0 1
4.2932 7.4042 -1.5581 0.3631 0 1
4.1170 7.8074 -1.6068 0.3431 0 1
3.9309 8.2411 -1.6622 0.3317 0 1
3.7280 8.6992 -1.7229 0.3200 0 1
3.5032 9.1769 -1.7882 0.3140 0 1
3.2615 9.6964 -1.8624 0.2975 0 1
2.9958 10.2528 -1.9445 0.2849 0 1
2.7285 10.9559 -2.0554 0.2581 0 2
2.4044 11.6292 -2.1618 0.2444 0 2
2.0428 12.3680 -2.2820 0.2304 0 2
1.6366 13.1855 -2.4188 0.2161 0 2
1.1772 14.0999 -2.5757 0.2001 0 2
0.6458 14.9755 -2.7288 0.1858 0 1
0.0469 16.1547 -2.9409 0.1700 0 1
-0.6548 17.5498 -3.1971 0.1509 0 1
-1.4899 19.1883 -3.5037 0.1435 0 1
-2.4704 20.8942 -3.8302 0.1357 0 1
-3.6398 22.8616 -4.2143 0.1255 0 1
-5.0467 25.1436 -4.6686 0.1188 0 1
-6.7404 27.7505 -5.1987 0.1036 0 1
-8.9185 31.1940 -5.9063 0.0853 0 1
-11.9375 36.1836 -6.9363 0.0725 0 1
-15.9412 42.4974 -8.2628 0.0611 0 1
-16.2410 28.3882 -5.9539 0.5361 0 15
-28.7670 38.6175 -8.7663 0.6089 0 3
-28.8832 35.6852 -8.3576 0.6386 0 3
-28.9852 33.0055 -7.9966 0.6675 0 3
-29.0751 30.5399 -7.6763 0.6953 0 3
-28.8718 27.9830 -7.3196 0.6038 0 3
-29.2247 26.1310 -7.1368 0.7479 0 3
-20.0126 16.4960 -4.7213 0.6078 0 22
-29.3394 22.2658 -6.7050 0.7960 0 3
-29.3880 20.4953 -6.5225 0.8182 0 3
-29.4309 18.8138 -6.3589 0.8393 0 3
-30.4391 17.7771 -6.4171 0.5020 0 3
-31.5613 16.7693 -6.5063 0.4675 0 3
-39.3352 18.9135 -7.9456 0.8947 0 3
-44.3246 19.1595 -8.7907 0.9105 0 3
-27.7505 9.4310 -5.3356 0.9624 0 22
-27.7316 8.1972 -5.2643 0.9223 0 22
-31.4104 -17.8396 -6.5760 0.8294 0 22
-32.4605 -33.2823 -8.4635 0.9670 0 20
-31.3248 -34.8133 -8.5255 0.9926 0 20
1.6487 -12.0055 -2.3451 0.2268 0 1
2.0121 -11.2699 -2.2154 0.2400 0 24
2.3471 -10.6524 -2.1109 0.2541 0 1
2.6445 -10.0597 -2.0129 0.2665 0 1
2.9127 -9.5082 -1.9244 0.2783 0 1
3.1569 -8.9969 -1.8451 0.2916 0 1
3.3788 -8.5173 -1.7732 0.3034 0 1
3.5833 -8.0705 -1.7088 0.3121 0 1
3.7702 -7.6471 -1.6499 0.3256 0 1
3.9428 -7.2474 -1.5966 0.3365 0 1
4.1014 -6.8664 -1.5478 0.3471 0 1
4.2474 -6.5021 -1.5029 0.3574 0 1
4.3722 -6.1395 -1.4586 0.3587 0 1
4.4802 -5.7843 -1.4159 0.3695 0 1
4.5796 -5.4456 -1.3769 0.3835 0 1
4.6719 -5.1225 -1.3417 0.3936 0 1
4.7564 -4.8117 -1.3093 0.4033 0 1
4.8336 -4.5118 -1.2796 0.4127 0 1
4.9013 -4.2195 -1.2515 0.4114 0 1
4.9618 -3.9358 -1.2256 0.4201 0 1
5.0283 -3.6692 -1.2046 0.4448 0 1
5.0921 -3.4109 -1.1861 0.4518 0 1
5.1518 -3.1586 -1.1694 0.4582 0 1
5.2067 -2.9111 -1.1544 0.4642 0 1
5.2570 -2.6678 -1.1408 0.4697 0 1
5.3030 -2.4283 -1.1287 0.4747 0 1
5.3449 -2.1921 -1.1179 0.4794 0 1
5.3829 -1.9589 -1.1085 0.4834 0 1
5.4171 -1.7282 -1.1004 0.4870 0 1
5.4476 -1.4996 -1.0934 0.4901 0 1
3.9316 -0.9140 -0.7811 0.5478 25 14
3.8360 -0.7307 -0.7557 0.9697 25 14
3.8344 -0.5718 -0.7502 0.9767 25 14
3.8326 -0.4149 -0.7460 0.9822 25 14
3.8309 -0.2595 -0.7430 0.9862 25 14
3.8291 -0.1051 -0.7413 0.9885 25 14
3.8281 0.0488 -0.7409 0.9974 25 14
3.8293 0.2030 -0.7421 0.9875 25 14
3.8303 0.3578 -0.7445 0.9843 25 14
3.8313 0.5139 -0.7481 0.9796 25 14
3.8322 0.6718 -0.7529 0.9733 25 14
3.8792 0.8420 -0.7682 0.5571 25 14
5.5922 1.4514 -1.1181 0.4738 0 1
5.5832 1.6913 -1.1289 0.4692 0 1
5.5705 1.9350 -1.1412 0.4642 0 1
5.5501 2.1816 -1.1540 0.4591 0 1
5.5205 2.4304 -1.1673 0.4539 0 1
5.4866 2.6837 -1.1820 0.4483 0 1
5.4483 2.9419 -1.1982 0.4422 0 1
5.4051 3.2056 -1.2161 0.4357 0 1
5.3569 3.4754 -1.2357 0.4288 0 1
5.3034 3.7519 -1.2572 0.4214 0 1
5.2443 4.0358 -1.2806 0.4138 0 1
5.1786 4.3274 -1.3060 0.4174 0 1
5.0983 4.6207 -1.3315 0.4094 0 1
5.0110 4.9225 -1.3593 0.4010 0 1
4.9162 5.2339 -1.3896 0.3922 0 1
4.8133 5.5558 -1.4225 0.3832 0 1
4.7032 5.8913 -1.4588 0.3720 0 1
4.5862 6.2437 -1.4992 0.3620 0 1
4.4510 6.6001 -1.5405 0.3896 0 1
4.2889 6.9466 -1.5799 0.3799 0 1
4.1149 7.3062 -1.6227 0.3699 0 1
3.9374 7.6991 -1.6735 0.3495 0 1
3.7481 8.1181 -1.7303 0.3380 0 1
3.5419 8.5597 -1.7927 0.3262 0 1
3.3153 9.0223 -1.8601 0.3202 0 1
3.0705 9.5216 -1.9360 0.3036 0 1
2.8017 10.0547 -2.0199 0.2910 0 1
2.5046 10.6223 -2.1120 0.2760 0 1
2.1789 11.2470 -2.2170 0.2523 0 1
1.8186 11.9393 -2.3371 0.2394 0 1
1.4146 12.6960 -2.4721 0.2263 0 1
0.9598 13.5404 -2.6269 0.2122 0 1
0.4425 14.4693 -2.8014 0.1920 0 1
-0.1497 15.5533 -3.0100 0.1702 0 1
-0.8391 16.8281 -3.2606 0.1569 0 1
-1.6515 18.2966 -3.5551 0.1500 0 1
-2.5989 19.8457 -3.8733 0.1394 0 1
-3.7174 21.6029 -4.2420 0.1302 0 1
-5.0521 23.6327 -4.6767 0.1192 0 1
-6.6522 25.9651 -5.1870 0.1145 0 1
-8.6247 28.7969 -5.8173 0.0932 0 1
-11.3095 32.8897 -6.7305 0.0797 0 1
-14.8156 38.0407 -7.9002 0.0719 0 1
-18.9335 43.3735 -9.1584 0.0553 0 2
-17.7168 36.5099 -7.8533 0.6294 0 6
-15.9618 29.7830 -6.5391 0.5250 0 15
-16.1682 27.4573 -6.1663 0.5616 0 15
-16.8518 26.1542 -6.0209 0.8111 0 15
-26.9429 38.3390 -9.0681 0.5902 0 3
-28.6387 37.4567 -9.1245 0.6205 0 3
-31.2681 37.6573 -9.4720 0.7597 0 3
-28.8614 32.0458 -8.3458 0.6784 0 3
-27.2518 27.9160 -7.5496 0.1959 0 3
-17.4919 16.5336 -4.6578 0.7644 0 22
-29.1067 25.3767 -7.4728 0.7577 0 3
-27.7475 22.2941 -6.8881 0.0564 0 3
-29.2246 21.6073 -7.0334 0.8049 0 3
-29.2746 19.8759 -6.8475 0.8268 0 3
-29.3188 18.2289 -6.6810 0.8474 0 3
-31.3218 17.7702 -6.9689 0.4903 0 3
-32.1252 16.5563 -6.9938 0.4870 0 3
-38.1884 17.7767 -8.1516 0.9015 0 3
-44.1618 18.4361 -9.2609 0.9168 0 3
-27.6365 9.0078 -5.6251 0.9003 0 22
-27.6662 7.8025 -5.5628 0.9606 0 22
-31.3390 -16.6697 -6.8692 0.8625 0 22
-31.2611 -18.2764 -7.0076 0.8227 0 22
-32.1076 -33.7562 -9.0155 0.9957 0 20
-30.6639 -34.9494 -8.9975 0.9988 0 20
-17.2095 -40.8632 -8.5804 0.0590 0 2
-13.4348 -35.8659 -7.4117 0.0621 0 1
-10.2144 -31.0085 -6.3179 0.0807 0 1
-7.7367 -27.1076 -5.4553 0.0874 0 24
-5.8187 -24.0040 -4.7797 0.0965 0 1
-4.3073 -21.5112 -4.2454 0.1169 0 24
-3.1288 -19.7104 -3.8621 0.1331 0 1
-2.1456 -18.2192 -3.5501 0.1546 0 1
-1.3039 -16.8940 -3.2790 0.1623 0 1
-0.5803 -15.7467 -3.0493 0.1783 0 1
0.0495 -14.7183 -2.8483 0.1895 0 1
0.6021 -13.8149 -2.6760 0.2082 0 1
1.0883 -12.9635 -2.5175 0.2186 0 24
1.5249 -12.2390 -2.3868 0.2275 0 1
1.9017 -11.4813 -2.2521 0.2359 0 24
2.2478 -10.8466 -2.1436 0.2502 0 1
2.5551 -10.2396 -2.0423 0.2627 0 1
2.8320 -9.6759 -1.9510 0.2745 0 1
3.0833 -9.1527 -1.8690 0.2878 0 1
3.3118 -8.6636 -1.7949 0.2997 0 1
3.5215 -8.2069 -1.7282 0.3086 0 1
3.7136 -7.7764 -1.6677 0.3192 0 1
3.8906 -7.3699 -1.6127 0.3331 0 1
4.0534 -6.9833 -1.5625 0.3438 0 1
4.2032 -6.6140 -1.5165 0.3542 0 1
4.3365 -6.2536 -1.4727 0.3552 0 1
4.4476 -5.8932 -1.4288 0.3661 0 1
4.5491 -5.5490 -1.3886 0.3803 0 1
4.6440 -5.2218 -1.3523 0.3904 0 1
4.7309 -4.9073 -1.3191 0.4003 0 1
4.8103 -4.6041 -1.2886 0.4098 0 1
4.8812 -4.3098 -1.2601 0.4086 0 1
4.9436 -4.0232 -1.2334 0.4174 0 1
5.0075 -3.7510 -1.2108 0.4425 0 1
5.0725 -3.4906 -1.1916 0.4497 0 1
5.1338 -3.2367 -1.1744 0.4562 0 1
5.1901 -2.9877 -1.1589 0.4624 0 1
5.2418 -2.7432 -1.1449 0.4680 0 1
5.2891 -2.5025 -1.1323 0.4732 0 1
5.3323 -2.2654 -1.1212 0.4780 0 1
5.3715 -2.0313 -1.1113 0.4822 0 1
5.4068 -1.7998 -1.1028 0.4860 0 1
5.4385 -1.5706 -1.0954 0.4892 0 1
4.1536 -1.0206 -0.8277 0.8730 25 14
3.8365 -0.7807 -0.7577 0.9672 25 14
3.8349 -0.6211 -0.7518 0.9747 25 14
3.8332 -0.4636 -0.7472 0.9807 25 14
3.8314 -0.3078 -0.7438 0.9851 25 14
3.8297 -0.1531 -0.7417 0.9880 25 14
3.8263 0.0009 -0.7405 0.9980 25 14
3.8290 0.1549 -0.7416 0.9881 25 14
3.8300 0.3095 -0.7436 0.9855 25 14
3.8310 0.4651 -0.7468 0.9812 25 14
3.8319 0.6224 -0.7513 0.9754 25 14
3.8328 0.7818 -0.7570 0.9680 25 14
4.1827 1.0298 -0.8336 0.8668 25 14
5.5864 1.6161 -1.1254 0.4707 0 1
5.5749 1.8586 -1.1372 0.4658 0 1
5.5584 2.1049 -1.1502 0.4606 0 1
5.5302 2.3524 -1.1630 0.4556 0 1
5.4977 2.6043 -1.1772 0.4501 0 1
5.4607 2.8609 -1.1930 0.4441 0 1
5.4191 3.1228 -1.2104 0.4377 0 1
5.3725 3.3907 -1.2294 0.4310 0 1
5.3207 3.6650 -1.2503 0.4238 0 1
5.2633 3.9465 -1.2731 0.4162 0 1
5.2007 4.2364 -1.2981 0.4082 0 1
5.1240 4.5284 -1.3233 0.4119 0 1
5.0390 4.8275 -1.3504 0.4036 0 1
4.9466 5.1358 -1.3799 0.3950 0 1
4.8463 5.4543 -1.4120 0.3860 0 1
4.7376 5.7844 -1.4469 0.3750 0 1
4.6237 6.1324 -1.4862 0.3651 0 1
4.4992 6.4946 -1.5289 0.3926 0 1
4.3407 6.8373 -1.5673 0.3830 0 1
4.1705 7.1926 -1.6090 0.3730 0 1
3.9933 7.5728 -1.6567 0.3530 0 1
3.8088 7.9852 -1.7121 0.3416 0 1
3.6081 8.4195 -1.7726 0.3299 0 1
3.3885 8.8764 -1.8387 0.3239 0 1
3.1492 9.3625 -1.9116 0.3074 0 1
2.8882 9.8847 -1.9929 0.2949 0 1
2.6003 10.4412 -2.0823 0.2799 0 1
2.2832 11.0429 -2.1822 0.2563 0 1
1.9353 11.7171 -2.2982 0.2434 0 1
1.5456 12.4526 -2.4283 0.2304 0 1
1.1079 13.2701 -2.5769 0.2156 0 1
0.6108 14.1635 -2.7434 0.1961 0 1
0.0440 15.1848 -2.9385 0.1831 0 1
-0.6122 16.4069 -3.1772 0.1670 0 1
-1.3861 17.8519 -3.4651 0.1510 0 1
-2.2870 19.3431 -3.7693 0.1415 0 1
-3.3481 21.0294 -4.1208 0.1332 0 1
-4.6099 22.9673 -4.5332 0.1229 0 1
-6.1264 25.2226 -5.0229 0.1168 0 1
-7.9074 27.6575 -5.5667 0.1008 0 24
-10.3969 31.5140 -6.4219 0.0801 0 1
-13.6226 36.3162 -7.5060 0.0727 0 1
-17.2670 40.9471 -8.5997 0.0589 0 2
-15.8861 30.5548 -6.6643 0.5052 0 15
-16.0979 28.1381 -6.2734 0.5445 0 15
-16.4082 26.1801 -5.9791 0.8942 0 15
-28.5985 38.3913 -9.2642 0.6112 0 3
-30.4836 37.6625 -9.3766 0.7675 0 3
-28.6618 32.6372 -8.4057 0.5120 0 3
-28.9259 30.3831 -8.1182 0.6974 0 3
-29.0103 28.1173 -7.8182 0.7242 0 3
-29.0851 26.0063 -7.5504 0.7499 0 3
-20.0275 16.5084 -5.0226 0.5863 0 22
-29.2077 22.1659 -7.0956 0.7979 0 3
-29.2597 20.4058 -6.9033 0.8201 0 3
-29.3056 18.7337 -6.7309 0.8411 0 3
-30.4376 17.7762 -6.8212 0.5009 0 3
-33.4187 17.7561 -7.3233 0.4666 0 3
-39.1781 18.8380 -8.4126 0.8964 0 3
-44.1507 19.0843 -9.3080 0.9122 0 3
-27.6676 9.4029 -5.6549 0.9125 0 22
-27.6478 8.1725 -5.5792 0.9656 0 22
-31.3466 -16.1732 -6.8259 0.8964 0 22
-31.2866 -17.7694 -6.9629 0.9409 0 22
-32.5010 -33.3239 -9.0080 0.9961 0 20
-31.1227 -34.5886 -9.0043 0.9972 0 20
1.5745 -11.4649 -2.3728 0.2370 0 1
1.9261 -10.7886 -2.2471 0.2500 0 24
2.2522 -10.2220 -2.1462 0.2642 0 1
2.5423 -9.6709 -2.0503 0.2762 0 1
2.8053 -9.1574 -1.9638 0.2896 0 1
3.0450 -8.6783 -1.8857 0.3016 0 1
3.2636 -8.2270 -1.8147 0.3134 0 1
3.4641 -7.8020 -1.7503 0.3221 0 1
3.6499 -7.4031 -1.6924 0.3356 0 1
3.8209 -7.0234 -1.6394 0.3464 0 1
3.9784 -6.6604 -1.5907 0.3570 0 1
4.1235 -6.3126 -1.5460 0.3674 0 1
4.2460 -5.9621 -1.5008 0.3685 0 1
4.3545 -5.6220 -1.4581 0.3793 0 1
4.4556 -5.2982 -1.4194 0.3933 0 1
4.5486 -4.9874 -1.3840 0.4033 0 1
4.6338 -4.6877 -1.3515 0.4130 0 1
4.7094 -4.3959 -1.3209 0.4121 0 1
4.7771 -4.1126 -1.2925 0.4211 0 1
4.8413 -3.8402 -1.2670 0.4470 0 1
4.9102 -3.5831 -1.2463 0.4545 0 1
4.9743 -3.3320 -1.2276 0.4614 0 1
5.0343 -3.0865 -1.2108 0.4679 0 1
5.0894 -2.8455 -1.1955 0.4738 0 1
5.1399 -2.6083 -1.1818 0.4793 0 1
5.1861 -2.3747 -1.1695 0.4844 0 1
5.2282 -2.1443 -1.1586 0.4890 0 1
5.2663 -1.9165 -1.1491 0.4931 0 1
5.3006 -1.6910 -1.1408 0.4966 0 1
5.3312 -1.4675 -1.1338 0.4997 0 1
3.9217 -0.9117 -0.8255 0.6317 25 14
3.8340 -0.7303 -0.8003 0.9680 25 14
3.8324 -0.5715 -0.7945 0.9751 25 14
3.8307 -0.4147 -0.7900 0.9806 25 14
3.8289 -0.2594 -0.7869 0.9845 25 14
3.8236 -0.1050 -0.7843 0.9961 25 14
3.8221 0.0488 -0.7837 0.9968 25 14
3.8274 0.2029 -0.7859 0.9858 25 14
3.8284 0.3576 -0.7884 0.9826 25 14
3.8293 0.5137 -0.7922 0.9779 25 14
3.8302 0.6715 -0.7973 0.9716 25 14
3.8741 0.8409 -0.8128 0.6417 25 14
5.4704 1.4198 -1.1588 0.4910 0 1
5.4605 1.6541 -1.1699 0.4863 0 1
5.4469 1.8921 -1.1823 0.4812 0 1
5.4230 2.1317 -1.1948 0.4688 0 1
5.3928 2.3742 -1.2081 0.4636 0 1
5.3581 2.6208 -1.2230 0.4580 0 1
5.3189 2.8721 -1.2394 0.4519 0 1
5.2749 3.1284 -1.2575 0.4454 0 1
5.2259 3.3904 -1.2773 0.4385 0 1
5.1715 3.6585 -1.2989 0.4312 0 1
5.1115 3.9336 -1.3225 0.4236 0 1
5.0463 4.2169 -1.3484 0.4154 0 1
4.9679 4.5025 -1.3747 0.4192 0 1
4.8802 4.7941 -1.4027 0.4108 0 1
4.7852 5.0944 -1.4331 0.4021 0 1
4.6820 5.4042 -1.4661 0.3930 0 1
4.5714 5.7262 -1.5024 0.3819 0 1
4.4542 6.0640 -1.5427 0.3719 0 1
4.3266 6.4156 -1.5866 0.3616 0 1
4.1714 6.7562 -1.6281 0.3898 0 1
3.9992 7.1006 -1.6709 0.3797 0 1
3.8209 7.4714 -1.7206 0.3593 0 1
3.6335 7.8700 -1.7773 0.3479 0 1
3.4299 8.2890 -1.8393 0.3361 0 1
3.2082 8.7307 -1.9072 0.3242 0 1
2.9665 9.1992 -1.9819 0.3109 0 1
2.7020 9.6968 -2.0640 0.2985 0 1
2.4115 10.2273 -2.1545 0.2860 0 1
2.0922 10.7997 -2.2555 0.2711 0 1
1.7411 11.4304 -2.3707 0.2495 0 1
1.3510 12.1250 -2.5015 0.2364 0 1
0.9081 12.8099 -2.6331 0.2225 0 24
0.4195 13.7173 -2.8139 0.2094 0 1
-0.1410 14.6544 -3.0049 0.1893 0 1
-0.7869 15.7809 -3.2397 0.1672 0 1
-1.5398 17.0600 -3.5122 0.1575 0 1
-2.4118 18.4169 -3.8084 0.1480 0 1
-3.4318 19.9432 -4.1492 0.1375 0 1
-4.6293 21.6548 -4.5404 0.1286 0 1
-6.0611 23.6580 -5.0075 0.1190 0 1
-7.7615 25.9148 -5.5468 0.1118 0 1
-9.9370 28.8982 -6.2658 0.0889 0 1
-12.8115 32.8951 -7.2383 0.0811 0 1
-16.7230 38.3095 -8.5707 0.0732 0 2
-17.6547 36.3820 -8.2917 0.9277 0 6
-15.8174 29.5135 -6.8657 0.6378 0 15
-16.0395 27.2387 -6.4814 0.5620 0 15
-16.8132 26.0943 -6.3648 0.8446 0 15
-26.6398 37.9077 -9.4999 0.9056 0 3
-26.9147 35.2018 -9.0857 0.6227 0 3
-31.2671 37.6561 -10.0357 0.7581 0 3
-28.7092 31.8769 -8.7961 0.6805 0 3
-31.8790 32.6560 -9.3573 0.7058 0 3
-17.4693 16.5123 -4.9288 0.6412 0 22
-18.9570 16.5277 -5.1568 0.6637 0 22
-28.8814 23.2051 -7.5965 0.8760 0 3
-29.0946 21.5112 -7.4190 0.8068 0 3
-27.5534 18.7073 -6.8286 0.8286 0 3
-29.1949 18.1519 -7.0488 0.8491 0 3
-31.3202 17.7694 -7.3834 0.4893 0 3
-32.5326 16.7663 -7.5042 0.6157 0 3
-34.3369 15.9838 -7.7658 0.8039 0 3
-43.9893 18.3641 -9.7740 0.9184 0 3
-43.0459 15.9709 -9.4140 0.3206 0 3
-27.5232 8.9709 -5.9355 0.9621 0 22
-27.5600 7.7725 -5.8713 0.9656 0 22
-25.6161 -13.6255 -5.9491 0.8904 15 6
-25.5768 -14.9532 -6.0747 0.7447 15 6
-25.3972 -17.7294 -6.3508 0.7047 15 6
-32.0640 -33.7104 -9.5393 0.9951 0 20
-30.5974 -34.8736 -9.5125 0.9988 0 20
-23.4802 -41.0859 -9.7029 0.9844 0 20
-19.0751 -40.6445 -9.2059 0.0582 0 2
-15.1810 -36.0468 -8.0197 0.0636 0 1
-11.5936 -30.9506 -6.7767 0.0796 0 1
-8.9916 -27.2965 -5.8927 0.0878 0 1
-6.8950 -24.1586 -5.1513 0.0946 0 1
-5.2460 -21.6415 -4.5659 0.1156 0 24
-3.9685 -19.8191 -4.1444 0.1283 0 1
-2.9040 -18.2942 -3.7980 0.1528 0 1
-2.0025 -17.0036 -3.5105 0.1603 0 1
-1.2247 -15.8668 -3.2630 0.1764 0 1
-0.5473 -14.8511 -3.0471 0.1872 0 1
0.0469 -13.9494 -2.8602 0.2066 0 1
0.5726 -13.1384 -2.6965 0.2185 0 1
1.0407 -12.3964 -2.5507 0.2309 0 1
1.4551 -11.6790 -2.4132 0.2330 0 1
1.8192 -10.9830 -2.2826 0.2460 0 24
2.1556 -10.4018 -2.1781 0.2604 0 1
2.4551 -9.8386 -2.0792 0.2723 0 1
2.7258 -9.3130 -1.9896 0.2858 0 1
2.9727 -8.8244 -1.9093 0.2979 0 1
3.1976 -8.3648 -1.8362 0.3097 0 1
3.4031 -7.9309 -1.7695 0.3186 0 1
3.5936 -7.5251 -1.7099 0.3322 0 1
3.7691 -7.1398 -1.6554 0.3431 0 1
3.9307 -6.7718 -1.6054 0.3538 0 1
4.0795 -6.4194 -1.5595 0.3642 0 1
4.2101 -6.0713 -1.5149 0.3651 0 1
4.3217 -5.7264 -1.4710 0.3760 0 1
4.4249 -5.3975 -1.4311 0.3901 0 1
4.5205 -5.0830 -1.3947 0.4002 0 1
4.6081 -4.7799 -1.3613 0.4100 0 1
4.6869 -4.4861 -1.3303 0.4092 0 1
4.7567 -4.1999 -1.3011 0.4183 0 1
4.8201 -3.9227 -1.2742 0.4271 0 1
4.8894 -3.6625 -1.2526 0.4522 0 1
4.9546 -3.4094 -1.2332 0.4594 0 1
5.0161 -3.1625 -1.2158 0.4659 0 1
5.0727 -2.9201 -1.2001 0.4720 0 1
5.1247 -2.6818 -1.1859 0.4777 0 1
5.1722 -2.4472 -1.1732 0.4828 0 1
5.2155 -2.2158 -1.1619 0.4876 0 1
5.2549 -1.9872 -1.1519 0.4918 0 1
5.2903 -1.7610 -1.1432 0.4956 0 1
5.3220 -1.5370 -1.1358 0.4988 0 1
4.1354 -1.0161 -0.8731 0.9714 25 14
3.8345 -0.7803 -0.8023 0.9655 25 14
3.8329 -0.6207 -0.7961 0.9731 25 14
3.8312 -0.4634 -0.7913 0.9790 25 14
3.8295 -0.3076 -0.7877 0.9835 25 14
3.8254 -0.1530 -0.7850 0.9952 25 14
3.8203 0.0009 -0.7833 0.9973 25 14
3.8259 0.1548 -0.7851 0.9950 25 14
3.8281 0.3093 -0.7875 0.9838 25 14
3.8290 0.4649 -0.7909 0.9795 25 14
3.8299 0.6221 -0.7956 0.9737 25 14
3.8308 0.7814 -0.8016 0.9664 25 14
4.1495 1.0217 -0.8762 0.8718 25 14
5.4640 1.5807 -1.1663 0.4878 0 1
5.4516 1.8175 -1.1783 0.4829 0 1
5.4317 2.0569 -1.1909 0.4707 0 1
5.4027 2.2982 -1.2038 0.4653 0 1
5.3694 2.5435 -1.2182 0.4598 0 1
5.3316 2.7933 -1.2341 0.4539 0 1
5.2892 3.0480 -1.2517 0.4475 0 1
5.2417 3.3081 -1.2709 0.4407 0 1
5.1890 3.5743 -1.2919 0.4336 0 1
5.1308 3.8471 -1.3149 0.4260 0 1
5.0673 4.1277 -1.3401 0.4180 0 1
4.9937 4.4132 -1.3665 0.4217 0 1
4.9083 4.7023 -1.3937 0.4135 0 1
4.8156 4.9998 -1.4233 0.4049 0 1
4.7150 5.3066 -1.4555 0.3959 0 1
4.6060 5.6236 -1.4905 0.3866 0 1
4.4917 5.9573 -1.5298 0.3750 0 1
4.3675 6.3045 -1.5726 0.3648 0 1
4.2226 6.6513 -1.6154 0.3928 0 1
4.0541 6.9919 -1.6572 0.3829 0 1
3.8763 7.3510 -1.7040 0.3628 0 1
3.6936 7.7437 -1.7591 0.3515 0 1
3.4952 8.1561 -1.8194 0.3398 0 1
3.2794 8.5905 -1.8854 0.3279 0 1
3.0439 9.0496 -1.9577 0.3174 0 1
2.7870 9.5384 -2.0375 0.3024 0 1
2.5050 10.0582 -2.1253 0.2899 0 1
2.1948 10.6156 -2.2226 0.2751 0 1
1.8541 11.2257 -2.3329 0.2535 0 1
1.4773 11.9021 -2.4591 0.2405 0 1
1.0492 12.5669 -2.5857 0.2291 0 24
0.5801 13.4513 -2.7606 0.2135 0 1
0.0416 14.3480 -2.9419 0.1933 0 1
-0.5749 15.4086 -3.1616 0.1713 0 1
-1.2933 16.6565 -3.4255 0.1579 0 1
-2.1257 17.9786 -3.7120 0.1511 0 1
-3.0961 19.4468 -4.0376 0.1413 0 1
-4.2345 21.0975 -4.4121 0.1324 0 1
-5.5891 23.0107 -4.8553 0.1213 0 1
-7.2011 25.1870 -5.3712 0.1155 0 1
-9.1879 27.8493 -6.0129 0.0926 0 1
-11.8460 31.5799 -6.9157 0.0792 0 1
-15.2239 36.1021 -8.0336 0.0745 0 1
-19.1365 40.7266 -9.2265 0.0580 0 2
-15.7602 30.3126 -7.0052 0.5002 0 15
-15.9691 27.9130 -6.5937 0.5544 0 15
-16.3694 26.1182 -6.3201 0.8967 0 15
-28.2080 37.8671 -9.6817 0.7898 0 3
-30.4827 37.6613 -9.9345 0.7658 0 3
-28.6763 32.6537 -8.9106 0.6718 0 3
-31.0948 32.6613 -9.2465 0.7142 0 3
-28.8670 27.9784 -8.2427 0.7262 0 3
-18.5164 16.5563 -5.0929 0.1775 0 6
-29.0167 23.9180 -7.7103 0.7763 0 3
-29.0767 22.0665 -7.4843 0.7997 0 3
-28.1259 19.6151 -7.0308 0.0654 0 3
-29.1809 18.6540 -7.1013 0.8429 0 3
-30.4361 17.7753 -7.2269 0.4999 0 3
-33.4170 17.7552 -7.7589 0.4656 0 3
-39.0216 18.7627 -8.8778 0.8980 0 3
-43.9773 19.0094 -9.8234 0.9138 0 3
-44.2216 17.0402 -9.7171 0.9281 0 3
-27.5198 9.3526 -5.9596 0.8574 0 22
-27.5447 8.1420 -5.8893 0.9549 0 22
-25.6391 -13.2285 -5.9155 0.7214 15 6
-31.1981 -17.7190 -7.3566 0.8147 0 22
-32.5255 -33.3490 -9.5516 0.9938 0 20
-31.0525 -34.5106 -9.5189 0.9981 0 20
1.5063 -10.9688 -2.3983 0.2471 0 1
1.8468 -10.3445 -2.2762 0.2601 0 24
2.1643 -9.8230 -2.1788 0.2739 0 1
2.4473 -9.3093 -2.0850 0.2862 0 1
2.7050 -8.8302 -2.0005 0.2996 0 1
2.9404 -8.3801 -1.9237 0.3116 0 1
3.1556 -7.9546 -1.8537 0.3234 0 1
3.3532 -7.5523 -1.7899 0.3374 0 1
3.5365 -7.1731 -1.7324 0.3455 0 1
3.7058 -6.8118 -1.6798 0.3564 0 1
3.8620 -6.4656 -1.6314 0.3669 0 1
4.0062 -6.1329 -1.5868 0.3772 0 1
4.1262 -5.7940 -1.5408 0.3783 0 1
4.2358 -5.4687 -1.4984 0.3927 0 1
4.3377 -5.1580 -1.4599 0.4030 0 1
4.4312 -4.8586 -1.4244 0.4131 0 1
4.5148 -4.5672 -1.3911 0.4124 0 1
4.5900 -4.2844 -1.3601 0.4218 0 1
4.6586 -4.0105 -1.3315 0.4308 0 1
4.7280 -3.7503 -1.3072 0.4567 0 1
4.7971 -3.5005 -1.2864 0.4641 0 1
4.8613 -3.2563 -1.2674 0.4711 0 1
4.9214 -3.0173 -1.2505 0.4775 0 1
4.9767 -2.7825 -1.2351 0.4834 0 1
5.0274 -2.5513 -1.2212 0.4889 0 1
5.0738 -2.3233 -1.2088 0.4939 0 1
5.1160 -2.0982 -1.1978 0.4985 0 1
5.1542 -1.8757 -1.1881 0.5026 0 1
5.1886 -1.6553 -1.1797 0.5062 0 1
5.2192 -1.4367 -1.1726 0.5093 0 1
3.9189 -0.9111 -0.8715 0.6307 25 14
3.8320 -0.7299 -0.8450 0.9663 25 14
3.8304 -0.5712 -0.8389 0.9733 25 14
3.8283 -0.4144 -0.8341 0.9871 25 14
3.8230 -0.2590 -0.8300 0.9920 25 14
3.8175 -0.1048 -0.8272 0.9953 25 14
3.8160 0.0487 -0.8267 0.9960 25 14
3.8216 0.2025 -0.8290 0.9933 25 14
3.8264 0.3575 -0.8325 0.9808 25 14
3.8273 0.5134 -0.8365 0.9761 25 14
3.8282 0.6711 -0.8419 0.9699 25 14
3.8735 0.8408 -0.8586 0.6403 25 14
5.3536 1.3895 -1.1981 0.5005 0 1
5.3428 1.6184 -1.2093 0.4959 0 1
5.3283 1.8509 -1.2218 0.4835 0 1
5.3012 2.0838 -1.2338 0.4788 0 1
5.2702 2.3203 -1.2473 0.4733 0 1
5.2349 2.5606 -1.2623 0.4677 0 1
5.1950 2.8052 -1.2789 0.4616 0 1
5.1503 3.0545 -1.2971 0.4552 0 1
5.1005 3.3091 -1.3170 0.4483 0 1
5.0454 3.5693 -1.3387 0.4410 0 1
4.9848 3.8361 -1.3625 0.4333 0 1
4.9187 4.1103 -1.3885 0.4252 0 1
4.8434 4.3897 -1.4159 0.4289 0 1
4.7556 4.6716 -1.4440 0.4206 0 1
4.6603 4.9615 -1.4745 0.4119 0 1
4.5571 5.2601 -1.5075 0.4029 0 1
4.4462 5.5694 -1.5437 0.3917 0 1
4.3290 5.8936 -1.5840 0.3817 0 1
4.2016 6.2304 -1.6278 0.3715 0 1
4.0596 6.5751 -1.6739 0.3995 0 1
3.8892 6.9054 -1.7167 0.3896 0 1
3.7107 7.2557 -1.7653 0.3691 0 1
3.5253 7.6356 -1.8217 0.3577 0 1
3.3243 8.0338 -1.8833 0.3460 0 1
3.1059 8.4523 -1.9506 0.3341 0 1
2.8680 8.8937 -2.0242 0.3208 0 1
2.6086 9.3618 -2.1052 0.3085 0 1
2.3246 9.8591 -2.1942 0.2960 0 1
2.0130 10.3907 -2.2926 0.2811 0 1
1.6706 10.9675 -2.4031 0.2682 0 1
1.2926 11.6010 -2.5285 0.2465 0 1
0.8667 12.2263 -2.6550 0.2358 0 24
0.3991 13.0503 -2.8282 0.2196 0 1
-0.1335 13.8746 -3.0056 0.2066 0 1
-0.7396 14.8338 -3.2172 0.1774 0 1
-1.4365 15.9149 -3.4614 0.1656 0 24
-2.2476 17.1635 -3.7496 0.1555 0 1
-3.1826 18.4949 -4.0651 0.1462 0 1
-4.2687 19.9678 -4.4230 0.1350 0 1
-5.5486 21.6574 -4.8428 0.1253 0 1
-7.0610 23.5759 -5.3310 0.1170 0 1
-8.8984 25.8778 -5.9276 0.1043 0 1
-11.2434 28.8689 -6.7109 0.0867 0 1
-14.2429 32.6281 -7.7117 0.0754 0 1
-17.4682 35.9977 -8.6672 0.0651 0 2
-15.7118 29.3165 -7.2049 0.5238 0 15
-15.9237 27.0421 -6.7978 0.5682 0 15
-16.7902 26.0586 -6.7149 0.8176 0 15
-28.3099 37.0266 -10.0962 0.6249 0 3
-27.1577 32.7069 -9.2087 0.4221 0 3
-28.5580 31.7090 -9.2436 0.6825 0 3
-26.9586 27.6157 -8.3597 0.8291 0 3
-28.7517 27.1765 -8.5699 0.7362 0 3
-18.9492 16.5209 -5.4456 0.2795 0 22
-28.9041 23.2233 -8.0316 0.7855 0 3
-28.9652 21.4155 -7.8029 0.8085 0 3
-29.0216 19.7041 -7.5985 0.8302 0 3
-29.0715 18.0752 -7.4152 0.8507 0 3
-28.4629 16.1483 -7.0886 0.4881 0 3
-34.1608 17.6054 -8.3246 0.7824 0 3
-38.0722 17.7226 -9.0967 0.4185 0 3
-42.8230 17.8772 -10.0519 0.9199 0 3
-27.4286 8.9400 -6.2490 0.9561 0 22
-27.4458 7.7403 -6.1770 0.9650 0 22
-21.4933 -4.5244 -4.7578 0.2486 16 6
-25.6517 -9.8981 -5.9558 0.7570 15 6
-31.0914 -16.5380 -7.6283 0.8973 0 22
-31.0414 -18.1480 -7.7888 0.9247 0 22
-25.3093 -17.6681 -6.6860 0.9984 15 6
-31.9899 -33.6324 -10.0545 0.9960 0 20
-30.3316 -34.5706 -9.9622 0.9745 0 20
-20.8619 -40.1702 -9.8049 0.0575 0 2
-16.5415 -35.2459 -8.4337 0.4668 0 2
-12.9909 -30.8463 -7.2501 0.0743 0 1
-10.2161 -27.2732 -6.3086 0.0900 0 1
-7.9792 -24.2230 -5.5244 0.0951 0 1
-6.2247 -21.8102 -4.9130 0.1102 0 1
-4.8231 -19.8970 -4.4348 0.1264 0 1
-3.6726 -18.3415 -4.0519 0.1494 0 1
-2.7108 -17.0772 -3.7455 0.1584 0 1
-1.8785 -15.9510 -3.4791 0.1744 0 1
-1.1543 -14.9547 -3.2490 0.1867 0 1
-0.5182 -14.0613 -3.0479 0.2044 0 1
0.0446 -13.2591 -2.8721 0.2162 0 1
0.5458 -12.5225 -2.7151 0.2287 0 1
0.9929 -11.8271 -2.5709 0.2303 0 1
1.3911 -11.1654 -2.4373 0.2432 0 1
1.7478 -10.5519 -2.3168 0.2580 0 1
2.0703 -9.9902 -2.2100 0.2700 0 1
2.3620 -9.4657 -2.1133 0.2824 0 1
2.6272 -8.9760 -2.0259 0.2959 0 1
2.8693 -8.5176 -1.9469 0.3079 0 1
3.0905 -8.0847 -1.8749 0.3197 0 1
3.2933 -7.6752 -1.8091 0.3347 0 1
3.4808 -7.2890 -1.7497 0.3421 0 1
3.6545 -6.9227 -1.6957 0.3530 0 1
3.8147 -6.5720 -1.6460 0.3637 0 1
3.9625 -6.2352 -1.6003 0.3741 0 1
4.0903 -5.8985 -1.5548 0.3749 0 1
4.2022 -5.5680 -1.5111 0.3894 0 1
4.3069 -5.2535 -1.4715 0.3998 0 1
4.4029 -4.9507 -1.4351 0.4100 0 1
4.4899 -4.6573 -1.4013 0.4094 0 1
4.5673 -4.3716 -1.3695 0.4189 0 1
4.6379 -4.0950 -1.3402 0.4280 0 1
4.7053 -3.8292 -1.3141 0.4543 0 1
4.7762 -3.5777 -1.2927 0.4618 0 1
4.8416 -3.3316 -1.2731 0.4690 0 1
4.9032 -3.0913 -1.2556 0.4755 0 1
4.9600 -2.8552 -1.2397 0.4816 0 1
5.0121 -2.6229 -1.2254 0.4872 0 1
5.0598 -2.3940 -1.2125 0.4924 0 1
5.1033 -2.1681 -1.2011 0.4972 0 1
5.1427 -1.9448 -1.1910 0.5014 0 1
5.1783 -1.7237 -1.1822 0.5051 0 1
5.2100 -1.5046 -1.1747 0.5083 0 1
4.1227 -1.0130 -0.9196 0.9721 25 14
3.8325 -0.7799 -0.8472 0.9638 25 14
3.8309 -0.6204 -0.8406 0.9713 25 14
3.8292 -0.4631 -0.8355 0.9773 25 14
3.8247 -0.3073 -0.8311 0.9907 25 14
3.8192 -0.1527 -0.8280 0.9945 25 14
3.8143 0.0009 -0.8262 0.9966 25 14
3.8198 0.1545 -0.8281 0.9943 25 14
3.8253 0.3091 -0.8313 0.9905 25 14
3.8271 0.4646 -0.8351 0.9778 25 14
3.8280 0.6217 -0.8401 0.9720 25 14
3.8288 0.7810 -0.8464 0.9646 25 14
4.1292 1.0166 -0.9211 0.9705 25 14
5.3466 1.5467 -1.2056 0.4974 0 1
5.3332 1.7780 -1.2178 0.4924 0 1
5.3101 2.0108 -1.2299 0.4803 0 1
5.2803 2.2462 -1.2430 0.4750 0 1
5.2464 2.4853 -1.2575 0.4695 0 1
5.2080 2.7285 -1.2736 0.4636 0 1
5.1648 2.9763 -1.2912 0.4572 0 1
5.1166 3.2291 -1.3106 0.4505 0 1
5.0632 3.4876 -1.3318 0.4433 0 1
5.0042 3.7521 -1.3548 0.4358 0 1
4.9400 4.0240 -1.3802 0.4278 0 1
4.8694 4.3033 -1.4076 0.4315 0 1
4.7837 4.5829 -1.4350 0.4232 0 1
4.6908 4.8702 -1.4647 0.4147 0 1
4.5902 5.1660 -1.4970 0.4057 0 1
4.4811 5.4712 -1.5319 0.3965 0 1
4.3665 5.7913 -1.5711 0.3849 0 1
4.2425 6.1240 -1.6138 0.3747 0 1
4.1076 6.4701 -1.6601 0.3642 0 1
3.9436 6.8013 -1.7030 0.3927 0 1
3.7654 7.1408 -1.7487 0.3727 0 1
3.5847 7.5154 -1.8036 0.3613 0 1
3.3887 7.9076 -1.8636 0.3497 0 1
3.1759 8.3196 -1.9290 0.3378 0 1
2.9425 8.7481 -1.9993 0.3011 0 1
2.6920 9.2130 -2.0791 0.3123 0 1
2.4160 9.7008 -2.1655 0.2999 0 1
2.1131 10.2204 -2.2607 0.2873 0 1
1.7810 10.7833 -2.3674 0.2722 0 1
1.4145 11.3960 -2.4875 0.2506 0 1
1.0023 12.0052 -2.6095 0.2415 0 24
0.5524 12.8091 -2.7772 0.2236 0 1
0.0395 13.6091 -2.9479 0.2107 0 1
-0.5414 14.5102 -3.1453 0.1906 0 1
-1.2119 15.6080 -3.3911 0.1683 0 1
-1.9834 16.7753 -3.6591 0.1594 0 1
-2.8757 18.0624 -3.9618 0.1493 0 1
-3.9120 19.4906 -4.3061 0.1409 0 1
-5.1253 21.1010 -4.7037 0.1309 0 1
-6.5627 22.9541 -5.1714 0.1206 0 1
-8.2786 25.0932 -5.7237 0.1080 0 1
-10.4361 27.8215 -6.4366 0.0904 0 1
-13.2396 31.3965 -7.3809 0.0822 0 1
-16.7823 35.7162 -8.5481 0.4627 0 2
-15.6576 30.1154 -7.3524 0.5034 0 15
-15.8496 27.7042 -6.9138 0.5550 0 15
-16.3419 26.0743 -6.6657 0.8704 0 15
-28.2652 37.9439 -10.2490 0.6156 0 3
-26.6737 32.9554 -9.1839 0.6471 0 3
-28.5233 32.4795 -9.3634 0.6738 0 3
-31.0937 32.6602 -9.7681 0.7126 0 3
-28.7245 27.8402 -8.6650 0.7281 0 3
-18.4424 16.4902 -5.3589 0.9679 0 6
-28.8826 23.8075 -8.1079 0.7781 0 3
-28.9462 21.9675 -7.8713 0.8014 0 3
-29.0048 20.2280 -7.6598 0.8236 0 3
-29.0566 18.5746 -7.4702 0.8445 0 3
-28.0316 16.3710 -7.0317 0.4522 0 3
-33.4152 17.7543 -8.1964 0.4645 0 3
-36.8753 17.7308 -8.8631 0.4296 0 3
-38.8364 16.7872 -9.1648 0.9799 0 3
-27.3937 9.3098 -6.2672 0.8754 0 22
-27.4401 8.1111 -6.1981 0.9322 0 22
-25.6549 -9.5319 -5.9284 0.9420 15 6
-31.0978 -16.0449 -7.5800 0.8654 0 22
-31.0256 -17.6211 -7.7289 0.7713 0 22
-32.4465 -33.2680 -10.0662 0.9939 0 20
-30.8482 -34.2836 -9.9900 0.9718 0 20
1.4436 -10.5118 -2.4218 0.2572 0 1
1.7788 -9.9634 -2.3100 0.2716 0 1
2.0826 -9.4519 -2.2091 0.2840 0 1
2.3587 -8.9724 -2.1175 0.2975 0 1
2.6113 -8.5242 -2.0348 0.3096 0 1
2.8423 -8.1004 -1.9594 0.3216 0 1
3.0542 -7.6990 -1.8905 0.3366 0 1
3.2497 -7.3191 -1.8278 0.3473 0 1
3.4294 -6.9560 -1.7701 0.3554 0 1
3.5969 -6.6117 -1.7179 0.3662 0 1
3.7517 -6.2810 -1.6699 0.3768 0 1
3.8936 -5.9606 -1.6250 0.3770 0 1
4.0125 -5.6344 -1.5788 0.3881 0 1
4.1233 -5.3234 -1.5369 0.4024 0 1
4.2253 -5.0244 -1.4984 0.4127 0 1
4.3171 -4.7335 -1.4622 0.4124 0 1
4.4001 -4.4513 -1.4286 0.4221 0 1
4.4760 -4.1780 -1.3975 0.4315 0 1
4.5452 -3.9129 -1.3689 0.4405 0 1
4.6193 -3.6641 -1.3457 0.4663 0 1
4.6886 -3.4213 -1.3248 0.4737 0 1
4.7528 -3.1836 -1.3057 0.4806 0 1
4.8131 -2.9509 -1.2886 0.4870 0 1
4.8684 -2.7219 -1.2731 0.4929 0 1
4.9192 -2.4964 -1.2591 0.4984 0 1
4.9657 -2.2738 -1.2466 0.5035 0 1
5.0080 -2.0539 -1.2354 0.5080 0 1
5.0463 -1.8364 -1.2257 0.5121 0 1
5.0806 -1.6208 -1.2172 0.5157 0 1
5.1112 -1.4070 -1.2100 0.5187 0 1
3.9205 -0.9114 -0.9187 0.5932 25 14
3.8300 -0.7295 -0.8899 0.9644 25 14
3.8273 -0.5707 -0.8832 0.9799 25 14
3.8221 -0.4138 -0.8775 0.9863 25 14
3.8168 -0.2586 -0.8732 0.9912 25 14
3.8114 -0.1046 -0.8702 0.9945 25 14
3.8100 0.0486 -0.8697 0.9952 25 14
3.8155 0.2022 -0.8721 0.9924 25 14
3.8208 0.3569 -0.8759 0.9881 25 14
3.8254 0.5131 -0.8809 0.9742 25 14
3.8262 0.6708 -0.8866 0.9680 25 14
3.8730 0.8406 -0.9046 0.6388 25 14
5.2411 1.3603 -1.2359 0.5100 0 1
5.2295 1.5841 -1.2472 0.5054 0 1
5.2118 1.8104 -1.2593 0.4931 0 1
5.1842 2.0378 -1.2714 0.4884 0 1
5.1526 2.2685 -1.2850 0.4829 0 1
5.1167 2.5028 -1.3001 0.4773 0 1
5.0762 2.7410 -1.3167 0.4713 0 1
5.0309 2.9837 -1.3350 0.4648 0 1
4.9805 3.2312 -1.3550 0.4580 0 1
4.9248 3.4840 -1.3769 0.4507 0 1
4.8636 3.7428 -1.4007 0.4430 0 1
4.7969 4.0085 -1.4268 0.4349 0 1
4.7238 4.2813 -1.4551 0.4265 0 1
4.6365 4.5546 -1.4834 0.4303 0 1
4.5413 4.8347 -1.5140 0.4217 0 1
4.4382 5.1228 -1.5470 0.4127 0 1
4.3271 5.4202 -1.5830 0.4015 0 1
4.2101 5.7318 -1.6232 0.3915 0 1
4.0832 6.0547 -1.6668 0.3813 0 1
3.9453 6.3901 -1.7141 0.3708 0 1
3.7847 6.7199 -1.7603 0.3993 0 1
3.6061 7.0512 -1.8077 0.3789 0 1
3.4229 7.4137 -1.8638 0.3675 0 1
3.2246 7.7927 -1.9249 0.3558 0 1
3.0071 8.1834 -1.9899 0.3361 0 1
2.7698 8.5893 -2.0599 0.3072 0 1
2.5211 9.0478 -2.1438 0.3184 0 1
2.2435 9.5149 -2.2313 0.3059 0 1
1.9394 10.0110 -2.3274 0.2933 0 1
1.6065 10.5469 -2.4350 0.2782 0 1
1.2345 11.0792 -2.5444 0.2711 0 24
0.8296 11.7034 -2.6779 0.2532 0 24
0.3805 12.4425 -2.8412 0.2298 0 1
-0.1263 13.1211 -2.9949 0.2203 0 24
-0.6986 14.0104 -3.2018 0.1968 0 1
-1.3535 14.9952 -3.4365 0.1757 0 1
-2.0948 15.9965 -3.6823 0.1644 0 24
-2.9632 17.2199 -3.9881 0.1559 0 1
-3.9564 18.5073 -4.3196 0.1476 0 1
-5.1081 19.9380 -4.6977 0.1336 0 1
-6.4592 21.5664 -5.1384 0.1259 0 1
-8.0494 23.4089 -5.6500 0.1160 0 1
-10.0316 25.7572 -6.3091 0.1030 0 1
-12.5311 28.7067 -7.1492 0.0890 0 1
-15.5902 32.1274 -8.1506 0.0801 0 1
-15.6241 29.1529 -7.5493 0.5217 0 15
-15.8170 26.8609 -7.1148 0.5704 0 15
-16.7750 26.0350 -7.0690 0.8219 0 15
-27.9896 39.8285 -11.1109 0.5968 0 3
-28.1472 36.8138 -10.5771 0.6270 0 3
-23.0678 25.6131 -7.8675 0.7597 0 5
-31.8768 32.6538 -10.4155 0.7024 0 3
-28.6113 27.0438 -8.9859 0.7380 0 3
-31.7242 27.6589 -9.6064 0.6458 0 3
-28.7717 23.1170 -8.4240 0.7872 0 3
-28.8364 21.3203 -8.1853 0.8101 0 3
-28.8959 19.6187 -7.9718 0.8318 0 3
-28.9486 17.9988 -7.7803 0.8523 0 3
-31.3171 17.7676 -8.2182 0.4870 0 3
-34.4344 17.7464 -8.8418 0.4526 0 3
-38.0700 17.7216 -9.5845 0.4175 0 3
-42.6555 17.8072 -10.5502 0.9212 0 3
-27.3384 8.9106 -6.5629 0.9337 0 22
-27.3356 7.7093 -6.4826 0.9641 0 22
-46.9578 7.3033 -10.8467 0.7919 0 6
-30.9552 -16.4655 -8.0027 0.9092 0 22
-30.9002 -18.0654 -8.1697 0.8057 0 22
-25.2653 -17.6374 -7.0328 0.6705 15 6
-31.9460 -33.5863 -10.5797 0.9630 0 20
-30.2799 -34.5118 -10.4792 0.9737 0 20
-22.5323 -39.4272 -10.3649 0.0572 0 2
-17.5713 -33.8342 -8.7017 0.0682 0 2
-14.3909 -30.6635 -7.7312 0.0671 0 1
-11.3897 -27.0445 -6.6978 0.0893 0 1
-9.0672 -24.2060 -5.8998 0.0936 0 1
-7.1904 -21.8286 -5.2456 0.1085 0 1
-5.6846 -19.9178 -4.7276 0.1240 0 1
-4.4531 -18.3704 -4.3143 0.1421 0 1
-3.4256 -17.1077 -3.9822 0.1598 0 1
-2.5404 -16.0040 -3.6985 0.1717 0 1
-1.7691 -15.0218 -3.4523 0.1847 0 1
-1.0921 -14.1492 -3.2391 0.2021 0 1
-0.4922 -13.3572 -3.0508 0.2146 0 1
0.0425 -12.6298 -2.8827 0.2264 0 1
0.5207 -11.9460 -2.7292 0.2289 0 1
0.9485 -11.2987 -2.5879 0.2405 0 1
1.3322 -10.6929 -2.4595 0.2533 0 1
1.6779 -10.1297 -2.3435 0.2681 0 1
1.9852 -9.5792 -2.2329 0.2788 0 24
2.2754 -9.1186 -2.1451 0.2924 0 1
2.5350 -8.6611 -2.0598 0.3059 0 1
2.7725 -8.2300 -1.9822 0.3179 0 1
2.9899 -7.8215 -1.9112 0.3297 0 1
3.1906 -7.4358 -1.8468 0.3437 0 1
3.3749 -7.0671 -1.7875 0.3551 0 1
3.5462 -6.7175 -1.7337 0.3629 0 1
3.7048 -6.3826 -1.6844 0.3735 0 1
3.8514 -6.0605 -1.6390 0.3839 0 1
3.9766 -5.7346 -1.5928 0.3847 0 1
4.0896 -5.4189 -1.5495 0.3991 0 1
4.1944 -5.1164 -1.5100 0.4095 0 1
4.2897 -4.8234 -1.4733 0.4093 0 1
4.3751 -4.5382 -1.4388 0.4191 0 1
4.4531 -4.2622 -1.4069 0.4286 0 1
4.5243 -3.9947 -1.3776 0.4377 0 1
4.5966 -3.7408 -1.3527 0.4639 0 1
4.6676 -3.4964 -1.3311 0.4714 0 1
4.7331 -3.2570 -1.3114 0.4785 0 1
4.7948 -3.0230 -1.2937 0.4851 0 1
4.8517 -2.7929 -1.2777 0.4911 0 1
4.9039 -2.5663 -1.2633 0.4968 0 1
4.9517 -2.3428 -1.2503 0.5019 0 1
4.9952 -2.1222 -1.2388 0.5067 0 1
5.0347 -1.9039 -1.2286 0.5109 0 1
5.0703 -1.6878 -1.2197 0.5146 0 1
