ply
format ascii 1.0
element vertex 1378
property float32 x
property float32 y
property float32 z
property float32 CosAngle
property uint32 ObjIdx
property uint32 ObjTag
end_header
-1.5841 11.1761 -3.5161 0.2412 0 1
-2.1378 11.6792 -3.6985 0.2273 0 1
-2.7361 12.1626 -3.8833 0.2178 0 24
-3.4221 12.7861 -4.1230 0.2039 0 1
-4.1702 13.3981 -4.3709 0.1920 0 1
-5.0035 14.0560 -4.6475 0.1769 0 1
-5.9302 14.7522 -4.9526 0.1730 0 1
-6.9467 15.4537 -5.2778 0.1647 0 1
-8.0779 16.1946 -5.6373 0.1517 0 1
-9.4030 17.0931 -6.0769 0.1336 0 1
-10.9431 18.1258 -6.5953 0.1171 0 1
-12.8069 19.4036 -7.2420 0.1049 0 1
-14.8728 20.6740 -7.9331 0.1183 0 1
-16.7608 21.4247 -8.4733 0.6557 0 2
-19.2611 22.6783 -9.2682 0.0855 0 2
-22.5713 24.5057 -10.3780 0.0764 0 2
-26.6089 26.6532 -11.7316 0.0676 0 25
-22.5345 20.8251 -9.5578 0.7355 0 5
-22.6163 19.2732 -9.2560 0.7920 0 5
-22.6853 17.8078 -8.9835 0.7528 0 5
-31.3824 22.6557 -12.0567 0.5644 0 3
-28.0477 18.5793 -10.4797 0.8456 0 3
-29.2169 17.7054 -10.6416 0.2578 0 3
-29.1651 16.1070 -10.3782 0.4675 0 3
-37.6062 18.8361 -13.1014 0.9010 0 3
-38.6988 17.4731 -13.2263 0.2262 0 3
-41.3414 16.6985 -13.8885 0.0118 0 3
-33.8191 -24.9191 -13.5978 0.8279 0 20
-32.4854 -26.0158 -13.4718 0.7017 0 9
-28.5736 -24.8340 -12.2542 0.5953 0 9
-25.6647 -24.1852 -11.4150 0.0719 0 2
-22.0573 -22.5284 -10.2057 0.0804 0 2
-19.0355 -21.0749 -9.1926 0.0893 0 2
-17.1651 -20.6139 -8.6831 0.0669 0 1
-14.3765 -18.7501 -7.6480 0.1092 0 1
-12.5122 -17.7546 -7.0308 0.1186 0 1
-10.8696 -16.8223 -6.4831 0.1287 0 1
-9.4354 -15.9780 -6.0065 0.1395 0 1
-8.1709 -15.2020 -5.5866 0.1511 0 1
-7.0483 -14.4816 -5.2134 0.1642 0 1
-6.0545 -13.8273 -4.8861 0.1811 0 1
-5.1715 -13.2358 -4.5998 0.1915 0 1
-4.3760 -12.6826 -4.3428 0.2052 0 1
-3.6561 -12.1624 -4.1109 0.2159 0 1
-3.0018 -11.6695 -3.9003 0.2274 0 1
-2.4065 -11.2058 -3.7100 0.2391 0 1
-1.8597 -10.7497 -3.5313 0.2455 0 1
-1.3597 -10.3139 -3.3674 0.2574 0 1
-0.9014 -9.8965 -3.2167 0.2698 0 1
-0.4809 -9.4953 -3.0775 0.2820 0 1
-0.0941 -9.0804 -2.9394 0.2898 0 24
0.2613 -8.7455 -2.8321 0.3064 0 1
0.5894 -8.3939 -2.7238 0.3186 0 1
0.8925 -8.0562 -2.6237 0.3307 0 1
1.1733 -7.7332 -2.5319 0.3479 0 1
1.4335 -7.4215 -2.4467 0.3600 0 1
1.6750 -7.1205 -2.3678 0.3720 0 1
1.8938 -6.8090 -2.2877 0.3828 0 24
2.1082 -6.5473 -2.2265 0.3946 0 1
2.3022 -6.2728 -2.1629 0.4062 0 1
2.4828 -6.0063 -2.1038 0.4176 0 1
2.6512 -5.7472 -2.0487 0.4288 0 1
2.8082 -5.4950 -1.9975 0.4395 0 1
2.9547 -5.2491 -1.9498 0.4503 0 1
3.0814 -4.9931 -1.8992 0.4460 0 1
3.1984 -4.7444 -1.8521 0.4573 0 1
3.3065 -4.5028 -1.8083 0.4684 0 1
3.4070 -4.2685 -1.7679 0.4720 0 1
3.5017 -4.0423 -1.7312 0.4820 0 1
3.5919 -3.8240 -1.6982 0.5114 0 1
3.6807 -3.6155 -1.6701 0.5200 0 1
3.7635 -3.4104 -1.6440 0.5282 0 1
3.8404 -3.2085 -1.6199 0.5361 0 1
3.9119 -3.0095 -1.5976 0.5436 0 1
3.9781 -2.8132 -1.5771 0.5506 0 1
4.0396 -2.6195 -1.5584 0.5573 0 1
4.0970 -2.4284 -1.5417 0.5634 0 1
4.1499 -2.2393 -1.5264 0.5690 0 1
4.1985 -2.0519 -1.5126 0.5743 0 1
4.2428 -1.8660 -1.5003 0.5790 0 1
4.2830 -1.6815 -1.4894 0.5832 0 1
4.3192 -1.4982 -1.4798 0.5870 0 1
4.3516 -1.3158 -1.4716 0.5934 0 1
4.3809 -1.1345 -1.4649 0.5961 0 1
4.4066 -0.9538 -1.4594 0.5983 0 1
4.4286 -0.7736 -1.4552 0.6001 0 1
4.4471 -0.5936 -1.4523 0.6013 0 1
3.9177 -0.3633 -1.2736 0.7739 25 14
3.9063 -0.2042 -1.2662 0.7784 25 14
3.8959 -0.0467 -1.2612 0.7815 25 14
3.8984 0.1101 -1.2624 0.7808 25 14
3.9044 0.2678 -1.2668 0.7781 25 14
3.9113 0.4269 -1.2736 0.7739 25 14
3.9188 0.5880 -1.2827 0.7322 25 14
3.9281 0.7521 -1.2946 0.7170 25 14
4.4778 1.0457 -1.4884 0.5774 0 1
4.4585 1.2322 -1.4973 0.5740 0 1
4.4352 1.4201 -1.5074 0.5701 0 1
4.4078 1.6096 -1.5189 0.5658 0 1
4.3763 1.8007 -1.5318 0.5610 0 1
4.3405 1.9938 -1.5461 0.5558 0 1
4.3003 2.1889 -1.5620 0.5498 0 1
4.2557 2.3864 -1.5794 0.5438 0 1
4.2063 2.5864 -1.5984 0.5373 0 1
4.1519 2.7892 -1.6191 0.5304 0 1
4.0925 2.9950 -1.6416 0.5232 0 1
4.0279 3.2043 -1.6660 0.5155 0 1
3.9576 3.4171 -1.6925 0.5075 0 1
3.8812 3.6336 -1.7210 0.4991 0 1
3.7983 3.8543 -1.7516 0.4903 0 1
3.7087 4.0793 -1.7846 0.4813 0 1
3.6119 4.3089 -1.8200 0.4719 0 1
3.5033 4.5384 -1.8558 0.4761 0 1
3.3879 4.7743 -1.8950 0.4642 0 1
3.2642 5.0160 -1.9372 0.4541 0 1
3.1304 5.2618 -1.9818 0.4406 0 1
2.9866 5.5134 -2.0297 0.4302 0 1
2.8322 5.7713 -2.0809 0.4196 0 1
2.6664 6.0360 -2.1360 0.4088 0 1
2.4882 6.3075 -2.1948 0.3982 0 1
2.2967 6.5868 -2.2580 0.3870 0 1
2.0868 6.8610 -2.3213 0.3987 0 1
1.8615 7.1401 -2.3885 0.3875 0 1
1.6215 7.4324 -2.4624 0.3556 0 1
1.3694 7.7650 -2.5523 0.3431 0 1
1.0963 8.1119 -2.6497 0.3305 0 1
0.7988 8.4646 -2.7521 0.3176 0 1
0.4755 8.8193 -2.8589 0.3082 0 1
0.1250 9.1754 -2.9703 0.3153 0 1
-0.2538 9.5333 -3.0870 0.3034 0 1
-0.6637 9.9138 -3.2162 0.2771 0 1
-1.1115 10.3404 -3.3664 0.2647 0 1
-1.5975 10.7655 -3.5229 0.2564 0 1
-2.1286 11.2158 -3.6953 0.2377 0 1
-2.7018 11.6553 -3.8728 0.2265 0 24
-3.3541 12.2130 -4.0997 0.2123 0 1
-4.0485 12.7149 -4.3193 0.2000 0 24
-4.8466 13.3396 -4.5941 0.1892 0 1
-5.7168 13.9580 -4.8824 0.1744 0 1
-6.6641 14.5706 -5.1863 0.1710 0 1
-7.6779 15.1450 -5.4963 0.1610 0 24
-8.8887 15.9121 -5.8998 0.1449 0 1
-10.2452 16.7227 -6.3482 0.1324 0 1
-11.8613 17.7189 -6.9020 0.1159 0 1
-13.7357 18.8334 -7.5454 0.1048 0 1
-15.7314 19.8412 -8.1963 0.1108 0 1
-17.4604 20.2889 -8.6646 0.0947 0 2
-20.1938 21.6399 -9.5809 0.0857 0 2
-23.4350 23.1703 -10.6675 0.0769 0 25
-22.4433 20.4714 -9.8330 0.7410 0 5
-22.5018 18.9241 -9.5171 0.7887 0 5
-22.5841 17.4919 -9.2466 0.8339 0 5
-27.8587 19.8372 -11.0703 0.8290 0 3
-27.9376 18.2457 -10.8010 0.8496 0 3
-28.1957 16.8365 -10.6301 0.6537 0 3
-29.6356 16.1159 -10.9196 0.3914 0 3
-37.4635 18.4604 -13.5191 0.9042 0 3
-30.8769 13.7001 -10.9344 0.3787 0 5
-42.2520 16.7471 -14.7119 0.9749 0 3
-24.2953 -17.6587 -9.7221 0.9223 15 6
-34.7177 -27.4345 -14.3232 0.5822 0 9
-29.3230 -25.1520 -12.5051 0.4335 0 9
-26.3141 -24.4756 -11.6327 0.0706 0 2
-22.5976 -22.7815 -10.3868 0.0790 0 2
-19.4904 -21.2980 -9.3451 0.0878 0 2
-17.7898 -21.0833 -8.9294 0.1133 0 2
-14.7562 -18.9880 -7.7841 0.0896 0 1
-12.7962 -17.9088 -7.1247 0.1171 0 1
-11.1200 -16.9665 -6.5664 0.1270 0 1
-9.6548 -16.1091 -6.0792 0.1378 0 1
-8.3660 -15.3248 -5.6516 0.1494 0 1
-7.2206 -14.5934 -5.2704 0.1624 0 1
-6.2060 -13.9258 -4.9351 0.1793 0 1
-5.3086 -13.3298 -4.6444 0.1896 0 1
-4.4992 -12.7694 -4.3825 0.2033 0 1
-3.7680 -12.2448 -4.1470 0.2140 0 1
-3.1034 -11.7468 -3.9328 0.2255 0 1
-2.4992 -11.2793 -3.7396 0.2372 0 1
-1.9375 -10.7806 -3.5455 0.2452 0 24
-1.4376 -10.3830 -3.3930 0.2555 0 1
-0.9730 -9.9632 -3.2404 0.2678 0 1
-0.5447 -9.5275 -3.0890 0.2778 0 24
-0.1548 -9.1730 -2.9697 0.2922 0 1
0.2057 -8.8038 -2.8505 0.3044 0 1
0.5381 -8.4498 -2.7407 0.3166 0 1
0.8451 -8.1100 -2.6394 0.3287 0 1
1.1293 -7.7846 -2.5462 0.3458 0 1
1.3927 -7.4712 -2.4600 0.3580 0 1
1.6372 -7.1685 -2.3801 0.3700 0 1
1.8587 -6.8552 -2.2991 0.3813 0 24
2.0755 -6.5926 -2.2372 0.3927 0 1
2.2717 -6.3166 -2.1729 0.4043 0 1
2.4545 -6.0489 -2.1130 0.4157 0 1
2.6248 -5.7887 -2.0574 0.4270 0 1
2.7836 -5.5354 -2.0056 0.4378 0 1
2.9317 -5.2885 -1.9573 0.4486 0 1
3.0616 -5.0340 -1.9072 0.4441 0 1
3.1801 -4.7841 -1.8595 0.4555 0 1
3.2896 -4.5414 -1.8152 0.4666 0 1
3.3910 -4.3057 -1.7741 0.4704 0 1
3.4869 -4.0786 -1.7369 0.4804 0 1
3.5769 -3.8581 -1.7030 0.5099 0 1
3.6668 -3.6490 -1.6745 0.5186 0 1
3.7505 -3.4434 -1.6481 0.5269 0 1
3.8283 -3.2410 -1.6236 0.5349 0 1
3.9007 -3.0415 -1.6011 0.5424 0 1
3.9677 -2.8448 -1.5803 0.5495 0 1
4.0298 -2.6506 -1.5613 0.5563 0 1
4.0881 -2.4592 -1.5443 0.5624 0 1
4.1417 -2.2698 -1.5288 0.5681 0 1
4.1909 -2.0821 -1.5148 0.5735 0 1
4.2359 -1.8960 -1.5022 0.5782 0 1
4.2767 -1.7113 -1.4911 0.5826 0 1
4.3136 -1.5278 -1.4813 0.5864 0 1
4.3465 -1.3453 -1.4728 0.5898 0 1
4.3764 -1.1638 -1.4659 0.5957 0 1
4.4027 -0.9831 -1.4602 0.5980 0 1
4.4253 -0.8027 -1.4558 0.5998 0 1
4.4443 -0.6227 -1.4527 0.6011 0 1
3.9197 -0.3892 -1.2750 0.7730 25 14
3.9081 -0.2298 -1.2672 0.7778 25 14
3.8975 -0.0721 -1.2618 0.7811 25 14
3.8975 0.0847 -1.2619 0.7811 25 14
3.9033 0.2422 -1.2659 0.7786 25 14
3.9101 0.4010 -1.2723 0.7747 25 14
3.9179 0.5618 -1.2812 0.7693 25 14
3.9260 0.7252 -1.2923 0.7182 25 14
4.4799 1.0155 -1.4869 0.5867 0 1
4.4619 1.2020 -1.4958 0.5745 0 1
4.4392 1.3896 -1.5057 0.5707 0 1
4.4125 1.5788 -1.5170 0.5665 0 1
4.3817 1.7697 -1.5296 0.5618 0 1
4.3466 1.9624 -1.5437 0.5567 0 1
4.3071 2.1572 -1.5593 0.5508 0 1
4.2633 2.3543 -1.5764 0.5448 0 1
4.2147 2.5539 -1.5952 0.5384 0 1
4.1611 2.7562 -1.6156 0.5316 0 1
4.1024 2.9614 -1.6378 0.5244 0 1
4.0387 3.1702 -1.6620 0.5168 0 1
3.9693 3.3824 -1.6881 0.5088 0 1
3.8939 3.5983 -1.7162 0.5004 0 1
3.8122 3.8183 -1.7465 0.4918 0 1
3.7237 4.0425 -1.7791 0.4828 0 1
3.6280 4.2714 -1.8141 0.4735 0 1
3.5216 4.5012 -1.8499 0.4776 0 1
3.4071 4.7357 -1.8884 0.4658 0 1
3.2848 4.9765 -1.9301 0.4557 0 1
3.1527 5.2217 -1.9744 0.4423 0 1
3.0105 5.4722 -2.0217 0.4319 0 1
2.8579 5.7291 -2.0724 0.4213 0 1
2.6940 5.9927 -2.1268 0.4106 0 1
2.5179 6.2631 -2.1850 0.4000 0 1
2.3286 6.5410 -2.2475 0.3888 0 1
2.1219 6.8165 -2.3109 0.4005 0 1
1.8990 7.0944 -2.3773 0.3893 0 1
1.6605 7.3800 -2.4486 0.3780 0 1
1.4116 7.7103 -2.5373 0.3451 0 1
1.1420 8.0548 -2.6334 0.3325 0 1
0.8488 8.4081 -2.7355 0.3195 0 1
0.5296 8.7614 -2.8412 0.3101 0 1
0.1836 9.1187 -2.9523 0.3172 0 1
-0.1905 9.4744 -3.0674 0.3053 0 1
-0.5948 9.8467 -3.1931 0.2791 0 1
-1.0363 10.2699 -3.3412 0.2667 0 1
-1.5162 10.6969 -3.4972 0.2583 0 1
-2.0329 11.1061 -3.6547 0.2436 0 24
-2.6138 11.6191 -3.8550 0.2258 0 1
-3.2459 12.1279 -4.0639 0.2142 0 1
-3.9294 12.6245 -4.2799 0.2023 0 24
-4.7141 13.2432 -4.5502 0.1910 0 1
-5.5696 13.8552 -4.8336 0.1798 0 1
-6.5041 14.4692 -5.1350 0.1727 0 1
-7.5343 15.1049 -5.4639 0.1648 0 1
-8.6853 15.7884 -5.8329 0.1466 0 1
-10.0140 16.5869 -6.2717 0.1340 0 1
-11.5834 17.5499 -6.8066 0.1175 0 1
-13.4126 18.6442 -7.4344 0.1064 0 1
-15.4057 19.6926 -8.0932 0.1122 0 1
-17.0584 20.0849 -8.5298 0.0962 0 2
-19.7201 21.4101 -9.4221 0.0871 0 2
-22.8708 22.9088 -10.4784 0.0783 0 25
-22.4351 20.7332 -9.8883 0.7304 0 5
-22.4851 19.1614 -9.5626 0.7801 0 5
-22.5631 17.7119 -9.2850 0.8252 0 5
-25.1195 18.1343 -10.0285 0.9630 0 21
-27.9255 18.4983 -10.8427 0.8464 0 3
-29.1262 17.6505 -11.0241 0.9333 0 3
-29.8490 16.4847 -11.0375 0.3758 0 3
-37.4523 18.7590 -13.5588 0.9015 0 3
-30.3716 13.7132 -10.7868 0.3916 0 5
-43.5231 17.5797 -15.1941 0.9771 0 3
-43.7726 13.7041 -14.8471 0.2940 0 5
-33.6680 -24.8077 -14.0509 0.8286 0 20
-29.5278 -23.6473 -12.7101 0.0668 0 2
-25.5782 -22.2307 -11.3860 0.0746 0 2
-22.2370 -20.9551 -10.2659 0.0827 0 2
-19.3857 -19.7997 -9.3100 0.0912 0 2
-17.5519 -19.4323 -8.7979 0.0688 0 1
-14.9591 -17.9646 -7.8544 0.0918 0 1
-13.0504 -17.0206 -7.2061 0.1199 0 1
-11.4380 -16.2304 -6.6712 0.1293 0 1
-10.0068 -15.4869 -6.1950 0.1398 0 1
-8.7399 -14.8003 -5.7749 0.1500 0 1
-7.6162 -14.1700 -5.4050 0.1638 0 1
-6.6034 -13.5676 -5.0697 0.1805 0 1
-5.6882 -12.9906 -4.7647 0.1888 0 24
-4.8901 -12.5155 -4.5146 0.2041 0 1
-4.1509 -12.0303 -4.2758 0.2147 0 1
-3.4636 -11.5221 -4.0423 0.2260 0 24
-2.8620 -11.1259 -3.8598 0.2376 0 1
-2.2979 -10.7000 -3.6770 0.2438 0 1
-1.7793 -10.2848 -3.5068 0.2556 0 1
-1.3039 -9.8910 -3.3519 0.2680 0 1
-0.8659 -9.5061 -3.2071 0.2798 0 1
-0.4627 -9.1363 -3.0736 0.2920 0 1
-0.0907 -8.7463 -2.9388 0.3000 0 24
0.2522 -8.4403 -2.8370 0.3163 0 1
0.5696 -8.1118 -2.7321 0.3284 0 1
0.8638 -7.7966 -2.6356 0.3456 0 1
1.1332 -7.4686 -2.5380 0.3575 0 24
1.3908 -7.2002 -2.4638 0.3697 0 1
1.6267 -6.9148 -2.3867 0.3816 0 1
1.8406 -6.6176 -2.3078 0.3930 0 24
2.0507 -6.3688 -2.2480 0.4041 0 1
2.2412 -6.1065 -2.1855 0.4157 0 1
2.4188 -5.8513 -2.1273 0.4271 0 1
2.5846 -5.6027 -2.0730 0.4380 0 1
2.7393 -5.3601 -2.0225 0.4489 0 1
2.8820 -5.1201 -1.9741 0.4437 0 1
3.0073 -4.8730 -1.9239 0.4553 0 1
3.1233 -4.6331 -1.8773 0.4666 0 1
3.2308 -4.3996 -1.8339 0.4776 0 1
3.3302 -4.1722 -1.7936 0.4884 0 1
3.4233 -3.9517 -1.7566 0.4913 0 1
3.5159 -3.7432 -1.7254 0.5205 0 1
3.6041 -3.5403 -1.6974 0.5291 0 1
3.6863 -3.3405 -1.6714 0.5373 0 1
3.7628 -3.1437 -1.6474 0.5452 0 1
3.8339 -2.9495 -1.6252 0.5526 0 1
3.8998 -2.7578 -1.6048 0.5596 0 1
3.9610 -2.5685 -1.5861 0.5663 0 1
4.0182 -2.3817 -1.5694 0.5723 0 1
4.0708 -2.1966 -1.5541 0.5780 0 1
4.1192 -2.0131 -1.5404 0.5832 0 1
4.1633 -1.8310 -1.5281 0.5879 0 1
4.2033 -1.6502 -1.5172 0.5921 0 1
4.2393 -1.4705 -1.5076 0.5959 0 1
4.2721 -1.2918 -1.4995 0.6022 0 1
4.3012 -1.1139 -1.4928 0.6050 0 1
4.3267 -0.9366 -1.4874 0.6072 0 1
4.3486 -0.7596 -1.4832 0.6089 0 1
4.3669 -0.5829 -1.4802 0.6101 0 1
4.3816 -0.4063 -1.4785 0.6108 0 1
4.3928 -0.2296 -1.4779 0.6110 0 1
4.4018 -0.0528 -1.4790 0.6099 0 1
4.4096 0.1246 -1.4821 0.6087 0 1
4.4139 0.3027 -1.4865 0.6069 0 1
4.4146 0.4818 -1.4920 0.6046 0 1
4.4118 0.6620 -1.4989 0.6019 0 1
4.4054 0.8435 -1.5070 0.5986 0 1
4.3932 1.0259 -1.5158 0.5863 0 1
4.3738 1.2088 -1.5246 0.5829 0 1
4.3504 1.3930 -1.5347 0.5791 0 1
4.3229 1.5786 -1.5462 0.5748 0 1
4.2913 1.7658 -1.5591 0.5700 0 1
4.2554 1.9547 -1.5734 0.5649 0 1
4.2152 2.1455 -1.5891 0.5589 0 1
4.1705 2.3386 -1.6065 0.5529 0 1
4.1211 2.5340 -1.6254 0.5464 0 1
4.0667 2.7319 -1.6460 0.5396 0 1
4.0074 2.9327 -1.6684 0.5324 0 1
3.9429 3.1367 -1.6928 0.5247 0 1
3.8728 3.3439 -1.7191 0.5167 0 1
3.7967 3.5545 -1.7474 0.5083 0 1
3.7142 3.7689 -1.7778 0.4996 0 1
3.6250 3.9872 -1.8105 0.4906 0 1
3.5288 4.2098 -1.8456 0.4813 0 1
3.4235 4.4350 -1.8824 0.4854 0 1
3.3089 4.6629 -1.9210 0.4735 0 1
3.1858 4.8955 -1.9624 0.4602 0 1
3.0534 5.1323 -2.0065 0.4501 0 1
2.9113 5.3745 -2.0537 0.4397 0 1
2.7591 5.6223 -2.1042 0.4292 0 1
2.5958 5.8762 -2.1584 0.4184 0 1
2.4206 6.1362 -2.2163 0.4078 0 1
2.2326 6.4029 -2.2783 0.3967 0 1
2.0303 6.6750 -2.3441 0.4083 0 1
1.8096 6.9411 -2.4100 0.3972 0 1
1.5738 7.2139 -2.4808 0.3858 0 1
1.3268 7.5233 -2.5667 0.3528 0 1
1.0609 7.8501 -2.6615 0.3403 0 1
0.7718 8.1786 -2.7601 0.3275 0 1
0.4589 8.5123 -2.8641 0.3181 0 1
0.1206 8.8531 -2.9748 0.3063 0 1
-0.2448 9.1966 -3.0910 0.3134 0 1
-0.6388 9.5413 -3.2129 0.3015 0 1
-1.0669 9.9257 -3.3541 0.2748 0 1
-1.5311 10.3178 -3.5046 0.2665 0 1
-2.0285 10.6886 -3.6553 0.2521 0 24
-2.5847 11.1498 -3.8455 0.2362 0 1
-3.1874 11.6060 -4.0438 0.2226 0 1
-3.8359 12.0471 -4.2478 0.2103 0 24
-4.5603 12.5518 -4.4869 0.1991 0 24
-5.3795 13.1346 -4.7688 0.1876 0 1
-6.2559 13.6781 -5.0534 0.1803 0 1
-7.2154 14.2328 -5.3614 0.1711 0 1
-8.2709 14.8060 -5.6981 0.1619 0 1
-9.4576 15.4372 -6.0826 0.1453 0 1
-10.8208 16.1646 -6.5356 0.1256 0 1
-12.4132 17.0201 -7.0778 0.1160 0 1
-14.2661 17.9932 -7.7150 0.1045 0 1
-16.5004 19.1734 -8.4990 0.1170 0 2
-17.8805 19.1609 -8.8054 0.0964 0 2
-20.4843 20.2529 -9.6783 0.0877 0 2
-23.5211 21.4545 -10.6964 0.0794 0 25
-22.4014 18.8396 -9.8343 0.7719 0 5
-22.5156 17.4388 -9.5685 0.8419 0 5
-25.2561 17.9840 -10.4170 0.5002 0 21
-27.8160 18.1663 -11.1622 0.8502 0 3
-29.7637 17.7728 -11.6472 0.4330 0 3
-30.4472 16.5572 -11.6444 0.3684 0 3
-36.3569 17.9151 -13.6177 0.9046 0 3
-30.8698 13.6969 -11.3468 0.3119 0 5
-42.3256 16.7763 -15.2970 0.8471 0 3
-39.2013 -26.1496 -15.8324 0.9526 0 9
-24.2653 -17.6369 -10.0787 0.3788 15 6
-30.2341 -23.8915 -12.9469 0.0656 0 2
-26.1726 -22.4497 -11.5853 0.0733 0 2
-22.7417 -21.1528 -10.4351 0.0813 0 2
-19.8180 -19.9793 -9.4549 0.0898 0 2
-18.0643 -19.7397 -8.9901 0.0673 0 1
-15.3421 -18.1824 -7.9931 0.0902 0 1
-13.3304 -17.1533 -7.2989 0.1184 0 1
-11.6869 -16.3562 -6.7541 0.1279 0 1
-10.2268 -15.6036 -6.2682 0.1376 0 1
-8.9352 -14.9084 -5.8397 0.1483 0 1
-7.7909 -14.2714 -5.4629 0.1621 0 1
-6.7593 -13.6611 -5.1210 0.1729 0 1
-5.8279 -13.0774 -4.8103 0.1871 0 24
-5.0164 -12.5961 -4.5553 0.2023 0 1
-4.2659 -12.1073 -4.3129 0.2128 0 1
-3.5680 -11.5951 -4.0760 0.2242 0 24
-2.9577 -11.1953 -3.8905 0.2358 0 1
-2.3862 -10.7689 -3.7059 0.2419 0 1
-1.8602 -10.3507 -3.5334 0.2537 0 1
-1.3782 -9.9537 -3.3762 0.2698 0 1
-0.9308 -9.5313 -3.2176 0.2766 0 24
-0.5257 -9.1951 -3.0944 0.2900 0 1
-0.1492 -8.8379 -2.9698 0.3022 0 1
0.1984 -8.4946 -2.8548 0.3143 0 1
0.5199 -8.1641 -2.7486 0.3265 0 1
0.8176 -7.8464 -2.6505 0.3436 0 1
1.0904 -7.5168 -2.5519 0.3557 0 24
1.3510 -7.2472 -2.4769 0.3677 0 1
1.5896 -6.9604 -2.3988 0.3797 0 1
1.8062 -6.6617 -2.3190 0.3911 0 24
2.0121 -6.3912 -2.2512 0.4006 0 24
2.2112 -6.1485 -2.1953 0.4138 0 1
2.3909 -5.8921 -2.1364 0.4252 0 1
2.5585 -5.6425 -2.0816 0.4362 0 1
2.7150 -5.3990 -2.0304 0.4472 0 1
2.8609 -5.1607 -1.9825 0.4418 0 1
2.9877 -4.9125 -1.9318 0.4534 0 1
3.1052 -4.6715 -1.8846 0.4648 0 1
3.2139 -4.4370 -1.8407 0.4759 0 1
3.3146 -4.2086 -1.7999 0.4867 0 1
3.4085 -3.9869 -1.7623 0.4897 0 1
3.5010 -3.7763 -1.7301 0.5191 0 1
3.5903 -3.5729 -1.7018 0.5277 0 1
3.6734 -3.3727 -1.6755 0.5360 0 1
3.7508 -3.1754 -1.6512 0.5439 0 1
3.8228 -2.9808 -1.6287 0.5514 0 1
3.8895 -2.7887 -1.6080 0.5585 0 1
3.9513 -2.5989 -1.5890 0.5653 0 1
4.0092 -2.4118 -1.5720 0.5714 0 1
4.0626 -2.2264 -1.5565 0.5771 0 1
4.1116 -2.0427 -1.5425 0.5824 0 1
4.1564 -1.8604 -1.5300 0.5872 0 1
4.1971 -1.6794 -1.5188 0.5915 0 1
4.2337 -1.4995 -1.5090 0.5953 0 1
4.2670 -1.3206 -1.5007 0.6018 0 1
4.2968 -1.1426 -1.4938 0.6046 0 1
4.3228 -0.9652 -1.4882 0.6068 0 1
4.3453 -0.7882 -1.4838 0.6086 0 1
4.3641 -0.6115 -1.4806 0.6099 0 1
4.3795 -0.4349 -1.4787 0.6107 0 1
4.3912 -0.2582 -1.4779 0.6110 0 1
4.4002 -0.0814 -1.4786 0.6101 0 1
4.4086 0.0958 -1.4815 0.6089 0 1
4.4134 0.2738 -1.4857 0.6072 0 1
4.4147 0.4528 -1.4910 0.6050 0 1
4.4125 0.6328 -1.4977 0.6023 0 1
4.4066 0.8140 -1.5056 0.5992 0 1
4.3960 0.9964 -1.5145 0.5868 0 1
4.3772 1.1792 -1.5231 0.5835 0 1
4.3544 1.3631 -1.5330 0.5797 0 1
4.3276 1.5484 -1.5443 0.5755 0 1
4.2967 1.7353 -1.5569 0.5708 0 1
4.2615 1.9240 -1.5710 0.5657 0 1
4.2220 2.1145 -1.5865 0.5602 0 1
4.1781 2.3072 -1.6036 0.5539 0 1
4.1294 2.5022 -1.6223 0.5475 0 1
4.0759 2.6997 -1.6426 0.5407 0 1
4.0173 2.9000 -1.6647 0.5336 0 1
3.9537 3.1035 -1.6887 0.5260 0 1
3.8845 3.3101 -1.7147 0.5180 0 1
3.8094 3.5202 -1.7427 0.5097 0 1
3.7280 3.7339 -1.7728 0.5010 0 1
3.6399 3.9516 -1.8051 0.4921 0 1
3.5449 4.1735 -1.8398 0.4828 0 1
3.4416 4.3989 -1.8765 0.4869 0 1
3.3279 4.6256 -1.9145 0.4751 0 1
3.2064 4.8576 -1.9556 0.4618 0 1
3.0754 5.0936 -1.9991 0.4517 0 1
2.9350 5.3349 -2.0458 0.4414 0 1
2.7844 5.5818 -2.0958 0.4309 0 1
2.6230 5.8347 -2.1493 0.4201 0 1
2.4498 6.0937 -2.2066 0.4096 0 1
2.2639 6.3592 -2.2680 0.3985 0 1
2.0645 6.6321 -2.3337 0.3873 0 1
1.8463 6.8976 -2.3991 0.3990 0 1
1.6131 7.1693 -2.4690 0.3877 0 1
1.3679 7.4716 -2.5521 0.3549 0 1
1.1054 7.7964 -2.6456 0.3423 0 1
0.8203 8.1257 -2.7440 0.3294 0 1
0.5112 8.4576 -2.8468 0.3175 0 1
0.1772 8.7971 -2.9563 0.3082 0 1
-0.1838 9.1419 -3.0721 0.3153 0 1
-0.5730 9.4847 -3.1925 0.3034 0 1
-0.9951 9.8610 -3.3299 0.2768 0 1
-1.4536 10.2552 -3.4800 0.2684 0 1
-1.9492 10.6485 -3.6372 0.2568 0 1
-2.4921 11.0781 -3.8151 0.2381 0 1
-3.0749 11.4889 -3.9959 0.2258 0 24
-3.7247 11.9669 -4.2109 0.2127 0 24
-4.4550 12.5152 -4.4634 0.2004 0 1
-5.2443 13.0460 -4.7241 0.1894 0 1
-6.1091 13.5905 -5.0063 0.1820 0 1
-7.0538 14.1415 -5.3096 0.1728 0 1
-8.0919 14.7098 -5.6407 0.1635 0 1
-9.2539 15.3279 -6.0157 0.1470 0 1
-10.5819 16.0325 -6.4542 0.1272 0 1
-12.1412 16.8769 -6.9852 0.1176 0 1
-13.9481 17.8294 -7.6057 0.1060 0 1
-15.8908 18.7101 -8.2476 0.1124 0 1
-17.4942 18.9935 -8.6759 0.0978 0 2
-20.0358 20.0691 -9.5279 0.0891 0 2
-22.9964 21.2519 -10.5205 0.0807 0 25
-22.3923 19.0823 -9.8847 0.7681 0 5
-22.4936 17.6573 -9.6078 0.8382 0 5
-25.0291 18.0691 -10.3717 0.9721 0 21
-27.8034 18.4174 -11.2051 0.8470 0 3
-29.3288 17.7732 -11.5221 0.4971 0 3
-30.3627 16.7684 -11.6537 0.5160 0 3
-37.2986 18.6820 -14.0157 0.9020 0 3
-30.3092 13.6851 -11.1733 0.4003 0 5
-43.3984 17.5294 -15.7256 0.9146 0 3
-43.7083 13.6839 -15.3881 0.2382 0 5
-23.9459 -17.6441 -10.3617 0.8312 15 6
-25.3112 -20.2704 -11.2965 0.0776 0 2
-22.2567 -19.3439 -10.2725 0.0854 0 2
-19.8692 -18.7238 -9.5107 0.9813 0 2
-17.7474 -18.1264 -8.8372 0.0684 0 1
-15.3199 -16.9612 -7.9620 0.1120 0 1
-13.5239 -16.2410 -7.3624 0.1229 0 1
-11.9503 -15.5859 -6.8418 0.1304 0 1
-10.5322 -14.9450 -6.3692 0.1401 0 1
-9.2757 -14.3555 -5.9540 0.1552 0 1
-8.1520 -13.8047 -5.5849 0.1655 0 1
-7.1317 -13.2686 -5.2476 0.1743 0 1
-6.2195 -12.7789 -4.9509 0.1910 0 1
-5.3913 -12.3126 -4.6824 0.2025 0 1
-4.6362 -11.8657 -4.4379 0.2136 0 1
-3.9455 -11.4350 -4.2140 0.2235 0 1
-3.3123 -11.0189 -4.0082 0.2364 0 1
-2.7331 -10.6248 -3.8218 0.2423 0 1
-2.1975 -10.2325 -3.6459 0.2540 0 1
-1.7058 -9.8599 -3.4858 0.2699 0 1
-1.2519 -9.4967 -3.3369 0.2781 0 1
-0.8328 -9.1427 -3.1982 0.2898 0 1
-0.4457 -8.8011 -3.0699 0.3020 0 1
-0.0875 -8.4378 -2.9395 0.3179 0 24
0.2436 -8.1536 -2.8417 0.3262 0 1
0.5510 -7.8471 -2.7404 0.3433 0 1
0.8341 -7.5284 -2.6386 0.3554 0 24
1.1028 -7.2687 -2.5611 0.3672 0 1
1.3502 -6.9902 -2.4801 0.3793 0 1
1.5807 -6.7193 -2.4046 0.3913 0 1
1.7899 -6.4354 -2.3269 0.4021 0 24
1.9890 -6.1772 -2.2607 0.4110 0 24
2.1829 -5.9477 -2.2071 0.4252 0 1
2.3575 -5.7031 -2.1498 0.4365 0 1
2.5207 -5.4642 -2.0963 0.4474 0 1
2.6732 -5.2308 -2.0464 0.4583 0 1
2.8122 -4.9959 -1.9972 0.4530 0 1
2.9362 -4.7578 -1.9476 0.4645 0 1
3.0512 -4.5261 -1.9015 0.4758 0 1
3.1579 -4.3003 -1.8586 0.4868 0 1
3.2567 -4.0801 -1.8186 0.4975 0 1
3.3491 -3.8661 -1.7819 0.5287 0 1
3.4425 -3.6651 -1.7517 0.5296 0 1
3.5301 -3.4676 -1.7238 0.5381 0 1
3.6118 -3.2730 -1.6980 0.5463 0 1
3.6878 -3.0810 -1.6740 0.5541 0 1
3.7585 -2.8915 -1.6519 0.5616 0 1
3.8240 -2.7042 -1.6316 0.5686 0 1
3.8848 -2.5191 -1.6130 0.5752 0 1
3.9417 -2.3364 -1.5962 0.5812 0 1
3.9941 -2.1552 -1.5810 0.5869 0 1
4.0422 -1.9755 -1.5673 0.5920 0 1
4.0861 -1.7971 -1.5550 0.5967 0 1
4.1259 -1.6198 -1.5441 0.6009 0 1
4.1621 -1.4437 -1.5347 0.6078 0 1
4.1948 -1.2684 -1.5267 0.6110 0 1
4.2238 -1.0939 -1.5200 0.6137 0 1
4.2491 -0.9198 -1.5145 0.6159 0 1
4.2708 -0.7460 -1.5103 0.6176 0 1
4.2889 -0.5725 -1.5073 0.6188 0 1
4.3035 -0.3991 -1.5056 0.6196 0 1
4.3145 -0.2256 -1.5051 0.6198 0 1
4.3232 -0.0519 -1.5061 0.6187 0 1
4.3307 0.1223 -1.5092 0.6174 0 1
4.3347 0.2973 -1.5136 0.6156 0 1
4.3351 0.4731 -1.5191 0.6134 0 1
4.3320 0.6500 -1.5260 0.6106 0 1
4.3252 0.8282 -1.5341 0.6074 0 1
4.3112 1.0068 -1.5423 0.5952 0 1
4.2917 1.1861 -1.5511 0.5918 0 1
4.2682 1.3667 -1.5612 0.5880 0 1
4.2406 1.5485 -1.5727 0.5837 0 1
4.2090 1.7319 -1.5855 0.5790 0 1
4.1730 1.9168 -1.5997 0.5738 0 1
4.1327 2.1036 -1.6154 0.5683 0 1
4.0880 2.2924 -1.6327 0.5619 0 1
4.0387 2.4833 -1.6516 0.5555 0 1
3.9844 2.6766 -1.6721 0.5486 0 1
3.9252 2.8725 -1.6944 0.5415 0 1
3.8609 3.0714 -1.7187 0.5338 0 1
3.7910 3.2732 -1.7448 0.5258 0 1
3.7152 3.4782 -1.7729 0.5175 0 1
3.6331 3.6866 -1.8031 0.5088 0 1
3.5445 3.8986 -1.8355 0.4998 0 1
3.4489 4.1145 -1.8703 0.4905 0 1
3.3459 4.3346 -1.9075 0.4810 0 1
3.2326 4.5554 -1.9459 0.4794 0 1
3.1104 4.7796 -1.9865 0.4695 0 1
2.9795 5.0082 -2.0301 0.4595 0 1
2.8393 5.2415 -2.0766 0.4492 0 1
2.6892 5.4799 -2.1265 0.4387 0 1
2.5284 5.7236 -2.1798 0.4279 0 1
2.3561 5.9728 -2.2367 0.4174 0 1
2.1715 6.2277 -2.2976 0.4063 0 1
1.9737 6.4891 -2.3628 0.3951 0 1
1.7602 6.7515 -2.4306 0.4068 0 1
1.5296 7.0113 -2.4999 0.3955 0 1
1.2865 7.2946 -2.5804 0.3625 0 1
1.0275 7.6029 -2.6726 0.3500 0 1
0.7464 7.9094 -2.7676 0.3374 0 1
0.4433 8.2221 -2.8684 0.3255 0 1
0.1164 8.5420 -2.9760 0.3162 0 1
-0.2361 8.8706 -3.0913 0.3045 0 1
-0.6160 9.2010 -3.2124 0.3114 0 1
-1.0255 9.5402 -3.3426 0.2848 0 1
-1.4695 9.9029 -3.4876 0.2767 0 1
-1.9479 10.2641 -3.6394 0.2651 0 1
-2.4682 10.6474 -3.8075 0.2464 0 1
-3.0255 11.0165 -3.9798 0.2349 0 24
-3.6432 11.4420 -4.1831 0.2215 0 24
-4.3342 11.9295 -4.4216 0.2090 0 1
-5.0777 12.3976 -4.6671 0.1980 0 1
-5.8746 12.8444 -4.9203 0.1861 0 24
-6.7711 13.3563 -5.2165 0.1805 0 1
-7.7370 13.8503 -5.5267 0.1703 0 1
-8.7984 14.3612 -5.8671 0.1624 0 1
-9.9806 14.9094 -6.2502 0.1461 0 1
-11.3300 15.5349 -6.6981 0.1280 0 1
-12.8955 16.2645 -7.2307 0.1154 0 1
-14.6996 17.0809 -7.8504 0.1146 0 1
-16.7121 17.9089 -8.5332 0.7204 0 2
-18.1783 17.9729 -8.9052 0.0985 0 2
-20.6289 18.8165 -9.7268 0.0901 0 2
-23.4382 19.7115 -10.6686 0.0822 0 25
-22.4177 17.3630 -9.8779 0.8032 0 5
-27.6102 19.6603 -11.8076 0.8302 0 3
-27.6945 18.0869 -11.5229 0.8507 0 3
-29.7578 17.7693 -12.0740 0.4900 0 3
-32.3891 17.6132 -12.8435 0.7819 0 3
-32.4581 15.9940 -12.6054 0.8049 0 3
-30.8762 13.6997 -11.7673 0.4034 0 5
-38.5666 -23.5415 -15.7403 0.0557 0 2
-33.6616 -22.4543 -14.0959 0.0622 0 2
-24.1322 -17.5402 -10.3927 0.5539 15 6
-25.8479 -20.4254 -11.4764 0.0764 0 2
-22.7223 -19.4902 -10.4286 0.0841 0 2
-20.0146 -18.6163 -9.5221 0.9801 0 2
-18.2398 -18.3882 -9.0226 0.0669 0 1
-15.6563 -17.1083 -8.0788 0.0917 0 1
-13.7953 -16.3493 -7.4521 0.1214 0 1
-12.1954 -15.6929 -6.9235 0.1289 0 1
-10.7509 -15.0463 -6.4421 0.1385 0 1
-9.4688 -14.4471 -6.0174 0.1536 0 1
-8.3261 -13.8921 -5.6421 0.1638 0 1
-7.2903 -13.3544 -5.3002 0.1725 0 1
-6.3611 -12.8563 -4.9969 0.1892 0 1
-5.5201 -12.3867 -4.7242 0.2007 0 1
-4.7538 -11.9368 -4.4759 0.2118 0 1
-4.0534 -11.5041 -4.2491 0.2217 0 1
-3.4110 -11.0847 -4.0402 0.2331 0 1
-2.8241 -10.6896 -3.8516 0.2460 0 1
-2.2811 -10.2949 -3.6733 0.2521 0 1
-1.7826 -9.9191 -3.5108 0.2680 0 1
-1.3176 -9.5161 -3.3466 0.2751 0 24
-0.8984 -9.1992 -3.2199 0.2879 0 1
-0.5063 -8.8555 -3.0900 0.3000 0 1
-0.1439 -8.5242 -2.9699 0.3121 0 1
0.1917 -8.2043 -2.8589 0.3242 0 1
0.5028 -7.8955 -2.7561 0.3413 0 1
0.7894 -7.5753 -2.6532 0.3535 0 24
1.0610 -7.3142 -2.5747 0.3653 0 1
1.3114 -7.0348 -2.4929 0.3774 0 1
1.5445 -6.7626 -2.4165 0.3893 0 1
1.7618 -6.4980 -2.3454 0.4011 0 1
1.9578 -6.2188 -2.2712 0.4098 0 24
2.1535 -5.9878 -2.2167 0.4233 0 1
2.3300 -5.7422 -2.1588 0.4347 0 1
2.4950 -5.5024 -2.1047 0.4456 0 1
2.6492 -5.2682 -2.0542 0.4565 0 1
2.7912 -5.0351 -2.0055 0.4511 0 1
2.9168 -4.7959 -1.9554 0.4627 0 1
3.0332 -4.5632 -1.9088 0.4740 0 1
3.1411 -4.3365 -1.8653 0.4850 0 1
3.2412 -4.1154 -1.8249 0.4958 0 1
3.3338 -3.8995 -1.7872 0.5062 0 1
3.4278 -3.6973 -1.7564 0.5282 0 1
3.5164 -3.4993 -1.7282 0.5368 0 1
3.5990 -3.3043 -1.7020 0.5450 0 1
3.6759 -3.1119 -1.6778 0.5529 0 1
3.7474 -2.9220 -1.6554 0.5604 0 1
3.8137 -2.7344 -1.6348 0.5675 0 1
3.8752 -2.5489 -1.6158 0.5742 0 1
3.9328 -2.3658 -1.5988 0.5803 0 1
3.9859 -2.1844 -1.5834 0.5860 0 1
4.0347 -2.0045 -1.5694 0.5912 0 1
4.0793 -1.8259 -1.5569 0.5960 0 1
4.1198 -1.6485 -1.5458 0.6003 0 1
4.1564 -1.4721 -1.5361 0.6073 0 1
4.1898 -1.2967 -1.5279 0.6105 0 1
4.2194 -1.1221 -1.5210 0.6133 0 1
4.2453 -0.9479 -1.5153 0.6156 0 1
4.2675 -0.7741 -1.5109 0.6174 0 1
4.2862 -0.6006 -1.5077 0.6187 0 1
4.3014 -0.4271 -1.5058 0.6195 0 1
4.3130 -0.2536 -1.5051 0.6198 0 1
4.3217 -0.0800 -1.5058 0.6188 0 1
4.3297 0.0941 -1.5087 0.6177 0 1
4.3343 0.2689 -1.5128 0.6160 0 1
4.3353 0.4446 -1.5182 0.6138 0 1
4.3327 0.6213 -1.5248 0.6111 0 1
4.3266 0.7992 -1.5327 0.6080 0 1
4.3140 0.9779 -1.5410 0.5957 0 1
4.2951 1.1570 -1.5496 0.5924 0 1
4.2722 1.3374 -1.5595 0.5887 0 1
4.2454 1.5190 -1.5707 0.5844 0 1
4.2144 1.7021 -1.5833 0.5798 0 1
4.1791 1.8868 -1.5973 0.5747 0 1
4.1395 2.0732 -1.6128 0.5692 0 1
4.0956 2.2617 -1.6298 0.5629 0 1
4.0470 2.4523 -1.6484 0.5565 0 1
3.9935 2.6452 -1.6687 0.5498 0 1
3.9351 2.8406 -1.6907 0.5427 0 1
3.8717 3.0390 -1.7146 0.5351 0 1
3.8027 3.2404 -1.7404 0.5271 0 1
3.7279 3.4448 -1.7682 0.5189 0 1
3.6468 3.6526 -1.7981 0.5102 0 1
3.5593 3.8641 -1.8301 0.5013 0 1
3.4649 4.0793 -1.8645 0.4921 0 1
3.3631 4.2987 -1.9013 0.4825 0 1
3.2516 4.5195 -1.9396 0.4809 0 1
3.1307 4.7430 -1.9798 0.4712 0 1
3.0013 4.9709 -2.0228 0.4611 0 1
2.8626 5.2034 -2.0689 0.4509 0 1
2.7142 5.4410 -2.1182 0.4404 0 1
2.5552 5.6838 -2.1709 0.4297 0 1
2.3848 5.9321 -2.2273 0.4191 0 1
2.2023 6.1860 -2.2875 0.4081 0 1
2.0067 6.4463 -2.3519 0.3969 0 1
1.7961 6.7101 -2.4198 0.4086 0 1
1.5680 6.9688 -2.4884 0.3973 0 1
1.3265 7.2457 -2.5661 0.3645 0 1
1.0707 7.5522 -2.6572 0.3520 0 1
0.7934 7.8598 -2.7520 0.3393 0 1
0.4939 8.1708 -2.8516 0.3274 0 1
0.1710 8.4899 -2.9581 0.3182 0 1
-0.1772 8.8167 -3.0720 0.3064 0 1
-0.5527 9.1485 -3.1928 0.3133 0 1
-0.9567 9.4806 -3.3195 0.2868 0 1
-1.3955 9.8456 -3.4641 0.2785 0 1
-1.8679 10.2048 -3.6140 0.2670 0 1
-2.3807 10.5827 -3.7787 0.2483 0 1
-2.9307 10.9501 -3.9489 0.2373 0 24
-3.5516 11.4107 -4.1631 0.2269 0 1
-4.2202 11.8556 -4.3839 0.2108 0 1
-4.9348 12.2761 -4.6091 0.2000 0 24
-5.7372 12.7631 -4.8747 0.1879 0 24
-6.6230 13.2780 -5.1690 0.1821 0 1
-7.5744 13.7691 -5.4745 0.1720 0 1
-8.6196 14.2772 -5.8098 0.1640 0 1
-9.7783 14.8150 -6.1838 0.1477 0 1
-11.0953 15.4230 -6.6186 0.1295 0 1
-12.6240 16.1367 -7.1372 0.1167 0 1
-14.3465 16.8918 -7.7204 0.1096 0 24
-16.5731 17.9934 -8.5219 0.1205 0 2
-17.8115 17.8411 -8.7822 0.0998 0 2
-20.2096 18.6766 -9.5862 0.0915 0 2
-22.9565 19.5631 -10.5071 0.0834 0 25
-22.4056 17.5882 -9.9228 0.8007 0 5
-24.9448 18.0082 -10.7176 0.8810 0 21
-27.6815 18.3367 -11.5670 0.8475 0 3
-26.8923 16.2967 -10.9542 0.8935 0 3
-32.1447 17.7525 -12.7922 0.4625 0 3
-35.3972 17.7296 -13.7913 0.4290 0 3
-30.2998 13.6808 -11.5813 0.3385 0 5
-43.7422 17.6682 -16.4342 0.3600 0 3
-43.7348 13.6922 -15.9647 0.3489 0 5
-23.7608 -17.5078 -10.6498 0.9443 15 6
-22.1269 -17.7203 -10.2290 0.0884 0 2
-20.7199 -18.0081 -9.9056 0.9501 0 2
-17.8255 -16.7979 -8.8381 0.0885 0 1
-15.6808 -16.0156 -8.0878 0.1137 0 1
-13.9391 -15.4324 -7.5038 0.1246 0 1
-12.3952 -14.8856 -6.9896 0.1335 0 1
-11.0071 -14.3558 -6.5275 0.1412 0 1
-9.7614 -13.8513 -6.1145 0.1549 0 1
-8.6522 -13.3905 -5.7527 0.1657 0 1
-7.6112 -12.8888 -5.4011 0.1780 0 24
-6.7134 -12.4903 -5.1167 0.1906 0 1
-5.8761 -12.0733 -4.8451 0.2020 0 1
-5.0902 -11.6249 -4.5792 0.2128 0 24
-4.4054 -11.2750 -4.3679 0.2225 0 1
-3.7575 -10.8902 -4.1569 0.2338 0 1
-3.1625 -10.5205 -3.9640 0.2466 0 1
-2.6126 -10.1563 -3.7841 0.2565 0 1
-2.1060 -9.8065 -3.6192 0.2682 0 1
-1.6376 -9.4659 -3.4664 0.2762 0 1
-1.2036 -9.1300 -3.3229 0.2881 0 1
-0.8019 -8.8036 -3.1898 0.2998 0 1
-0.4298 -8.4873 -3.0664 0.3119 0 1
-0.0845 -8.1524 -2.9418 0.3302 0 24
0.2356 -7.8844 -2.8463 0.3410 0 1
0.5320 -7.5760 -2.7404 0.3534 0 24
0.8114 -7.3234 -2.6587 0.3650 0 1
1.0703 -7.0542 -2.5746 0.3769 0 1
1.3117 -6.7906 -2.4956 0.3890 0 1
1.5369 -6.5331 -2.4217 0.4008 0 1
1.7472 -6.2820 -2.3528 0.4115 0 1
1.9366 -6.0143 -2.2799 0.4206 0 24
2.1271 -5.7958 -2.2277 0.4346 0 1
2.2988 -5.5610 -2.1713 0.4456 0 1
2.4594 -5.3314 -2.1186 0.4567 0 1
2.6098 -5.1066 -2.0693 0.4676 0 1
2.7451 -4.8767 -2.0193 0.4623 0 1
2.8679 -4.6471 -1.9704 0.4737 0 1
2.9819 -4.4232 -1.9249 0.4850 0 1
3.0876 -4.2047 -1.8824 0.4959 0 1
3.1858 -3.9913 -1.8427 0.5066 0 1
3.2804 -3.7868 -1.8078 0.5376 0 1
3.3717 -3.5897 -1.7771 0.5470 0 1
3.4586 -3.3973 -1.7493 0.5471 0 1
3.5396 -3.2076 -1.7236 0.5553 0 1
3.6152 -3.0203 -1.6998 0.5631 0 1
3.6854 -2.8353 -1.6778 0.5704 0 1
3.7506 -2.6523 -1.6575 0.5774 0 1
3.8110 -2.4712 -1.6390 0.5840 0 1
3.8676 -2.2924 -1.6223 0.5900 0 1
3.9197 -2.1150 -1.6071 0.5957 0 1
3.9675 -1.9390 -1.5935 0.6008 0 1
4.0112 -1.7642 -1.5812 0.6055 0 1
4.0509 -1.5904 -1.5703 0.6129 0 1
4.0872 -1.4177 -1.5610 0.6165 0 1
4.1198 -1.2457 -1.5530 0.6197 0 1
4.1486 -1.0744 -1.5463 0.6224 0 1
4.1737 -0.9034 -1.5409 0.6246 0 1
4.1952 -0.7328 -1.5367 0.6263 0 1
4.2131 -0.5624 -1.5337 0.6275 0 1
4.2275 -0.3920 -1.5320 0.6282 0 1
4.2384 -0.2216 -1.5315 0.6284 0 1
4.2468 -0.0509 -1.5325 0.6273 0 1
4.2540 0.1202 -1.5356 0.6261 0 1
4.2577 0.2920 -1.5399 0.6243 0 1
4.2578 0.4647 -1.5455 0.6221 0 1
4.2544 0.6384 -1.5523 0.6193 0 1
4.2474 0.8132 -1.5604 0.6161 0 1
4.2316 0.9882 -1.5680 0.6040 0 1
4.2120 1.1641 -1.5768 0.6007 0 1
4.1884 1.3411 -1.5869 0.5968 0 1
4.1608 1.5194 -1.5983 0.5926 0 1
4.1291 1.6990 -1.6111 0.5879 0 1
4.0932 1.8801 -1.6253 0.5827 0 1
4.0528 2.0629 -1.6410 0.5772 0 1
4.0081 2.2476 -1.6582 0.5708 0 1
3.9588 2.4343 -1.6769 0.5644 0 1
3.9047 2.6231 -1.6973 0.5577 0 1
3.8457 2.8144 -1.7196 0.5505 0 1
3.7816 3.0083 -1.7436 0.5429 0 1
3.7120 3.2050 -1.7696 0.5349 0 1
3.6365 3.4046 -1.7975 0.5266 0 1
3.5549 3.6073 -1.8275 0.5180 0 1
3.4669 3.8132 -1.8596 0.5090 0 1
3.3720 4.0227 -1.8940 0.4998 0 1
3.2699 4.2360 -1.9309 0.4939 0 1
3.1588 4.4514 -1.9695 0.4886 0 1
3.0379 4.6682 -2.0097 0.4789 0 1
2.9086 4.8890 -2.0527 0.4688 0 1
2.7702 5.1140 -2.0987 0.4586 0 1
2.6222 5.3434 -2.1478 0.4481 0 1
2.4639 5.5776 -2.2002 0.4374 0 1
2.2945 5.8166 -2.2563 0.4269 0 1
2.1133 6.0606 -2.3160 0.4159 0 1
1.9193 6.3101 -2.3799 0.4047 0 1
1.7117 6.5655 -2.4483 0.3934 0 1
1.4875 6.8183 -2.5181 0.4051 0 1
1.2482 7.0777 -2.5933 0.3722 0 1
0.9959 7.3690 -2.6832 0.3597 0 1
0.7225 7.6555 -2.7747 0.3472 0 1
0.4285 7.9488 -2.8724 0.3354 0 1
0.1124 8.2499 -2.9771 0.3262 0 1
-0.2277 8.5558 -3.0884 0.3144 0 1
-0.5939 8.8708 -3.2081 0.3027 0 1
-0.9876 9.1879 -3.3344 0.3096 0 1
-1.4123 9.5172 -3.4718 0.2867 0 1
-1.8689 9.8476 -3.6168 0.2752 0 1
-2.3615 10.1872 -3.7734 0.2638 0 1
-2.8984 10.5538 -3.9492 0.2451 0 1
-3.4817 10.9347 -4.1408 0.2354 0 1
-4.1142 11.3239 -4.3474 0.2203 0 1
-4.7892 11.6933 -4.5596 0.2092 0 24
-5.5420 12.1172 -4.8079 0.1973 0 24
-6.3747 12.5744 -5.0871 0.1910 0 1
-7.2587 12.9941 -5.3707 0.1808 0 1
-8.2284 13.4309 -5.6835 0.1676 0 1
-9.2859 13.8716 -6.0234 0.1640 0 1
-10.4546 14.3346 -6.4020 0.1461 0 1
-11.7757 14.8521 -6.8393 0.1293 0 1
-13.3116 15.4681 -7.3637 0.1165 0 1
-15.1139 16.1963 -7.9936 0.1028 0 1
-16.7304 16.5414 -8.4894 0.7470 0 2
-18.3546 16.7420 -8.9643 0.1009 0 2
-20.6338 17.3531 -9.7284 0.0930 0 2
-23.2003 17.9691 -10.5888 0.0854 0 25
-26.0953 18.5815 -11.5594 0.0783 0 25
-27.5731 18.0076 -11.8833 0.8511 0 3
-29.7563 17.7684 -12.5057 0.4881 0 3
-32.6371 17.7481 -13.4053 0.4554 0 3
-35.9701 17.7245 -14.4695 0.4219 0 3
-30.7977 13.6649 -12.1577 0.3880 0 5
-36.2930 14.3852 -14.0870 0.1535 0 21
-40.7531 -20.5767 -16.4733 0.0549 0 2
-36.1789 -20.1328 -14.9398 0.0606 0 2
-32.1249 -19.6094 -13.5808 0.0666 0 2
-28.5371 -19.0360 -12.3780 0.0731 0 2
-24.0083 -17.4501 -10.7096 0.5509 15 6
-22.5509 -17.8201 -10.3711 0.0872 0 2
-20.8842 -17.9136 -9.9282 0.9287 0 2
-18.2477 -16.9727 -8.9924 0.0692 0 1
-15.9841 -16.1142 -8.1899 0.1123 0 1
-14.2052 -15.5226 -7.5925 0.1231 0 1
-12.6334 -14.9723 -7.0688 0.1322 0 1
-11.2223 -14.4407 -6.5992 0.1396 0 1
-9.9509 -13.9266 -6.1762 0.1534 0 1
-8.8257 -13.4659 -5.8096 0.1631 0 1
-7.7937 -13.0038 -5.4705 0.1725 0 1
-6.8563 -12.5593 -5.1632 0.1889 0 1
-6.0066 -12.1399 -4.8874 0.2005 0 1
-5.2287 -11.7328 -4.6350 0.2111 0 1
-4.5154 -11.3381 -4.4037 0.2221 0 1
-3.8446 -10.9115 -4.1745 0.2329 0 24
-3.2553 -10.5786 -3.9938 0.2447 0 1
-2.6986 -10.2147 -3.8123 0.2506 0 1
-2.1853 -9.8623 -3.6450 0.2663 0 1
-1.7112 -9.5214 -3.4907 0.2743 0 1
-1.2716 -9.1836 -3.3454 0.2862 0 1
-0.8648 -8.8558 -3.2107 0.2979 0 1
-0.4882 -8.5378 -3.0858 0.3099 0 1
-0.1389 -8.2298 -2.9700 0.3220 0 1
0.1853 -7.9312 -2.8627 0.3341 0 1
0.4868 -7.6455 -2.7644 0.3511 0 1
0.7677 -7.3677 -2.6729 0.3630 0 1
1.0296 -7.0973 -2.5878 0.3750 0 1
1.2737 -6.8329 -2.5080 0.3870 0 1
1.5015 -6.5743 -2.4333 0.3989 0 1
1.7142 -6.3223 -2.3637 0.4107 0 1
1.9127 -6.0754 -2.2983 0.4213 0 1
2.0982 -5.8342 -2.2372 0.4328 0 1
2.2718 -5.5986 -2.1802 0.4438 0 1
2.4341 -5.3682 -2.1269 0.4549 0 1
2.5861 -5.1426 -2.0771 0.4659 0 1
2.7243 -4.9145 -2.0276 0.4604 0 1
2.8486 -4.6838 -1.9781 0.4719 0 1
2.9640 -4.4591 -1.9320 0.4832 0 1
3.0711 -4.2397 -1.8890 0.4942 0 1
3.1704 -4.0255 -1.8490 0.5049 0 1
3.2650 -3.8190 -1.8130 0.5361 0 1
3.3574 -3.6214 -1.7819 0.5455 0 1
3.4449 -3.4282 -1.7537 0.5458 0 1
3.5269 -3.2381 -1.7277 0.5540 0 1
3.6033 -3.0505 -1.7036 0.5618 0 1
3.6744 -2.8651 -1.6813 0.5693 0 1
3.7403 -2.6818 -1.6607 0.5763 0 1
3.8014 -2.5004 -1.6418 0.5830 0 1
3.8587 -2.3212 -1.6249 0.5891 0 1
3.9116 -2.1436 -1.6095 0.5948 0 1
3.9601 -1.9674 -1.5956 0.6000 0 1
4.0044 -1.7924 -1.5831 0.6048 0 1
4.0447 -1.6184 -1.5720 0.6090 0 1
4.0816 -1.4456 -1.5624 0.6160 0 1
4.1148 -1.2735 -1.5542 0.6192 0 1
4.1441 -1.1021 -1.5473 0.6220 0 1
4.1699 -0.9311 -1.5417 0.6243 0 1
4.1919 -0.7604 -1.5373 0.6261 0 1
4.2105 -0.5900 -1.5341 0.6273 0 1
4.2254 -0.4196 -1.5322 0.6281 0 1
4.2369 -0.2492 -1.5315 0.6284 0 1
4.2453 -0.0786 -1.5321 0.6275 0 1
4.2531 0.0924 -1.5350 0.6263 0 1
4.2573 0.2641 -1.5391 0.6246 0 1
4.2580 0.4367 -1.5445 0.6225 0 1
4.2552 0.6102 -1.5511 0.6198 0 1
4.2488 0.7849 -1.5590 0.6167 0 1
4.2344 0.9598 -1.5667 0.6045 0 1
4.2154 1.1356 -1.5753 0.6012 0 1
4.1925 1.3124 -1.5852 0.5975 0 1
4.1655 1.4904 -1.5964 0.5933 0 1
4.1345 1.6698 -1.6090 0.5887 0 1
4.0993 1.8507 -1.6229 0.5836 0 1
4.0597 2.0332 -1.6383 0.5781 0 1
4.0157 2.2176 -1.6553 0.5718 0 1
3.9671 2.4039 -1.6738 0.5655 0 1
3.9138 2.5923 -1.6939 0.5588 0 1
3.8555 2.7832 -1.7158 0.5517 0 1
3.7923 2.9768 -1.7396 0.5441 0 1
3.7236 3.1730 -1.7653 0.5362 0 1
3.6491 3.3721 -1.7929 0.5280 0 1
3.5685 3.5742 -1.8225 0.5194 0 1
3.4816 3.7797 -1.8543 0.5105 0 1
3.3878 3.9886 -1.8883 0.5013 0 1
3.2869 4.2012 -1.9248 0.4918 0 1
3.1776 4.4167 -1.9633 0.4902 0 1
3.0580 4.6329 -2.0030 0.4805 0 1
2.9301 4.8530 -2.0456 0.4705 0 1
2.7933 5.0773 -2.0910 0.4602 0 1
2.6468 5.3060 -2.1396 0.4498 0 1
2.4903 5.5394 -2.1915 0.4391 0 1
2.3228 5.7777 -2.2470 0.4287 0 1
2.1434 6.0208 -2.3061 0.4177 0 1
1.9516 6.2694 -2.3693 0.4065 0 1
1.7463 6.5238 -2.4369 0.3952 0 1
1.5250 6.7779 -2.5068 0.4069 0 1
1.2873 7.0315 -2.5794 0.3742 0 1
1.0380 7.3212 -2.6682 0.3617 0 1
0.7681 7.6088 -2.7595 0.3491 0 1
0.4775 7.9008 -2.8561 0.3373 0 1
0.1651 8.2012 -2.9599 0.3281 0 1
-0.1710 8.5057 -3.0698 0.3163 0 1
-0.5328 8.8192 -3.1881 0.3046 0 1
-0.9221 9.1378 -3.3140 0.3115 0 1
-1.3415 9.4646 -3.4493 0.2886 0 1
-1.7927 9.7935 -3.5926 0.2771 0 1
-2.2792 10.1316 -3.7472 0.2657 0 1
-2.8084 10.4932 -3.9196 0.2470 0 1
-3.3841 10.8725 -4.1088 0.2356 0 1
-3.9945 11.2217 -4.2981 0.2223 0 24
-4.6736 11.6264 -4.5215 0.2111 0 24
-5.4345 12.0898 -4.7829 0.1993 0 1
-6.2387 12.5075 -5.0434 0.1927 0 1
-7.1104 12.9255 -5.3231 0.1825 0 1
-8.0634 13.3560 -5.6295 0.1692 0 1
-9.1087 13.8005 -5.9666 0.1655 0 1
-10.2539 14.2534 -6.3357 0.1476 0 1
-11.5475 14.7607 -6.7624 0.1383 0 1
-13.0473 15.3622 -7.2727 0.1179 0 1
-14.7536 16.0180 -7.8580 0.1181 0 1
-16.7072 16.7350 -8.5328 0.7432 0 2
-18.0102 16.6440 -8.8489 0.1022 0 2
-20.2465 17.2537 -9.5986 0.0942 0 2
-22.7638 17.8694 -10.4425 0.0866 0 25
-24.8515 17.9409 -11.0599 0.7714 0 21
-27.5597 18.2560 -11.9285 0.8479 0 3
-25.7506 15.6048 -10.8647 0.9973 0 21
-32.1430 17.7516 -13.2496 0.4607 0 3
-35.3951 17.7286 -14.2844 0.4273 0 3
-30.3014 13.6816 -11.9967 0.4240 0 5
-35.6110 14.3839 -13.8584 0.2462 0 21
-43.6876 13.6774 -16.5186 0.3523 0 5
-22.9557 -16.9146 -10.6476 0.7761 0 2
-20.3120 -16.2668 -9.7172 0.0725 0 1
-17.9492 -15.6001 -8.8801 0.0939 0 1
-15.9526 -15.0329 -8.1851 0.1158 0 1
-14.2765 -14.5814 -7.6201 0.1255 0 1
-12.7841 -14.1537 -7.1219 0.1343 0 1
-11.4256 -13.7212 -6.6674 0.1426 0 1
-10.1965 -13.2985 -6.2575 0.1518 0 1
-9.1009 -12.9140 -5.8994 0.1655 0 1
-8.1002 -12.5362 -5.5733 0.1752 0 1
-7.1836 -12.1648 -5.2754 0.1914 0 1
-6.3413 -11.7981 -5.0016 0.2019 0 1
-5.5666 -11.4373 -4.7498 0.2123 0 1
-4.8530 -11.0832 -4.5180 0.2232 0 1
-4.1937 -10.7333 -4.3030 0.2328 0 1
-3.5853 -10.3912 -4.1047 0.2440 0 1
-3.0231 -10.0568 -3.9213 0.2551 0 1
-2.5030 -9.7305 -3.7518 0.2666 0 1
-2.0214 -9.4125 -3.5949 0.2783 0 1
-1.5737 -9.0966 -3.4472 0.2862 0 1
-1.1585 -8.7879 -3.3099 0.2981 0 1
-0.7730 -8.4863 -3.1820 0.3098 0 1
-0.4149 -8.1928 -3.0632 0.3218 0 1
-0.0817 -7.8848 -2.9444 0.3400 0 24
0.2281 -7.6335 -2.8517 0.3508 0 1
0.5172 -7.3662 -2.7574 0.3628 0 1
0.7872 -7.1052 -2.6694 0.3746 0 1
1.0394 -6.8505 -2.5873 0.3865 0 1
1.2750 -6.6007 -2.5103 0.3985 0 1
1.4951 -6.3556 -2.4380 0.4103 0 1
1.7010 -6.1157 -2.3704 0.4210 0 1
1.8865 -5.8586 -2.2983 0.4294 0 24
2.0737 -5.6502 -2.2475 0.4437 0 1
2.2425 -5.4248 -2.1919 0.4550 0 1
2.4006 -5.2039 -2.1400 0.4660 0 1
2.5488 -4.9872 -2.0914 0.4768 0 1
2.6806 -4.7622 -2.0406 0.4715 0 1
2.8021 -4.5405 -1.9924 0.4829 0 1
2.9150 -4.3241 -1.9473 0.4941 0 1
3.0200 -4.1126 -1.9052 0.5050 0 1
3.1174 -3.9056 -1.8660 0.5156 0 1
3.2140 -3.7101 -1.8329 0.5465 0 1
3.3046 -3.5182 -1.8024 0.5558 0 1
3.3893 -3.3293 -1.7740 0.5560 0 1
3.4698 -3.1443 -1.7485 0.5642 0 1
3.5448 -2.9615 -1.7248 0.5719 0 1
3.6145 -2.7808 -1.7029 0.5793 0 1
3.6793 -2.6019 -1.6827 0.5862 0 1
3.7394 -2.4248 -1.6642 0.5928 0 1
3.7956 -2.2497 -1.6476 0.5988 0 1
3.8474 -2.0760 -1.6325 0.6044 0 1
3.8950 -1.9036 -1.6188 0.6095 0 1
3.9384 -1.7321 -1.6066 0.6142 0 1
3.9783 -1.5619 -1.5959 0.6215 0 1
4.0144 -1.3925 -1.5867 0.6252 0 1
4.0468 -1.2237 -1.5787 0.6283 0 1
4.0754 -1.0554 -1.5720 0.6310 0 1
4.1003 -0.8875 -1.5666 0.6332 0 1
4.1216 -0.7200 -1.5624 0.6349 0 1
4.1394 -0.5525 -1.5594 0.6361 0 1
4.1536 -0.3852 -1.5577 0.6368 0 1
4.1643 -0.2177 -1.5571 0.6370 0 1
4.1724 -0.0501 -1.5581 0.6359 0 1
4.1794 0.1181 -1.5612 0.6347 0 1
4.1828 0.2869 -1.5656 0.6329 0 1
4.1827 0.4565 -1.5711 0.6307 0 1
4.1790 0.6271 -1.5780 0.6279 0 1
4.1702 0.7985 -1.5855 0.6157 0 1
4.1543 0.9701 -1.5930 0.6128 0 1
4.1346 1.1427 -1.6018 0.6094 0 1
4.1109 1.3163 -1.6118 0.6056 0 1
4.0833 1.4911 -1.6232 0.6014 0 1
4.0516 1.6671 -1.6360 0.5967 0 1
4.0157 1.8445 -1.6501 0.5916 0 1
3.9754 2.0235 -1.6657 0.5860 0 1
3.9307 2.2042 -1.6828 0.5797 0 1
3.8815 2.3867 -1.7015 0.5733 0 1
3.8275 2.5712 -1.7218 0.5666 0 1
3.7687 2.7580 -1.7439 0.5594 0 1
3.7049 2.9473 -1.7678 0.5519 0 1
3.6356 3.1391 -1.7936 0.5439 0 1
3.5605 3.3334 -1.8213 0.5357 0 1
3.4794 3.5307 -1.8510 0.5271 0 1
3.3920 3.7309 -1.8828 0.5182 0 1
3.2978 3.9343 -1.9169 0.5089 0 1
3.1973 4.1420 -1.9539 0.5031 0 1
3.0877 4.3512 -1.9923 0.4973 0 1
2.9682 4.5611 -2.0321 0.4881 0 1
2.8405 4.7745 -2.0745 0.4781 0 1
2.7039 4.9916 -2.1198 0.4679 0 1
2.5580 5.2126 -2.1682 0.4575 0 1
2.4022 5.4378 -2.2198 0.4468 0 1
2.2356 5.6673 -2.2749 0.4364 0 1
2.0576 5.9010 -2.3336 0.4254 0 1
1.8674 6.1395 -2.3963 0.4143 0 1
1.6641 6.3830 -2.4632 0.4030 0 1
1.4468 6.6319 -2.5347 0.3916 0 1
1.2124 6.8748 -2.6067 0.4033 0 1
0.9658 7.1466 -2.6929 0.3687 0 1
0.6998 7.4155 -2.7813 0.3570 0 1
0.4146 7.6911 -2.8761 0.3452 0 1
0.1086 7.9738 -2.9778 0.3334 0 1
-0.2199 8.2604 -3.0856 0.3243 0 1
-0.5726 8.5530 -3.2009 0.3127 0 1
-0.9516 8.8530 -3.3249 0.3010 0 1
-1.3589 9.1577 -3.4570 0.2968 0 1
-1.7955 9.4607 -3.5958 0.2853 0 1
-2.2649 9.7703 -3.7451 0.2740 0 1
-2.7714 10.0912 -3.9077 0.2553 0 1
-3.3221 10.4336 -4.0888 0.2440 0 1
-3.9018 10.7392 -4.2666 0.2313 0 24
-4.5607 11.1353 -4.4933 0.2197 0 1
-5.2621 11.5052 -4.7242 0.2090 0 1
-6.0196 11.8740 -4.9711 0.2015 0 1
-6.8330 12.2321 -5.2319 0.1914 0 1
-7.6890 12.5505 -5.4961 0.1781 0 24
-8.6511 12.9234 -5.8072 0.1717 0 24
-9.7308 13.3422 -6.1664 0.1651 0 1
-10.8816 13.7244 -6.5402 0.1529 0 1
-12.1550 14.1241 -6.9582 0.1386 0 1
-13.6414 14.6183 -7.4662 0.1183 0 1
-15.8350 15.6561 -8.3151 0.1018 0 1
-16.7951 15.3195 -8.4885 0.8531 0 2
-18.4131 15.4854 -8.9839 0.1038 0 2
-20.5081 15.8840 -9.6863 0.0963 0 2
-22.8244 16.2524 -10.4628 0.0891 0 25
-25.3827 16.5771 -11.3205 0.0824 0 25
-28.2027 16.8407 -12.2658 0.0760 0 25
-31.3007 17.0214 -13.3045 0.0701 0 25
-32.4173 15.9739 -13.4948 0.9697 0 3
-30.8729 13.6983 -12.6121 0.3623 0 5
-42.3170 16.7729 -16.9976 0.0549 0 25
-41.3370 -16.8518 -16.6691 0.0559 0 2
-37.4489 -17.0542 -15.3656 0.0607 0 2
-33.8416 -17.0871 -14.1563 0.0659 0 2
-30.5251 -16.9866 -13.0444 0.0715 0 2
-27.4955 -16.7836 -12.0288 0.0775 0 2
-24.8315 -16.5641 -11.1460 0.5860 0 2
-23.1807 -16.8486 -10.7008 0.7722 0 2
-20.7518 -16.3984 -9.8763 0.0735 0 1
-18.2801 -15.6799 -8.9931 0.0927 0 1
-16.2410 -15.1063 -8.2824 0.1144 0 1
-14.5347 -14.6530 -7.7069 0.1258 0 1
-13.0159 -14.2230 -7.1992 0.1329 0 1
-11.6370 -13.7914 -6.7382 0.1411 0 1
-10.3874 -13.3663 -6.3211 0.1502 0 1
-9.2711 -12.9753 -5.9549 0.1640 0 1
-8.2563 -12.5972 -5.6242 0.1736 0 1
-7.3268 -12.2247 -5.3219 0.1898 0 1
-6.4729 -11.8570 -5.0443 0.2002 0 1
-5.6876 -11.4952 -4.7891 0.2106 0 1
-4.9645 -11.1400 -4.5542 0.2214 0 1
-4.2969 -10.7895 -4.3367 0.2309 0 1
-3.6805 -10.4460 -4.1357 0.2422 0 1
-3.1112 -10.1104 -3.9501 0.2533 0 1
-2.5845 -9.7827 -3.7783 0.2648 0 1
-2.0969 -9.4634 -3.6194 0.2764 0 1
-1.6439 -9.1473 -3.4704 0.2843 0 1
-1.2236 -8.8373 -3.3314 0.2962 0 1
-0.8335 -8.5346 -3.2021 0.3078 0 1
-0.4711 -8.2398 -3.0818 0.3198 0 1
-0.1342 -7.9529 -2.9701 0.3318 0 1
0.1793 -7.6774 -2.8676 0.3488 0 1
0.4718 -7.4090 -2.7722 0.3609 0 1
0.7447 -7.1470 -2.6832 0.3727 0 1
0.9997 -6.8913 -2.6002 0.3846 0 1
1.2379 -6.6409 -2.5225 0.3966 0 1
1.4605 -6.3949 -2.4494 0.4084 0 1
1.6686 -6.1543 -2.3810 0.4191 0 1
1.8564 -5.8967 -2.3084 0.4289 0 24
2.0453 -5.6872 -2.2568 0.4419 0 1
2.2159 -5.4609 -2.2007 0.4532 0 1
2.3757 -5.2393 -2.1481 0.4642 0 1
2.5254 -5.0220 -2.0990 0.4751 0 1
2.6601 -4.7986 -2.0488 0.4696 0 1
2.7831 -4.5760 -2.0000 0.4811 0 1
2.8973 -4.3588 -1.9544 0.4923 0 1
3.0035 -4.1465 -1.9119 0.5032 0 1
3.1021 -3.9388 -1.8722 0.5139 0 1
3.1987 -3.7415 -1.8381 0.5450 0 1
3.2903 -3.5490 -1.8072 0.5543 0 1
3.3758 -3.3595 -1.7784 0.5633 0 1
3.4571 -3.1741 -1.7525 0.5629 0 1
3.5330 -2.9909 -1.7285 0.5707 0 1
3.6036 -2.8099 -1.7063 0.5781 0 1
3.6692 -2.6307 -1.6859 0.5851 0 1
3.7299 -2.4533 -1.6671 0.5917 0 1
3.7868 -2.2780 -1.6502 0.5979 0 1
3.8393 -2.1041 -1.6348 0.6036 0 1
3.8876 -1.9314 -1.6210 0.6087 0 1
3.9317 -1.7598 -1.6085 0.6134 0 1
3.9721 -1.5894 -1.5976 0.6209 0 1
4.0089 -1.4198 -1.5881 0.6246 0 1
4.0418 -1.2509 -1.5799 0.6278 0 1
4.0710 -1.0826 -1.5730 0.6306 0 1
4.0965 -0.9147 -1.5674 0.6329 0 1
4.1184 -0.7471 -1.5630 0.6346 0 1
4.1367 -0.5796 -1.5598 0.6359 0 1
4.1515 -0.4123 -1.5579 0.6367 0 1
4.1628 -0.2448 -1.5571 0.6370 0 1
4.1710 -0.0772 -1.5578 0.6361 0 1
4.1785 0.0908 -1.5607 0.6349 0 1
4.1825 0.2595 -1.5648 0.6332 0 1
4.1829 0.4290 -1.5701 0.6311 0 1
4.1798 0.5994 -1.5768 0.6284 0 1
4.1724 0.7708 -1.5844 0.6161 0 1
4.1571 0.9423 -1.5917 0.6133 0 1
4.1380 1.1147 -1.6003 0.6100 0 1
4.1150 1.2882 -1.6101 0.6063 0 1
4.0881 1.4627 -1.6213 0.6021 0 1
4.0570 1.6385 -1.6338 0.5975 0 1
4.0218 1.8157 -1.6477 0.5924 0 1
3.9822 1.9944 -1.6631 0.5870 0 1
3.9382 2.1748 -1.6799 0.5807 0 1
3.8898 2.3570 -1.6984 0.5744 0 1
3.8366 2.5412 -1.7184 0.5677 0 1
3.7786 2.7276 -1.7402 0.5606 0 1
3.7156 2.9165 -1.7638 0.5531 0 1
3.6472 3.1078 -1.7893 0.5452 0 1
3.5731 3.3018 -1.8167 0.5370 0 1
3.4930 3.4985 -1.8460 0.5285 0 1
3.4066 3.6982 -1.8775 0.5196 0 1
3.3135 3.9011 -1.9113 0.5104 0 1
3.2141 4.1081 -1.9477 0.5047 0 1
3.1063 4.3175 -1.9861 0.4989 0 1
2.9881 4.5269 -2.0254 0.4897 0 1
2.8617 4.7397 -2.0674 0.4798 0 1
2.7266 4.9562 -2.1123 0.4696 0 1
2.5823 5.1766 -2.1601 0.4592 0 1
2.4281 5.4011 -2.2112 0.4486 0 1
2.2634 5.6299 -2.2658 0.4378 0 1
2.0872 5.8629 -2.3239 0.4272 0 1
1.8990 6.1006 -2.3858 0.4161 0 1
1.6979 6.3433 -2.4520 0.4048 0 1
1.4830 6.5912 -2.5228 0.3935 0 1
1.2514 6.8355 -2.5949 0.4051 0 1
1.0069 7.1022 -2.6786 0.3714 0 1
0.7441 7.3716 -2.7666 0.3589 0 1
0.4622 7.6461 -2.8603 0.3471 0 1
0.1596 7.9276 -2.9608 0.3353 0 1
-0.1651 8.2138 -3.0677 0.3262 0 1
-0.5138 8.5052 -3.1817 0.3145 0 1
-0.8884 8.8039 -3.3042 0.3029 0 1
-1.2912 9.1093 -3.4355 0.2986 0 1
-1.7227 9.4112 -3.5726 0.2872 0 1
-2.1865 9.7197 -3.7202 0.2758 0 1
-2.6862 10.0367 -3.8797 0.2572 0 1
-3.2300 10.3776 -4.0585 0.2458 0 1
-3.8025 10.6821 -4.2340 0.2332 0 24
-4.4525 11.0763 -4.4577 0.2215 0 1
-5.1446 11.4447 -4.6855 0.2107 0 1
-5.8768 11.7818 -4.9164 0.1987 0 24
-6.6948 12.1701 -5.1867 0.1872 0 24
-7.5396 12.4884 -5.4473 0.1790 0 24
-8.4904 12.8637 -5.7554 0.1729 0 24
-9.5563 13.2837 -6.1105 0.1666 0 1
-10.6870 13.6608 -6.4766 0.1544 0 1
-11.9400 14.0584 -6.8874 0.1400 0 1
-13.3887 14.5361 -7.3795 0.1196 0 1
-15.3827 15.4083 -8.1301 0.0533 0 1
-16.7592 15.4879 -8.5212 0.8196 0 2
-18.0934 15.4188 -8.8768 0.1050 0 2
-20.1545 15.8212 -9.5677 0.0974 0 2
-22.4336 16.1954 -10.3318 0.0902 0 2
-24.9514 16.5282 -11.1759 0.0834 0 25
-27.7278 16.8030 -12.1066 0.0770 0 25
-30.7799 16.9988 -13.1299 0.0710 0 25
-32.1072 16.0817 -13.4090 0.4256 0 3
-30.3717 13.7133 -12.4436 0.4092 0 5
-35.6342 14.3933 -14.3507 0.7338 0 21
-43.6155 13.6549 -17.0660 0.2240 0 5
-19.7319 -14.5392 -9.4631 0.1043 0 1
-17.8567 -14.3005 -8.8327 0.1158 0 1
-16.1443 -14.0314 -8.2584 0.1207 0 1
-14.5617 -13.7222 -7.7251 0.1292 0 1
-13.1008 -13.3806 -7.2300 0.1362 0 1
-11.7922 -13.0556 -6.7924 0.1441 0 1
-10.5895 -12.7171 -6.3893 0.1532 0 1
-9.5072 -12.3995 -6.0326 0.1743 0 1
-8.5307 -12.1049 -5.7176 0.1839 0 1
-7.5992 -11.7608 -5.4062 0.1949 0 24
-6.7839 -11.4879 -5.1510 0.2019 0 1
-6.0055 -11.1733 -4.8975 0.2121 0 1
-5.2857 -10.8603 -4.6633 0.2226 0 1
-4.6184 -10.5475 -4.4455 0.2320 0 1
