ply
format ascii 1.0
element vertex 1398
property float32 x
property float32 y
property float32 z
property float32 CosAngle
property uint32 ObjIdx
property uint32 ObjTag
end_header
10.6316 4.7173 0.4836 0.2449 0 1
10.6482 5.2475 0.4936 0.2400 0 1
10.6648 5.8005 0.5048 0.2387 0 1
10.6275 6.3475 0.5147 0.2627 0 1
10.5293 6.8786 0.5229 0.2585 0 1
10.4261 7.4267 0.5323 0.2675 0 1
10.4931 8.1305 0.5519 0.2219 0 2
10.0071 8.4200 0.5438 0.2036 0 2
10.0771 9.1966 0.5673 0.1952 0 2
10.1571 10.0483 0.5941 0.1864 0 2
10.2488 10.9900 0.6248 0.1772 0 2
10.3547 12.0410 0.6603 0.1677 0 2
10.4778 13.2259 0.7016 0.1578 0 2
10.6221 14.5773 0.7500 0.1476 0 2
9.1734 13.7173 0.6861 0.8382 0 21
8.9844 14.6810 0.7157 0.8488 0 3
8.1881 14.6759 0.6988 0.8693 0 3
8.0522 15.9053 0.7413 0.4471 0 3
8.0198 17.5621 0.8028 0.4128 0 3
7.8244 19.1378 0.8597 0.3779 0 3
8.7412 24.1083 1.0663 0.9370 0 3
7.7204 24.3047 1.0603 0.3064 0 3
7.8059 28.5034 1.2288 0.2699 0 3
8.3657 36.2122 1.5453 0.9933 0 6
2.0059 13.5939 0.5713 0.2963 0 9
1.4489 13.5870 0.5681 0.1265 0 9
0.8848 13.3928 0.5581 0.4003 0 9
-32.3528 35.4761 1.9964 0.6201 0 3
-32.3042 32.6777 1.9106 0.6480 0 3
-32.2606 30.1067 1.8348 0.6748 0 3
-32.0832 27.6104 1.7600 0.1567 0 3
-32.1854 25.5170 1.7078 0.7249 0 3
-31.9203 23.2772 1.6426 0.4243 0 3
-32.1205 21.4975 1.6071 0.7703 0 3
-32.0932 19.6562 1.5648 0.7911 0 3
-32.0682 17.9070 1.5272 0.8106 0 3
-33.9174 17.1864 1.5810 0.3227 0 3
-36.6735 -33.4204 2.0631 0.7824 0 20
-35.0447 -34.6191 2.0482 0.6685 0 20
5.7834 -42.6928 1.7914 0.9906 0 3
9.3092 -42.5925 1.8128 0.2190 0 3
7.8700 -30.1357 1.2950 0.9684 0 20
8.5173 -27.9578 1.2152 0.2828 0 3
10.3449 -29.6225 1.3046 0.3192 0 3
10.8954 -27.5783 1.2329 0.9040 0 3
11.7556 -26.5723 1.2082 0.8869 0 3
11.6653 -23.7365 1.0997 0.1007 0 2
11.3327 -20.8905 0.9882 0.1120 0 2
9.9370 -16.6786 0.8072 0.8562 0 20
10.8495 -16.6474 0.8262 0.1340 0 2
11.2671 -15.8541 0.8087 0.1585 0 2
10.9729 -14.1934 0.7459 0.1454 0 1
10.8666 -12.9436 0.7027 0.1612 0 1
10.7653 -11.8218 0.6648 0.1631 0 1
10.6383 -10.7770 0.6296 0.1706 0 1
10.5254 -9.8370 0.5990 0.1793 0 1
10.3892 -8.9540 0.5703 0.1828 0 1
10.2714 -8.1554 0.5453 0.1911 0 1
10.1823 -7.4365 0.5243 0.2110 0 1
6.2420 -4.1842 0.3125 0.7063 14 6
10.0447 -6.1621 0.4900 0.2321 0 24
9.8020 -5.4828 0.4670 0.2378 0 25
9.7676 -4.9583 0.4555 0.2438 0 25
8.8744 -4.0642 0.4058 0.9793 0 9
9.3513 -3.8351 0.4202 0.1661 0 9
9.6876 -3.5245 0.4286 0.2591 0 25
9.6675 -3.0825 0.4219 0.2632 0 25
9.6504 -2.6541 0.4162 0.2668 0 25
9.6359 -2.2371 0.4113 0.2700 0 2
9.9891 -1.8989 0.4228 0.2726 0 1
9.9967 -1.4862 0.4202 0.2742 0 1
4.1334 -0.4453 0.1729 0.3344 25 14
4.1181 -0.2766 0.1716 0.2612 25 14
4.0995 -0.1098 0.1705 0.2629 25 14
4.0997 0.0553 0.1705 0.3115 25 14
4.1389 0.2227 0.1723 0.3354 25 14
4.1758 0.3937 0.1744 0.3315 25 14
4.2697 0.5768 0.1791 0.2052 25 14
10.2502 1.8075 0.4328 0.2656 0 1
10.3150 2.2506 0.4390 0.2561 0 1
10.3827 2.7074 0.4461 0.2520 0 1
10.4554 3.1810 0.4544 0.2474 0 1
10.5337 3.6743 0.4639 0.2424 0 1
10.6180 4.1904 0.4746 0.2496 0 1
10.6311 4.6986 0.4833 0.2451 0 1
10.6475 5.2279 0.4932 0.2402 0 1
10.6643 5.7802 0.5044 0.2389 0 1
10.6310 6.3286 0.5144 0.2628 0 1
10.5328 6.8591 0.5226 0.2587 0 1
10.4304 7.4070 0.5319 0.2676 0 1
10.4925 8.1057 0.5513 0.2221 0 2
10.0047 8.3931 0.5430 0.2039 0 2
10.0744 9.1674 0.5664 0.1955 0 2
10.1540 10.0161 0.5930 0.1867 0 2
10.2453 10.9542 0.6236 0.1775 0 2
10.3506 12.0008 0.6589 0.1680 0 2
10.4730 13.1804 0.7000 0.1582 0 2
10.6164 14.5252 0.7481 0.1480 0 2
9.2015 13.7161 0.6868 0.8374 0 21
9.0139 14.6812 0.7163 0.8480 0 3
8.2162 14.6761 0.6993 0.8686 0 3
8.0533 15.8502 0.7392 0.4483 0 3
8.0211 17.4975 0.8003 0.4141 0 3
7.8432 19.1045 0.8587 0.9217 0 3
8.7810 24.1086 1.0668 0.9365 0 3
7.7227 24.1901 1.0558 0.3077 0 3
7.8089 28.3528 1.2228 0.2712 0 3
8.4259 36.2325 1.5467 0.6839 0 6
2.1651 14.5266 0.6107 0.0740 0 9
1.4692 13.5907 0.5684 0.1265 0 9
0.9086 13.4571 0.5608 0.6496 0 9
0.4674 17.2081 0.7158 0.5898 0 9
-32.3547 35.5820 1.9997 0.6191 0 3
-32.1377 32.6038 1.9035 0.8284 0 3
-32.2621 30.1960 1.8373 0.6738 0 3
-32.2225 27.8120 1.7698 0.6995 0 3
-32.1866 25.5942 1.7098 0.7241 0 3
-31.8344 23.2855 1.6400 0.6342 0 3
-32.1215 21.5659 1.6087 0.7695 0 3
-32.0942 19.7210 1.5663 0.7904 0 3
-32.0691 17.9687 1.5285 0.8099 0 3
-33.9144 17.2469 1.5820 0.3225 0 3
5.8467 -42.6936 1.3136 0.9908 0 3
9.6125 -43.6758 1.3633 0.2068 0 3
7.9169 -30.1361 0.9498 0.9686 0 20
8.6251 -28.1648 0.8979 0.2807 0 3
10.1252 -28.8587 0.9323 0.2215 0 3
10.5427 -26.5724 0.8714 0.8780 0 3
10.8057 -24.3293 0.8115 0.1001 0 2
10.5545 -21.3976 0.7273 0.1117 0 2
9.9859 -18.3442 0.6367 0.5936 0 9
10.0051 -16.7375 0.5944 0.4901 0 20
10.5546 -16.1434 0.5880 0.8539 0 2
10.3650 -14.5399 0.5443 0.1461 0 1
10.2153 -13.1738 0.5082 0.1648 0 24
10.1966 -12.1096 0.4826 0.1721 0 1
10.1038 -11.0630 0.4567 0.1725 0 1
10.0177 -10.1188 0.4340 0.1888 0 1
9.9221 -9.2462 0.4134 0.1909 0 1
9.8264 -8.4441 0.3949 0.1999 0 1
9.7513 -7.7194 0.3791 0.2229 0 1
9.7140 -7.0729 0.3663 0.2338 0 1
6.2649 -4.1863 0.2297 0.9073 14 6
9.6574 -5.9052 0.3451 0.2526 0 1
9.3861 -5.2323 0.3276 0.2486 0 25
9.0730 -4.5891 0.3099 0.2087 0 9
8.8974 -4.0591 0.2981 0.8484 0 9
9.0286 -3.6874 0.2973 0.4611 0 9
9.3093 -3.3715 0.3018 0.2698 0 25
9.2958 -2.9491 0.2973 0.2739 0 25
9.2842 -2.5389 0.2934 0.2776 0 25
9.5885 -2.2114 0.3000 0.2937 0 2
9.6184 -1.8140 0.2984 0.2833 0 1
4.4707 -0.6580 0.1378 0.0895 25 14
3.9799 -0.4229 0.1220 0.3192 25 14
3.9726 -0.2610 0.1214 0.3209 25 14
3.9658 -0.1005 0.1209 0.3221 25 14
3.9688 0.0593 0.1210 0.3219 25 14
3.9984 0.2209 0.1221 0.3191 25 14
4.0307 0.3860 0.1234 0.2663 25 14
4.0791 0.5571 0.1255 0.2620 25 14
9.8617 1.7538 0.3053 0.2766 0 1
9.9118 2.1777 0.3094 0.2722 0 1
9.9691 2.6151 0.3142 0.2681 0 1
10.0306 3.0678 0.3197 0.2579 0 1
10.0973 3.5386 0.3262 0.2528 0 1
10.1689 4.0303 0.3334 0.2451 0 1
10.1927 4.5226 0.3399 0.2556 0 1
10.1999 5.0266 0.3466 0.2506 0 1
10.2094 5.5528 0.3543 0.2452 0 1
10.2185 6.1032 0.3628 0.2733 0 1
10.1178 6.6098 0.3684 0.2691 0 1
10.0156 7.1343 0.3748 0.2645 0 1
10.1288 7.8483 0.3906 0.0527 0 1
9.8205 8.2630 0.3912 0.6649 0 2
9.5622 8.7267 0.3946 0.2058 0 2
9.6148 9.5119 0.4123 0.1970 0 2
9.6749 10.3746 0.4324 0.1878 0 2
9.7439 11.3307 0.4555 0.1783 0 2
9.8235 12.4000 0.4822 0.1684 0 2
9.9161 13.6085 0.5133 0.1582 0 2
9.1545 13.6889 0.5020 0.8402 0 21
8.9841 14.6806 0.5247 0.8491 0 3
8.1879 14.6755 0.5123 0.8697 0 3
8.1162 16.0317 0.5478 0.4437 0 3
8.0889 17.7133 0.5936 0.4095 0 3
7.8980 19.3180 0.6362 0.3745 0 3
8.7410 24.1077 0.7817 0.9374 0 3
7.8077 24.5796 0.7862 0.3030 0 3
7.9091 28.8805 0.9128 0.2665 0 3
3.4064 14.7452 0.4613 0.2147 0 9
1.6768 15.7245 0.4821 0.6507 0 9
0.8874 13.4326 0.4104 0.2981 0 9
0.6059 23.5731 0.7188 0.1081 0 9
-32.1701 35.2757 1.4553 0.6239 0 3
-32.1295 32.5009 1.3931 0.6518 0 3
-32.0930 29.9503 1.3381 0.6786 0 3
-32.0599 27.5904 1.2894 0.7042 0 3
-32.0297 25.3935 1.2460 0.7287 0 3
-32.0022 23.3369 1.2074 0.7521 0 3
-31.9742 21.3996 1.1728 0.7741 0 3
-31.9509 19.5690 1.1421 0.7949 0 3
-31.9300 17.8298 1.1148 0.8718 0 3
-35.0571 17.7639 1.1980 0.4574 0 3
-35.1629 16.0727 1.1786 0.4213 0 3
-36.6174 -33.3692 1.5102 0.6633 0 20
-34.8648 -34.4414 1.4939 0.6722 0 20
5.2441 -38.7118 1.1908 0.8133 0 6
8.7455 -40.0137 1.2485 0.9768 0 3
7.8702 -30.1364 0.9495 0.9692 0 20
8.6247 -28.3105 0.9022 0.2794 0 3
10.0996 -28.9202 0.9338 0.2211 0 3
10.5104 -26.6039 0.8720 0.0878 0 3
10.8159 -24.4482 0.8149 0.0997 0 2
10.5626 -21.4927 0.7300 0.1112 0 2
9.9807 -18.3983 0.6381 0.2900 0 9
10.0050 -16.7927 0.5959 0.4889 0 20
10.5224 -16.1455 0.5875 0.8546 0 2
10.3704 -14.5924 0.5457 0.1458 0 1
10.2178 -13.2166 0.5092 0.1644 0 24
10.1988 -12.1481 0.4835 0.1718 0 1
10.1072 -11.0992 0.4576 0.1721 0 1
10.0206 -10.1512 0.4348 0.1885 0 1
9.9258 -9.2766 0.4141 0.1906 0 1
9.8297 -8.4718 0.3956 0.1995 0 1
9.7531 -7.7439 0.3796 0.2226 0 1
9.7153 -7.0955 0.3667 0.2336 0 1
6.2548 -4.1928 0.2295 0.9079 14 6
9.6581 -5.9250 0.3454 0.2524 0 1
9.3870 -5.2507 0.3279 0.2484 0 25
9.0310 -4.5844 0.3087 0.2836 0 9
8.8945 -4.0734 0.2982 0.8466 0 9
9.0165 -3.6978 0.2971 0.3389 0 9
9.3098 -3.3871 0.3020 0.2697 0 25
9.2962 -2.9641 0.2974 0.2738 0 25
9.2846 -2.5535 0.2935 0.2774 0 25
9.5408 -2.2151 0.2986 0.2872 0 2
9.6181 -1.8284 0.2984 0.2832 0 1
4.8958 -0.7279 0.1509 0.0107 25 14
3.9802 -0.4288 0.1220 0.3191 25 14
3.9728 -0.2668 0.1214 0.3209 25 14
3.9660 -0.1063 0.1209 0.3220 25 14
3.9677 0.0535 0.1210 0.3220 25 14
3.9973 0.2150 0.1220 0.3192 25 14
4.0290 0.3799 0.1234 0.2665 25 14
4.0773 0.5508 0.1254 0.2621 25 14
9.8600 1.7387 0.3052 0.2767 0 1
9.9098 2.1621 0.3092 0.2724 0 1
9.9670 2.5990 0.3140 0.2682 0 1
10.0283 3.0511 0.3195 0.2580 0 1
10.0948 3.5212 0.3259 0.2530 0 1
10.1662 4.0121 0.3332 0.2475 0 1
10.1925 4.5047 0.3397 0.2558 0 1
10.1996 5.0080 0.3464 0.2508 0 1
10.2090 5.5334 0.3540 0.2454 0 1
10.2185 6.0831 0.3625 0.2438 0 1
10.1215 6.5912 0.3682 0.2693 0 1
10.0194 7.1150 0.3746 0.2647 0 1
10.0296 7.7481 0.3863 0.0533 0 1
9.8480 8.2617 0.3919 0.6638 0 2
9.5604 8.6996 0.3940 0.2061 0 2
9.6128 9.4823 0.4116 0.1973 0 2
9.6726 10.3420 0.4317 0.1881 0 2
9.7412 11.2943 0.4547 0.1786 0 2
9.8204 12.3591 0.4812 0.1688 0 2
9.9125 13.5620 0.5121 0.1586 0 2
9.1825 13.6877 0.5024 0.8395 0 21
9.0136 14.6808 0.5251 0.8484 0 3
8.2160 14.6757 0.5127 0.8690 0 3
8.1171 15.9758 0.5463 0.4450 0 3
8.0899 17.6477 0.5918 0.4107 0 3
7.8993 19.2412 0.6340 0.3758 0 3
8.7808 24.1080 0.7821 0.9369 0 3
7.8122 24.4703 0.7830 0.3043 0 3
7.9117 28.7260 0.9083 0.2678 0 3
3.4247 14.7268 0.4609 0.1422 0 9
3.9796 26.7010 0.8229 0.2485 0 9
1.4948 13.8270 0.4240 0.2790 0 9
0.9053 13.4074 0.4096 0.2986 0 9
0.6365 23.4362 0.7147 0.0132 0 9
-32.1716 35.3806 1.4577 0.6229 0 3
-32.1309 32.5969 1.3952 0.6508 0 3
-32.0942 30.0389 1.3400 0.6776 0 3
-32.0610 27.6726 1.2910 0.7033 0 3
-32.0308 25.4703 1.2475 0.7279 0 3
-30.9884 22.6667 1.1704 0.8529 0 3
-31.9751 21.4676 1.1740 0.7734 0 3
-31.9517 19.6335 1.1432 0.7942 0 3
-31.9302 17.8909 1.1157 0.8138 0 3
-34.9326 17.7647 1.1947 0.4587 0 3
-35.0299 16.0736 1.1749 0.4226 0 3
5.3023 -38.7184 0.7580 0.8048 0 6
8.0023 -44.9016 0.8846 0.3388 0 3
9.5309 -43.3049 0.8600 0.0499 0 3
7.9399 -30.2237 0.6061 0.2403 0 20
8.7347 -28.5227 0.5786 0.2773 0 3
9.6720 -27.5669 0.5666 0.2319 0 3
9.9452 -25.0664 0.5230 0.0988 0 2
9.7788 -22.0173 0.4672 0.1106 0 2
9.6466 -19.5570 0.4229 0.1222 0 2
9.5393 -17.5238 0.3870 0.1336 0 2
9.6630 -16.1652 0.3653 0.8761 0 2
9.7680 -14.9404 0.3462 0.1457 0 1
9.6793 -13.5780 0.3234 0.1638 0 1
9.6428 -12.4355 0.3052 0.1746 0 1
9.6054 -11.4076 0.2892 0.1803 0 1
9.5436 -10.4497 0.2745 0.1900 0 1
9.4810 -9.5767 0.2614 0.1922 0 1
9.4041 -8.7635 0.2493 0.2015 0 1
9.3482 -8.0331 0.2391 0.2249 0 1
9.3187 -7.3769 0.2305 0.2365 0 1
9.2973 -6.7695 0.2231 0.2444 0 1
6.2785 -4.1955 0.1465 0.9056 14 6
9.0207 -5.5159 0.2051 0.2527 0 25
9.0055 -5.0201 0.2000 0.2592 0 25
8.6689 -4.3847 0.1884 0.2708 0 9
8.6638 -3.9526 0.1847 0.2657 0 9
8.7999 -3.5941 0.1844 0.7841 0 9
8.9603 -3.2452 0.1848 0.2804 0 25
8.9524 -2.8401 0.1822 0.2845 0 25
8.9455 -2.4463 0.1799 0.2882 0 25
9.2643 -2.1367 0.1844 0.2907 0 1
9.2434 -1.7433 0.1824 0.2945 0 24
4.2290 -0.6225 0.0829 0.0946 25 14
3.9632 -0.4212 0.0773 0.9595 25 14
3.9367 -0.2586 0.0765 0.9693 25 14
3.9107 -0.0991 0.0759 0.9775 25 14
3.8987 0.0582 0.0756 0.9807 25 14
3.9240 0.2168 0.0762 0.9730 25 14
3.9497 0.3782 0.0770 0.9638 25 14
3.9739 0.5427 0.0778 0.9605 25 14
9.5006 1.6896 0.1872 0.2872 0 1
9.5433 2.0967 0.1895 0.2828 0 1
9.5929 2.5164 0.1923 0.2787 0 1
9.6453 2.9499 0.1956 0.2740 0 1
9.7006 3.3995 0.1994 0.2689 0 1
9.7593 3.8679 0.2036 0.2632 0 1
9.7920 4.3448 0.2078 0.2696 0 1
9.7911 4.8251 0.2117 0.2646 0 1
9.7914 5.3255 0.2162 0.2591 0 1
9.7928 5.8490 0.2212 0.2532 0 1
9.7382 6.3618 0.2256 0.2804 0 1
9.6338 6.8623 0.2294 0.2758 0 1
9.5275 7.3823 0.2338 0.2688 0 1
9.5741 8.0556 0.2427 0.2355 0 2
9.0981 8.3031 0.2389 0.2127 0 2
9.1279 9.0301 0.2490 0.2075 0 2
9.1622 9.8249 0.2606 0.1984 0 2
9.2015 10.6999 0.2737 0.1888 0 2
9.2465 11.6716 0.2888 0.1790 0 2
9.2985 12.7609 0.3062 0.1688 0 2
9.3590 13.9948 0.3265 0.1583 0 2
8.9839 14.6802 0.3338 0.8494 0 3
8.1999 14.6970 0.3264 0.4739 0 3
8.1811 16.1600 0.3513 0.4403 0 3
8.1591 17.8671 0.3810 0.4061 0 3
7.9730 19.5014 0.4086 0.3711 0 3
8.7408 24.1071 0.4973 0.9377 0 3
7.8996 24.8688 0.5061 0.2996 0 3
8.0151 29.2674 0.5885 0.2630 0 3
2.8834 27.0401 0.5274 0.3191 0 9
1.5972 24.1780 0.4700 0.5431 0 9
0.7106 27.6455 0.5364 0.7319 0 9
-0.2144 14.7161 0.2854 0.4769 0 9
-31.8622 37.8960 0.9603 0.8713 0 3
-31.9568 32.3262 0.8816 0.6555 0 3
-34.9945 32.6582 0.9284 0.6868 0 3
-31.9003 27.4530 0.8163 0.7080 0 3
-34.8899 27.6611 0.8636 0.6261 0 3
-31.8530 23.2281 0.7646 0.7558 0 3
-33.8684 22.6673 0.7904 0.5613 0 3
-35.9599 22.0244 0.8179 0.2894 0 3
-31.8468 17.7833 0.7074 0.4930 0 3
-35.0552 17.7630 0.7622 0.4576 0 3
-36.3335 16.6078 0.7748 0.3074 0 3
-36.6231 -33.3745 0.9610 0.6734 0 20
-34.8256 -34.4027 0.9494 0.7873 0 20
5.2569 -38.8065 0.7595 0.2528 0 6
7.9403 -44.9318 0.8850 0.9083 0 3
9.5543 -43.7140 0.8678 0.0495 0 3
7.9018 -30.2574 0.6065 0.9688 0 20
8.5630 -28.1078 0.5699 0.5818 0 3
9.6468 -27.6236 0.5675 0.2316 0 3
9.9520 -25.1904 0.5253 0.0984 0 2
9.7841 -22.1159 0.4690 0.1102 0 2
9.6509 -19.6376 0.4244 0.1218 0 2
9.5428 -17.5911 0.3881 0.1332 0 2
9.6324 -16.1673 0.3650 0.8768 0 2
9.7720 -14.9940 0.3471 0.1454 0 1
9.6812 -13.6225 0.3241 0.1634 0 1
9.6440 -12.4745 0.3058 0.1743 0 1
9.6078 -11.4441 0.2898 0.1800 0 1
9.5457 -10.4825 0.2750 0.1897 0 1
9.4840 -9.6076 0.2618 0.1919 0 1
9.4068 -8.7915 0.2497 0.2012 0 1
9.3496 -8.0580 0.2394 0.2246 0 1
9.3195 -7.3997 0.2308 0.2362 0 1
9.2980 -6.7907 0.2233 0.2441 0 1
6.2685 -4.2019 0.1464 0.9062 14 6
9.0232 -5.5355 0.2053 0.5536 0 2
9.0060 -5.0376 0.2001 0.2590 0 25
8.6694 -4.4008 0.1886 0.2601 0 9
8.6648 -3.9683 0.1848 0.2743 0 9
8.7848 -3.6028 0.1842 0.7817 0 9
8.9607 -3.2600 0.1849 0.2803 0 25
8.9526 -2.8546 0.1822 0.2844 0 25
8.9458 -2.4604 0.1799 0.2880 0 25
9.2641 -2.1508 0.1845 0.2906 0 1
9.2430 -1.7571 0.1825 0.2944 0 24
4.2862 -0.6372 0.0840 0.0933 25 14
3.9642 -0.4271 0.0773 0.9591 25 14
3.9377 -0.2644 0.0765 0.9689 25 14
3.9117 -0.1048 0.0759 0.9772 25 14
3.8978 0.0525 0.0756 0.9810 25 14
3.9231 0.2111 0.0762 0.9733 25 14
3.9488 0.3723 0.0769 0.9641 25 14
3.9736 0.5368 0.0778 0.9608 25 14
9.4991 1.6751 0.1871 0.2873 0 1
9.5415 2.0818 0.1894 0.2830 0 1
9.5911 2.5010 0.1922 0.2788 0 1
9.6433 2.9340 0.1955 0.2742 0 1
9.6985 3.3830 0.1992 0.2690 0 1
9.7571 3.8506 0.2034 0.2635 0 1
9.7920 4.3277 0.2076 0.2698 0 1
9.7911 4.8074 0.2116 0.2648 0 1
9.7914 5.3070 0.2160 0.2593 0 1
9.7928 5.8296 0.2210 0.2534 0 1
9.7419 6.3440 0.2255 0.2806 0 1
9.6376 6.8439 0.2293 0.2759 0 1
9.5306 7.3626 0.2336 0.2691 0 1
9.5745 8.0322 0.2424 0.2358 0 2
9.0970 8.2779 0.2385 0.6242 0 2
9.1267 9.0028 0.2486 0.2079 0 2
9.1609 9.7949 0.2601 0.1987 0 2
9.2000 10.6668 0.2732 0.1892 0 2
9.2448 11.6346 0.2882 0.1793 0 2
9.2965 12.7192 0.3056 0.1691 0 2
9.3567 13.9474 0.3257 0.1587 0 2
9.0134 14.6804 0.3341 0.8486 0 3
8.2158 14.6753 0.3262 0.8692 0 3
8.1819 16.1033 0.3503 0.4416 0 3
8.1599 17.8004 0.3798 0.4073 0 3
7.9740 19.4232 0.4072 0.3724 0 3
8.7806 24.1074 0.4976 0.9372 0 3
7.9012 24.7490 0.5039 0.3009 0 3
8.0172 29.1089 0.5856 0.2644 0 3
1.5370 14.2175 0.2774 0.0608 0 9
1.7102 25.3288 0.4924 0.9183 0 9
0.7514 27.6656 0.5368 0.3402 0 9
-0.1923 14.6647 0.2844 0.6762 0 9
-32.0271 38.2048 0.9669 0.5977 0 3
-31.9579 32.4214 0.8829 0.6545 0 3
-34.8934 32.6588 0.9269 0.6878 0 3
-31.9012 27.5347 0.8173 0.7070 0 3
-34.7867 27.6617 0.8620 0.6272 0 3
-31.8538 23.2997 0.7654 0.7550 0 3
-33.7631 22.6680 0.7887 0.5625 0 3
-35.9578 22.0951 0.8185 0.2892 0 3
-31.7964 17.8159 0.7069 0.9444 0 3
-34.9308 17.7638 0.7601 0.4588 0 3
-36.3320 16.6710 0.7753 0.3072 0 3
-33.9321 -36.4392 0.4138 0.8573 0 20
5.8470 -42.6956 0.3582 0.9911 0 3
8.6604 -48.5946 0.4102 0.0471 0 3
5.4271 -24.6588 0.2099 0.8258 0 6
8.5679 -32.6140 0.2803 0.9725 0 3
8.6003 -28.0837 0.2441 0.9466 0 3
9.0638 -25.8334 0.2275 0.0973 0 2
8.9893 -22.6573 0.2026 0.1093 0 2
8.9305 -20.1073 0.1829 0.1211 0 2
8.8829 -18.0086 0.1669 0.1327 0 2
8.8436 -16.2457 0.1537 0.1441 0 2
9.1938 -15.3804 0.1489 0.1391 0 1
9.1104 -13.9345 0.1384 0.1641 0 1
9.0973 -12.7616 0.1303 0.1754 0 1
9.0921 -11.7253 0.1233 0.1832 0 1
9.0762 -10.7790 0.1171 0.1909 0 1
9.0432 -9.9018 0.1115 0.2006 0 1
8.9892 -9.0799 0.1062 0.2028 0 1
8.9530 -8.3431 0.1017 0.2266 0 1
8.9325 -7.6759 0.0979 0.2387 0 1
8.9232 -7.0639 0.0946 0.2470 0 1
8.9369 -6.5071 0.0919 0.2774 0 1
6.2574 -4.1813 0.0625 0.2564 14 6
8.6607 -5.2958 0.0844 0.2633 0 25
8.6547 -4.8245 0.0824 0.2697 0 25
8.6493 -4.3748 0.0806 0.2758 0 25
8.6446 -3.9438 0.0790 0.2813 0 25
8.6404 -3.5289 0.0776 0.2864 0 25
8.6367 -3.1280 0.0763 0.2910 0 25
8.6336 -2.7390 0.0753 0.2951 0 25
8.6371 -2.3619 0.0744 0.2990 0 2
8.9411 -2.0621 0.0763 0.3021 0 1
8.9246 -1.6831 0.0755 0.3046 0 24
4.0708 -0.5992 0.0342 0.2650 25 14
3.9591 -0.4207 0.0331 0.9677 25 14
3.9330 -0.2584 0.0328 0.9703 25 14
3.9071 -0.0990 0.0325 0.9786 25 14
3.8954 0.0582 0.0324 0.9817 25 14
3.9206 0.2166 0.0326 0.9740 25 14
3.9463 0.3779 0.0329 0.9647 25 14
3.9654 0.5416 0.0333 0.9627 25 14
9.1651 1.6299 0.0774 0.2977 0 1
9.2019 2.0217 0.0783 0.2942 0 1
9.2442 2.4249 0.0794 0.2892 0 1
9.2889 2.8409 0.0807 0.2845 0 1
9.3356 3.2716 0.0822 0.2794 0 1
9.3819 3.7184 0.0839 0.2717 0 1
9.4239 4.1814 0.0857 0.2802 0 1
9.4164 4.6405 0.0872 0.2752 0 1
9.4091 5.1175 0.0890 0.2697 0 1
9.4017 5.6153 0.0910 0.2634 0 1
9.3865 6.1320 0.0932 0.2910 0 1
9.2802 6.6105 0.0947 0.2863 0 1
9.1706 7.1058 0.0964 0.2812 0 1
9.0788 7.6389 0.0986 0.2731 0 1
9.0400 8.2502 0.1017 0.6975 0 2
8.6880 8.5950 0.1016 0.2181 0 2
8.7013 9.3306 0.1060 0.2089 0 2
8.7165 10.1359 0.1111 0.1994 0 2
8.7337 11.0244 0.1169 0.1895 0 2
6.5878 9.0408 0.0930 0.8209 22 6
8.7764 13.1237 0.1312 0.1688 0 2
8.8031 14.3849 0.1402 0.1580 0 2
8.2613 14.8071 0.1409 0.4704 0 3
8.2471 16.2903 0.1518 0.4369 0 3
8.2305 18.0234 0.1647 0.4026 0 3
8.0494 19.6883 0.1768 0.3677 0 3
8.7406 24.1065 0.2131 0.9379 0 3
8.1626 25.6968 0.2241 0.2961 0 3
9.2536 33.7899 0.2912 0.0761 0 2
10.0067 43.3153 0.3695 0.0654 0 1
1.5416 14.4569 0.1208 0.1295 0 9
0.6172 24.0104 0.1996 0.6849 0 9
-31.8384 37.8677 0.4112 0.6023 0 3
-30.0787 30.4264 0.3556 0.2313 0 3
-29.8837 27.8885 0.3397 0.2400 0 3
-31.7423 27.3171 0.3481 0.7116 0 3
-30.7896 24.4103 0.3266 0.8519 0 3
-30.0223 21.8931 0.3088 0.2647 0 3
-30.2373 20.2371 0.3024 0.2720 0 3
-29.8498 18.2822 0.2909 0.5122 0 3
-29.8297 16.6570 0.2840 0.7504 0 3
-35.0534 17.7621 0.3266 0.4576 0 3
-36.8030 16.8224 0.3363 0.9466 0 3
-36.5838 -33.3386 0.4114 0.5420 0 20
-34.7547 -34.3325 0.4060 0.8737 0 20
-33.9613 -36.3644 0.4135 0.8579 0 20
5.7838 -42.6959 0.3581 0.9924 0 3
7.9492 -44.9824 0.3797 0.1604 0 3
5.3893 -24.6579 0.2098 0.9955 0 6
8.5175 -32.6151 0.2802 0.9728 0 3
8.5578 -28.0908 0.2441 0.9935 0 3
9.0668 -25.9629 0.2286 0.0969 0 2
8.9917 -22.7598 0.2034 0.1089 0 2
8.9324 -20.1907 0.1835 0.1207 0 2
8.8844 -18.0779 0.1674 0.1323 0 2
8.8449 -16.3045 0.1542 0.1437 0 2
9.1117 -13.9809 0.1387 0.1559 0 1
9.0975 -12.8012 0.1305 0.1750 0 1
9.0925 -11.7611 0.1236 0.1828 0 1
9.0775 -10.8124 0.1173 0.1905 0 1
9.0444 -9.9320 0.1116 0.2002 0 1
8.9912 -9.1084 0.1064 0.2024 0 1
8.9538 -8.3682 0.1019 0.2263 0 1
8.9329 -7.6989 0.0980 0.2384 0 1
8.9235 -7.0853 0.0947 0.2467 0 1
8.9360 -6.5264 0.0920 0.2771 0 1
6.2554 -4.1932 0.0626 0.9949 14 6
8.6609 -5.3132 0.0844 0.2630 0 25
8.6549 -4.8412 0.0824 0.2695 0 25
8.6495 -4.3907 0.0806 0.2755 0 25
8.6447 -3.9591 0.0790 0.2811 0 25
8.6405 -3.5436 0.0776 0.2862 0 25
8.6369 -3.1422 0.0764 0.2908 0 25
8.6337 -2.7529 0.0753 0.2949 0 25
8.6374 -2.3756 0.0745 0.2989 0 2
8.9407 -2.0757 0.0763 0.3020 0 1
8.9241 -1.6965 0.0755 0.3045 0 24
4.0890 -0.6079 0.0344 0.2638 25 14
3.9594 -0.4266 0.0331 0.9675 25 14
3.9339 -0.2642 0.0328 0.9700 25 14
3.9080 -0.1047 0.0325 0.9783 25 14
3.8945 0.0525 0.0324 0.9820 25 14
3.9197 0.2109 0.0326 0.9743 25 14
3.9454 0.3720 0.0329 0.9651 25 14
3.9651 0.5357 0.0333 0.9630 25 14
9.1638 1.6160 0.0773 0.2978 0 1
9.2005 2.0074 0.0783 0.2943 0 1
9.2427 2.4101 0.0794 0.2894 0 1
9.2873 2.8257 0.0807 0.2847 0 1
9.3339 3.2558 0.0822 0.2796 0 1
9.3804 3.7020 0.0838 0.2720 0 1
9.4242 4.1652 0.0856 0.2804 0 1
9.4167 4.6236 0.0872 0.2754 0 1
9.4093 5.1000 0.0890 0.2699 0 1
9.4021 5.5970 0.0909 0.2636 0 1
9.3903 6.1151 0.0931 0.2911 0 1
9.2841 6.5929 0.0946 0.2865 0 1
9.1747 7.0876 0.0964 0.2814 0 1
9.0822 7.6192 0.0985 0.2734 0 1
9.0651 8.2490 0.1019 0.6965 0 2
8.6876 8.5696 0.1014 0.2184 0 2
8.7008 9.3029 0.1059 0.2092 0 2
8.7159 10.1055 0.1109 0.1997 0 2
8.7331 10.9907 0.1167 0.1899 0 2
6.6074 9.0401 0.0931 0.8201 22 6
8.7756 13.0811 0.1309 0.1692 0 2
8.8021 14.3363 0.1398 0.1584 0 2
8.2617 14.7574 0.1406 0.4716 0 3
8.2476 16.2328 0.1513 0.4381 0 3
8.2311 17.9557 0.1642 0.4038 0 3
8.0502 19.6087 0.1762 0.3689 0 3
8.7803 24.1068 0.2132 0.9374 0 3
8.1638 25.5717 0.2231 0.2974 0 3
9.2485 33.5796 0.2895 0.0765 0 2
3.4980 15.0418 0.1284 0.8924 0 9
1.5593 14.4235 0.1206 0.4498 0 9
1.6574 24.5459 0.2045 0.4893 0 9
-0.3207 24.4521 0.2032 0.3327 0 9
-31.8395 37.9809 0.4119 0.6013 0 3
-29.9235 32.9083 0.3697 0.8528 0 3
-30.0772 30.5134 0.3561 0.2310 0 3
-29.8486 27.9371 0.3398 0.8060 0 3
-31.7431 27.3982 0.3485 0.7107 0 3
-34.7854 27.6607 0.3694 0.6273 0 3
-30.0213 21.9593 0.3091 0.2644 0 3
-30.2365 20.3003 0.3027 0.2718 0 3
-29.8507 18.3425 0.2912 0.5117 0 3
-29.8303 16.7143 0.2842 0.7497 0 3
-34.9290 17.7629 0.3257 0.4589 0 3
-33.5596 -36.0392 -0.1364 0.9275 0 20
8.0079 -44.9331 -0.1264 0.0584 0 2
5.4317 -24.6796 -0.0700 0.8762 0 6
8.1209 -30.9125 -0.0885 0.0834 0 2
8.1549 -26.6294 -0.0772 0.0957 0 2
8.1808 -23.3169 -0.0685 0.1079 0 2
8.2013 -20.6710 -0.0616 0.1198 0 2
8.2177 -18.5025 -0.0561 0.1316 0 2
8.2313 -16.6876 -0.0515 0.1432 0 2
8.6998 -15.9815 -0.0504 0.1698 0 2
8.5528 -14.3080 -0.0462 0.1561 0 1
8.5608 -13.0939 -0.0433 0.1746 0 1
8.5815 -12.0380 -0.0410 0.1859 0 1
8.5972 -11.0871 -0.0389 0.1937 0 1
8.6023 -10.2163 -0.0370 0.2014 0 1
8.5793 -9.3938 -0.0352 0.2036 0 1
8.5633 -8.6497 -0.0337 0.2278 0 1
8.5573 -7.9743 -0.0324 0.2371 0 1
8.5568 -7.3531 -0.0313 0.2492 0 1
8.5807 -6.7927 -0.0303 0.2802 0 1
8.5321 -6.2124 -0.0292 0.2733 0 24
6.2178 -4.1549 -0.0207 0.9319 14 6
8.3283 -5.0926 -0.0270 0.2738 0 25
8.3302 -4.6437 -0.0264 0.2803 0 25
8.3319 -4.2143 -0.0259 0.2863 0 25
8.3333 -3.8018 -0.0254 0.2918 0 25
8.3346 -3.4040 -0.0249 0.2969 0 25
8.3358 -3.0190 -0.0246 0.3015 0 25
8.3367 -2.6448 -0.0242 0.3056 0 25
8.3379 -2.2801 -0.0239 0.3015 0 2
8.6404 -1.9928 -0.0246 0.3126 0 1
8.6549 -1.6323 -0.0244 0.3150 0 1
4.0039 -0.5893 -0.0112 0.3078 25 14
3.9505 -0.4198 -0.0110 0.9699 25 14
3.9293 -0.2581 -0.0109 0.9713 25 14
3.9034 -0.0989 -0.0108 0.9795 25 14
3.8921 0.0581 -0.0108 0.9826 25 14
3.9173 0.2165 -0.0109 0.9749 25 14
3.9430 0.3776 -0.0110 0.9656 25 14
3.9569 0.5404 -0.0111 0.9648 25 14
8.8525 1.5744 -0.0249 0.3082 0 1
8.8844 1.9520 -0.0252 0.3047 0 1
8.9201 2.3399 -0.0255 0.2997 0 1
8.9580 2.7397 -0.0260 0.2951 0 1
8.9972 3.1530 -0.0264 0.2899 0 1
9.0320 3.5797 -0.0269 0.2823 0 1
9.0673 4.0232 -0.0275 0.2765 0 1
9.0693 4.4694 -0.0280 0.2857 0 1
9.0555 4.9252 -0.0286 0.2802 0 1
9.0400 5.3993 -0.0292 0.2739 0 1
9.0205 5.8929 -0.0299 0.2677 0 1
8.9518 6.3765 -0.0304 0.2968 0 1
8.8404 6.8499 -0.0310 0.2917 0 1
8.7432 7.3566 -0.0317 0.2836 0 1
8.7555 7.9905 -0.0328 0.2491 0 2
8.3652 8.2756 -0.0326 0.7487 0 2
8.2847 8.8838 -0.0337 0.2194 0 2
8.2801 9.6285 -0.0352 0.2099 0 2
8.2749 10.4452 -0.0369 0.2000 0 2
6.5766 9.0255 -0.0309 0.8223 22 6
8.2622 12.3547 -0.0412 0.1793 0 2
8.2544 13.4881 -0.0438 0.1685 0 2
8.2452 14.7783 -0.0469 0.1575 0 2
8.2344 16.2652 -0.0505 0.1462 0 2
8.2215 18.0038 -0.0548 0.1347 0 2
8.1273 19.8787 -0.0595 0.3641 0 3
8.1863 22.5779 -0.0665 0.1110 0 2
8.1620 25.6948 -0.0747 0.0989 0 2
8.1304 29.6885 -0.0853 0.0866 0 2
8.0881 35.0105 -0.0995 0.0742 0 2
8.4772 44.8596 -0.1265 0.0692 0 1
1.6070 15.0703 -0.0420 0.0437 0 9
1.6540 25.0370 -0.0695 0.4477 0 9
0.6275 24.4135 -0.0677 0.6358 0 9
-31.6533 37.6475 -0.1363 0.6059 0 3
-29.7444 32.6158 -0.1223 0.9706 0 3
-31.4090 31.7720 -0.1238 0.6626 0 3
-31.3930 29.2971 -0.1190 0.6894 0 3
-31.5860 27.1826 -0.1154 0.7151 0 3
-34.8872 27.6590 -0.1233 0.6262 0 3
-31.4066 22.9026 -0.1077 0.4340 0 3
-31.3156 20.9588 -0.1044 0.7851 0 3
-31.3038 19.1727 -0.1017 0.8059 0 3
-31.2925 17.4739 -0.0993 0.8254 0 3
-36.5815 18.5364 -0.1136 0.8436 0 3
-38.8043 17.7372 -0.1182 0.4215 0 3
-36.5193 -33.2799 -0.1369 0.3820 0 20
-34.6273 -34.2067 -0.1348 0.8811 0 20
-33.5986 -35.9760 -0.1364 0.9279 0 20
7.9677 -45.0869 -0.1268 0.7765 0 3
5.4049 -24.7292 -0.0701 0.2984 0 6
8.1195 -31.0910 -0.0890 0.0829 0 2
8.1538 -26.7648 -0.0775 0.0953 0 2
8.1800 -23.4235 -0.0687 0.1074 0 2
8.2006 -20.7573 -0.0618 0.1194 0 2
8.2172 -18.5741 -0.0563 0.1312 0 2
8.2308 -16.7480 -0.0517 0.1428 0 2
8.6968 -16.0314 -0.0505 0.1694 0 2
8.5535 -14.3565 -0.0463 0.1557 0 1
8.5602 -13.1346 -0.0434 0.1742 0 1
8.5806 -12.0739 -0.0410 0.1856 0 1
8.5967 -11.1198 -0.0389 0.1933 0 1
8.6027 -10.2469 -0.0371 0.2011 0 1
8.5806 -9.4227 -0.0353 0.2033 0 1
8.5636 -8.6752 -0.0338 0.2275 0 1
8.5575 -7.9978 -0.0324 0.2368 0 1
8.5567 -7.3746 -0.0313 0.2489 0 1
8.5795 -6.8121 -0.0303 0.2799 0 1
8.5317 -6.2311 -0.0293 0.2734 0 24
6.2167 -4.1672 -0.0207 0.8110 14 6
8.3283 -5.1092 -0.0271 0.2736 0 25
8.3301 -4.6595 -0.0264 0.2800 0 25
8.3318 -4.2295 -0.0259 0.2861 0 25
8.3333 -3.8164 -0.0254 0.2916 0 25
8.3346 -3.4181 -0.0250 0.2967 0 25
8.3357 -3.0327 -0.0246 0.3013 0 25
8.3367 -2.6582 -0.0242 0.3055 0 25
8.3386 -2.2934 -0.0240 0.3014 0 2
8.6399 -2.0059 -0.0246 0.3125 0 1
8.6543 -1.6452 -0.0244 0.3149 0 1
4.0192 -0.5976 -0.0113 0.3065 25 14
3.9508 -0.4257 -0.0110 0.9696 25 14
3.9302 -0.2639 -0.0109 0.9710 25 14
3.9043 -0.1046 -0.0108 0.9792 25 14
3.8912 0.0525 -0.0108 0.9828 25 14
3.9164 0.2107 -0.0109 0.9752 25 14
3.9420 0.3717 -0.0110 0.9660 25 14
3.9566 0.5345 -0.0111 0.9651 25 14
8.8514 1.5609 -0.0249 0.3084 0 1
8.8832 1.9382 -0.0252 0.3048 0 1
8.9187 2.3257 -0.0255 0.2999 0 1
8.9566 2.7251 -0.0259 0.2952 0 1
8.9957 3.1378 -0.0264 0.2901 0 1
9.0308 3.5640 -0.0269 0.2825 0 1
9.0660 4.0069 -0.0275 0.2767 0 1
9.0698 4.4533 -0.0280 0.2859 0 1
9.0560 4.9085 -0.0285 0.2804 0 1
9.0407 5.3819 -0.0291 0.2741 0 1
9.0212 5.8747 -0.0298 0.2679 0 1
8.9557 6.3597 -0.0304 0.2970 0 1
8.8445 6.8325 -0.0310 0.2919 0 1
8.7467 7.3378 -0.0316 0.2839 0 1
8.7568 7.9684 -0.0328 0.2494 0 2
8.3877 8.2738 -0.0326 0.7477 0 2
8.2848 8.8581 -0.0336 0.2197 0 2
8.2803 9.6004 -0.0351 0.2102 0 2
8.2751 10.4143 -0.0369 0.2004 0 2
6.5962 9.0248 -0.0310 0.8215 22 6
8.2625 12.3163 -0.0411 0.1797 0 2
8.2547 13.4447 -0.0437 0.1689 0 2
8.2456 14.7285 -0.0468 0.1579 0 2
8.2348 16.2075 -0.0504 0.1466 0 2
8.2220 17.9358 -0.0547 0.1351 0 2
8.1278 19.7977 -0.0593 0.3654 0 3
8.1871 22.4779 -0.0663 0.1114 0 2
8.1630 25.5690 -0.0744 0.0993 0 2
8.1317 29.5246 -0.0848 0.0870 0 2
8.0899 34.7876 -0.0989 0.0746 0 2
8.4560 44.3937 -0.1252 0.0688 0 24
1.6238 15.0203 -0.0419 0.2584 0 9
1.6931 25.0746 -0.0696 0.4977 0 9
0.6918 25.4737 -0.0706 0.6493 0 9
-31.6540 37.7597 -0.1365 0.6048 0 3
-31.4096 31.8651 -0.1240 0.6617 0 3
-31.3936 29.3831 -0.1191 0.6885 0 3
-31.5865 27.2630 -0.1156 0.7142 0 3
-34.7841 27.6597 -0.1231 0.6274 0 3
-31.5593 23.0843 -0.1083 0.7622 0 3
-31.2701 20.9942 -0.1043 0.6076 0 3
-31.3042 19.2356 -0.1018 0.8052 0 3
-31.2929 17.5338 -0.0994 0.8247 0 3
-36.5819 18.6035 -0.1137 0.8429 0 3
-36.6550 16.8192 -0.1117 0.9498 0 3
-33.4489 -35.9204 -0.6799 0.9305 0 20
-16.7008 -27.3347 -0.4437 0.8100 0 6
2.1608 -38.8485 -0.5390 0.8323 0 6
6.4275 -46.9350 -0.6562 0.0563 0 2
6.7867 -38.0809 -0.5358 0.0689 0 2
4.1000 -18.6292 -0.2642 0.4566 0 6
7.2121 -27.4533 -0.3932 0.0939 0 2
7.3481 -23.9948 -0.3476 0.1062 0 2
7.4546 -21.2470 -0.3119 0.1184 0 2
7.5402 -19.0048 -0.2832 0.1303 0 2
7.6103 -17.1349 -0.2597 0.1421 0 2
8.0137 -16.2465 -0.2509 0.9546 0 2
8.0146 -14.7229 -0.2322 0.1487 0 1
8.0276 -13.4294 -0.2167 0.1746 0 1
8.0737 -12.3488 -0.2044 0.1851 0 1
8.1167 -11.3861 -0.1937 0.1943 0 1
8.1535 -10.5148 -0.1843 0.2042 0 1
8.1444 -9.6725 -0.1752 0.2128 0 24
8.1771 -8.9534 -0.1680 0.2287 0 1
8.1867 -8.2693 -0.1612 0.2383 0 1
8.1960 -7.6376 -0.1552 0.2509 0 1
8.2309 -7.0730 -0.1503 0.2825 0 1
8.2729 -6.5490 -0.1462 0.2906 0 1
8.3105 -6.0510 -0.1424 0.2499 0 1
6.2329 -4.1650 -0.1038 0.8096 14 6
8.0205 -4.9043 -0.1302 0.2843 0 25
8.0292 -4.4759 -0.1273 0.2907 0 25
8.0369 -4.0650 -0.1248 0.2967 0 25
8.0437 -3.6696 -0.1225 0.3023 0 25
8.0497 -3.2877 -0.1205 0.3074 0 25
8.0550 -2.9173 -0.1187 0.3120 0 25
8.0596 -2.5569 -0.1171 0.3161 0 25
8.1714 -2.2346 -0.1174 0.3259 0 2
8.3592 -1.9279 -0.1188 0.3231 0 1
8.3752 -1.5795 -0.1181 0.3254 0 1
3.9509 -0.5815 -0.0553 0.9648 25 14
3.9420 -0.4189 -0.0549 0.9719 25 14
3.9256 -0.2579 -0.0545 0.9721 25 14
3.8997 -0.0988 -0.0540 0.9803 25 14
3.8888 0.0581 -0.0539 0.9833 25 14
3.9140 0.2163 -0.0543 0.9756 25 14
3.9393 0.3772 -0.0548 0.9736 25 14
3.9485 0.5393 -0.0552 0.9668 25 14
8.5606 1.5224 -0.1204 0.3187 0 1
8.5881 1.8869 -0.1218 0.3152 0 1
8.6178 2.2606 -0.1234 0.3102 0 1
8.6499 2.6455 -0.1253 0.3055 0 1
8.6803 3.0420 -0.1274 0.2981 0 1
8.7073 3.4510 -0.1297 0.2928 0 1
8.7347 3.8756 -0.1324 0.2870 0 1
8.7470 4.3105 -0.1351 0.2962 0 1
8.7275 4.7469 -0.1376 0.2907 0 1
8.7051 5.1993 -0.1405 0.2844 0 1
8.6789 5.6697 -0.1436 0.2782 0 1
8.6458 6.1585 -0.1470 0.3073 0 1
8.5330 6.6118 -0.1495 0.3022 0 1
8.4315 7.0943 -0.1526 0.2941 0 1
8.3284 7.6007 -0.1562 0.2874 0 1
8.3462 8.2568 -0.1626 0.7920 0 2
7.8853 9.1694 -0.1675 0.2204 0 2
7.8619 9.9239 -0.1754 0.2105 0 2
6.5655 9.0103 -0.1544 0.8236 22 6
7.8049 11.6709 -0.1945 0.1898 0 2
7.7700 12.6966 -0.2062 0.1790 0 2
7.7295 13.8540 -0.2198 0.1680 0 2
7.6822 15.1746 -0.2356 0.1567 0 2
7.6264 16.7006 -0.2543 0.1452 0 2
7.5596 18.4903 -0.2767 0.1334 0 2
7.4782 20.6250 -0.3039 0.1215 0 2
7.3778 23.2261 -0.3376 0.1094 0 2
7.2505 26.4755 -0.3803 0.0971 0 2
7.0845 30.6663 -0.4360 0.0847 0 2
2.7017 14.2968 -0.2016 0.1348 0 9
6.8121 46.1657 -0.6464 0.0677 0 24
2.5604 24.0107 -0.3345 0.5351 0 9
0.9817 14.8608 -0.2063 0.6809 0 9
0.7003 27.2439 -0.3775 0.9139 0 9
-31.4703 37.4299 -0.6774 0.6093 0 3
-16.4364 16.6264 -0.3239 0.5771 0 6
-34.9909 32.6548 -0.6630 0.6869 0 3
-31.4312 27.0493 -0.5744 0.7186 0 3
-34.8859 27.6579 -0.6167 0.6262 0 3
-31.4138 22.9079 -0.5386 0.7664 0 3
-33.8641 22.6645 -0.5645 0.5615 0 3
-36.4480 22.3234 -0.5921 0.8093 0 3
-31.5681 17.6277 -0.5009 0.9091 0 3
-31.5662 15.9951 -0.4902 0.9585 0 3
-36.7730 16.8087 -0.5601 0.8304 0 3
-40.4388 16.5503 -0.6053 0.2810 0 3
-36.6399 -33.3898 -0.6867 0.3910 0 20
-34.5552 -34.1356 -0.6729 0.9433 0 20
-33.4879 -35.8575 -0.6797 0.9309 0 20
-16.7314 -27.2956 -0.4435 0.8104 0 6
6.4115 -47.3296 -0.6616 0.0558 0 2
6.7761 -38.3440 -0.5394 0.0684 0 2
4.0652 -18.5997 -0.2637 0.9628 0 6
7.2065 -27.5951 -0.3951 0.0934 0 2
7.3438 -24.1058 -0.3491 0.1058 0 2
7.4512 -21.3365 -0.3131 0.1179 0 2
7.5374 -19.0786 -0.2842 0.1299 0 2
7.6080 -17.1971 -0.2605 0.1417 0 2
7.9867 -16.2513 -0.2508 0.9550 0 2
8.0157 -14.7760 -0.2329 0.1483 0 1
8.0258 -13.4708 -0.2172 0.1742 0 1
8.0721 -12.3857 -0.2048 0.1847 0 1
8.1153 -11.4192 -0.1941 0.1940 0 1
8.1522 -10.5448 -0.1846 0.2039 0 1
8.1441 -9.7007 -0.1755 0.2125 0 24
8.1767 -8.9791 -0.1682 0.2283 0 1
8.1864 -8.2931 -0.1614 0.2380 0 1
8.1954 -7.6594 -0.1554 0.2506 0 1
8.2293 -7.0925 -0.1505 0.2822 0 1
8.2714 -6.5675 -0.1463 0.2903 0 1
8.3107 -6.0697 -0.1426 0.2979 0 1
6.2330 -4.1782 -0.1039 0.8088 14 6
8.0202 -4.9202 -0.1303 0.2840 0 25
8.0289 -4.4910 -0.1274 0.2905 0 25
8.0366 -4.0796 -0.1249 0.2965 0 25
8.0435 -3.6837 -0.1226 0.3021 0 25
8.0495 -3.3012 -0.1205 0.3072 0 25
8.0548 -2.9305 -0.1187 0.3118 0 25
8.0595 -2.5698 -0.1172 0.3159 0 25
8.1343 -2.2372 -0.1169 0.3273 0 2
8.3587 -1.9406 -0.1189 0.3230 0 1
8.3747 -1.5920 -0.1181 0.3254 0 1
3.9584 -0.5885 -0.0554 0.3112 25 14
3.9423 -0.4247 -0.0549 0.9716 25 14
3.9265 -0.2637 -0.0545 0.9718 25 14
3.9007 -0.1045 -0.0541 0.9801 25 14
3.8879 0.0524 -0.0539 0.9836 25 14
3.9131 0.2105 -0.0543 0.9759 25 14
3.9386 0.3714 -0.0548 0.9667 25 14
3.9482 0.5334 -0.0552 0.9670 25 14
8.5596 1.5094 -0.1204 0.3188 0 1
8.5871 1.8736 -0.1218 0.3153 0 1
8.6167 2.2469 -0.1234 0.3104 0 1
8.6487 2.6314 -0.1252 0.3057 0 1
8.6793 3.0275 -0.1273 0.2983 0 1
8.7063 3.4359 -0.1297 0.2930 0 1
8.7337 3.8600 -0.1323 0.2872 0 1
8.7476 4.2951 -0.1350 0.2964 0 1
8.7283 4.7308 -0.1375 0.2909 0 1
8.7060 5.1827 -0.1404 0.2846 0 1
8.6798 5.6524 -0.1435 0.2784 0 1
8.6497 6.1424 -0.1470 0.3075 0 1
8.5372 6.5951 -0.1494 0.3024 0 1
8.4351 7.0764 -0.1525 0.2943 0 1
8.3322 7.5820 -0.1561 0.2877 0 1
8.3556 8.2422 -0.1626 0.2523 0 2
7.9078 8.4550 -0.1604 0.2295 0 2
7.8861 9.1434 -0.1673 0.2207 0 2
7.8628 9.8954 -0.1751 0.2109 0 2
6.5851 9.0096 -0.1546 0.8228 22 6
7.8061 11.6360 -0.1941 0.1902 0 2
7.7713 12.6574 -0.2058 0.1794 0 2
7.7311 13.8096 -0.2192 0.1684 0 2
7.6841 15.1236 -0.2350 0.1571 0 2
7.6286 16.6413 -0.2536 0.1456 0 2
7.5622 18.4202 -0.2758 0.1338 0 2
7.4815 20.5406 -0.3028 0.1219 0 2
7.3818 23.1222 -0.3362 0.1098 0 2
7.2557 26.3439 -0.3785 0.0975 0 2
7.0914 30.4939 -0.4337 0.0851 0 2
2.6700 14.0173 -0.1977 0.4070 0 9
6.8550 45.9934 -0.6442 0.0741 0 1
1.0043 14.8739 -0.2065 0.6477 0 9
-31.4707 37.5411 -0.6786 0.6083 0 3
-31.4502 31.9064 -0.6206 0.6651 0 3
-29.5455 27.6534 -0.5606 0.5444 0 3
-31.4315 27.1292 -0.5752 0.7177 0 3
-34.7827 27.6586 -0.6156 0.6273 0 3
-31.4141 22.9781 -0.5392 0.7656 0 3
-33.7589 22.6651 -0.5633 0.5627 0 3
-36.4483 22.3965 -0.5926 0.8086 0 3
-31.7349 17.7815 -0.5039 0.4943 0 3
-32.5621 16.5592 -0.5061 0.2804 0 3
-38.6554 17.7371 -0.5892 0.4228 0 3
-40.4400 16.6195 -0.6057 0.2808 0 3
-33.1173 -35.5642 -1.2119 0.9711 0 20
4.7175 -49.0763 -1.2295 0.0540 0 2
5.4158 -39.5468 -0.9954 0.0668 0 2
5.8885 -33.0408 -0.8370 0.0794 0 2
4.0928 -18.5963 -0.4749 0.9625 0 6
6.4861 -24.6896 -0.6366 0.1044 0 2
6.6864 -21.8340 -0.5695 0.1167 0 2
6.8467 -19.5142 -0.5157 0.1288 0 2
6.9776 -17.5867 -0.4718 0.1408 0 2
7.2820 -16.3956 -0.4474 0.9831 0 2
7.4647 -15.1334 -0.4208 0.1427 0 1
7.4927 -13.7641 -0.3908 0.1756 0 1
7.5317 -12.5997 -0.3661 0.1890 0 24
7.6109 -11.6411 -0.3469 0.1961 0 24
7.6767 -10.7688 -0.3298 0.2066 0 24
7.7290 -9.9674 -0.3145 0.2146 0 24
7.7629 -9.2194 -0.3006 0.2254 0 24
7.7875 -8.5269 -0.2880 0.2383 0 24
7.8125 -7.8913 -0.2769 0.2532 0 24
7.8396 -7.3056 -0.2672 0.2659 0 24
7.9379 -6.8212 -0.2610 0.2929 0 1
7.9002 -6.2540 -0.2513 0.2872 0 24
7.7006 -5.6070 -0.2376 0.2816 0 2
6.2493 -4.1759 -0.1874 0.8073 14 6
7.7346 -4.7295 -0.2261 0.2947 0 25
7.7491 -4.3197 -0.2212 0.3012 0 25
7.7620 -3.9260 -0.2169 0.3072 0 25
7.7734 -3.5464 -0.2131 0.3127 0 25
7.7836 -3.1790 -0.2097 0.3178 0 25
7.7925 -2.8222 -0.2067 0.3224 0 25
7.8003 -2.4746 -0.2041 0.3265 0 25
8.0784 -2.2092 -0.2089 0.3309 0 1
8.0958 -1.8672 -0.2072 0.3338 0 1
8.1130 -1.5301 -0.2059 0.3359 0 1
3.9423 -0.5803 -0.0994 0.9666 25 14
3.9335 -0.4180 -0.0986 0.9738 25 14
3.9218 -0.2577 -0.0980 0.9728 25 14
3.8961 -0.0987 -0.0972 0.9810 25 14
3.8856 0.0580 -0.0969 0.9839 25 14
3.9107 0.2161 -0.0977 0.9762 25 14
3.9309 0.3764 -0.0985 0.9754 25 14
3.9401 0.5381 -0.0992 0.9686 25 14
4.4194 0.7860 -0.1119 0.0901 25 14
8.2799 1.8192 -0.2114 0.3250 0 24
8.3353 2.1865 -0.2149 0.3207 0 1
8.3621 2.5575 -0.2181 0.3160 0 1
8.3841 2.9382 -0.2216 0.3086 0 1
8.4050 3.3312 -0.2255 0.3033 0 1
8.4255 3.7385 -0.2299 0.2974 0 1
8.4458 4.1621 -0.2348 0.2912 0 1
8.4224 4.5809 -0.2391 0.3012 0 1
8.3940 5.0135 -0.2438 0.2949 0 1
8.3620 5.4628 -0.2491 0.2887 0 1
8.3274 5.9318 -0.2550 0.2820 0 1
8.2463 6.3896 -0.2602 0.3126 0 1
8.1412 6.8500 -0.2653 0.3045 0 1
8.0352 7.3331 -0.2713 0.2978 0 1
8.0196 7.9337 -0.2813 0.2624 0 2
7.7672 8.3290 -0.2840 0.8522 0 2
7.5264 8.7520 -0.2879 0.2308 0 2
7.4880 9.4520 -0.3007 0.2210 0 2
6.5545 8.9951 -0.2776 0.8248 22 6
7.3954 11.0586 -0.3318 0.2003 0 2
7.3391 11.9926 -0.3506 0.1895 0 2
7.2744 13.0383 -0.3723 0.1785 0 2
7.1993 14.2207 -0.3975 0.1672 0 2
7.1115 15.5731 -0.4269 0.1556 0 2
7.0076 17.1400 -0.4618 0.1439 0 2
6.8829 18.9832 -0.5036 0.1320 0 2
6.7311 21.1903 -0.5545 0.1198 0 2
6.5425 23.8900 -0.6177 0.1076 0 2
6.3023 27.2802 -0.6982 0.0952 0 2
5.9867 31.6804 -0.8040 0.0826 0 2
5.8788 39.8408 -1.0043 0.0712 0 1
1.6763 15.7203 -0.3943 0.4668 0 9
1.0061 15.2295 -0.3806 0.0450 0 9
-31.2894 37.2148 -1.2125 0.6127 0 3
-31.5283 34.5720 -1.1669 0.6416 0 3
-31.3016 31.6635 -1.1104 0.8323 0 3
-34.9897 32.6537 -1.1935 0.6868 0 3
-31.2778 26.9174 -1.0291 0.7220 0 3
-34.8846 27.6569 -1.1102 0.6261 0 3
-31.0861 22.6689 -0.9595 0.8709 0 3
-33.8627 22.6635 -1.0162 0.5614 0 3
-36.2900 22.2266 -1.0613 0.8127 0 3
-31.8406 17.7799 -0.9095 0.4930 0 3
-33.9963 17.2264 -0.9504 0.2598 0 3
-38.7999 17.7352 -1.0639 0.4214 0 3
-41.4161 16.9503 -1.1160 0.8883 0 3
-36.6468 -33.3961 -1.2365 0.2179 0 20
-34.4721 -34.0535 -1.2084 0.9739 0 20
-33.1646 -35.5114 -1.2117 0.9713 0 20
4.6860 -49.5045 -1.2401 0.0536 0 2
5.3952 -39.8278 -1.0023 0.0663 0 2
5.8741 -33.2398 -0.8418 0.0789 0 2
4.0680 -18.6124 -0.4751 0.8832 0 6
6.4779 -24.8052 -0.6393 0.1039 0 2
6.6799 -21.9268 -0.5716 0.1162 0 2
6.8414 -19.5904 -0.5175 0.1284 0 2
6.9733 -17.6507 -0.4733 0.1404 0 2
7.2564 -16.4022 -0.4473 0.9833 0 2
7.4642 -15.1882 -0.4220 0.1423 0 1
7.4894 -13.8058 -0.3917 0.1752 0 1
7.5284 -12.6360 -0.3668 0.1886 0 24
7.6084 -11.6743 -0.3475 0.1956 0 24
7.6745 -10.7989 -0.3304 0.2062 0 24
7.7274 -9.9954 -0.3151 0.2149 0 24
7.7619 -9.2455 -0.3010 0.2248 0 24
7.7867 -8.5508 -0.2884 0.2379 0 24
7.8116 -7.9134 -0.2773 0.2525 0 24
7.8386 -7.3259 -0.2676 0.2656 0 24
7.9361 -6.8397 -0.2613 0.2926 0 1
7.8992 -6.2719 -0.2515 0.2869 0 24
7.6999 -5.6236 -0.2378 0.2814 0 2
6.2494 -4.1892 -0.1876 0.8065 14 6
7.7341 -4.7446 -0.2263 0.2945 0 25
7.7486 -4.3342 -0.2214 0.3010 0 25
7.7615 -3.9400 -0.2171 0.3070 0 25
7.7730 -3.5598 -0.2132 0.3125 0 25
7.7832 -3.1920 -0.2098 0.3176 0 25
7.7922 -2.8349 -0.2068 0.3222 0 25
7.8000 -2.4870 -0.2042 0.3264 0 25
8.0777 -2.2216 -0.2089 0.3308 0 1
8.0952 -1.8794 -0.2073 0.3337 0 1
8.1124 -1.5422 -0.2059 0.3358 0 1
3.9426 -0.5862 -0.0994 0.9664 25 14
3.9339 -0.4238 -0.0987 0.9735 25 14
3.9228 -0.2634 -0.0980 0.9725 25 14
3.8970 -0.1044 -0.0972 0.9808 25 14
3.8847 0.0524 -0.0969 0.9842 25 14
3.9098 0.2103 -0.0976 0.9765 25 14
3.9306 0.3706 -0.0985 0.9756 25 14
3.9398 0.5322 -0.0991 0.9689 25 14
4.2309 0.7461 -0.1071 0.0276 25 14
8.2790 1.8063 -0.2113 0.3252 0 24
8.3344 2.1733 -0.2148 0.3208 0 1
8.3612 2.5439 -0.2180 0.3162 0 1
8.3834 2.9242 -0.2214 0.3088 0 1
8.4042 3.3167 -0.2253 0.3035 0 1
8.4248 3.7235 -0.2297 0.2977 0 1
8.4451 4.1465 -0.2346 0.2914 0 1
8.4233 4.5655 -0.2389 0.3014 0 1
8.3951 4.9976 -0.2437 0.2951 0 1
8.3632 5.4462 -0.2489 0.2889 0 1
8.3287 5.9145 -0.2547 0.2823 0 1
8.2505 6.3736 -0.2600 0.3128 0 1
8.1449 6.8329 -0.2651 0.3048 0 1
8.0391 7.3153 -0.2711 0.2981 0 1
8.0216 7.9127 -0.2810 0.2627 0 2
7.7862 8.3250 -0.2843 0.8514 0 2
7.5277 8.7278 -0.2874 0.2312 0 2
7.4895 9.4256 -0.3002 0.2213 0 2
6.5740 8.9943 -0.2778 0.8240 22 6
7.3973 11.0266 -0.3311 0.2007 0 2
7.3413 11.9571 -0.3499 0.1899 0 2
7.2769 12.9983 -0.3715 0.1789 0 2
7.2023 14.1753 -0.3965 0.1676 0 2
7.1149 15.5208 -0.4258 0.1561 0 2
7.0117 17.0791 -0.4604 0.1443 0 2
6.8879 18.9109 -0.5019 0.1324 0 2
6.7372 21.1029 -0.5524 0.1203 0 2
6.5501 23.7820 -0.6152 0.1080 0 2
6.3121 27.1427 -0.6950 0.0956 0 2
5.9998 31.4986 -0.7997 0.0831 0 2
5.8994 39.5815 -0.9980 0.0716 0 1
1.7011 15.7351 -0.3947 0.7237 0 9
1.8232 27.0022 -0.6749 0.5120 0 9
-0.1933 14.7354 -0.3675 0.7320 0 9
-31.2895 37.3249 -1.2146 0.6117 0 3
-31.5284 34.6732 -1.1687 0.6406 0 3
-31.2845 31.7382 -1.1114 0.6685 0 3
-34.8886 32.6543 -1.1917 0.6878 0 3
-31.2780 26.9967 -1.0304 0.7210 0 3
-34.7814 27.6576 -1.1082 0.6272 0 3
-31.2702 22.8728 -0.9662 0.7690 0 3
-33.7574 22.6642 -1.0140 0.5626 0 3
-36.2902 22.2993 -1.0622 0.8120 0 3
-31.4413 17.6170 -0.8988 0.9660 0 3
-31.4425 15.9898 -0.8797 0.8536 0 3
-36.6273 16.8065 -1.0050 0.8330 0 3
-41.4164 17.0208 -1.1167 0.8877 0 3
-33.8564 -36.3579 -1.7900 0.1815 0 20
3.9492 -41.0839 -1.4871 0.0645 0 2
4.6788 -34.1657 -1.2425 0.0772 0 2
5.1999 -29.1770 -1.0678 0.0899 0 2
4.1259 -18.7466 -0.6916 0.1100 0 6
5.8926 -22.4302 -0.8356 0.1149 0 2
6.1337 -20.0293 -0.7547 0.1272 0 2
6.3301 -18.0419 -0.6889 0.1393 0 2
6.5882 -16.6053 -0.6437 0.9976 0 2
6.9050 -15.5469 -0.6129 0.1377 0 1
6.9509 -14.0918 -0.5661 0.1532 0 1
7.0665 -12.9812 -0.5325 0.1850 0 1
7.1640 -11.9847 -0.5031 0.1959 0 1
7.2544 -11.0957 -0.4776 0.2080 0 1
7.3302 -10.2827 -0.4550 0.2184 0 1
7.3915 -9.5322 -0.4346 0.2224 0 1
7.4370 -8.8324 -0.4160 0.2323 0 1
7.4772 -8.1871 -0.3995 0.2420 0 1
7.5288 -7.6047 -0.3856 0.2752 0 1
7.5439 -7.0300 -0.3715 0.2778 0 24
7.5847 -6.5177 -0.3603 0.2884 0 24
7.7136 -6.1063 -0.3545 0.2574 0 1
7.4223 -5.4043 -0.3308 0.2909 0 25
6.2658 -4.1870 -0.2715 0.8049 14 6
6.6368 -4.0582 -0.2803 0.4380 14 6
7.4877 -4.1740 -0.3089 0.3116 0 25
7.5051 -3.7961 -0.3030 0.3176 0 25
7.5206 -3.4310 -0.2978 0.3231 0 25
7.5343 -3.0772 -0.2932 0.3282 0 25
7.5464 -2.7331 -0.2892 0.3328 0 25
7.5580 -2.3978 -0.2857 0.3384 0 2
7.8294 -2.1411 -0.2925 0.3413 0 1
7.8485 -1.8101 -0.2902 0.3442 0 1
7.8666 -1.4836 -0.2884 0.3463 0 1
3.9338 -0.5790 -0.1433 0.9684 25 14
3.9251 -0.4171 -0.1422 0.9755 25 14
3.9165 -0.2573 -0.1414 0.9811 25 14
3.8924 -0.0986 -0.1403 0.9816 25 14
3.8823 0.0580 -0.1399 0.9844 25 14
3.9074 0.2159 -0.1410 0.9767 25 14
3.9226 0.3756 -0.1420 0.9772 25 14
3.9317 0.5370 -0.1430 0.9704 25 14
4.1224 0.7331 -0.1509 0.2603 25 14
8.0204 1.7621 -0.2959 0.3354 0 24
8.0706 2.1171 -0.3006 0.3311 0 1
8.0911 2.4746 -0.3049 0.3239 0 1
8.1074 2.8412 -0.3095 0.3190 0 1
8.1228 3.2193 -0.3148 0.3137 0 1
8.1373 3.6106 -0.3208 0.3079 0 1
8.1509 4.0168 -0.3274 0.3016 0 1
8.1378 4.4261 -0.3338 0.3116 0 1
8.1043 4.8405 -0.3401 0.3053 0 1
8.0674 5.2703 -0.3472 0.2991 0 1
8.0273 5.7180 -0.3551 0.2925 0 1
7.9780 6.1817 -0.3636 0.3230 0 1
7.8700 6.6218 -0.3706 0.3149 0 1
7.7617 7.0836 -0.3786 0.3082 0 1
7.6471 7.5652 -0.3876 0.3011 0 1
7.6431 8.1958 -0.4038 0.2647 0 2
7.2493 8.4298 -0.4006 0.9032 0 2
7.1479 9.0226 -0.4147 0.2314 0 2
6.5407 8.9761 -0.4002 0.2213 22 6
7.0266 10.5070 -0.4554 0.2107 0 2
6.9534 11.3622 -0.4800 0.1999 0 2
6.8697 12.3129 -0.5080 0.1889 0 2
6.7733 13.3793 -0.5403 0.1776 0 2
6.6615 14.5877 -0.5778 0.1661 0 2
6.5304 15.9730 -0.6218 0.1544 0 2
6.3750 17.5823 -0.6739 0.1424 0 2
6.1882 19.4812 -0.7365 0.1303 0 2
5.9600 21.7630 -0.8130 0.1180 0 2
5.6753 24.5662 -0.9084 0.1056 0 2
5.3110 28.1050 -1.0306 0.0931 0 2
2.3210 15.7297 -0.5729 0.3981 0 9
1.7102 16.0376 -0.5811 0.6607 0 9
1.1201 16.9547 -0.6122 0.2972 0 9
-0.2109 14.4733 -0.5215 0.7786 0 9
-31.1105 37.0019 -1.7418 0.6161 0 3
-31.1162 34.1200 -1.6638 0.6449 0 3
-31.1205 31.4803 -1.5949 0.6728 0 3
-34.9885 32.6525 -1.7243 0.6866 0 3
-31.1259 26.7866 -1.4796 0.7252 0 3
-34.8833 27.6559 -1.6039 0.6259 0 3
-31.1249 22.6972 -1.3880 0.7730 0 3
-33.8613 22.6626 -1.4681 0.5612 0 3
-36.1333 22.1306 -1.5267 0.8159 0 3
-29.2468 16.3315 -1.2069 0.7233 0 3
-35.1742 17.8233 -1.4208 0.8536 0 3
-35.2777 16.1252 -1.3976 0.4213 0 3
-43.2612 17.7054 -1.6842 0.3845 0 3
-34.3773 -33.9597 -1.7411 0.9779 0 20
-33.8465 -36.2415 -1.7867 0.1818 0 20
-18.3828 -27.4450 -1.1902 0.5227 0 6
3.9174 -41.3845 -1.4978 0.0641 0 2
4.6567 -34.3762 -1.2499 0.0768 0 2
5.1837 -29.3329 -1.0733 0.0894 0 2
5.5776 -25.5194 -0.9412 0.1020 0 2
5.8828 -22.5264 -0.8389 0.1144 0 2
6.1259 -20.1081 -0.7574 0.1267 0 2
6.3237 -18.1078 -0.6911 0.1389 0 2
6.5642 -16.6152 -0.6437 0.9994 0 2
6.9038 -15.6053 -0.6148 0.1373 0 1
6.9491 -14.1400 -0.5677 0.1528 0 1
7.0627 -13.0193 -0.5337 0.1846 0 1
7.1607 -12.0188 -0.5041 0.1955 0 1
7.2514 -11.1265 -0.4785 0.2076 0 1
7.3276 -10.3108 -0.4558 0.2180 0 1
7.3898 -9.5586 -0.4353 0.2220 0 1
7.4355 -8.8566 -0.4167 0.2320 0 1
7.4758 -8.2095 -0.4001 0.2416 0 1
7.5262 -7.6243 -0.3860 0.2748 0 1
7.5424 -7.0491 -0.3720 0.2775 0 24
7.5833 -6.5357 -0.3607 0.2881 0 24
7.7129 -6.1240 -0.3548 0.2990 0 1
7.4213 -5.4201 -0.3311 0.2907 0 25
6.2659 -4.2002 -0.2718 0.8041 14 6
6.6165 -4.0590 -0.2797 0.5631 14 6
7.4870 -4.1879 -0.3091 0.3114 0 25
7.5045 -3.8095 -0.3032 0.3174 0 25
7.5201 -3.4440 -0.2980 0.3229 0 25
7.5339 -3.0898 -0.2934 0.3280 0 25
7.5460 -2.7454 -0.2893 0.3327 0 25
7.5560 -2.4092 -0.2857 0.4691 0 2
7.8287 -2.1531 -0.2925 0.3412 0 1
7.8478 -1.8220 -0.2903 0.3441 0 1
7.8660 -1.4953 -0.2885 0.3462 0 1
3.9341 -0.5849 -0.1433 0.9681 25 14
3.9254 -0.4229 -0.1423 0.9753 25 14
3.9168 -0.2630 -0.1414 0.9809 25 14
3.8934 -0.1043 -0.1403 0.9814 25 14
3.8814 0.0523 -0.1399 0.9847 25 14
3.9065 0.2102 -0.1410 0.9770 25 14
3.9223 0.3698 -0.1419 0.9774 25 14
3.9314 0.5311 -0.1429 0.9706 25 14
4.1057 0.7240 -0.1502 0.2986 25 14
8.0196 1.7497 -0.2957 0.3356 0 24
8.0698 2.1043 -0.3005 0.3312 0 1
8.0905 2.4615 -0.3047 0.3241 0 1
8.1068 2.8278 -0.3094 0.3192 0 1
8.1223 3.2055 -0.3146 0.3139 0 1
8.1368 3.5962 -0.3205 0.3081 0 1
8.1504 4.0019 -0.3272 0.3019 0 1
8.1388 4.4113 -0.3335 0.3118 0 1
8.1056 4.8252 -0.3399 0.3056 0 1
8.0688 5.2545 -0.3469 0.2993 0 1
8.0288 5.7015 -0.3548 0.2927 0 1
7.9822 6.1664 -0.3634 0.3232 0 1
7.8738 6.6055 -0.3703 0.3151 0 1
7.7658 7.0666 -0.3783 0.3085 0 1
7.6513 7.5474 -0.3872 0.3014 0 1
7.6456 8.1747 -0.4033 0.2650 0 2
7.2665 8.4250 -0.4009 0.9026 0 2
7.1498 8.9982 -0.4141 0.2318 0 2
6.5658 8.9832 -0.4009 0.7822 22 6
7.0290 10.4777 -0.4546 0.2111 0 2
6.9562 11.3298 -0.4790 0.2003 0 2
6.8729 12.2767 -0.5069 0.1893 0 2
6.7771 13.3385 -0.5391 0.1780 0 2
6.6659 14.5412 -0.5763 0.1665 0 2
6.5355 15.9194 -0.6200 0.1548 0 2
6.3811 17.5196 -0.6718 0.1429 0 2
6.1956 19.4066 -0.7340 0.1307 0 2
5.9691 21.6725 -0.8099 0.1185 0 2
5.6868 24.4538 -0.9046 0.1061 0 2
5.3259 27.9609 -1.0256 0.0936 0 2
4.8495 32.5373 -1.1853 0.0810 0 2
3.2707 30.2550 -1.0964 0.5671 0 20
1.0327 15.2939 -0.5523 0.7584 0 9
-0.1907 14.5387 -0.5239 0.2805 0 9
-29.2611 37.9060 -1.7254 0.6656 0 3
-31.1102 37.1111 -1.7448 0.6150 0 3
-31.1160 34.2197 -1.6665 0.6439 0 3
-31.1204 31.5718 -1.5973 0.6718 0 3
-34.8874 32.6532 -1.7217 0.6876 0 3
-31.1258 26.8654 -1.4814 0.7243 0 3
-34.7801 27.6565 -1.6010 0.6270 0 3
-30.9600 22.6460 -1.3821 0.9239 0 3
-33.7560 22.6632 -1.4649 0.5624 0 3
-36.1333 22.2029 -1.5280 0.8152 0 3
-31.7319 17.7798 -1.3105 0.4941 0 3
-35.1743 17.8876 -1.4218 0.8530 0 3
-35.2180 16.1599 -1.3961 0.2440 0 3
-43.0851 17.7065 -1.6784 0.3858 0 3
-33.1585 -35.6085 -2.2932 0.0433 0 20
2.3744 -42.6883 -2.0151 0.0623 0 2
3.3958 -35.3262 -1.6726 0.0750 0 2
4.1180 -30.0707 -1.4305 0.0877 0 2
4.6551 -26.1200 -1.2505 0.1003 0 2
4.0978 -18.6190 -0.8985 0.9874 0 6
5.3982 -20.5484 -1.0013 0.1253 0 2
5.6651 -18.4991 -0.9118 0.1376 0 2
5.9234 -16.8827 -0.8433 0.9903 0 2
6.4184 -14.4514 -0.7453 0.1522 0 1
6.5550 -13.2893 -0.6984 0.1856 0 1
6.6856 -12.2815 -0.6590 0.1955 0 1
6.8026 -11.3801 -0.6249 0.2089 0 1
6.9047 -10.5609 -0.5947 0.2184 0 1
6.9926 -9.8091 -0.5678 0.2226 0 1
7.0573 -9.1011 -0.5428 0.2328 0 1
7.1145 -8.4493 -0.5206 0.2428 0 1
7.1799 -7.8616 -0.5018 0.2670 0 1
7.2520 -7.3252 -0.4858 0.2855 0 1
7.3247 -6.8257 -0.4719 0.2940 0 1
7.3916 -6.3517 -0.4593 0.3020 0 1
7.4055 -5.8624 -0.4452 0.2618 0 1
7.1633 -5.2157 -0.4176 0.3013 0 25
6.2824 -4.1980 -0.3561 0.8023 14 6
6.6206 -4.0483 -0.3657 0.5630 14 6
7.2432 -4.0377 -0.3908 0.3220 0 25
7.2645 -3.6744 -0.3837 0.3280 0 25
7.2835 -3.3228 -0.3773 0.3335 0 25
7.3004 -2.9816 -0.3717 0.3386 0 25
7.3152 -2.6494 -0.3667 0.3432 0 25
7.3320 -2.3261 -0.3625 0.3554 0 2
7.5941 -2.0767 -0.3711 0.3493 0 1
7.5889 -1.7503 -0.3671 0.3546 0 24
4.1916 -0.7905 -0.2010 0.2554 25 14
3.9253 -0.5778 -0.1870 0.9701 25 14
3.9167 -0.4162 -0.1856 0.9772 25 14
3.9081 -0.2568 -0.1846 0.9827 25 14
3.8888 -0.0985 -0.1833 0.9821 25 14
3.8790 0.0579 -0.1828 0.9848 25 14
3.9041 0.2157 -0.1843 0.9771 25 14
3.9144 0.3748 -0.1853 0.9788 25 14
3.9234 0.5358 -0.1866 0.9720 25 14
4.0642 0.7228 -0.1946 0.3015 25 14
7.8072 1.7153 -0.3767 0.3474 0 1
7.8221 2.0519 -0.3811 0.3424 0 1
7.8361 2.3966 -0.3862 0.3343 0 1
7.8481 2.7504 -0.3919 0.3294 0 1
7.8588 3.1147 -0.3984 0.3241 0 1
7.8680 3.4911 -0.4057 0.3183 0 1
7.8757 3.8812 -0.4138 0.3120 0 1
7.8714 4.2812 -0.4223 0.3215 0 1
7.8337 4.6788 -0.4301 0.3157 0 1
