ply
format ascii 1.0
element vertex 1398
property float32 x
property float32 y
property float32 z
property float32 CosAngle
property uint32 ObjIdx
property uint32 ObjTag
end_header
-19.7521 -2.6362 -9.5286 0.1257 0 1
-19.3560 -3.3810 -9.3955 0.1291 0 1
-18.8809 -4.0870 -9.2373 0.1313 0 1
-18.3250 -4.7459 -9.0515 0.1326 0 1
-17.7013 -5.3530 -8.8427 0.1355 0 1
-17.0215 -5.9048 -8.6149 0.1391 0 1
-16.2932 -6.3976 -8.3699 0.1420 0 1
-15.5302 -6.8314 -8.1127 0.1465 0 1
-14.7292 -7.1997 -7.8394 0.1500 0 1
-13.9169 -7.5109 -7.5619 0.1555 0 1
-13.0990 -7.7657 -7.2815 0.1610 0 1
-12.2893 -7.9708 -7.0041 0.1673 0 1
-11.4511 -8.0998 -6.7069 0.1738 0 24
-10.7510 -8.2731 -6.4867 0.1871 0 1
-10.0109 -8.3659 -6.2383 0.2020 0 1
-9.3143 -8.4430 -6.0112 0.2096 0 1
-8.6391 -8.4887 -5.7914 0.2176 0 1
-7.9868 -8.5060 -5.5792 0.2258 0 1
-7.3531 -8.4912 -5.3710 0.2310 0 1
-6.7432 -8.4515 -5.1699 0.2400 0 1
-6.1601 -8.3922 -4.9779 0.2492 0 1
-5.6034 -8.3157 -4.7948 0.2588 0 1
-5.0715 -8.2219 -4.6192 0.2670 0 1
-4.5652 -8.1146 -4.4520 0.2770 0 1
-4.0838 -7.9957 -4.2931 0.2854 0 1
-3.6266 -7.8669 -4.1422 0.2958 0 1
-3.1932 -7.7304 -3.9994 0.3067 0 1
-2.7716 -7.5581 -3.8494 0.3181 0 24
-2.3907 -7.4319 -3.7330 0.3286 0 1
-2.0212 -7.2753 -3.6105 0.3397 0 1
-1.6719 -7.1171 -3.4958 0.3538 0 1
-1.3414 -6.9565 -3.3876 0.3651 0 1
-1.0283 -6.7926 -3.2850 0.3755 0 1
-0.7317 -6.6248 -3.1870 0.3871 0 1
-0.4510 -6.4556 -3.0944 0.3986 0 1
-0.1855 -6.2856 -3.0069 0.4102 0 1
0.0657 -6.1150 -2.9242 0.4218 0 1
0.3033 -5.9442 -2.8460 0.4333 0 1
0.5282 -5.7732 -2.7721 0.4433 0 1
0.7387 -5.5859 -2.6942 0.4566 0 24
0.9420 -5.4316 -2.6360 0.4664 0 1
1.1323 -5.2616 -2.5735 0.4777 0 1
1.3120 -5.0909 -2.5138 0.4892 0 1
1.4817 -4.9210 -2.4574 0.5005 0 1
1.6421 -4.7522 -2.4042 0.5115 0 1
1.7843 -4.5602 -2.3415 0.5196 0 24
1.9248 -4.3901 -2.2921 0.5316 0 24
2.0655 -4.2386 -2.2546 0.5262 0 1
2.1873 -4.0646 -2.2071 0.5376 0 1
2.3015 -3.8929 -2.1624 0.5713 0 1
2.4127 -3.7297 -2.1240 0.5816 0 1
2.5174 -3.5680 -2.0880 0.5917 0 1
2.6158 -3.4077 -2.0542 0.6014 0 1
2.7084 -3.2488 -2.0225 0.6108 0 1
2.7953 -3.0912 -1.9928 0.6199 0 1
2.8768 -2.9349 -1.9651 0.6286 0 1
2.9532 -2.7797 -1.9393 0.6370 0 1
3.0247 -2.6256 -1.9152 0.6450 0 1
3.0913 -2.4726 -1.8928 0.6526 0 1
3.1533 -2.3204 -1.8720 0.6561 0 1
3.2104 -2.1689 -1.8526 0.6630 0 1
3.2650 -2.0194 -1.8357 0.6736 0 1
3.3156 -1.8706 -1.8203 0.6793 0 1
3.3622 -1.7223 -1.8063 0.6846 0 1
3.4051 -1.5747 -1.7939 0.6819 0 1
3.4446 -1.4277 -1.7830 0.6861 0 1
3.4804 -1.2810 -1.7734 0.6898 0 1
3.5126 -1.1346 -1.7650 0.6930 0 1
3.5411 -0.9884 -1.7580 0.6958 0 1
3.5661 -0.8423 -1.7521 0.6982 0 1
3.5876 -0.6963 -1.7475 0.7000 0 1
3.6055 -0.5503 -1.7440 0.7014 0 1
3.6201 -0.4042 -1.7418 0.7023 0 1
3.6312 -0.2581 -1.7407 0.7027 0 1
3.6389 -0.1118 -1.7408 0.7027 0 1
3.6446 0.0348 -1.7428 0.7011 0 1
3.6479 0.1818 -1.7465 0.6997 0 1
3.6457 0.3291 -1.7503 0.6878 0 1
3.6385 0.4767 -1.7547 0.6861 0 1
3.6277 0.6247 -1.7602 0.6839 0 1
3.6134 0.7731 -1.7669 0.6813 0 1
3.5954 0.9219 -1.7748 0.6783 0 1
3.5736 1.0713 -1.7839 0.6748 0 1
3.5481 1.2213 -1.7943 0.6709 0 1
3.5188 1.3719 -1.8059 0.6666 0 1
3.4855 1.5232 -1.8188 0.6619 0 1
3.4482 1.6752 -1.8331 0.6567 0 1
3.4067 1.8280 -1.8487 0.6512 0 1
3.3610 1.9817 -1.8657 0.6452 0 1
3.3112 2.1363 -1.8842 0.6498 0 1
3.2574 2.2923 -1.9046 0.6365 0 1
3.1992 2.4496 -1.9267 0.6292 0 1
3.1362 2.6081 -1.9504 0.6215 0 1
3.0682 2.7677 -1.9758 0.6135 0 1
2.9950 2.9287 -2.0030 0.6052 0 1
2.9164 3.0910 -2.0320 0.5966 0 1
2.8321 3.2546 -2.0630 0.5876 0 1
2.7420 3.4197 -2.0959 0.5784 0 1
2.6457 3.5862 -2.1310 0.5689 0 1
2.5421 3.7530 -2.1675 0.5637 0 1
2.4301 3.9184 -2.2047 0.5542 0 1
2.3111 4.0849 -2.2442 0.5445 0 1
2.1849 4.2525 -2.2861 0.5345 0 1
2.0511 4.4211 -2.3305 0.5249 0 1
1.9092 4.5906 -2.3773 0.5145 0 1
1.7494 4.7353 -2.4138 0.5046 0 24
1.5998 4.9324 -2.4795 0.4933 0 1
1.4313 5.1043 -2.5349 0.4829 0 1
1.2531 5.2769 -2.5934 0.4720 0 1
1.0645 5.4501 -2.6553 0.4610 0 1
0.8654 5.6251 -2.7214 0.4500 0 1
0.6548 5.8009 -2.7914 0.4387 0 1
0.4312 5.9658 -2.8601 0.4260 0 24
0.1964 6.1530 -2.9436 0.4168 0 1
-0.0527 6.3283 -3.0261 0.4055 0 1
-0.3162 6.5030 -3.1132 0.3941 0 1
-0.5946 6.6769 -3.2053 0.3828 0 1
-0.8890 6.8496 -3.3027 0.3707 0 1
-1.2000 7.0191 -3.4050 0.3625 0 1
-1.5274 7.1816 -3.5108 0.3525 0 1
-1.8728 7.3402 -3.6223 0.3416 0 1
-2.2369 7.4944 -3.7398 0.3309 0 1
-2.6206 7.6433 -3.8636 0.3203 0 1
-3.0248 7.7859 -3.9940 0.3099 0 1
-3.4502 7.9211 -4.1313 0.2998 0 1
-3.8975 8.0471 -4.2754 0.2897 0 1
-4.3675 8.1630 -4.4268 0.2798 0 1
-4.8631 8.2710 -4.5879 0.2672 0 1
-5.3832 8.3658 -4.7569 0.2577 0 1
-5.9262 8.4427 -4.9323 0.2507 0 1
-6.4901 8.4972 -5.1126 0.2448 0 1
-7.0751 8.5286 -5.2987 0.2362 0 1
-7.6829 8.5375 -5.4920 0.2279 0 1
-8.3267 8.5357 -5.7019 0.2114 0 1
-9.0039 8.5157 -5.9259 0.2034 0 1
-9.7050 8.4656 -6.1580 0.1956 0 1
-10.4306 8.3841 -6.3991 0.1870 0 1
-11.1788 8.2678 -6.6484 0.1800 0 1
-11.9464 8.1128 -6.9050 0.1729 0 1
-12.7291 7.9153 -7.1674 0.1667 0 1
-13.5215 7.6714 -7.4336 0.1598 0 1
-14.3257 7.3822 -7.7061 0.1541 0 1
-15.1341 7.0432 -7.9819 0.1467 0 1
-15.9262 6.6460 -8.2519 0.1419 0 1
-16.6892 6.1884 -8.5112 0.1380 0 1
-17.3566 5.6525 -8.7284 0.1326 0 24
-18.0831 5.0942 -8.9833 0.1303 0 1
-16.1469 3.8548 -7.9379 0.9478 26 14
-16.1440 3.1735 -7.8672 0.9772 26 14
-16.1714 2.5079 -7.8250 0.9754 26 14
-19.2819 2.2001 -9.2798 0.4511 26 14
-20.2174 1.4859 -9.6933 0.1218 0 1
-20.3513 0.6742 -9.7367 0.1218 0 1
-20.3720 -0.1453 -9.7415 0.1218 0 1
-8.7435 -8.0026 -5.8299 0.2194 0 1
-8.1228 -8.0587 -5.6279 0.2272 0 1
-7.5169 -8.0831 -5.4291 0.2308 0 1
-6.9283 -8.0790 -5.2347 0.2394 0 1
-6.3621 -8.0531 -5.0479 0.2483 0 1
-5.7992 -7.9808 -4.8523 0.2575 0 24
-5.2978 -7.9444 -4.6967 0.2669 0 1
-4.7990 -7.8646 -4.5316 0.2766 0 1
-4.3231 -7.7717 -4.3741 0.2866 0 1
-3.8583 -7.6448 -4.2119 0.2983 0 24
-3.4273 -7.5297 -4.0691 0.3074 0 24
-3.0276 -7.4307 -3.9466 0.3180 0 1
-2.6364 -7.2980 -3.8166 0.3288 0 1
-2.2650 -7.1593 -3.6934 0.3398 0 1
-1.9070 -6.9947 -3.5659 0.3525 0 24
-1.5794 -6.8714 -3.4678 0.3649 0 1
-1.2627 -6.7222 -3.3642 0.3762 0 1
-0.9621 -6.5687 -3.2653 0.3865 0 1
-0.6769 -6.4115 -3.1710 0.3980 0 1
-0.4066 -6.2524 -3.0818 0.4094 0 1
-0.1505 -6.0920 -2.9973 0.4210 0 1
0.0923 -5.9306 -2.9173 0.4325 0 1
0.3222 -5.7682 -2.8415 0.4425 0 1
0.5386 -5.5901 -2.7623 0.4558 0 24
0.7463 -5.4421 -2.7018 0.4655 0 1
0.9418 -5.2791 -2.6376 0.4769 0 1
1.1269 -5.1164 -2.5768 0.4881 0 1
1.3018 -4.9526 -2.5187 0.4996 0 1
1.4672 -4.7893 -2.4637 0.5107 0 1
1.6237 -4.6266 -2.4117 0.5217 0 1
1.7718 -4.4648 -2.3626 0.5326 0 1
1.9087 -4.2971 -2.3127 0.5249 0 1
2.0357 -4.1269 -2.2633 0.5363 0 1
2.1549 -3.9587 -2.2169 0.5476 0 1
2.2692 -3.7963 -2.1754 0.5810 0 1
2.3782 -3.6379 -2.1377 0.5912 0 1
2.4809 -3.4806 -2.1023 0.6012 0 1
2.5775 -3.3246 -2.0691 0.6108 0 1
2.6685 -3.1698 -2.0380 0.6202 0 1
2.7539 -3.0161 -2.0088 0.6292 0 1
2.8340 -2.8635 -1.9816 0.6378 0 1
2.9091 -2.7119 -1.9561 0.6461 0 1
2.9794 -2.5612 -1.9325 0.6540 0 1
3.0448 -2.4114 -1.9104 0.6578 0 1
3.1054 -2.2622 -1.8897 0.6650 0 1
3.1621 -2.1142 -1.8709 0.6762 0 1
3.2159 -1.9676 -1.8543 0.6823 0 1
3.2656 -1.8217 -1.8392 0.6879 0 1
3.3113 -1.6762 -1.8255 0.6931 0 1
3.3533 -1.5312 -1.8131 0.6978 0 1
3.3915 -1.3866 -1.8021 0.6945 0 1
3.4265 -1.2425 -1.7927 0.6981 0 1
3.4580 -1.0986 -1.7846 0.7013 0 1
3.4859 -0.9549 -1.7777 0.7040 0 1
3.5102 -0.8112 -1.7720 0.7063 0 1
3.5310 -0.6677 -1.7675 0.7081 0 1
3.5484 -0.5241 -1.7642 0.7094 0 1
3.5624 -0.3804 -1.7621 0.7102 0 1
3.5729 -0.2367 -1.7612 0.7106 0 1
3.5801 -0.0927 -1.7615 0.7105 0 1
3.5855 0.0515 -1.7637 0.7088 0 1
3.5879 0.1961 -1.7674 0.6969 0 1
3.5838 0.3409 -1.7707 0.6956 0 1
3.5762 0.4861 -1.7751 0.6938 0 1
3.5650 0.6316 -1.7808 0.6916 0 1
3.5502 0.7774 -1.7876 0.6890 0 1
3.5318 0.9238 -1.7956 0.6859 0 1
3.5097 1.0706 -1.8048 0.6824 0 1
3.4838 1.2179 -1.8152 0.6785 0 1
3.4541 1.3659 -1.8269 0.6742 0 1
3.4205 1.5144 -1.8399 0.6694 0 1
3.3829 1.6637 -1.8542 0.6642 0 1
3.3412 1.8136 -1.8699 0.6587 0 1
3.2959 1.9647 -1.8873 0.6638 0 1
3.2465 2.1168 -1.9062 0.6570 0 1
3.1919 2.2693 -1.9263 0.6438 0 1
3.1336 2.4234 -1.9484 0.6365 0 1
3.0704 2.5785 -1.9721 0.6289 0 1
3.0023 2.7347 -1.9975 0.6209 0 1
2.9291 2.8920 -2.0246 0.6126 0 1
2.8506 3.0505 -2.0535 0.6039 0 1
2.7664 3.2102 -2.0844 0.5950 0 1
2.6765 3.3712 -2.1172 0.5858 0 1
2.5805 3.5334 -2.1521 0.5763 0 1
2.4773 3.6956 -2.1883 0.5713 0 1
2.3660 3.8564 -2.2253 0.5618 0 1
2.2478 4.0181 -2.2645 0.5520 0 1
2.1226 4.1806 -2.3061 0.5421 0 1
1.9777 4.3173 -2.3357 0.5335 0 24
1.8388 4.4821 -2.3828 0.5230 0 24
1.7006 4.6724 -2.4456 0.5117 0 1
1.5433 4.8375 -2.4975 0.5011 0 1
1.3769 5.0030 -2.5522 0.4907 0 1
1.2011 5.1687 -2.6100 0.4799 0 1
1.0153 5.3346 -2.6710 0.4691 0 1
0.8194 5.5023 -2.7362 0.4579 0 1
0.6124 5.6700 -2.8050 0.4467 0 1
0.3937 5.8375 -2.8777 0.4354 0 1
0.1625 5.9960 -2.9503 0.4227 0 24
-0.0811 6.1701 -3.0351 0.4136 0 1
-0.3386 6.3347 -3.1202 0.4023 0 1
-0.6102 6.4978 -3.2100 0.3911 0 1
-0.8969 6.6589 -3.3048 0.3799 0 1
-1.1993 6.8175 -3.4047 0.3709 0 1
-1.5170 6.9676 -3.5073 0.3610 0 1
-1.8514 7.1132 -3.6152 0.3502 0 1
-2.2032 7.2539 -3.7288 0.3395 0 1
-2.5731 7.3886 -3.8482 0.3290 0 1
-2.9617 7.5163 -3.9736 0.3187 0 1
-3.3698 7.6359 -4.1052 0.3085 0 1
-3.7978 7.7459 -4.2431 0.2986 0 1
-4.2461 7.8451 -4.3876 0.2888 0 1
-4.7158 7.9327 -4.5391 0.2763 0 1
-5.2086 8.0094 -4.6992 0.2669 0 1
-5.7228 8.0701 -4.8661 0.2599 0 1
-6.2547 8.1078 -5.0366 0.2511 0 1
-6.8061 8.1244 -5.2129 0.2456 0 1
-7.3747 8.1161 -5.3937 0.2374 0 1
-7.9627 8.0843 -5.5812 0.2209 0 1
-8.5891 8.0455 -5.7885 0.2130 0 1
-9.2346 7.9774 -6.0022 0.2054 0 1
-9.8979 7.8778 -6.2221 0.1981 0 1
-10.5779 7.7448 -6.4482 0.1899 0 1
-11.2725 7.5761 -6.6803 0.1828 0 1
-11.9779 7.3684 -6.9169 0.1766 0 1
-12.6855 7.1166 -7.1542 0.1709 0 1
-13.4001 6.8238 -7.3963 0.1643 0 1
-14.1052 6.4820 -7.6352 0.1584 0 1
-14.7916 6.0891 -7.8676 0.1517 0 1
-15.4575 5.6472 -8.0943 0.1475 0 1
-16.0813 5.1517 -8.3056 0.1446 0 1
-16.6551 4.6054 -8.4993 0.1413 0 1
-17.1712 4.0120 -8.6732 0.1382 0 1
-17.6191 3.3755 -8.8236 0.1359 0 1
-16.3594 2.4564 -8.1366 0.7444 26 14
-18.2673 1.9953 -9.0383 0.1340 0 1
-18.4666 1.2678 -9.1042 0.1334 0 1
-18.5712 0.5257 -9.1380 0.1329 0 1
-18.5821 -0.2220 -9.1403 0.1330 0 1
-18.5026 -0.9665 -9.1130 0.1340 0 1
-18.3291 -1.6991 -9.0539 0.1349 0 1
-18.0686 -2.4115 -8.9659 0.1362 0 1
-17.7290 -3.0968 -8.8521 0.1385 0 1
-17.3184 -3.7488 -8.7154 0.1407 0 1
-16.8372 -4.3606 -8.5547 0.1433 0 1
-16.2925 -4.9270 -8.3720 0.1462 0 1
-15.6953 -5.4447 -8.1711 0.1490 0 1
-15.0525 -5.9104 -7.9539 0.1531 0 1
-14.3736 -6.3226 -7.7235 0.1557 0 1
-13.6638 -6.6789 -7.4805 0.1608 0 1
-12.9413 -6.9843 -7.2331 0.1658 0 1
-12.2141 -7.2411 -6.9839 0.1767 0 1
-11.4456 -7.4236 -6.7100 0.1783 0 24
-10.7415 -7.5978 -6.4713 0.1944 0 24
-10.1148 -7.7836 -6.2775 0.1965 0 1
-9.4587 -7.9045 -6.0629 0.2109 0 1
-8.8189 -7.9940 -5.8545 0.2184 0 1
-8.1961 -8.0534 -5.6517 0.2263 0 1
-7.5887 -8.0820 -5.4529 0.2298 0 1
-6.9975 -8.0806 -5.2576 0.2384 0 1
-6.4286 -8.0572 -5.0698 0.2472 0 1
-5.8825 -8.0141 -4.8897 0.2563 0 1
-5.3590 -7.9530 -4.7169 0.2657 0 1
-4.8575 -7.8749 -4.5509 0.2754 0 1
-4.3789 -7.7834 -4.3926 0.2854 0 1
-3.9227 -7.6803 -4.2418 0.2955 0 1
-3.4778 -7.5441 -4.0859 0.3061 0 24
-3.0758 -7.4462 -3.9626 0.3167 0 1
-2.6821 -7.3142 -3.8318 0.3275 0 1
-2.3084 -7.1762 -3.7078 0.3385 0 1
-1.9480 -7.0119 -3.5795 0.3511 0 24
-1.6184 -6.8890 -3.4806 0.3636 0 1
-1.2997 -6.7402 -3.3763 0.3748 0 1
-0.9972 -6.5874 -3.2769 0.3852 0 1
-0.7102 -6.4304 -3.1820 0.3966 0 1
-0.4382 -6.2715 -3.0922 0.4081 0 1
-0.1804 -6.1112 -3.0071 0.4196 0 1
0.0639 -5.9499 -2.9267 0.4311 0 1
0.2953 -5.7877 -2.8504 0.4411 0 1
0.5146 -5.6247 -2.7781 0.4526 0 1
0.7222 -5.4616 -2.7097 0.4640 0 1
0.9189 -5.2986 -2.6450 0.4755 0 1
1.1052 -5.1358 -2.5839 0.4868 0 1
1.2814 -4.9722 -2.5255 0.4982 0 1
1.4479 -4.8088 -2.4701 0.5094 0 1
1.6055 -4.6461 -2.4178 0.5204 0 1
1.7545 -4.4841 -2.3684 0.5313 0 1
1.8930 -4.3176 -2.3188 0.5235 0 1
2.0140 -4.1328 -2.2612 0.5521 0 24
2.1411 -3.9787 -2.2223 0.5462 0 1
2.2557 -3.8154 -2.1801 0.5798 0 1
2.3655 -3.6567 -2.1421 0.5900 0 1
2.4689 -3.4994 -2.1064 0.6000 0 1
2.5663 -3.3432 -2.0730 0.6097 0 1
2.6579 -3.1883 -2.0416 0.6191 0 1
2.7439 -3.0344 -2.0122 0.6281 0 1
2.8247 -2.8817 -1.9847 0.6368 0 1
2.9004 -2.7300 -1.9591 0.6452 0 1
2.9712 -2.5792 -1.9352 0.6531 0 1
3.0372 -2.4293 -1.9129 0.6569 0 1
3.0984 -2.2800 -1.8921 0.6641 0 1
3.1554 -2.1317 -1.8730 0.6755 0 1
3.2096 -1.9851 -1.8562 0.6816 0 1
3.2598 -1.8391 -1.8409 0.6873 0 1
3.3061 -1.6936 -1.8270 0.6925 0 1
3.3484 -1.5485 -1.8145 0.6973 0 1
3.3871 -1.4039 -1.8034 0.7016 0 1
3.4225 -1.2597 -1.7938 0.6977 0 1
3.4544 -1.1158 -1.7855 0.7009 0 1
3.4827 -0.9721 -1.7785 0.7037 0 1
3.5075 -0.8284 -1.7726 0.7060 0 1
3.5287 -0.6848 -1.7680 0.7079 0 1
3.5465 -0.5413 -1.7646 0.7092 0 1
3.5609 -0.3976 -1.7623 0.7101 0 1
3.5719 -0.2539 -1.7613 0.7106 0 1
3.5794 -0.1100 -1.7614 0.7105 0 1
3.5849 0.0342 -1.7634 0.7090 0 1
3.5881 0.1788 -1.7670 0.7075 0 1
3.5845 0.3236 -1.7702 0.6958 0 1
3.5773 0.4687 -1.7745 0.6941 0 1
3.5665 0.6141 -1.7800 0.6919 0 1
3.5522 0.7600 -1.7867 0.6893 0 1
3.5342 0.9062 -1.7945 0.6863 0 1
3.5125 1.0530 -1.8036 0.6829 0 1
3.4871 1.2003 -1.8139 0.6790 0 1
3.4579 1.3481 -1.8255 0.6747 0 1
3.4247 1.4966 -1.8383 0.6700 0 1
3.3876 1.6458 -1.8524 0.6649 0 1
3.3464 1.7956 -1.8679 0.6594 0 1
3.3015 1.9465 -1.8851 0.6645 0 1
3.2528 2.0986 -1.9040 0.6579 0 1
3.1986 2.2510 -1.9238 0.6447 0 1
3.1408 2.4049 -1.9457 0.6374 0 1
3.0782 2.5599 -1.9692 0.6298 0 1
3.0107 2.7159 -1.9943 0.6219 0 1
2.9381 2.8731 -2.0213 0.6136 0 1
2.8602 3.0315 -2.0500 0.6050 0 1
2.7768 3.1911 -2.0806 0.5961 0 1
2.6876 3.3519 -2.1132 0.5869 0 1
2.5923 3.5139 -2.1478 0.5774 0 1
2.4902 3.6764 -2.1840 0.5724 0 1
2.3796 3.8371 -2.2208 0.5629 0 1
2.2623 3.9987 -2.2597 0.5532 0 1
2.1379 4.1611 -2.3010 0.5433 0 1
1.9938 4.2976 -2.3302 0.5348 0 24
1.8558 4.4623 -2.3770 0.5243 0 24
1.7188 4.6527 -2.4396 0.5130 0 1
1.5626 4.8177 -2.4912 0.5024 0 1
1.3973 4.9832 -2.5455 0.4920 0 1
1.2226 5.1488 -2.6029 0.4812 0 1
1.0381 5.3147 -2.6635 0.4702 0 1
0.8434 5.4822 -2.7282 0.4593 0 1
0.6378 5.6499 -2.7966 0.4480 0 1
0.4205 5.8175 -2.8688 0.4368 0 1
0.1908 5.9758 -2.9407 0.4241 0 24
-0.0513 6.1504 -3.0252 0.4150 0 1
-0.3070 6.3151 -3.1098 0.4037 0 1
-0.5770 6.4784 -3.1990 0.3924 0 1
-0.8618 6.6397 -3.2932 0.3812 0 1
-1.1623 6.7988 -3.3925 0.3692 0 1
-1.4781 6.9498 -3.4948 0.3623 0 1
-1.8105 7.0961 -3.6020 0.3515 0 1
-2.1602 7.2373 -3.7149 0.3408 0 1
-2.5278 7.3728 -3.8336 0.3303 0 1
-2.9142 7.5014 -3.9583 0.3199 0 1
-3.3200 7.6221 -4.0892 0.3097 0 1
-3.7455 7.7333 -4.2263 0.2998 0 1
-4.1914 7.8338 -4.3700 0.2900 0 1
-4.6583 7.9226 -4.5205 0.2774 0 1
-5.1485 8.0010 -4.6797 0.2680 0 1
-5.6605 8.0641 -4.8460 0.2588 0 1
-6.1900 8.1043 -5.0158 0.2522 0 1
-6.7394 8.1239 -5.1917 0.2467 0 1
-7.3057 8.1183 -5.3718 0.2384 0 1
-7.8903 8.0883 -5.5577 0.2304 0 1
-8.5131 8.0516 -5.7633 0.2139 0 1
-9.1563 7.9871 -5.9762 0.2062 0 1
-9.8177 7.8915 -6.1955 0.1989 0 1
-10.4957 7.7625 -6.4209 0.1907 0 1
-11.1886 7.5981 -6.6522 0.1836 0 1
-11.8933 7.3955 -6.8885 0.1773 0 1
-12.6010 7.1492 -7.1259 0.1715 0 1
-13.3149 6.8613 -7.3674 0.1649 0 1
-14.0218 6.5256 -7.6070 0.1590 0 1
-14.7100 6.1385 -7.8399 0.1522 0 1
-15.3274 5.6834 -8.0405 0.1478 0 24
-16.0093 5.2138 -8.2813 0.1451 0 1
-16.5892 4.6733 -8.4771 0.1417 0 1
-17.1130 4.0854 -8.6537 0.1385 0 1
-17.5693 3.4537 -8.8069 0.1361 0 1
-17.9478 2.7833 -8.9332 0.1353 0 1
-18.2382 2.0810 -9.0288 0.1339 0 1
-18.4478 1.3558 -9.0981 0.1335 0 1
-18.5636 0.6150 -9.1356 0.1330 0 1
-18.5854 -0.1325 -9.1415 0.1329 0 1
-8.2658 -7.5654 -5.6665 0.2288 0 24
-7.6925 -7.6317 -5.4796 0.2367 0 24
-7.1515 -7.6902 -5.3106 0.2413 0 1
-6.6031 -7.6997 -5.1294 0.2498 0 1
-6.0736 -7.6879 -4.9546 0.2586 0 1
-5.5455 -7.6318 -4.7706 0.2682 0 24
-5.0567 -7.5829 -4.6090 0.2780 0 24
-4.5882 -7.5191 -4.4544 0.2883 0 24
-4.1524 -7.4647 -4.3196 0.2967 0 1
-3.7227 -7.3761 -4.1782 0.3093 0 1
-3.3126 -7.2775 -4.0435 0.3173 0 1
-2.9195 -7.1654 -3.9127 0.3279 0 1
-2.5453 -7.0458 -3.7883 0.3387 0 1
-2.1893 -6.9200 -3.6704 0.3525 0 1
-1.8514 -6.7907 -3.5594 0.3635 0 1
-1.5300 -6.6565 -3.4539 0.3746 0 1
-1.2243 -6.5181 -3.3538 0.3858 0 1
-0.9337 -6.3746 -3.2580 0.3961 0 1
-0.6574 -6.2274 -3.1666 0.4074 0 1
-0.3952 -6.0778 -3.0800 0.4189 0 1
-0.1464 -5.9263 -2.9978 0.4304 0 1
0.0898 -5.7732 -2.9198 0.4403 0 1
0.3139 -5.6188 -2.8458 0.4517 0 1
0.5264 -5.4636 -2.7757 0.4631 0 1
0.7279 -5.3079 -2.7093 0.4747 0 1
0.9191 -5.1520 -2.6465 0.4859 0 1
1.1003 -4.9959 -2.5870 0.4971 0 1
1.2719 -4.8388 -2.5301 0.5085 0 1
1.4342 -4.6816 -2.4760 0.5196 0 1
1.5880 -4.5248 -2.4250 0.5305 0 1
1.7335 -4.3685 -2.3767 0.5413 0 1
1.8595 -4.1862 -2.3164 0.5510 0 24
1.9871 -4.0283 -2.2714 0.5620 0 24
2.1104 -3.8768 -2.2321 0.5790 0 1
2.2245 -3.7216 -2.1926 0.5894 0 1
2.3322 -3.5674 -2.1553 0.5996 0 1
2.4336 -3.4144 -2.1203 0.6095 0 1
2.5292 -3.2623 -2.0875 0.6191 0 1
2.6192 -3.1113 -2.0566 0.6284 0 1
2.7037 -2.9612 -2.0277 0.6373 0 1
2.7831 -2.8120 -2.0007 0.6459 0 1
2.8575 -2.6638 -1.9755 0.6542 0 1
2.9270 -2.5163 -1.9519 0.6583 0 1
2.9917 -2.3693 -1.9298 0.6658 0 1
3.0518 -2.2232 -1.9093 0.6729 0 1
3.1084 -2.0783 -1.8909 0.6841 0 1
3.1617 -1.9345 -1.8744 0.6901 0 1
3.2110 -1.7913 -1.8594 0.6957 0 1
3.2564 -1.6484 -1.8457 0.7009 0 1
3.2980 -1.5060 -1.8334 0.7056 0 1
3.3359 -1.3639 -1.8225 0.7098 0 1
3.3702 -1.2220 -1.8128 0.7136 0 1
3.4011 -1.0805 -1.8046 0.7091 0 1
3.4287 -0.9392 -1.7977 0.7118 0 1
3.4528 -0.7980 -1.7921 0.7140 0 1
3.4735 -0.6568 -1.7876 0.7158 0 1
3.4907 -0.5155 -1.7844 0.7171 0 1
3.5045 -0.3742 -1.7823 0.7180 0 1
3.5149 -0.2328 -1.7814 0.7183 0 1
3.5219 -0.0912 -1.7816 0.7182 0 1
3.5271 0.0506 -1.7838 0.7166 0 1
3.5281 0.1928 -1.7868 0.7048 0 1
3.5240 0.3352 -1.7901 0.7035 0 1
3.5164 0.4779 -1.7945 0.7017 0 1
3.5052 0.6210 -1.8001 0.6996 0 1
3.4904 0.7643 -1.8069 0.6969 0 1
3.4720 0.9081 -1.8149 0.6939 0 1
3.4500 1.0524 -1.8240 0.6904 0 1
3.4242 1.1971 -1.8344 0.6865 0 1
3.3947 1.3424 -1.8460 0.6822 0 1
3.3612 1.4882 -1.8589 0.6774 0 1
3.3240 1.6347 -1.8732 0.6838 0 1
3.2833 1.7822 -1.8892 0.6780 0 1
3.2386 1.9306 -1.9067 0.6718 0 1
3.1893 2.0795 -1.9254 0.6651 0 1
3.1346 2.2286 -1.9450 0.6520 0 1
3.0767 2.3794 -1.9668 0.6447 0 1
3.0140 2.5311 -1.9903 0.6371 0 1
2.9465 2.6838 -2.0155 0.6292 0 1
2.8739 2.8375 -2.0423 0.6209 0 1
2.7961 2.9922 -2.0710 0.6123 0 1
2.7128 3.1480 -2.1015 0.6034 0 1
2.6238 3.3048 -2.1339 0.5943 0 1
2.5289 3.4627 -2.1683 0.5848 0 1
2.4272 3.6208 -2.2043 0.5799 0 1
2.3173 3.7770 -2.2408 0.5704 0 1
2.2008 3.9340 -2.2795 0.5607 0 1
2.0773 4.0915 -2.3204 0.5508 0 1
1.9350 4.2240 -2.3495 0.5423 0 24
1.7983 4.3833 -2.3959 0.5318 0 24
1.6623 4.5670 -2.4577 0.5206 0 1
1.5078 4.7262 -2.5087 0.5101 0 1
1.3446 4.8854 -2.5624 0.4998 0 1
1.1723 5.0445 -2.6190 0.4890 0 1
0.9905 5.2038 -2.6788 0.4783 0 1
0.7988 5.3641 -2.7425 0.4671 0 1
0.5967 5.5242 -2.8098 0.4560 0 1
0.3833 5.6836 -2.8807 0.4447 0 1
0.1584 5.8422 -2.9555 0.4335 0 1
-0.0788 5.9930 -3.0309 0.4215 0 24
-0.3289 6.1543 -3.1166 0.4118 0 1
-0.5924 6.3076 -3.2037 0.4007 0 1
-0.8699 6.4584 -3.2954 0.3895 0 1
-1.1621 6.6062 -3.3920 0.3784 0 1
-1.4689 6.7467 -3.4917 0.3711 0 1
-1.7909 6.8810 -3.5956 0.3600 0 1
-2.1291 7.0099 -3.7047 0.3494 0 1
-2.4838 7.1324 -3.8192 0.3389 0 1
-2.8558 7.2475 -3.9393 0.3286 0 1
-3.2455 7.3542 -4.0650 0.3185 0 1
-3.6532 7.4510 -4.1964 0.3087 0 1
-4.0792 7.5366 -4.3337 0.2989 0 1
-4.5239 7.6099 -4.4769 0.2894 0 1
-4.9878 7.6699 -4.6266 0.2771 0 1
-5.4723 7.7168 -4.7840 0.2680 0 1
-5.9734 7.7432 -4.9454 0.2615 0 1
-6.4906 7.7478 -5.1111 0.2530 0 1
-7.0245 7.7307 -5.2822 0.2448 0 1
-7.5710 7.6866 -5.4560 0.2400 0 1
-8.1387 7.6236 -5.6393 0.2236 0 1
-8.7333 7.5443 -5.8361 0.2159 0 1
-9.3420 7.4354 -6.0379 0.2087 0 1
-9.9611 7.2932 -6.2431 0.2019 0 1
-10.5905 7.1177 -6.4527 0.1935 0 1
-11.2291 6.9078 -6.6669 0.1873 0 1
-11.8677 6.6579 -6.8813 0.1822 0 1
-12.5018 6.3663 -7.0946 0.1743 0 1
-13.1300 6.0338 -7.3073 0.1692 0 1
-13.7395 5.6560 -7.5136 0.1650 0 1
-14.3198 5.2315 -7.7095 0.1608 0 1
-14.8707 4.7639 -7.8965 0.1546 0 1
-15.3190 4.2360 -8.0374 0.1523 0 24
-15.8304 3.6988 -8.2209 0.1496 0 1
-16.2207 3.1076 -8.3519 0.1483 0 1
-16.5422 2.4839 -8.4591 0.1465 0 1
-16.7922 1.8341 -8.5422 0.1455 0 1
-16.9659 1.1648 -8.5997 0.1440 0 1
-17.0595 0.4829 -8.6303 0.1435 0 1
-17.0707 -0.2039 -8.6332 0.1439 0 1
-17.0034 -0.8882 -8.6102 0.1443 0 1
-16.8555 -1.5625 -8.5602 0.1452 0 1
-16.6314 -2.2197 -8.4849 0.1472 0 1
-16.3385 -2.8539 -8.3874 0.1489 0 1
-15.9782 -3.4587 -8.2672 0.1511 0 1
-15.5571 -4.0291 -8.1267 0.1537 0 1
-15.0781 -4.5598 -7.9659 0.1563 0 1
-14.5462 -5.0461 -7.7859 0.1599 0 1
-13.9730 -5.4866 -7.5913 0.1624 0 1
-13.3155 -5.8572 -7.3562 0.1668 0 24
-12.7326 -6.2237 -7.1668 0.1716 0 1
-12.0898 -6.5248 -6.9473 0.1816 0 1
-11.4508 -6.7885 -6.7317 0.1874 0 1
-10.8102 -7.0115 -6.5158 0.1935 0 1
-10.1727 -7.1955 -6.3011 0.2001 0 1
-9.5247 -7.3295 -6.0776 0.2137 0 24
-8.9571 -7.4854 -5.9030 0.2215 0 1
-8.3354 -7.5557 -5.6892 0.2279 0 24
-7.7602 -7.6251 -5.5017 0.2357 0 24
-7.2184 -7.6876 -5.3327 0.2403 0 1
-6.6677 -7.6998 -5.1507 0.2488 0 1
-6.1359 -7.6904 -4.9751 0.2575 0 1
-5.6249 -7.6632 -4.8071 0.2685 0 1
-5.1141 -7.5896 -4.6280 0.2767 0 24
-4.6432 -7.5275 -4.4725 0.2870 0 24
-4.2052 -7.4748 -4.3371 0.2955 0 1
-3.7730 -7.3872 -4.1947 0.3081 0 1
-3.3608 -7.2901 -4.0595 0.3184 0 1
-2.9655 -7.1793 -3.9280 0.3267 0 1
-2.5891 -7.0604 -3.8029 0.3374 0 1
-2.2309 -6.9351 -3.6840 0.3512 0 1
-1.8909 -6.8065 -3.5724 0.3622 0 1
-1.5676 -6.6728 -3.4662 0.3733 0 1
-1.2601 -6.5348 -3.3655 0.3845 0 1
-0.9677 -6.3921 -3.2693 0.3947 0 1
-0.6897 -6.2451 -3.1773 0.4061 0 1
-0.4259 -6.0958 -3.0901 0.4175 0 1
-0.1754 -5.9445 -3.0074 0.4290 0 1
0.0622 -5.7916 -2.9289 0.4389 0 1
0.2877 -5.6373 -2.8544 0.4504 0 1
0.5003 -5.4682 -2.7768 0.4636 0 24
0.7044 -5.3265 -2.7170 0.4733 0 1
0.8968 -5.1706 -2.6538 0.4846 0 1
1.0792 -5.0146 -2.5939 0.4958 0 1
1.2518 -4.8577 -2.5367 0.5072 0 1
1.4153 -4.7004 -2.4823 0.5183 0 1
1.5700 -4.5435 -2.4309 0.5292 0 1
1.7165 -4.3871 -2.3823 0.5400 0 1
1.8437 -4.2051 -2.3219 0.5497 0 24
1.9722 -4.0471 -2.2767 0.5607 0 24
2.0963 -3.8955 -2.2370 0.5548 0 1
2.2112 -3.7401 -2.1972 0.5882 0 1
2.3196 -3.5858 -2.1597 0.5984 0 1
2.4218 -3.4326 -2.1244 0.6083 0 1
2.5181 -3.2804 -2.0913 0.6180 0 1
2.6087 -3.1293 -2.0602 0.6273 0 1
2.6939 -2.9791 -2.0311 0.6363 0 1
2.7739 -2.8298 -2.0039 0.6449 0 1
2.8489 -2.6815 -1.9784 0.6532 0 1
2.9190 -2.5339 -1.9547 0.6573 0 1
2.9842 -2.3869 -1.9324 0.6649 0 1
3.0448 -2.2406 -1.9117 0.6721 0 1
3.1017 -2.0955 -1.8929 0.6834 0 1
3.1555 -1.9517 -1.8763 0.6895 0 1
3.2053 -1.8084 -1.8611 0.6951 0 1
3.2512 -1.6655 -1.8473 0.7003 0 1
3.2932 -1.5230 -1.8348 0.7050 0 1
3.3316 -1.3809 -1.8237 0.7093 0 1
3.3662 -1.2390 -1.8139 0.7132 0 1
3.3975 -1.0974 -1.8055 0.7087 0 1
3.4256 -0.9561 -1.7985 0.7115 0 1
3.4501 -0.8149 -1.7927 0.7138 0 1
3.4712 -0.6737 -1.7881 0.7156 0 1
3.4888 -0.5324 -1.7847 0.7170 0 1
3.5030 -0.3912 -1.7825 0.7179 0 1
3.5138 -0.2497 -1.7814 0.7183 0 1
3.5213 -0.1082 -1.7815 0.7183 0 1
3.5266 0.0336 -1.7834 0.7167 0 1
3.5284 0.1758 -1.7865 0.7049 0 1
3.5247 0.3182 -1.7897 0.7037 0 1
3.5175 0.4608 -1.7940 0.7020 0 1
3.5067 0.6038 -1.7994 0.6998 0 1
3.4924 0.7472 -1.8060 0.6973 0 1
3.4744 0.8909 -1.8138 0.6943 0 1
3.4528 1.0351 -1.8228 0.6908 0 1
3.4275 1.1798 -1.8331 0.6870 0 1
3.3984 1.3250 -1.8446 0.6827 0 1
3.3654 1.4707 -1.8573 0.6780 0 1
3.3285 1.6171 -1.8713 0.6844 0 1
3.2884 1.7645 -1.8872 0.6787 0 1
3.2442 1.9128 -1.9045 0.6725 0 1
3.1957 2.0618 -1.9232 0.6659 0 1
3.1413 2.2106 -1.9424 0.6528 0 1
3.0839 2.3613 -1.9641 0.6456 0 1
3.0218 2.5129 -1.9874 0.6381 0 1
2.9548 2.6655 -2.0124 0.6302 0 1
2.8829 2.8191 -2.0390 0.6219 0 1
2.8057 2.9737 -2.0674 0.6134 0 1
2.7230 3.1293 -2.0977 0.6045 0 1
2.6348 3.2860 -2.1299 0.5954 0 1
2.5406 3.4438 -2.1641 0.5860 0 1
2.4399 3.6021 -2.2001 0.5810 0 1
2.3308 3.7583 -2.2364 0.5716 0 1
2.2150 3.9152 -2.2748 0.5619 0 1
2.0925 4.0726 -2.3154 0.5520 0 1
1.9508 4.2050 -2.3441 0.5436 0 24
1.8150 4.3643 -2.3902 0.5331 0 24
1.6714 4.5241 -2.4389 0.5225 0 24
1.5267 4.7071 -2.5024 0.5113 0 1
1.3646 4.8664 -2.5558 0.5011 0 1
1.1934 5.0255 -2.6120 0.4903 0 1
1.0127 5.1846 -2.6714 0.4796 0 1
0.8223 5.3450 -2.7347 0.4685 0 1
0.6214 5.5050 -2.8015 0.4573 0 1
0.4095 5.6646 -2.8720 0.4461 0 1
0.1859 5.8233 -2.9463 0.4348 0 1
-0.0498 5.9741 -3.0212 0.4228 0 24
-0.2983 6.1358 -3.1065 0.4132 0 1
-0.5601 6.2893 -3.1931 0.4020 0 1
-0.8359 6.4405 -3.2842 0.3908 0 1
-1.1264 6.5887 -3.3802 0.3797 0 1
-1.4314 6.7303 -3.4796 0.3724 0 1
-1.7516 6.8652 -3.5829 0.3613 0 1
-2.0878 6.9948 -3.6914 0.3507 0 1
-2.4405 7.1181 -3.8053 0.3402 0 1
-2.8104 7.2341 -3.9246 0.3298 0 1
-3.1979 7.3419 -4.0497 0.3197 0 1
-3.6035 7.4400 -4.1804 0.3099 0 1
-4.0272 7.5270 -4.3169 0.3001 0 1
-4.4697 7.6018 -4.4594 0.2905 0 1
-4.9311 7.6633 -4.6082 0.2782 0 1
-5.4134 7.7121 -4.7648 0.2691 0 1
-5.9127 7.7413 -4.9260 0.2626 0 1
-6.4278 7.7483 -5.0910 0.2540 0 1
-6.9598 7.7339 -5.2614 0.2458 0 1
-7.5049 7.6932 -5.4349 0.2409 0 1
-8.0685 7.6311 -5.6161 0.2245 0 1
-8.6613 7.5553 -5.8122 0.2168 0 1
-9.2686 7.4501 -6.0135 0.2096 0 1
-9.8866 7.3120 -6.2184 0.2027 0 1
-10.5143 7.1403 -6.4272 0.1943 0 1
-11.1527 6.9350 -6.6413 0.1880 0 1
-11.7914 6.6899 -6.8557 0.1829 0 1
-12.4258 6.4031 -7.0689 0.1750 0 1
-13.0557 6.0759 -7.2821 0.1698 0 1
-13.6682 5.7037 -7.4896 0.1656 0 1
-14.2520 5.2846 -7.6866 0.1613 0 1
-14.8064 4.8220 -7.8745 0.1550 0 1
-15.2614 4.2993 -8.0180 0.1526 0 24
-15.7789 3.7669 -8.2035 0.1499 0 1
-16.1778 3.1801 -8.3375 0.1486 0 1
-16.5074 2.5600 -8.4475 0.1467 0 1
-16.7663 1.9130 -8.5336 0.1457 0 1
-16.9493 1.2457 -8.5942 0.1441 0 1
-17.0526 0.5649 -8.6281 0.1435 0 1
-17.0733 -0.1217 -8.6341 0.1439 0 1
-7.8855 -7.2174 -5.5554 0.2383 0 1
-7.3444 -7.2864 -5.3765 0.2435 0 1
-6.8165 -7.3300 -5.2019 0.2517 0 1
-6.3041 -7.3511 -5.0326 0.2621 0 1
-5.7895 -7.3283 -4.8535 0.2694 0 24
-5.3292 -7.3340 -4.7113 0.2780 0 1
-4.8657 -7.2965 -4.5577 0.2874 0 1
-4.4203 -7.2439 -4.4101 0.2970 0 1
-3.9937 -7.1794 -4.2694 0.3093 0 1
-3.5852 -7.1038 -4.1353 0.3194 0 1
-3.1934 -7.0158 -4.0059 0.3273 0 1
-2.8178 -6.9158 -3.8809 0.3379 0 1
-2.4593 -6.8078 -3.7617 0.3486 0 1
-2.1182 -6.6950 -3.6493 0.3623 0 1
-1.7930 -6.5764 -3.5424 0.3733 0 1
-1.4831 -6.4524 -3.4407 0.3843 0 1
-1.1879 -6.3239 -3.3439 0.3954 0 1
-0.9066 -6.1897 -3.2510 0.4056 0 1
-0.6389 -6.0516 -3.1624 0.4169 0 1
-0.3844 -5.9108 -3.0782 0.4283 0 1
-0.1424 -5.7674 -2.9981 0.4381 0 1
0.0875 -5.6221 -2.9221 0.4496 0 1
0.3058 -5.4753 -2.8499 0.4609 0 1
0.5133 -5.3275 -2.7814 0.4723 0 1
0.7102 -5.1788 -2.7165 0.4838 0 1
0.8972 -5.0295 -2.6550 0.4950 0 1
1.0747 -4.8798 -2.5967 0.5061 0 1
1.2430 -4.7290 -2.5411 0.5174 0 1
1.4023 -4.5775 -2.4880 0.5284 0 1
1.5534 -4.4262 -2.4378 0.5393 0 1
1.6960 -4.2739 -2.3896 0.5308 0 1
1.8206 -4.0987 -2.3307 0.5596 0 24
1.9464 -3.9459 -2.2865 0.5716 0 24
2.0685 -3.7998 -2.2483 0.5873 0 1
2.1811 -3.6489 -2.2092 0.5977 0 1
2.2874 -3.4990 -2.1724 0.6079 0 1
2.3877 -3.3499 -2.1378 0.6177 0 1
2.4822 -3.2016 -2.1053 0.6272 0 1
2.5711 -3.0542 -2.0748 0.6365 0 1
2.6548 -2.9076 -2.0462 0.6454 0 1
2.7334 -2.7618 -2.0194 0.6539 0 1
2.8071 -2.6168 -1.9944 0.6583 0 1
2.8757 -2.4721 -1.9708 0.6662 0 1
2.9398 -2.3282 -1.9489 0.6737 0 1
2.9994 -2.1850 -1.9285 0.6808 0 1
3.0559 -2.0432 -1.9104 0.6919 0 1
3.1088 -1.9021 -1.8940 0.6979 0 1
3.1577 -1.7615 -1.8791 0.7035 0 1
3.2027 -1.6212 -1.8655 0.7086 0 1
3.2440 -1.4813 -1.8533 0.7133 0 1
3.2816 -1.3417 -1.8424 0.7175 0 1
3.3156 -1.2022 -1.8328 0.7212 0 1
3.3460 -1.0630 -1.8245 0.7245 0 1
3.3729 -0.9239 -1.8174 0.7273 0 1
3.3967 -0.7850 -1.8117 0.7217 0 1
3.4171 -0.6461 -1.8073 0.7235 0 1
3.4342 -0.5072 -1.8041 0.7248 0 1
3.4478 -0.3682 -1.8020 0.7256 0 1
3.4581 -0.2291 -1.8011 0.7260 0 1
3.4650 -0.0897 -1.8013 0.7259 0 1
3.4700 0.0498 -1.8035 0.7243 0 1
3.4697 0.1896 -1.8058 0.7126 0 1
3.4655 0.3297 -1.8091 0.7113 0 1
3.4579 0.4700 -1.8135 0.7096 0 1
3.4467 0.6106 -1.8191 0.7074 0 1
3.4320 0.7515 -1.8258 0.7048 0 1
3.4136 0.8929 -1.8337 0.7018 0 1
3.3917 1.0346 -1.8428 0.6983 0 1
3.3660 1.1768 -1.8531 0.6944 0 1
3.3366 1.3194 -1.8646 0.6901 0 1
3.3040 1.4629 -1.8778 0.6970 0 1
3.2676 1.6070 -1.8924 0.6916 0 1
3.2272 1.7517 -1.9083 0.6859 0 1
3.1827 1.8972 -1.9256 0.6797 0 1
3.1336 2.0432 -1.9441 0.6731 0 1
3.0788 2.1889 -1.9631 0.6601 0 1
3.0212 2.3365 -1.9848 0.6529 0 1
2.9591 2.4850 -2.0081 0.6453 0 1
2.8921 2.6343 -2.0330 0.6374 0 1
2.8202 2.7844 -2.0596 0.6292 0 1
2.7431 2.9355 -2.0879 0.6206 0 1
2.6606 3.0874 -2.1181 0.6118 0 1
2.5726 3.2403 -2.1501 0.6027 0 1
2.4787 3.3940 -2.1841 0.5933 0 1
2.3785 3.5481 -2.2199 0.5884 0 1
2.2700 3.7000 -2.2559 0.5790 0 1
2.1551 3.8524 -2.2940 0.5694 0 1
2.0335 4.0051 -2.3343 0.5595 0 1
1.9048 4.1583 -2.3769 0.5495 0 1
1.7591 4.2878 -2.4086 0.5406 0 24
1.6169 4.4423 -2.4568 0.5300 0 24
1.4735 4.6187 -2.5194 0.5190 0 1
1.3134 4.7720 -2.5722 0.5088 0 1
1.1445 4.9249 -2.6276 0.4980 0 1
0.9665 5.0779 -2.6863 0.4873 0 1
0.7791 5.2313 -2.7486 0.4763 0 1
0.5815 5.3841 -2.8143 0.4652 0 1
0.3734 5.5360 -2.8835 0.4540 0 1
0.1541 5.6867 -2.9564 0.4428 0 1
-0.0766 5.8290 -3.0295 0.4294 0 24
-0.3194 5.9758 -3.1100 0.4205 0 24
-0.5753 6.1262 -3.1977 0.4102 0 1
-0.8442 6.2675 -3.2866 0.3991 0 1
-1.1268 6.4054 -3.3799 0.3881 0 1
-1.4233 6.5372 -3.4769 0.3784 0 1
-1.7337 6.6612 -3.5771 0.3701 0 1
-2.0590 6.7793 -3.6820 0.3596 0 1
-2.3997 6.8907 -3.7920 0.3488 0 1
-2.7561 6.9945 -3.9070 0.3386 0 1
-3.1287 7.0896 -4.0272 0.3285 0 1
-3.5177 7.1747 -4.1527 0.3188 0 1
-3.9232 7.2484 -4.2833 0.3091 0 1
-4.3454 7.3096 -4.4193 0.2996 0 1
-4.7842 7.3569 -4.5606 0.2903 0 1
-5.2401 7.3893 -4.7077 0.2783 0 1
-5.7136 7.4064 -4.8612 0.2719 0 1
-6.1992 7.4000 -5.0168 0.2634 0 1
-6.6991 7.3726 -5.1769 0.2553 0 1
-7.2121 7.3222 -5.3411 0.2474 0 1
-7.7350 7.2455 -5.5079 0.2429 0 1
-8.2789 7.1518 -5.6855 0.2265 0 1
-8.8400 7.0358 -5.8715 0.2193 0 1
-9.4086 6.8887 -6.0600 0.2125 0 1
-9.9826 6.7092 -6.2506 0.2086 0 1
-10.5631 6.4981 -6.4450 0.1988 0 1
-11.1436 6.2516 -6.6403 0.1930 0 1
-11.6616 5.9385 -6.8009 0.1844 0 24
-12.2734 5.6402 -7.0196 0.1830 0 1
-12.8185 5.2769 -7.2040 0.1754 0 1
-13.3381 4.8729 -7.3798 0.1717 0 1
-13.7744 4.4127 -7.5167 0.1678 0 24
-14.2727 3.9467 -7.6957 0.1660 0 1
-14.6699 3.4276 -7.8291 0.1605 0 1
-15.0194 2.8774 -7.9474 0.1581 0 1
-15.2491 2.2897 -8.0136 0.1574 0 24
-15.5265 1.6959 -8.1169 0.1561 0 1
-15.6810 1.0766 -8.1684 0.1551 0 1
-15.7629 0.4462 -8.1951 0.1550 0 1
-15.7743 -0.1884 -8.1983 0.1550 0 1
-15.7167 -0.8210 -8.1789 0.1554 0 1
-15.5876 -1.4450 -8.1354 0.1566 0 1
-15.3340 -2.0466 -8.0396 0.1577 0 24
-15.1328 -2.6433 -7.9834 0.1594 0 1
-14.8155 -3.2070 -7.8777 0.1615 0 1
-14.4424 -3.7404 -7.7532 0.1617 0 1
-14.0120 -4.2374 -7.6076 0.1656 0 1
-13.5353 -4.6954 -7.4453 0.1692 0 1
-13.0207 -5.1126 -7.2696 0.1724 0 1
-12.4756 -5.4877 -7.0829 0.1770 0 1
-11.9198 -5.8264 -6.8950 0.1866 0 1
-11.3495 -6.1253 -6.7024 0.1923 0 1
-10.7701 -6.3850 -6.5068 0.1981 0 1
-10.1869 -6.6072 -6.3100 0.2042 0 1
-9.5838 -6.7790 -6.1006 0.2172 0 24
-9.0571 -6.9696 -5.9391 0.2229 0 1
-8.4995 -7.1029 -5.7564 0.2300 0 1
-7.9505 -7.2068 -5.5766 0.2374 0 1
-7.4086 -7.2796 -5.3977 0.2426 0 1
-6.8789 -7.3260 -5.2225 0.2507 0 1
-6.3644 -7.3495 -5.0525 0.2611 0 1
-5.8673 -7.3537 -4.8890 0.2698 0 1
-5.3858 -7.3374 -4.7301 0.2769 0 1
-4.9202 -7.3018 -4.5757 0.2862 0 1
-4.4726 -7.2510 -4.4274 0.2958 0 1
-4.0437 -7.1877 -4.2859 0.3081 0 1
-3.6332 -7.1134 -4.1510 0.3181 0 1
-3.2395 -7.0272 -4.0213 0.3261 0 1
-2.8618 -6.9282 -3.8955 0.3366 0 1
-2.5013 -6.8211 -3.7756 0.3473 0 1
-2.1581 -6.7088 -3.6624 0.3610 0 1
-1.8311 -6.5909 -3.5549 0.3719 0 1
-1.5193 -6.4675 -3.4526 0.3830 0 1
-1.2224 -6.3395 -3.3552 0.3941 0 1
-0.9395 -6.2060 -3.2619 0.4043 0 1
-0.6702 -6.0683 -3.1728 0.4155 0 1
-0.4141 -5.9277 -3.0881 0.4269 0 1
-0.1707 -5.7846 -3.0075 0.4368 0 1
0.0606 -5.6395 -2.9310 0.4482 0 1
0.2797 -5.4804 -2.8518 0.4615 0 24
0.4890 -5.3452 -2.7894 0.4709 0 1
0.6872 -5.1966 -2.7241 0.4824 0 1
0.8754 -5.0474 -2.6622 0.4936 0 1
1.0540 -4.8977 -2.6035 0.5048 0 1
1.2233 -4.7471 -2.5476 0.5160 0 1
1.3837 -4.5956 -2.4942 0.5271 0 1
1.5357 -4.4443 -2.4436 0.5380 0 1
1.6798 -4.2932 -2.3958 0.5294 0 1
1.8051 -4.1170 -2.3362 0.5584 0 24
1.9318 -3.9641 -2.2917 0.5703 0 24
2.0546 -3.8179 -2.2532 0.5861 0 1
2.1680 -3.6669 -2.2138 0.5965 0 1
2.2750 -3.5169 -2.1767 0.6067 0 1
2.3760 -3.3676 -2.1419 0.6165 0 1
2.4712 -3.2193 -2.1091 0.6261 0 1
2.5608 -3.0718 -2.0783 0.6354 0 1
2.6451 -2.9251 -2.0495 0.6443 0 1
2.7243 -2.7792 -2.0225 0.6529 0 1
2.7986 -2.6341 -1.9973 0.6574 0 1
2.8677 -2.4894 -1.9735 0.6653 0 1
2.9323 -2.3454 -1.9514 0.6728 0 1
2.9925 -2.2021 -1.9309 0.6800 0 1
3.0493 -2.0601 -1.9124 0.6912 0 1
3.1027 -1.9190 -1.8959 0.6972 0 1
3.1520 -1.7783 -1.8808 0.7028 0 1
3.1975 -1.6380 -1.8671 0.7080 0 1
3.2393 -1.4980 -1.8547 0.7127 0 1
3.2773 -1.3584 -1.8437 0.7170 0 1
3.3117 -1.2189 -1.8339 0.7208 0 1
3.3425 -1.0797 -1.8254 0.7241 0 1
3.3699 -0.9406 -1.8182 0.7270 0 1
3.3940 -0.8016 -1.8124 0.7215 0 1
3.4149 -0.6627 -1.8078 0.7233 0 1
3.4323 -0.5238 -1.8044 0.7247 0 1
3.4464 -0.3848 -1.8022 0.7256 0 1
3.4570 -0.2457 -1.8011 0.7260 0 1
3.4644 -0.1064 -1.8012 0.7259 0 1
3.4695 0.0331 -1.8031 0.7244 0 1
3.4700 0.1729 -1.8055 0.7127 0 1
3.4662 0.3129 -1.8087 0.7115 0 1
3.4590 0.4532 -1.8129 0.7098 0 1
3.4482 0.5938 -1.8184 0.7077 0 1
3.4339 0.7347 -1.8249 0.7051 0 1
3.4160 0.8759 -1.8327 0.7021 0 1
3.3945 1.0176 -1.8416 0.6987 0 1
3.3693 1.1597 -1.8518 0.6949 0 1
3.3403 1.3023 -1.8632 0.6907 0 1
3.3081 1.4457 -1.8762 0.6976 0 1
3.2721 1.5897 -1.8905 0.6923 0 1
3.2322 1.7344 -1.9063 0.6866 0 1
3.1883 1.8798 -1.9234 0.6804 0 1
3.1399 2.0258 -1.9419 0.6738 0 1
3.0854 2.1713 -1.9607 0.6674 0 1
3.0283 2.3188 -1.9822 0.6537 0 1
2.9667 2.4672 -2.0052 0.6462 0 1
2.9004 2.6164 -2.0299 0.6383 0 1
2.8290 2.7664 -2.0563 0.6302 0 1
2.7526 2.9174 -2.0844 0.6217 0 1
2.6708 3.0692 -2.1144 0.6129 0 1
2.5834 3.2219 -2.1462 0.6038 0 1
2.4903 3.3756 -2.1800 0.5944 0 1
2.3910 3.5300 -2.2157 0.5895 0 1
2.2833 3.6818 -2.2515 0.5801 0 1
2.1692 3.8341 -2.2893 0.5705 0 1
2.0484 3.9869 -2.3294 0.5607 0 1
1.9092 4.1154 -2.3576 0.5523 0 24
1.7756 4.2694 -2.4030 0.5419 0 24
1.6343 4.4238 -2.4509 0.5313 0 24
1.4921 4.6003 -2.5133 0.5202 0 1
1.3330 4.7537 -2.5657 0.5100 0 1
1.1651 4.9067 -2.6208 0.4993 0 1
0.9883 5.0595 -2.6791 0.4887 0 1
0.8020 5.2130 -2.7410 0.4776 0 1
0.6057 5.3659 -2.8063 0.4665 0 1
0.3989 5.5179 -2.8751 0.4553 0 1
0.1810 5.6687 -2.9475 0.4442 0 1
-0.0485 5.8178 -3.0235 0.4338 0 1
-0.2897 5.9586 -3.1003 0.4218 0 24
-0.5441 6.1091 -3.1874 0.4115 0 1
-0.8113 6.2508 -3.2757 0.4004 0 1
-1.0922 6.3891 -3.3685 0.3894 0 1
-1.3871 6.5218 -3.4651 0.3797 0 1
-1.6958 6.6467 -3.5649 0.3714 0 1
-2.0193 6.7655 -3.6692 0.3608 0 1
-2.3581 6.8778 -3.7785 0.3501 0 1
-2.7127 6.9825 -3.8929 0.3398 0 1
-3.0833 7.0787 -4.0125 0.3297 0 1
-3.4703 7.1651 -4.1374 0.3200 0 1
-3.8738 7.2402 -4.2674 0.3102 0 1
-4.2940 7.3030 -4.4027 0.3007 0 1
-4.7309 7.3520 -4.5434 0.2914 0 1
-5.1845 7.3860 -4.6897 0.2794 0 1
-5.6563 7.4056 -4.8428 0.2705 0 1
-6.1403 7.4018 -4.9979 0.2644 0 1
-6.6386 7.3770 -5.1575 0.2562 0 1
-7.1501 7.3295 -5.3213 0.2484 0 1
-7.6721 7.2562 -5.4879 0.2438 0 1
-8.2125 7.1637 -5.6635 0.2275 0 1
-8.7724 7.0512 -5.8491 0.2202 0 1
-9.3403 6.9080 -6.0374 0.2133 0 1
-9.9135 6.7323 -6.2276 0.2094 0 1
-10.4934 6.5251 -6.4216 0.1996 0 1
-11.0745 6.2831 -6.6170 0.1937 0 1
-11.6490 6.0029 -6.8104 0.1882 0 1
-12.2077 5.6813 -6.9975 0.1836 0 1
-12.7543 5.3224 -7.1822 0.1760 0 1
-13.2777 4.9234 -7.3594 0.1722 0 1
-13.7682 4.4839 -7.5250 0.1684 0 1
-14.2221 4.0065 -7.6787 0.1663 0 1
-14.6245 3.4913 -7.8137 0.1608 0 1
-14.9806 2.9448 -7.9342 0.1584 0 1
-15.2183 2.3600 -8.0033 0.1576 0 24
-15.5035 1.7689 -8.1092 0.1562 0 1
-15.6662 1.1514 -8.1635 0.1552 0 1
-15.7569 0.5220 -8.1932 0.1551 0 1
-15.7764 -0.1125 -8.1990 0.1550 0 1
-7.5063 -6.8702 -5.4322 0.2462 0 1
-7.0015 -6.9462 -5.2651 0.2540 0 1
-6.5089 -6.9992 -5.1025 0.2640 0 1
-6.0296 -7.0310 -4.9446 0.2724 0 1
-5.5637 -7.0425 -4.7913 0.2792 0 1
-5.1100 -7.0324 -4.6407 0.2882 0 1
-4.6719 -7.0058 -4.4953 0.2975 0 1
-4.2505 -6.9656 -4.3562 0.3096 0 1
-3.8339 -6.8922 -4.2103 0.3188 0 24
-3.4562 -6.8480 -4.0950 0.3294 0 1
-3.0813 -6.7695 -3.9706 0.3372 0 1
-2.7218 -6.6803 -3.8509 0.3477 0 1
-2.3786 -6.5843 -3.7373 0.3613 0 1
-2.0507 -6.4819 -3.6293 0.3721 0 1
-1.7375 -6.3729 -3.5263 0.3829 0 1
-1.4385 -6.2584 -3.4281 0.3939 0 1
-1.1531 -6.1388 -3.3345 0.4050 0 1
-0.8807 -6.0133 -3.2444 0.4150 0 1
-0.6211 -5.8836 -3.1584 0.4248 0 1
-0.3739 -5.7505 -3.0763 0.4361 0 1
-0.1387 -5.6148 -2.9984 0.4474 0 1
0.0852 -5.4771 -2.9242 0.4588 0 1
0.2981 -5.3375 -2.8538 0.4701 0 1
0.5006 -5.1965 -2.7870 0.4816 0 1
0.6932 -5.0544 -2.7235 0.4928 0 1
0.8762 -4.9114 -2.6633 0.5039 0 1
1.0500 -4.7676 -2.6062 0.5150 0 1
1.2151 -4.6228 -2.5517 0.5262 0 1
1.3715 -4.4768 -2.4996 0.5371 0 1
1.5199 -4.3308 -2.4502 0.5479 0 1
1.6591 -4.1809 -2.4012 0.5394 0 1
1.7829 -4.0139 -2.3447 0.5682 0 24
1.9101 -3.8723 -2.3050 0.5851 0 1
2.0241 -3.7183 -2.2601 0.5914 0 24
2.1389 -3.5783 -2.2255 0.6060 0 1
2.2438 -3.4323 -2.1891 0.6161 0 1
2.3429 -3.2870 -2.1549 0.6258 0 1
2.4363 -3.1425 -2.1227 0.6353 0 1
2.5243 -2.9986 -2.0925 0.6445 0 1
2.6071 -2.8554 -2.0642 0.6534 0 1
2.6849 -2.7128 -2.0376 0.6581 0 1
2.7576 -2.5706 -2.0126 0.6663 0 1
2.8256 -2.4291 -1.9892 0.6741 0 1
2.8891 -2.2881 -1.9674 0.6815 0 1
2.9482 -2.1477 -1.9472 0.6886 0 1
3.0046 -2.0089 -1.9295 0.6997 0 1
3.0570 -1.8705 -1.9132 0.7056 0 1
3.1055 -1.7324 -1.8984 0.7111 0 1
3.1502 -1.5946 -1.8849 0.7162 0 1
3.1911 -1.4572 -1.8728 0.7209 0 1
3.2284 -1.3199 -1.8619 0.7250 0 1
3.2621 -1.1829 -1.8524 0.7288 0 1
3.2923 -1.0460 -1.8441 0.7320 0 1
3.3190 -0.9092 -1.8371 0.7349 0 1
3.3423 -0.7724 -1.8313 0.7372 0 1
3.3622 -0.6357 -1.8267 0.7390 0 1
3.3788 -0.4990 -1.8233 0.7324 0 1
3.3923 -0.3623 -1.8213 0.7332 0 1
3.4025 -0.2254 -1.8204 0.7336 0 1
3.4093 -0.0883 -1.8206 0.7335 0 1
3.4133 0.0490 -1.8223 0.7211 0 1
3.4125 0.1865 -1.8245 0.7203 0 1
3.4083 0.3242 -1.8277 0.7190 0 1
3.4006 0.4622 -1.8321 0.7173 0 1
3.3895 0.6005 -1.8376 0.7152 0 1
3.3748 0.7390 -1.8443 0.7126 0 1
3.3565 0.8779 -1.8521 0.7095 0 1
3.3348 1.0173 -1.8613 0.7181 0 1
3.3098 1.1571 -1.8718 0.7141 0 1
3.2811 1.2975 -1.8836 0.7096 0 1
3.2487 1.4384 -1.8967 0.7047 0 1
3.2124 1.5798 -1.9111 0.6994 0 1
3.1723 1.7219 -1.9269 0.6937 0 1
3.1281 1.8647 -1.9441 0.6875 0 1
3.0791 2.0077 -1.9623 0.6810 0 1
3.0246 2.1503 -1.9811 0.6745 0 1
2.9671 2.2947 -2.0024 0.6609 0 1
2.9055 2.4400 -2.0254 0.6534 0 1
2.8391 2.5860 -2.0501 0.6455 0 1
2.7678 2.7327 -2.0764 0.6373 0 1
2.6914 2.8802 -2.1044 0.6288 0 1
2.6098 3.0285 -2.1342 0.6201 0 1
2.5228 3.1775 -2.1659 0.6110 0 1
2.4300 3.3273 -2.1995 0.6017 0 1
2.3311 3.4775 -2.2350 0.5968 0 1
2.2241 3.6252 -2.2705 0.5875 0 1
2.1108 3.7732 -2.3081 0.5779 0 1
1.9788 3.8974 -2.3334 0.5699 0 24
1.8643 4.0698 -2.3897 0.5582 0 1
1.7305 4.2182 -2.4340 0.5480 0 1
1.5893 4.3666 -2.4807 0.5377 0 1
1.4337 4.4940 -2.5182 0.5281 0 24
1.2832 4.6625 -2.5816 0.5172 0 1
1.1177 4.8096 -2.6360 0.5070 0 1
0.9434 4.9566 -2.6935 0.4964 0 1
0.7600 5.1035 -2.7545 0.4854 0 1
0.5670 5.2495 -2.8187 0.4743 0 1
0.3638 5.3943 -2.8862 0.4632 0 1
0.1501 5.5375 -2.9572 0.4521 0 1
-0.0746 5.6716 -3.0280 0.4386 0 24
-0.3109 5.8173 -3.1099 0.4307 0 1
-0.5582 5.9439 -3.1871 0.4205 0 24
-0.8197 6.0856 -3.2781 0.4086 0 1
-1.0932 6.2143 -3.3684 0.3977 0 1
-1.3797 6.3371 -3.4623 0.3881 0 1
-1.6795 6.4528 -3.5596 0.3799 0 1
-1.9928 6.5611 -3.6606 0.3694 0 1
-2.3202 6.6625 -3.7662 0.3590 0 1
-2.6622 6.7560 -3.8765 0.3488 0 1
-3.0189 6.8406 -3.9916 0.3384 0 1
-3.3905 6.9153 -4.1115 0.3286 0 1
-3.7771 6.9784 -4.2361 0.3192 0 1
-4.1786 7.0291 -4.3654 0.3097 0 1
-4.5950 7.0658 -4.4995 0.3005 0 1
-5.0259 7.0873 -4.6383 0.2915 0 1
-5.4713 7.0923 -4.7819 0.2798 0 1
-5.9299 7.0786 -4.9296 0.2738 0 1
-6.3993 7.0426 -5.0799 0.2657 0 1
-6.8795 6.9845 -5.2336 0.2579 0 1
-7.3691 6.9027 -5.3903 0.2504 0 1
-7.8664 6.7955 -5.5494 0.2477 0 1
-8.3860 6.6745 -5.7217 0.2327 0 1
-8.9129 6.5258 -5.8971 0.2258 0 1
-9.4428 6.3464 -6.0737 0.2192 0 1
-9.9693 6.1328 -6.2484 0.2137 0 1
-10.4464 5.8605 -6.3944 0.2077 0 24
-11.0173 5.6104 -6.6002 0.1983 0 1
-11.4684 5.2702 -6.7379 0.1913 0 24
-12.0093 4.9437 -6.9331 0.1892 0 1
-12.4732 4.5569 -7.0892 0.1825 0 1
-12.9104 4.1359 -7.2372 0.1790 0 1
-13.3125 3.6811 -7.3735 0.1757 0 1
-13.6704 3.1941 -7.4944 0.1741 0 1
-13.9769 2.6777 -7.5972 0.1717 0 1
-14.2314 2.1369 -7.6825 0.1696 0 1
-14.4270 1.5758 -7.7476 0.1682 0 1
-14.5630 0.9998 -7.7926 0.1673 0 1
-14.5842 0.4129 -7.7888 0.1659 0 24
-14.6488 -0.1750 -7.8207 0.1659 0 1
-14.5978 -0.7626 -7.8036 0.1663 0 1
-14.4840 -1.3427 -7.7654 0.1672 0 1
-14.3095 -1.9098 -7.7068 0.1685 0 1
-14.0745 -2.4584 -7.6273 0.1679 0 1
-13.7883 -2.9847 -7.5313 0.1700 0 1
-13.4065 -3.4721 -7.3931 0.1734 0 24
-13.0717 -3.9530 -7.2903 0.1756 0 1
-12.6454 -4.3867 -7.1453 0.1791 0 1
-12.1835 -4.7839 -6.9875 0.1887 0 1
-11.7056 -5.1490 -6.8268 0.1932 0 1
-11.2046 -5.4768 -6.6578 0.1974 0 1
-10.6867 -5.7675 -6.4828 0.2027 0 1
-10.1592 -6.0228 -6.3049 0.2084 0 1
-9.6038 -6.2290 -6.1109 0.2211 0 24
-9.1170 -6.4488 -5.9615 0.2268 0 1
-8.5966 -6.6153 -5.7908 0.2335 0 1
-8.0800 -6.7524 -5.6214 0.2406 0 1
-7.5673 -6.8595 -5.4524 0.2452 0 1
-7.0613 -6.9384 -5.2849 0.2530 0 1
-6.5672 -6.9940 -5.1217 0.2630 0 1
-6.0862 -7.0283 -4.9633 0.2714 0 1
-5.6188 -7.0423 -4.8095 0.2801 0 1
-5.1635 -7.0345 -4.6584 0.2871 0 1
-4.7235 -7.0098 -4.5124 0.2964 0 1
-4.3000 -6.9711 -4.3725 0.3085 0 1
-3.8814 -6.8993 -4.2260 0.3176 0 24
-3.5019 -6.8564 -4.1100 0.3282 0 1
-3.1254 -6.7795 -3.9853 0.3360 0 1
-2.7640 -6.6914 -3.8649 0.3465 0 1
-2.4188 -6.5961 -3.7506 0.3600 0 1
-2.0892 -6.4945 -3.6420 0.3708 0 1
-1.7742 -6.3863 -3.5384 0.3816 0 1
-1.4735 -6.2723 -3.4396 0.3926 0 1
-1.1865 -6.1534 -3.3455 0.4036 0 1
-0.9126 -6.0285 -3.2550 0.4136 0 1
-0.6515 -5.8993 -3.1684 0.4249 0 1
-0.4029 -5.7665 -3.0859 0.4347 0 1
-0.1662 -5.6312 -3.0075 0.4461 0 1
0.0589 -5.4826 -2.9270 0.4595 0 24
0.2732 -5.3543 -2.8621 0.4687 0 1
0.4770 -5.2134 -2.7948 0.4802 0 1
0.6707 -5.0715 -2.7309 0.4914 0 1
0.8548 -4.9285 -2.6703 0.5026 0 1
1.0297 -4.7848 -2.6128 0.5136 0 1
1.1958 -4.6402 -2.5581 0.5248 0 1
1.3532 -4.4943 -2.5056 0.5358 0 1
1.5025 -4.3482 -2.4560 0.5467 0 1
1.6431 -4.1995 -2.4074 0.5380 0 1
1.7676 -4.0316 -2.3500 0.5669 0 24
1.8956 -3.8899 -2.3101 0.5838 0 1
2.0105 -3.7359 -2.2649 0.5901 0 24
2.1259 -3.5958 -2.2300 0.6048 0 1
2.2316 -3.4497 -2.1933 0.6149 0 1
2.3313 -3.3044 -2.1589 0.6247 0 1
2.4254 -3.1597 -2.1265 0.6342 0 1
2.5141 -3.0158 -2.0960 0.6434 0 1
2.5975 -2.8725 -2.0674 0.6523 0 1
2.6759 -2.7299 -2.0407 0.6571 0 1
2.7491 -2.5876 -2.0155 0.6653 0 1
2.8177 -2.4460 -1.9919 0.6732 0 1
2.8817 -2.3049 -1.9700 0.6807 0 1
2.9414 -2.1645 -1.9496 0.6878 0 1
2.9980 -2.0254 -1.9315 0.6989 0 1
3.0509 -1.8870 -1.9151 0.7049 0 1
3.0999 -1.7489 -1.9001 0.7105 0 1
3.1450 -1.6111 -1.8864 0.7156 0 1
3.1864 -1.4736 -1.8741 0.7203 0 1
3.2241 -1.3363 -1.8632 0.7246 0 1
3.2582 -1.1992 -1.8535 0.7284 0 1
3.2888 -1.0623 -1.8450 0.7317 0 1
3.3160 -0.9255 -1.8379 0.7345 0 1
3.3397 -0.7888 -1.8319 0.7369 0 1
3.3600 -0.6521 -1.8272 0.7388 0 1
3.3770 -0.5154 -1.8237 0.7323 0 1
3.3909 -0.3786 -1.8215 0.7331 0 1
3.4014 -0.2418 -1.8204 0.7336 0 1
3.4086 -0.1047 -1.8205 0.7335 0 1
3.4131 0.0325 -1.8222 0.7212 0 1
3.4128 0.1700 -1.8242 0.7204 0 1
3.4090 0.3077 -1.8273 0.7192 0 1
3.4017 0.4457 -1.8315 0.7175 0 1
3.3910 0.5839 -1.8369 0.7154 0 1
3.3767 0.7224 -1.8434 0.7129 0 1
3.3589 0.8613 -1.8511 0.7099 0 1
3.3376 1.0006 -1.8601 0.7186 0 1
3.3130 1.1404 -1.8705 0.7146 0 1
3.2847 1.2807 -1.8821 0.7102 0 1
3.2528 1.4215 -1.8950 0.7053 0 1
3.2170 1.5629 -1.9093 0.7001 0 1
3.1773 1.7049 -1.9249 0.6944 0 1
3.1336 1.8476 -1.9420 0.6883 0 1
3.0854 1.9906 -1.9602 0.6818 0 1
3.0313 2.1333 -1.9788 0.6753 0 1
2.9742 2.2773 -1.9997 0.6618 0 1
2.9131 2.4225 -2.0226 0.6543 0 1
2.8473 2.5685 -2.0471 0.6465 0 1
2.7766 2.7151 -2.0732 0.6383 0 1
2.7009 2.8626 -2.1010 0.6299 0 1
2.6199 3.0107 -2.1306 0.6211 0 1
2.5335 3.1597 -2.1620 0.6121 0 1
2.4414 3.3093 -2.1954 0.6028 0 1
2.3434 3.4597 -2.2307 0.5932 0 1
2.2373 3.6076 -2.2662 0.5886 0 1
2.1247 3.7555 -2.3035 0.5791 0 1
1.9933 3.8796 -2.3285 0.5711 0 24
1.8798 4.0521 -2.3846 0.5594 0 1
1.7374 4.1775 -2.4153 0.5506 0 24
1.6066 4.3489 -2.4750 0.5390 0 1
1.4518 4.4761 -2.5121 0.5294 0 24
1.3025 4.6449 -2.5753 0.5185 0 1
1.1379 4.7920 -2.6293 0.5083 0 1
0.9647 4.9390 -2.6865 0.4977 0 1
0.7825 5.0860 -2.7471 0.4867 0 1
0.5906 5.2321 -2.8109 0.4756 0 1
0.3887 5.3770 -2.8780 0.4646 0 1
0.1762 5.5205 -2.9486 0.4534 0 1
-0.0472 5.6621 -3.0228 0.4431 0 1
-0.2820 5.8008 -3.1004 0.4320 0 1
-0.5280 5.9283 -3.1773 0.4218 0 24
-0.7878 6.0699 -3.2676 0.4099 0 1
-1.0598 6.1992 -3.3574 0.3990 0 1
-1.3448 6.3228 -3.4509 0.3894 0 1
-1.6429 6.4394 -3.5478 0.3811 0 1
-1.9546 6.5485 -3.6483 0.3706 0 1
-2.2803 6.6508 -3.7534 0.3602 0 1
-2.6205 6.7453 -3.8631 0.3500 0 1
-2.9754 6.8310 -3.9776 0.3396 0 1
-3.3453 6.9069 -4.0969 0.3297 0 1
-3.7300 6.9715 -4.2209 0.3203 0 1
-4.1298 7.0237 -4.3497 0.3108 0 1
-4.5444 7.0622 -4.4832 0.3016 0 1
-4.9736 7.0856 -4.6215 0.2925 0 1
-5.4171 7.0924 -4.7643 0.2809 0 1
-5.8746 7.0815 -4.9119 0.2748 0 1
-6.3425 7.0480 -5.0617 0.2666 0 1
-6.8215 6.9927 -5.2151 0.2588 0 1
-7.3101 6.9138 -5.3714 0.2513 0 1
-7.8064 6.8096 -5.5301 0.2441 0 1
-8.3233 6.6903 -5.7008 0.2336 0 1
-8.8497 6.5451 -5.8761 0.2266 0 1
-9.3794 6.3695 -6.0526 0.2200 0 1
-9.9067 6.1602 -6.2277 0.2144 0 1
-10.3844 5.8916 -6.3737 0.2083 0 24
-10.9555 5.6455 -6.5794 0.1989 0 1
-11.4636 5.3350 -6.7501 0.1944 0 1
-11.9523 4.9877 -6.9140 0.1898 0 1
-12.4185 4.6048 -7.0706 0.1825 0 1
-12.8598 4.1881 -7.2200 0.1795 0 1
-13.2664 3.7373 -7.3578 0.1761 0 1
-13.6305 3.2540 -7.4810 0.1744 0 1
-13.9429 2.7408 -7.5858 0.1720 0 1
-14.2040 2.2028 -7.6734 0.1700 0 1
-14.4067 1.6438 -7.7408 0.1684 0 1
-14.5499 1.0693 -7.7883 0.1673 0 1
-14.6319 0.4847 -7.8155 0.1655 0 1
-14.6507 -0.1045 -7.8214 0.1659 0 1
-7.1577 -6.5512 -5.3190 0.2585 0 1
-6.6872 -6.6344 -5.1637 0.2663 0 1
-6.2258 -6.6948 -5.0115 0.2744 0 1
-5.7554 -6.7112 -4.8464 0.2818 0 24
-5.3346 -6.7524 -4.7172 0.2894 0 1
-4.9059 -6.7515 -4.5748 0.2984 0 1
-4.4917 -6.7356 -4.4379 0.3102 0 1
-4.0919 -6.7057 -4.3062 0.3197 0 1
-3.7062 -6.6625 -4.1792 0.3294 0 1
-3.3346 -6.6072 -4.0570 0.3369 0 1
-2.9756 -6.5372 -3.9373 0.3471 0 1
-2.6315 -6.4586 -3.8230 0.3605 0 1
-2.3022 -6.3728 -3.7143 0.3711 0 1
-1.9799 -6.2582 -3.5981 0.3808 0 24
-1.6847 -6.1795 -3.5110 0.3926 0 1
-1.3960 -6.0735 -3.4161 0.4035 0 1
-1.1200 -5.9623 -3.3255 0.4145 0 1
-0.8560 -5.8444 -3.2379 0.4229 0 1
-0.6041 -5.7222 -3.1542 0.4341 0 1
-0.3632 -5.5848 -3.0679 0.4483 0 24
-0.1351 -5.4685 -2.9986 0.4567 0 1
0.0830 -5.3377 -2.9263 0.4679 0 1
0.2907 -5.2049 -2.8576 0.4792 0 1
0.4885 -5.0704 -2.7923 0.4906 0 1
0.6767 -4.9345 -2.7303 0.5017 0 1
0.8558 -4.7974 -2.6713 0.5128 0 1
1.0262 -4.6593 -2.6153 0.5238 0 1
1.1881 -4.5201 -2.5619 0.5349 0 1
1.3416 -4.3793 -2.5107 0.5458 0 1
1.4874 -4.2383 -2.4622 0.5566 0 1
1.6234 -4.0908 -2.4126 0.5480 0 1
1.7504 -3.9406 -2.3636 0.5593 0 1
1.8687 -3.7882 -2.3155 0.5883 0 24
1.9842 -3.6451 -2.2750 0.5997 0 24
2.0977 -3.5095 -2.2413 0.6142 0 1
2.2014 -3.3674 -2.2053 0.6242 0 1
2.2993 -3.2258 -2.1715 0.6339 0 1
2.3916 -3.0848 -2.1397 0.6433 0 1
2.4787 -2.9443 -2.1098 0.6525 0 1
2.5606 -2.8044 -2.0817 0.6575 0 1
2.6373 -2.6647 -2.0551 0.6659 0 1
2.7092 -2.5256 -2.0303 0.6741 0 1
2.7766 -2.3870 -2.0072 0.6819 0 1
2.8396 -2.2489 -1.9856 0.6893 0 1
2.8984 -2.1114 -1.9657 0.7010 0 1
2.9544 -1.9753 -1.9481 0.7073 0 1
3.0063 -1.8395 -1.9320 0.7132 0 1
3.0544 -1.7039 -1.9172 0.7187 0 1
3.0987 -1.5686 -1.9039 0.7238 0 1
3.1393 -1.4335 -1.8918 0.7284 0 1
3.1763 -1.2986 -1.8810 0.7325 0 1
3.2097 -1.1639 -1.8716 0.7362 0 1
3.2396 -1.0292 -1.8633 0.7395 0 1
3.2661 -0.8947 -1.8563 0.7423 0 1
3.2892 -0.7602 -1.8506 0.7446 0 1
3.3089 -0.6257 -1.8460 0.7464 0 1
3.3253 -0.4911 -1.8426 0.7478 0 1
3.3384 -0.3565 -1.8404 0.7487 0 1
3.3483 -0.2218 -1.8394 0.7491 0 1
3.3548 -0.0869 -1.8396 0.7490 0 1
3.3575 0.0482 -1.8406 0.7412 0 1
3.3566 0.1834 -1.8427 0.7404 0 1
3.3524 0.3189 -1.8460 0.7391 0 1
3.3448 0.4546 -1.8504 0.7373 0 1
