ply
format ascii 1.0
element vertex 1373
property float32 x
property float32 y
property float32 z
property float32 CosAngle
property uint32 ObjIdx
property uint32 ObjTag
end_header
-32.2282 13.6909 -13.0752 0.3771 0 5
-41.1419 13.6896 -16.1910 0.2719 0 5
-22.7276 -4.6543 -8.6629 0.3951 16 6
-39.7464 -16.9560 -16.1359 0.0578 0 2
-35.9674 -17.0858 -14.8690 0.0627 0 2
-32.4754 -17.0611 -13.6983 0.0681 0 2
-29.2160 -16.8824 -12.6000 0.9766 0 6
-26.3559 -16.6791 -11.6468 0.0801 0 2
-24.1065 -16.6506 -10.9402 0.6821 0 2
-22.4829 -16.9048 -10.5037 0.1074 0 2
-19.6715 -16.0696 -9.4849 0.0742 0 1
-17.4602 -15.4754 -8.7121 0.0925 0 1
-15.5308 -14.9233 -8.0428 0.1178 0 1
-13.9020 -14.4782 -7.4951 0.1276 0 1
-12.4439 -14.0501 -7.0084 0.1365 0 1
-11.1156 -13.6171 -6.5638 0.1447 0 1
-9.8823 -13.1530 -6.1433 0.1576 0 24
-8.8495 -12.8220 -5.8175 0.1678 0 1
-7.8697 -12.4453 -5.4984 0.1857 0 1
-6.9717 -12.0749 -5.2065 0.1940 0 1
-6.1463 -11.7095 -4.9382 0.2043 0 1
-5.3868 -11.3502 -4.6914 0.2149 0 1
-4.6869 -10.9975 -4.4640 0.2244 0 1
-4.0402 -10.6488 -4.2530 0.2355 0 1
-3.4434 -10.3086 -4.0584 0.2468 0 1
-2.8917 -9.9760 -3.8785 0.2579 0 1
-2.3812 -9.6516 -3.7121 0.2695 0 1
-1.8999 -9.2944 -3.5424 0.2776 0 24
-1.4685 -9.0198 -3.4124 0.2892 0 1
-1.0607 -8.7130 -3.2775 0.3007 0 1
-0.6821 -8.4131 -3.1519 0.3127 0 1
-0.3303 -8.1215 -3.0352 0.3247 0 1
-0.0031 -7.8165 -2.9188 0.3429 0 24
0.3007 -7.5438 -2.8192 0.3541 0 24
0.5860 -7.3009 -2.7350 0.3657 0 1
0.8515 -7.0414 -2.6485 0.3776 0 1
1.0996 -6.7881 -2.5678 0.3895 0 1
1.3312 -6.5391 -2.4919 0.4015 0 1
1.5478 -6.2954 -2.4208 0.4133 0 1
1.7503 -6.0565 -2.3541 0.4239 0 1
1.9322 -5.8000 -2.2828 0.4326 0 24
2.1170 -5.5934 -2.2332 0.4466 0 1
2.2831 -5.3690 -2.1786 0.4578 0 1
2.4387 -5.1491 -2.1275 0.4688 0 1
2.5837 -4.9319 -2.0790 0.4628 0 1
2.7121 -4.7060 -2.0282 0.4744 0 1
2.8314 -4.4856 -1.9807 0.4857 0 1
2.9423 -4.2703 -1.9364 0.4968 0 1
3.0453 -4.0599 -1.8951 0.5077 0 1
3.1422 -3.8556 -1.8573 0.5394 0 1
3.2375 -3.6613 -1.8250 0.5489 0 1
3.3266 -3.4700 -1.7950 0.5581 0 1
3.4103 -3.2822 -1.7674 0.5581 0 1
3.4894 -3.0977 -1.7423 0.5662 0 1
3.5630 -2.9154 -1.7191 0.5738 0 1
3.6315 -2.7351 -1.6976 0.5811 0 1
3.6951 -2.5566 -1.6779 0.5879 0 1
3.7542 -2.3800 -1.6598 0.5944 0 1
3.8093 -2.2053 -1.6436 0.6003 0 1
3.8600 -2.0318 -1.6289 0.6058 0 1
3.9065 -1.8596 -1.6156 0.6108 0 1
3.9489 -1.6884 -1.6037 0.6185 0 1
3.9880 -1.5183 -1.5934 0.6225 0 1
4.0231 -1.3490 -1.5845 0.6260 0 1
4.0545 -1.1804 -1.5769 0.6291 0 1
4.0822 -1.0122 -1.5705 0.6316 0 1
4.1062 -0.8443 -1.5654 0.6337 0 1
4.1266 -0.6768 -1.5615 0.6352 0 1
4.1434 -0.5093 -1.5588 0.6363 0 1
4.1568 -0.3419 -1.5574 0.6369 0 1
4.1666 -0.1743 -1.5572 0.6370 0 1
4.1746 -0.0065 -1.5588 0.6357 0 1
4.1806 0.1618 -1.5623 0.6343 0 1
4.1831 0.3309 -1.5669 0.6324 0 1
4.1821 0.5008 -1.5728 0.6300 0 1
4.1775 0.6717 -1.5800 0.6272 0 1
4.1664 0.8432 -1.5873 0.6150 0 1
4.1496 1.0151 -1.5952 0.6120 0 1
4.1288 1.1880 -1.6043 0.6085 0 1
4.1041 1.3620 -1.6147 0.6046 0 1
4.0755 1.5371 -1.6265 0.6002 0 1
4.0426 1.7135 -1.6396 0.5954 0 1
4.0056 1.8914 -1.6541 0.5902 0 1
3.9641 2.0708 -1.6701 0.5845 0 1
3.9183 2.2520 -1.6876 0.5781 0 1
3.8678 2.4351 -1.7067 0.5716 0 1
3.8124 2.6202 -1.7274 0.5647 0 1
3.7524 2.8078 -1.7500 0.5575 0 1
3.6872 2.9978 -1.7745 0.5498 0 1
3.6163 3.1903 -1.8007 0.5418 0 1
3.5397 3.3854 -1.8290 0.5334 0 1
3.4569 3.5835 -1.8593 0.5247 0 1
3.3677 3.7846 -1.8917 0.5157 0 1
3.2717 3.9890 -1.9265 0.5103 0 1
3.1694 4.1981 -1.9642 0.5005 0 1
3.0567 4.4069 -2.0027 0.4953 0 1
2.9350 4.6177 -2.0431 0.4855 0 1
2.8049 4.8321 -2.0863 0.4754 0 1
2.6659 5.0503 -2.1325 0.4651 0 1
2.5173 5.2725 -2.1817 0.4546 0 1
2.3586 5.4989 -2.2343 0.4439 0 1
2.1891 5.7296 -2.2903 0.4334 0 1
1.9965 5.9310 -2.3368 0.4222 0 24
1.8141 6.2045 -2.4138 0.4113 0 1
1.6071 6.4495 -2.4820 0.4000 0 1
1.3855 6.6986 -2.5543 0.4116 0 1
1.1473 6.9454 -2.6286 0.3784 0 1
0.8958 7.2187 -2.7162 0.3655 0 1
0.6247 7.4894 -2.8063 0.3538 0 1
0.3340 7.7670 -2.9030 0.3420 0 1
0.0219 8.0517 -3.0066 0.3329 0 1
-0.3131 8.3391 -3.1161 0.3212 0 1
-0.6728 8.6338 -3.2337 0.3095 0 1
-1.0595 8.9359 -3.3602 0.2978 0 1
-1.4746 9.2396 -3.4938 0.2937 0 1
-1.9200 9.5444 -3.6354 0.2822 0 1
-2.3990 9.8560 -3.7878 0.2709 0 1
-2.9175 10.1839 -3.9558 0.2522 0 1
-3.4803 10.5285 -4.1407 0.2426 0 1
-4.0862 10.8723 -4.3371 0.2276 0 1
-4.7307 11.1971 -4.5390 0.2166 0 24
-5.4650 11.6086 -4.7911 0.2051 0 1
-6.2364 11.9720 -5.0407 0.1987 0 1
-7.0683 12.3311 -5.3074 0.1887 0 1
-7.9466 12.6543 -5.5797 0.1766 0 24
-8.9291 13.0242 -5.8966 0.1704 0 24
-10.0338 13.4418 -6.2635 0.1625 0 1
-11.2200 13.8329 -6.6509 0.1504 0 1
-12.5425 14.2509 -7.0889 0.1247 0 1
-14.0837 14.7595 -7.6179 0.1159 0 1
-17.0250 15.1849 -8.5186 0.1094 0 2
-18.9735 15.5985 -9.1718 0.1017 0 2
-21.1286 15.9900 -9.8943 0.0942 0 2
-23.5108 16.3479 -10.6930 0.0872 0 25
-26.1408 16.6576 -11.5747 0.0806 0 25
-26.1047 15.1935 -11.2786 0.8936 0 21
-27.3586 14.4822 -11.5590 0.8936 0 21
-28.6294 13.7098 -11.8531 0.4085 0 5
-31.8366 13.6994 -12.9420 0.3854 0 5
-36.7379 14.0850 -14.6920 0.9985 0 21
-40.4896 13.6817 -15.9591 0.2999 0 5
-22.7100 -4.5410 -8.6480 0.9161 16 6
-40.2000 -16.9294 -16.2880 0.0572 0 2
-36.3889 -17.0794 -15.0103 0.0621 0 2
-32.8633 -17.0707 -13.8284 0.0674 0 2
-29.4998 -16.8642 -12.6885 0.8356 0 6
-26.6786 -16.7104 -11.7549 0.0793 0 2
-24.3050 -16.6216 -10.9951 0.6390 0 2
-22.7455 -16.9374 -10.5896 0.1060 0 2
-19.9753 -16.1637 -9.5951 0.0734 0 1
-17.6955 -15.5379 -8.7935 0.0948 0 1
-15.7309 -14.9757 -8.1103 0.1168 0 1
-14.0795 -14.5275 -7.5544 0.1266 0 1
-12.6050 -14.0995 -7.0621 0.1354 0 1
-11.2618 -13.6662 -6.6126 0.1438 0 1
-10.0482 -13.2453 -6.2081 0.1530 0 1
-8.9682 -12.8657 -5.8562 0.1667 0 1
-7.9782 -12.4882 -5.5336 0.1765 0 1
-7.0715 -12.1175 -5.2389 0.1928 0 1
-6.2380 -11.7514 -4.9680 0.2030 0 1
-5.4712 -11.3913 -4.7188 0.2137 0 1
-4.7649 -11.0381 -4.4894 0.2246 0 1
-4.1122 -10.6886 -4.2764 0.2342 0 1
-3.5098 -10.3474 -4.0801 0.2455 0 1
-2.9531 -10.0139 -3.8985 0.2566 0 1
-2.4381 -9.6886 -3.7306 0.2682 0 1
-1.9526 -9.3310 -3.5597 0.2765 0 24
-1.5175 -9.0557 -3.4286 0.2878 0 1
-1.1062 -8.7481 -3.2926 0.2997 0 1
-0.7243 -8.4473 -3.1659 0.3114 0 1
-0.3696 -8.1547 -3.0482 0.3233 0 1
-0.0396 -7.8483 -2.9307 0.3416 0 24
0.2668 -7.5750 -2.8303 0.3527 0 24
2.5380 -4.7904 -2.0931 0.4733 0 1
2.6638 -4.5730 -2.0433 0.4848 0 1
2.7809 -4.3606 -1.9968 0.4961 0 1
2.8898 -4.1528 -1.9533 0.5071 0 1
2.9911 -3.9493 -1.9128 0.5179 0 1
3.0897 -3.7554 -1.8776 0.5493 0 1
3.1835 -3.5667 -1.8458 0.5588 0 1
3.2712 -3.3807 -1.8162 0.5679 0 1
3.3530 -3.1972 -1.7888 0.5766 0 1
3.4302 -3.0168 -1.7637 0.5759 0 1
3.5028 -2.8390 -1.7408 0.5834 0 1
3.5702 -2.6630 -1.7196 0.5906 0 1
3.6328 -2.4887 -1.7001 0.5974 0 1
3.6911 -2.3161 -1.6824 0.6038 0 1
3.7453 -2.1451 -1.6664 0.6097 0 1
3.7953 -1.9753 -1.6519 0.6150 0 1
3.8410 -1.8066 -1.6388 0.6199 0 1
3.8832 -1.6390 -1.6274 0.6276 0 1
3.9216 -1.4723 -1.6173 0.6315 0 1
3.9561 -1.3062 -1.6085 0.6349 0 1
3.9868 -1.1406 -1.6010 0.6379 0 1
4.0138 -0.9755 -1.5948 0.6404 0 1
4.0372 -0.8106 -1.5898 0.6424 0 1
4.0570 -0.6460 -1.5861 0.6439 0 1
4.0733 -0.4815 -1.5836 0.6449 0 1
4.0861 -0.3170 -1.5823 0.6454 0 1
4.0953 -0.1523 -1.5823 0.6455 0 1
4.1030 0.0126 -1.5841 0.6440 0 1
4.1084 0.1781 -1.5877 0.6426 0 1
4.1102 0.3443 -1.5925 0.6407 0 1
4.1085 0.5113 -1.5985 0.6382 0 1
4.1032 0.6793 -1.6058 0.6259 0 1
4.0896 0.8474 -1.6125 0.6233 0 1
4.0722 1.0162 -1.6204 0.6203 0 1
4.0509 1.1860 -1.6297 0.6167 0 1
4.0258 1.3567 -1.6402 0.6128 0 1
3.9966 1.5286 -1.6521 0.6084 0 1
3.9633 1.7017 -1.6653 0.6036 0 1
3.9258 1.8761 -1.6799 0.5983 0 1
3.8839 2.0520 -1.6960 0.5926 0 1
3.8376 2.2295 -1.7136 0.5862 0 1
3.7868 2.4087 -1.7328 0.5797 0 1
3.7311 2.5899 -1.7536 0.5728 0 1
3.6707 2.7734 -1.7763 0.5655 0 1
3.6051 2.9590 -1.8007 0.5578 0 1
3.5340 3.1470 -1.8270 0.5498 0 1
3.4572 3.3374 -1.8553 0.5414 0 1
3.3742 3.5304 -1.8855 0.5328 0 1
3.2849 3.7263 -1.9179 0.5277 0 1
3.1898 3.9262 -1.9531 0.5182 0 1
3.0875 4.1293 -1.9907 0.5084 0 1
2.9750 4.3320 -2.0290 0.5028 0 1
2.8539 4.5365 -2.0693 0.4935 0 1
2.7244 4.7441 -2.1122 0.4835 0 1
2.5863 4.9551 -2.1580 0.4732 0 1
2.4388 5.1696 -2.2069 0.4628 0 1
2.2814 5.3879 -2.2590 0.4521 0 1
2.1135 5.6098 -2.3145 0.4416 0 1
1.9235 5.8034 -2.3605 0.4303 0 24
1.7345 6.0362 -2.4248 0.4192 0 24
1.5387 6.2996 -2.5037 0.4082 0 1
1.3207 6.5384 -2.5754 0.3969 0 1
1.0872 6.7769 -2.6500 0.4085 0 1
0.8395 7.0317 -2.7342 0.3739 0 1
0.5738 7.2878 -2.8224 0.3622 0 1
0.2895 7.5494 -2.9169 0.3504 0 1
-0.0150 7.8168 -3.0180 0.3387 0 1
-0.3412 8.0872 -3.1252 0.3297 0 1
-0.6907 8.3619 -3.2394 0.3181 0 1
-1.0654 8.6422 -3.3619 0.3065 0 1
-1.4670 8.9255 -3.4923 0.2959 0 1
-1.8971 9.2094 -3.6303 0.2910 0 1
-2.3576 9.4942 -3.7769 0.2797 0 1
-2.8519 9.7833 -3.9345 0.2611 0 1
-3.3887 10.0940 -4.1110 0.2499 0 1
-3.9646 10.4019 -4.2979 0.2407 0 1
-4.5708 10.6800 -4.4852 0.2261 0 24
-5.2616 11.0432 -4.7229 0.2152 0 1
-5.9696 11.3311 -4.9448 0.2035 0 24
-6.7583 11.6643 -5.2048 0.1923 0 24
-7.5657 11.9245 -5.4524 0.1834 0 24
-8.4769 12.2423 -5.7491 0.1765 0 24
-9.4555 12.5452 -6.0653 0.1706 0 24
-10.5066 12.8312 -6.4029 0.1642 0 24
-11.7327 13.2066 -6.8205 0.1510 0 1
-13.0175 13.5160 -7.2451 0.1317 0 1
-14.3835 13.7789 -7.6903 0.1047 0 24
-16.5027 14.5820 -8.5025 0.1342 0 2
-17.2801 14.0724 -8.6041 0.1116 0 2
-19.0895 14.3080 -9.2107 0.1042 0 2
-21.0566 14.4969 -9.8702 0.0973 0 2
-23.1888 14.6256 -10.5850 0.0907 0 25
-25.4904 14.6780 -11.3566 0.0845 0 25
-27.9609 14.6352 -12.1848 0.0788 0 25
-30.5930 14.4759 -13.0672 0.0735 0 25
-33.3701 14.1760 -13.9982 0.0686 0 25
-36.2634 13.7103 -14.9682 0.0641 0 2
-39.2292 13.0531 -15.9625 0.0601 0 2
-42.2063 12.1810 -16.9605 0.0566 0 2
-45.1154 11.0751 -17.9358 0.0535 0 2
-22.6252 -4.6334 -8.9167 0.7164 16 6
-44.2722 -12.8500 -17.7985 0.0615 0 1
-40.9690 -13.7012 -16.6789 0.0610 0 24
-37.8664 -14.3821 -15.6389 0.0643 0 1
-34.7941 -14.8433 -14.6050 0.0699 0 1
-31.9564 -15.1804 -13.6594 0.0651 0 1
-29.0888 -15.2819 -12.6865 0.0780 0 1
-26.3769 -15.2418 -11.7618 0.0749 0 1
-23.8817 -15.1133 -10.9117 0.0743 0 1
-21.3943 -14.7773 -10.0390 0.0732 0 1
-19.2570 -14.4792 -9.3021 0.1061 0 1
-17.4336 -14.2415 -8.6913 0.1177 0 1
-15.7488 -13.9585 -8.1250 0.1229 0 1
-14.1961 -13.6409 -7.6012 0.1293 0 1
-12.7743 -13.3038 -7.1210 0.1383 0 1
-11.4314 -12.9069 -6.6567 0.1409 0 24
-10.3133 -12.6342 -6.2968 0.1555 0 1
-9.2629 -12.3287 -5.9538 0.1766 0 1
-8.3047 -12.0325 -5.6447 0.1863 0 1
-7.4149 -11.7260 -5.3565 0.1941 0 1
-6.5885 -11.4113 -5.0874 0.2042 0 1
-5.8247 -11.0968 -4.8387 0.2146 0 1
-5.1182 -10.7842 -4.6088 0.2252 0 1
-4.4627 -10.4713 -4.3947 0.2347 0 1
-3.8424 -10.1275 -4.1821 0.2465 0 24
-3.2929 -9.8580 -4.0128 0.2567 0 1
-2.7604 -9.5231 -3.8281 0.2662 0 24
-2.2856 -9.2641 -3.6840 0.2796 0 1
-1.8338 -8.9708 -3.5352 0.2874 0 1
-1.4134 -8.6816 -3.3960 0.2992 0 1
-1.0224 -8.3986 -3.2666 0.3107 0 1
-0.6584 -8.1208 -3.1457 0.3226 0 1
-0.3193 -7.8509 -3.0337 0.3395 0 1
-0.0030 -7.5679 -2.9219 0.3514 0 24
0.2924 -7.3333 -2.8336 0.3635 0 1
0.5685 -7.0828 -2.7434 0.3753 0 1
0.8268 -6.8376 -2.6592 0.3872 0 1
1.0687 -6.5975 -2.5804 0.3990 0 1
1.2950 -6.3610 -2.5063 0.4110 0 1
1.5068 -6.1287 -2.4367 0.4227 0 1
1.7051 -5.9001 -2.3712 0.4333 0 1
1.8834 -5.6534 -2.3007 0.4426 0 24
2.0650 -5.4561 -2.2524 0.4559 0 1
2.2284 -5.2404 -2.1986 0.4670 0 1
2.3816 -5.0286 -2.1482 0.4780 0 1
2.5229 -4.8158 -2.0990 0.4719 0 1
2.6497 -4.5978 -2.0489 0.4835 0 1
2.7678 -4.3848 -2.0020 0.4948 0 1
2.8776 -4.1765 -1.9582 0.5059 0 1
2.9798 -3.9726 -1.9173 0.5167 0 1
3.0784 -3.7774 -1.8814 0.5482 0 1
3.1730 -3.5883 -1.8494 0.5577 0 1
3.2613 -3.4020 -1.8195 0.5669 0 1
3.3438 -3.2182 -1.7918 0.5756 0 1
3.4215 -3.0375 -1.7665 0.5750 0 1
3.4946 -2.8594 -1.7434 0.5826 0 1
3.5627 -2.6832 -1.7220 0.5898 0 1
3.6258 -2.5087 -1.7023 0.5966 0 1
3.6845 -2.3359 -1.6843 0.6031 0 1
3.7393 -2.1647 -1.6682 0.6090 0 1
3.7897 -1.9948 -1.6535 0.6144 0 1
3.8360 -1.8260 -1.6403 0.6194 0 1
3.8786 -1.6583 -1.6286 0.6271 0 1
3.9173 -1.4915 -1.6184 0.6311 0 1
3.9523 -1.3253 -1.6094 0.6346 0 1
3.9834 -1.1597 -1.6018 0.6376 0 1
4.0109 -0.9945 -1.5955 0.6401 0 1
4.0347 -0.8296 -1.5904 0.6422 0 1
4.0549 -0.6650 -1.5865 0.6438 0 1
4.0716 -0.5005 -1.5838 0.6448 0 1
4.0848 -0.3359 -1.5824 0.6454 0 1
4.0944 -0.1713 -1.5822 0.6455 0 1
4.1022 -0.0064 -1.5838 0.6442 0 1
4.1079 0.1590 -1.5872 0.6428 0 1
4.1102 0.3251 -1.5919 0.6409 0 1
4.1089 0.4920 -1.5977 0.6385 0 1
4.1040 0.6599 -1.6049 0.6357 0 1
4.0913 0.8280 -1.6116 0.6236 0 1
4.0744 0.9967 -1.6195 0.6206 0 1
4.0536 1.1664 -1.6286 0.6172 0 1
4.0289 1.3370 -1.6389 0.6133 0 1
4.0002 1.5087 -1.6506 0.6089 0 1
3.9674 1.6816 -1.6637 0.6041 0 1
3.9304 1.8559 -1.6781 0.5989 0 1
3.8890 2.0316 -1.6940 0.5933 0 1
3.8432 2.2089 -1.7114 0.5869 0 1
3.7929 2.3880 -1.7305 0.5804 0 1
3.7377 2.5689 -1.7511 0.5737 0 1
3.6780 2.7521 -1.7736 0.5664 0 1
3.6130 2.9375 -1.7978 0.5587 0 1
3.5425 3.1252 -1.8239 0.5507 0 1
3.4663 3.3153 -1.8519 0.5424 0 1
3.3841 3.5080 -1.8819 0.5338 0 1
3.2955 3.7035 -1.9140 0.5248 0 1
3.2011 3.9029 -1.9489 0.5193 0 1
3.0997 4.1057 -1.9862 0.5096 0 1
2.9885 4.3085 -2.0245 0.5039 0 1
2.8683 4.5127 -2.0645 0.4947 0 1
2.7398 4.7200 -2.1071 0.4847 0 1
2.6027 4.9306 -2.1526 0.4744 0 1
2.4563 5.1447 -2.2011 0.4640 0 1
2.3001 5.3625 -2.2528 0.4533 0 1
2.1335 5.5841 -2.3080 0.4429 0 1
1.9446 5.7768 -2.3534 0.4317 0 24
1.7569 6.0091 -2.4172 0.4205 0 24
1.5629 6.2724 -2.4958 0.4095 0 1
1.3466 6.5106 -2.5669 0.3982 0 1
1.1150 6.7501 -2.6415 0.4098 0 1
0.8690 7.0025 -2.7243 0.3752 0 1
0.6054 7.2579 -2.8120 0.3635 0 1
0.3233 7.5189 -2.9057 0.3518 0 1
0.0212 7.7857 -3.0060 0.3401 0 1
-0.3024 8.0559 -3.1125 0.3311 0 1
-0.6491 8.3299 -3.2258 0.3194 0 1
-1.0208 8.6095 -3.3473 0.3078 0 1
-1.4193 8.8928 -3.4769 0.2972 0 1
-1.8460 9.1769 -3.6141 0.2923 0 1
-2.3029 9.4611 -3.7595 0.2810 0 1
-2.7931 9.7496 -3.9157 0.2698 0 1
-3.3247 10.0579 -4.0899 0.2512 0 1
-3.8960 10.3663 -4.2757 0.2419 0 1
-4.5121 10.6797 -4.4763 0.2271 0 1
-5.1810 11.0054 -4.6964 0.2164 0 1
-5.8827 11.2930 -4.9162 0.2050 0 24
-6.6640 11.6257 -5.1737 0.1938 0 24
-7.4966 11.9378 -5.4425 0.1895 0 1
-8.3983 12.2500 -5.7344 0.1763 0 1
-9.3808 12.5671 -6.0547 0.1731 0 1
-10.4316 12.8609 -6.3935 0.1586 0 1
-11.5931 13.1722 -6.7748 0.1520 0 1
-12.8573 13.4743 -7.1907 0.1327 0 1
-14.3041 13.8308 -7.6821 0.1242 0 1
-16.3694 14.6001 -8.4687 0.0543 0 1
-17.0814 14.0429 -8.5376 0.1109 0 2
-18.8729 14.2829 -9.1381 0.1051 0 2
-20.8214 14.4779 -9.7913 0.0980 0 2
-22.9343 14.6143 -10.4997 0.0914 0 2
-25.1015 14.6096 -11.2134 0.5934 0 21
-27.3115 14.4573 -11.9310 0.8938 0 21
-30.2815 14.5009 -12.9628 0.0741 0 25
-33.0432 14.2186 -13.8886 0.0691 0 25
-35.9250 13.7733 -14.8547 0.0646 0 2
-38.8851 13.1395 -15.8471 0.0606 0 2
-41.8647 12.2932 -16.8460 0.0570 0 2
-44.7863 11.2150 -17.8255 0.0539 0 2
-22.6327 -4.5255 -8.9113 0.9153 16 6
-44.6234 -12.7277 -17.9158 0.0611 0 1
-41.4629 -13.6527 -16.8539 0.0620 0 1
-38.2362 -14.3198 -15.7640 0.0638 0 1
-35.1389 -14.7980 -14.7207 0.0693 0 1
-32.3145 -15.1671 -13.7822 0.0646 0 1
-29.3964 -15.2698 -12.7896 0.0774 0 1
-26.6616 -15.2416 -11.8571 0.0743 0 1
-24.1608 -15.1333 -11.0070 0.0737 0 1
-21.6738 -14.8222 -10.1377 0.0717 0 1
-19.4833 -14.5083 -9.3788 0.1053 0 1
-17.6351 -14.2700 -8.7586 0.1168 0 1
-15.9366 -13.9934 -8.1883 0.1219 0 1
-14.3701 -13.6803 -7.6603 0.1283 0 1
-12.9292 -13.3406 -7.1727 0.1373 0 1
-11.6338 -13.0131 -6.7393 0.1453 0 1
-10.4440 -12.6737 -6.3406 0.1544 0 1
-9.3784 -12.3624 -5.9911 0.1755 0 1
-8.4114 -12.0670 -5.6791 0.1852 0 1
-7.5145 -11.7623 -5.3890 0.1929 0 1
-6.6805 -11.4476 -5.1174 0.2032 0 1
-5.9098 -11.1330 -4.8664 0.2134 0 1
-5.1969 -10.8202 -4.6344 0.2240 0 1
-4.5357 -10.5072 -4.4186 0.2334 0 1
-3.9233 -10.1977 -4.2186 0.2450 0 1
-3.3557 -9.8930 -4.0333 0.2553 0 1
-2.8186 -9.5577 -3.8472 0.2655 0 24
-2.3397 -9.2977 -3.7017 0.2783 0 1
-1.8843 -9.0046 -3.5519 0.2860 0 1
-1.4604 -8.7146 -3.4116 0.2978 0 1
-1.0661 -8.4311 -3.2811 0.3093 0 1
-0.6991 -8.1525 -3.1592 0.3212 0 1
-0.3572 -7.8815 -3.0461 0.3381 0 1
-0.0383 -7.5978 -2.9335 0.3510 0 24
0.2593 -7.3626 -2.8444 0.3621 0 1
2.4792 -4.6795 -2.1123 0.4824 0 1
2.6036 -4.4696 -2.0633 0.4939 0 1
2.7194 -4.2642 -2.0173 0.5051 0 1
2.8273 -4.0630 -1.9744 0.5161 0 1
2.9285 -3.8668 -1.9348 0.5484 0 1
3.0279 -3.6803 -1.9010 0.5581 0 1
3.1209 -3.4965 -1.8694 0.5675 0 1
3.2078 -3.3152 -1.8401 0.5766 0 1
3.2891 -3.1362 -1.8128 0.5853 0 1
3.3648 -2.9593 -1.7874 0.5936 0 1
3.4363 -2.7852 -1.7644 0.5921 0 1
3.5033 -2.6131 -1.7433 0.5993 0 1
3.5655 -2.4426 -1.7239 0.6060 0 1
3.6233 -2.2736 -1.7062 0.6124 0 1
3.6773 -2.1061 -1.6903 0.6183 0 1
3.7269 -1.9397 -1.6759 0.6236 0 1
3.7727 -1.7744 -1.6630 0.6317 0 1
3.8147 -1.6101 -1.6516 0.6361 0 1
3.8528 -1.4464 -1.6415 0.6400 0 1
3.8870 -1.2834 -1.6328 0.6434 0 1
3.9176 -1.1208 -1.6253 0.6464 0 1
3.9444 -0.9586 -1.6191 0.6488 0 1
3.9676 -0.7967 -1.6142 0.6508 0 1
3.9872 -0.6349 -1.6105 0.6523 0 1
4.0033 -0.4732 -1.6080 0.6533 0 1
4.0159 -0.3115 -1.6067 0.6539 0 1
4.0250 -0.1497 -1.6066 0.6539 0 1
4.0324 0.0124 -1.6085 0.6525 0 1
4.0375 0.1750 -1.6120 0.6510 0 1
4.0391 0.3384 -1.6168 0.6491 0 1
4.0372 0.5025 -1.6228 0.6467 0 1
4.0301 0.6672 -1.6294 0.6345 0 1
4.0165 0.8322 -1.6361 0.6319 0 1
3.9991 0.9980 -1.6441 0.6289 0 1
3.9778 1.1646 -1.6533 0.6254 0 1
3.9526 1.3321 -1.6638 0.6214 0 1
3.9235 1.5006 -1.6756 0.6170 0 1
3.8902 1.6703 -1.6887 0.6122 0 1
3.8528 1.8412 -1.7033 0.6070 0 1
3.8110 2.0134 -1.7192 0.6014 0 1
3.7648 2.1871 -1.7367 0.5949 0 1
3.7141 2.3625 -1.7558 0.5885 0 1
3.6587 2.5397 -1.7765 0.5816 0 1
3.5986 2.7189 -1.7990 0.5743 0 1
3.5333 2.9001 -1.8233 0.5667 0 1
3.4626 3.0834 -1.8494 0.5587 0 1
3.3863 3.2690 -1.8774 0.5504 0 1
3.3039 3.4569 -1.9074 0.5417 0 1
3.2160 3.6481 -1.9399 0.5367 0 1
3.1217 3.8423 -1.9747 0.5272 0 1
3.0204 4.0395 -2.0119 0.5175 0 1
2.9094 4.2364 -2.0499 0.5119 0 1
2.7898 4.4346 -2.0898 0.5027 0 1
2.6620 4.6354 -2.1322 0.4927 0 1
2.5257 4.8391 -2.1773 0.4825 0 1
2.3805 5.0460 -2.2255 0.4720 0 1
2.2256 5.2560 -2.2767 0.4614 0 1
2.0606 5.4693 -2.3313 0.4510 0 1
1.8846 5.6857 -2.3893 0.4400 0 1
1.6970 5.9057 -2.4510 0.4290 0 1
1.4971 6.1293 -2.5167 0.4178 0 1
1.2840 6.3567 -2.5868 0.4064 0 1
1.0569 6.5880 -2.6614 0.3950 0 1
0.8148 6.8249 -2.7416 0.3835 0 1
0.5564 7.0667 -2.8275 0.3719 0 1
0.2804 7.3130 -2.9191 0.3602 0 1
-0.0145 7.5638 -3.0170 0.3485 0 1
-0.3299 7.8183 -3.1213 0.3396 0 1
-0.6669 8.0740 -3.2315 0.3280 0 1
-1.0274 8.3338 -3.3493 0.3165 0 1
-1.4128 8.5956 -3.4746 0.3059 0 1
-1.8248 8.8584 -3.6076 0.2946 0 1
-2.2657 9.1238 -3.7498 0.2898 0 1
-2.7362 9.3862 -3.8998 0.2786 0 1
-3.2417 9.6561 -4.0629 0.2601 0 1
-3.7861 9.9335 -4.2403 0.2509 0 1
-4.3690 10.2086 -4.4292 0.2402 0 1
-4.9983 10.4906 -4.6352 0.2256 0 1
-5.6551 10.7341 -4.8395 0.2147 0 24
-6.3943 11.0361 -5.0876 0.2088 0 1
-7.1642 11.2916 -5.3341 0.1992 0 1
-7.9906 11.5400 -5.5988 0.1857 0 1
-8.8610 11.7565 -5.8722 0.1784 0 24
-9.8221 11.9952 -6.1840 0.1723 0 24
-10.8493 12.2123 -6.5159 0.1654 0 24
-12.0398 12.5008 -6.9229 0.1530 0 1
-13.2693 12.7116 -7.3296 0.1413 0 1
-14.5393 12.8471 -7.7391 0.1199 0 24
-16.2492 13.2329 -8.3588 0.1099 0 1
-17.3639 13.0146 -8.6556 0.9750 0 2
-18.8628 12.9865 -9.1347 0.1081 0 2
-20.6173 13.0037 -9.7229 0.1016 0 2
-22.4820 12.9456 -10.3480 0.0954 0 2
-24.4504 12.7978 -11.0079 0.0897 0 2
-26.5110 12.5444 -11.6988 0.0844 0 2
-28.6452 12.1688 -12.4142 0.0795 0 2
-30.8264 11.6547 -13.1455 0.0751 0 2
-25.7598 8.5713 -10.8289 0.9536 0 6
-35.1763 10.1521 -14.6038 0.0676 0 2
-37.2442 9.1428 -15.2970 0.0646 0 2
-16.9393 3.4422 -6.8948 0.8811 26 14
-17.0381 2.7536 -6.8843 0.0473 26 14
-44.2755 5.3379 -17.7885 0.0592 0 1
-45.8437 3.6631 -18.3444 0.0557 0 1
-46.0455 -1.8892 -18.3820 0.0530 0 1
-45.2104 -3.6816 -18.0932 0.0550 0 1
-44.1215 -5.3873 -17.7298 0.0571 0 1
-42.8279 -6.9884 -17.3091 0.0629 0 1
-22.5286 -4.6136 -9.1727 0.9278 16 6
-39.1695 -9.6785 -16.0938 0.0625 0 1
-36.8495 -10.6956 -15.3051 0.0639 0 1
-34.5677 -11.5604 -14.5390 0.0733 0 1
-32.2090 -12.2334 -13.7430 0.0651 0 24
-29.6721 -12.6583 -12.8676 0.0668 0 1
-27.1725 -12.9079 -11.9993 0.0683 0 1
-24.8901 -13.0761 -11.2148 0.0772 0 1
-22.8175 -13.1850 -10.5117 0.0870 0 1
-20.8479 -13.1934 -9.8411 0.1068 0 1
-19.1145 -13.2026 -9.2663 0.1096 0 1
-17.4543 -13.1238 -8.7106 0.1211 0 1
-15.8865 -12.9776 -8.1824 0.1253 0 1
-14.4213 -12.7819 -7.6866 0.1315 0 1
-13.0561 -12.5454 -7.2223 0.1400 0 1
-11.8109 -12.3005 -6.8020 0.1529 0 1
-10.6781 -12.0564 -6.4240 0.1619 0 1
-9.6450 -11.8155 -6.0838 0.1777 0 1
-8.6706 -11.5403 -5.7577 0.1876 0 24
-7.8280 -11.3420 -5.4970 0.1968 0 1
-7.0060 -11.0794 -5.2288 0.2046 0 1
-6.2421 -10.8113 -4.9796 0.2145 0 1
-5.5327 -10.5405 -4.7484 0.2249 0 1
-4.8718 -10.2652 -4.5323 0.2340 0 1
-4.2574 -9.9897 -4.3314 0.2454 0 1
-3.6860 -9.7152 -4.1447 0.2556 0 1
-3.1538 -9.4416 -3.9706 0.2668 0 1
-2.6583 -9.1709 -3.8087 0.2782 0 1
-2.1961 -8.9014 -3.6570 0.2858 0 1
-1.7643 -8.6311 -3.5140 0.2974 0 1
-1.3619 -8.3653 -3.3807 0.3091 0 1
-0.9865 -8.1037 -3.2563 0.3206 0 1
-0.6362 -7.8476 -3.1405 0.3374 0 1
-0.3081 -7.5764 -3.0246 0.3503 0 24
-0.0029 -7.3326 -2.9248 0.3618 0 24
0.2835 -7.1121 -2.8391 0.3731 0 1
0.5519 -6.8758 -2.7514 0.3850 0 1
0.8034 -6.6437 -2.6693 0.3968 0 1
1.0392 -6.4157 -2.5925 0.4086 0 1
1.2603 -6.1910 -2.5201 0.4205 0 1
1.4676 -5.9690 -2.4518 0.4311 0 1
1.6618 -5.7503 -2.3875 0.4424 0 1
1.8366 -5.5130 -2.3178 0.4513 0 24
2.0053 -5.2982 -2.2596 0.4624 0 24
2.1758 -5.1167 -2.2178 0.4762 0 1
2.3267 -4.9126 -2.1682 0.4871 0 1
2.4643 -4.7040 -2.1182 0.4811 0 1
2.5897 -4.4936 -2.0688 0.4926 0 1
2.7065 -4.2877 -2.0225 0.5038 0 1
2.8152 -4.0860 -1.9792 0.5148 0 1
2.9166 -3.8885 -1.9389 0.5472 0 1
3.0168 -3.7017 -1.9048 0.5570 0 1
3.1105 -3.5176 -1.8730 0.5665 0 1
3.1981 -3.3360 -1.8434 0.5756 0 1
3.2800 -3.1567 -1.8158 0.5843 0 1
3.3564 -2.9796 -1.7902 0.5927 0 1
3.4283 -2.8051 -1.7669 0.5913 0 1
3.4958 -2.6329 -1.7457 0.5985 0 1
3.5586 -2.4622 -1.7261 0.6053 0 1
3.6168 -2.2930 -1.7082 0.6117 0 1
3.6713 -2.1254 -1.6921 0.6176 0 1
3.7214 -1.9589 -1.6775 0.6230 0 1
3.7676 -1.7935 -1.6644 0.6312 0 1
3.8101 -1.6290 -1.6528 0.6356 0 1
3.8486 -1.4653 -1.6426 0.6396 0 1
3.8833 -1.3022 -1.6337 0.6430 0 1
3.9142 -1.1395 -1.6261 0.6461 0 1
3.9415 -0.9773 -1.6198 0.6486 0 1
3.9651 -0.8153 -1.6147 0.6506 0 1
3.9851 -0.6536 -1.6108 0.6522 0 1
4.0016 -0.4919 -1.6082 0.6533 0 1
4.0146 -0.3302 -1.6068 0.6538 0 1
4.0241 -0.1683 -1.6066 0.6539 0 1
4.0316 -0.0063 -1.6081 0.6526 0 1
4.0371 0.1563 -1.6115 0.6512 0 1
4.0391 0.3195 -1.6162 0.6493 0 1
4.0376 0.4835 -1.6220 0.6470 0 1
4.0315 0.6482 -1.6287 0.6348 0 1
4.0182 0.8132 -1.6353 0.6322 0 1
4.0013 0.9788 -1.6431 0.6292 0 1
3.9805 1.1453 -1.6521 0.6258 0 1
3.9557 1.3127 -1.6625 0.6219 0 1
3.9271 1.4811 -1.6741 0.6176 0 1
3.8943 1.6506 -1.6871 0.6128 0 1
3.8573 1.8214 -1.7015 0.6076 0 1
3.8161 1.9935 -1.7173 0.6020 0 1
3.7703 2.1670 -1.7346 0.5956 0 1
3.7202 2.3422 -1.7535 0.5892 0 1
3.6653 2.5191 -1.7740 0.5824 0 1
3.6058 2.6981 -1.7964 0.5752 0 1
3.5411 2.8791 -1.8204 0.5676 0 1
3.4711 3.0621 -1.8463 0.5596 0 1
3.3954 3.2474 -1.8741 0.5514 0 1
3.3137 3.4351 -1.9038 0.5427 0 1
3.2265 3.6259 -1.9360 0.5378 0 1
3.1329 3.8198 -1.9706 0.5283 0 1
3.0324 4.0166 -2.0075 0.5186 0 1
2.9227 4.2137 -2.0455 0.5130 0 1
2.8040 4.4116 -2.0850 0.5038 0 1
2.6772 4.6121 -2.1271 0.4939 0 1
2.5419 4.8155 -2.1720 0.4837 0 1
2.3977 5.0219 -2.2197 0.4733 0 1
2.2440 5.2316 -2.2706 0.4627 0 1
2.0802 5.4446 -2.3248 0.4519 0 1
1.9054 5.6606 -2.3824 0.4413 0 1
1.7192 5.8801 -2.4437 0.4302 0 1
1.5208 6.1033 -2.5089 0.4191 0 1
1.3093 6.3303 -2.5785 0.4078 0 1
1.0838 6.5611 -2.6526 0.3964 0 1
0.8435 6.7972 -2.7321 0.3849 0 1
0.5871 7.0385 -2.8173 0.3732 0 1
0.3132 7.2843 -2.9082 0.3616 0 1
0.0205 7.5346 -3.0054 0.3499 0 1
-0.2924 7.7891 -3.1091 0.3409 0 1
-0.6269 8.0443 -3.2184 0.3293 0 1
-0.9846 8.3036 -3.3353 0.3178 0 1
-1.3671 8.5655 -3.4598 0.3072 0 1
-1.7759 8.8280 -3.5918 0.2959 0 1
-2.2133 9.0934 -3.7331 0.2847 0 1
-2.6803 9.3559 -3.8820 0.2799 0 1
-3.1812 9.6237 -4.0430 0.2614 0 1
-3.7214 9.9018 -4.2194 0.2522 0 1
-4.2997 10.1768 -4.4068 0.2414 0 1
-4.9232 10.4576 -4.6105 0.2268 0 1
-5.5746 10.7015 -4.8131 0.2160 0 24
-6.3089 11.0062 -5.0602 0.2099 0 1
-7.0726 11.2625 -5.3047 0.2003 0 1
-7.8626 11.4685 -5.5464 0.1861 0 24
-8.7542 11.7277 -5.8375 0.1792 0 24
-9.7079 11.9687 -6.1470 0.1729 0 24
-10.7274 12.1885 -6.4766 0.1667 0 24
-11.8429 12.4112 -6.8428 0.1539 0 24
-13.1217 12.6876 -7.2805 0.1422 0 1
-14.3667 12.8139 -7.6788 0.1278 0 24
-16.0564 13.2003 -8.2911 0.1108 0 1
-17.3183 13.1064 -8.6631 0.9742 0 2
-18.6677 12.9803 -9.0693 0.1089 0 2
-20.4092 13.0053 -9.6532 0.1023 0 2
-22.2614 12.9566 -10.2741 0.0961 0 2
-24.2184 12.8199 -10.9302 0.0903 0 2
-26.2691 12.5795 -11.6177 0.0850 0 2
-28.3961 12.2189 -12.3307 0.0801 0 2
-30.5735 11.7216 -13.0607 0.0756 0 2
-32.7666 11.0720 -13.7959 0.0716 0 2
-34.9309 10.2572 -14.5215 0.0680 0 2
-37.0122 9.2683 -15.2192 0.0649 0 2
-16.9488 3.5261 -6.9053 0.8797 26 14
-17.0057 2.8294 -6.8765 0.9413 26 14
-44.0688 5.5207 -17.7155 0.0594 0 1
-45.7184 3.8668 -18.3012 0.0574 0 1
-46.3890 2.0485 -18.5217 0.0557 0 1
-46.1205 -1.6779 -18.4087 0.0529 0 1
-45.1269 -3.4640 -18.0531 0.0550 0 24
-44.2614 -5.1959 -17.7762 0.0569 0 1
-42.9818 -6.8088 -17.3583 0.0627 0 1
-22.5581 -4.5106 -9.1761 0.6918 16 6
-39.4232 -9.5472 -16.1796 0.0622 0 1
-37.1223 -10.5882 -15.3978 0.0636 0 1
-34.8328 -11.4695 -14.6279 0.0698 0 1
-32.5941 -12.2068 -13.8829 0.0768 0 1
-29.9743 -12.6230 -12.9731 0.0662 0 1
-27.4597 -12.8884 -12.0996 0.0678 0 1
-25.1386 -13.0581 -11.2994 0.0766 0 1
-23.0430 -13.1730 -10.5873 0.0864 0 1
-21.0465 -13.1827 -9.9059 0.1061 0 1
-19.3201 -13.2126 -9.3362 0.1088 0 1
-17.6393 -13.1351 -8.7724 0.1202 0 1
-16.0633 -12.9982 -8.2423 0.1244 0 1
-14.5848 -12.8064 -7.7420 0.1326 0 1
-13.2079 -12.5738 -7.2739 0.1390 0 1
-11.9474 -12.3275 -6.8476 0.1519 0 1
-10.8043 -12.0853 -6.4661 0.1609 0 1
-9.7578 -11.8410 -6.1202 0.1767 0 1
-8.7753 -11.5674 -5.7914 0.1866 0 24
-7.9259 -11.3704 -5.5286 0.1956 0 1
-7.0977 -11.1100 -5.2587 0.2034 0 1
-6.3274 -10.8424 -5.0074 0.2134 0 1
-5.6119 -10.5718 -4.7742 0.2238 0 1
-4.9456 -10.2971 -4.5565 0.2328 0 1
-4.3260 -10.0214 -4.3539 0.2442 0 1
-3.7499 -9.7470 -4.1657 0.2543 0 1
-3.2132 -9.4730 -3.9900 0.2655 0 1
-2.7137 -9.2020 -3.8268 0.2769 0 1
-2.2479 -8.9329 -3.6742 0.2844 0 1
-1.8126 -8.6620 -3.5299 0.2961 0 1
-1.4069 -8.3957 -3.3956 0.3078 0 1
-1.0285 -8.1338 -3.2702 0.3192 0 1
-0.6754 -7.8767 -3.1534 0.3360 0 1
-0.3456 -7.6265 -3.0452 0.3479 0 1
-0.0371 -7.3607 -2.9361 0.3604 0 24
0.2514 -7.1397 -2.8496 0.3718 0 1
2.4227 -4.5728 -2.1309 0.4914 0 1
2.5455 -4.3700 -2.0825 0.5029 0 1
2.6601 -4.1712 -2.0372 0.5141 0 1
2.7669 -3.9762 -1.9947 0.5250 0 1
2.8696 -3.7890 -1.9572 0.5571 0 1
2.9680 -3.6075 -1.9237 0.5668 0 1
3.0601 -3.4285 -1.8924 0.5762 0 1
3.1464 -3.2517 -1.8632 0.5852 0 1
3.2270 -3.0770 -1.8361 0.5939 0 1
3.3022 -2.9042 -1.8109 0.6021 0 1
3.3723 -2.7333 -1.7875 0.6100 0 1
3.4383 -2.5647 -1.7663 0.6079 0 1
3.5001 -2.3977 -1.7470 0.6146 0 1
3.5575 -2.2322 -1.7294 0.6209 0 1
3.6110 -2.0682 -1.7136 0.6268 0 1
3.6605 -1.9052 -1.6993 0.6354 0 1
3.7063 -1.7432 -1.6865 0.6402 0 1
3.7480 -1.5819 -1.6752 0.6445 0 1
3.7858 -1.4213 -1.6652 0.6484 0 1
3.8198 -1.2612 -1.6564 0.6518 0 1
3.8501 -1.1015 -1.6490 0.6547 0 1
3.8767 -0.9421 -1.6428 0.6572 0 1
3.8997 -0.7830 -1.6379 0.6592 0 1
3.9192 -0.6241 -1.6342 0.6607 0 1
3.9351 -0.4652 -1.6317 0.6617 0 1
3.9475 -0.3062 -1.6304 0.6622 0 1
3.9565 -0.1471 -1.6303 0.6622 0 1
3.9636 0.0122 -1.6322 0.6608 0 1
3.9685 0.1721 -1.6357 0.6594 0 1
3.9699 0.3326 -1.6404 0.6575 0 1
3.9677 0.4938 -1.6464 0.6551 0 1
3.9591 0.6555 -1.6525 0.6430 0 1
3.9454 0.8175 -1.6591 0.6404 0 1
3.9279 0.9802 -1.6670 0.6374 0 1
3.9066 1.1437 -1.6762 0.6339 0 1
3.8815 1.3081 -1.6867 0.6300 0 1
3.8524 1.4734 -1.6984 0.6256 0 1
3.8192 1.6398 -1.7115 0.6208 0 1
3.7818 1.8073 -1.7260 0.6156 0 1
3.7402 1.9760 -1.7419 0.6100 0 1
3.6941 2.1461 -1.7592 0.6040 0 1
3.6436 2.3177 -1.7782 0.5972 0 1
3.5884 2.4909 -1.7988 0.5904 0 1
3.5287 2.6660 -1.8211 0.5831 0 1
3.4637 2.8430 -1.8452 0.5755 0 1
3.3935 3.0218 -1.8711 0.5675 0 1
3.3176 3.2027 -1.8988 0.5592 0 1
3.2365 3.3863 -1.9289 0.5547 0 1
3.1494 3.5725 -1.9611 0.5456 0 1
3.0558 3.7613 -1.9956 0.5362 0 1
2.9555 3.9528 -2.0324 0.5265 0 1
2.8460 4.1441 -2.0702 0.5210 0 1
2.7279 4.3362 -2.1095 0.5112 0 1
2.6018 4.5306 -2.1514 0.5018 0 1
2.4675 4.7275 -2.1959 0.4917 0 1
2.3244 4.9270 -2.2433 0.4813 0 1
2.1720 5.1293 -2.2937 0.4707 0 1
1.9978 5.3027 -2.3334 0.4607 0 24
1.8271 5.5124 -2.3913 0.4495 0 24
1.6531 5.7529 -2.4648 0.4384 0 1
1.4514 5.9424 -2.5189 0.4261 0 24
1.2490 6.1833 -2.5976 0.4160 0 1
1.0272 6.4033 -2.6705 0.4046 0 1
0.7913 6.6283 -2.7488 0.3940 0 1
0.5399 6.8568 -2.8322 0.3816 0 1
0.2718 7.0889 -2.9212 0.3699 0 1
-0.0141 7.3246 -3.0161 0.3583 0 1
-0.3191 7.5636 -3.1173 0.3467 0 1
-0.6445 7.8030 -3.2241 0.3379 0 1
-0.9917 8.0442 -3.3375 0.3264 0 1
-1.3620 8.2866 -3.4581 0.3159 0 1
-1.7568 8.5283 -3.5855 0.3046 0 1
-2.1781 8.7712 -3.7215 0.2935 0 1
-2.6280 9.0150 -3.8667 0.2825 0 1
-3.1074 9.2559 -4.0205 0.2778 0 1
-3.6215 9.5018 -4.1872 0.2611 0 1
-4.1711 9.7461 -4.3654 0.2505 0 1
-4.7589 9.9880 -4.5559 0.2400 0 1
-5.3921 10.2349 -4.7636 0.2256 0 1
-6.0640 10.4661 -4.9809 0.2204 0 1
-6.7691 10.6689 -5.2029 0.2040 0 24
-7.4985 10.8294 -5.4240 0.1939 0 24
-8.3549 11.0850 -5.7159 0.1873 0 1
-9.2374 11.2812 -6.0040 0.1783 0 1
-10.1800 11.4589 -6.3117 0.1696 0 1
-11.1981 11.6268 -6.6472 0.1613 0 1
-12.2838 11.7675 -7.0047 0.1554 0 1
-13.3931 11.8343 -7.3596 0.1477 0 24
-14.6532 11.9331 -7.7817 0.1266 0 24
-16.2163 12.1544 -8.3450 0.1131 0 1
-17.6921 12.1805 -8.8449 0.9966 0 2
-18.5428 11.6952 -9.0274 0.1124 0 2
-20.0898 11.5682 -9.5461 0.1063 0 2
-21.7016 11.3590 -10.0864 0.1006 0 2
-23.3657 11.0561 -10.6443 0.0953 0 2
-25.0648 10.6478 -11.2139 0.0905 0 2
-26.7762 10.1234 -11.7877 0.0861 0 2
-25.6265 8.5270 -11.1214 0.9543 0 6
-30.1157 8.6915 -12.9072 0.0786 0 2
-31.9961 7.8545 -13.5666 0.2396 0 2
-16.7887 3.4116 -7.0546 0.8850 26 14
-16.8535 2.7238 -7.0300 0.8982 26 14
-37.2612 4.4922 -15.4546 0.0702 0 1
-38.2150 3.0535 -15.7864 0.0660 0 1
-38.7062 1.5292 -15.9509 0.0655 0 1
-38.8197 -0.0295 -15.9852 0.0654 0 1
-38.6168 -1.5844 -15.9151 0.0697 0 1
-36.1915 -2.9472 -14.9523 0.0690 0 2
-35.4184 -4.3247 -14.6930 0.0693 0 25
-34.3869 -5.6110 -14.3472 0.0709 0 25
-22.4381 -4.5950 -9.4313 0.9274 16 6
-33.1592 -8.1934 -14.0650 0.0751 0 1
-31.3270 -9.0927 -13.4323 0.0702 0 24
-29.5275 -9.8748 -12.8208 0.0737 0 1
-27.5425 -10.4610 -12.1320 0.0794 0 1
-25.5623 -10.9050 -11.4439 0.0908 0 1
-23.7239 -11.2697 -10.8153 0.0950 0 1
-21.9904 -11.5527 -10.2288 0.1055 0 1
-20.3716 -11.7717 -9.6885 0.1186 0 1
-18.8750 -11.9449 -9.1980 0.1175 0 1
-17.3735 -12.0001 -8.6947 0.1246 0 1
-15.9328 -11.9798 -8.2085 0.1276 0 1
-14.5639 -11.8972 -7.7438 0.1353 0 1
-13.2764 -11.7672 -7.3053 0.1422 0 1
-12.0295 -11.5589 -6.8697 0.1510 0 24
-10.9942 -11.4499 -6.5365 0.1635 0 1
-9.9806 -11.2688 -6.1986 0.1793 0 1
-9.0638 -11.1035 -5.9021 0.1883 0 1
-8.2045 -10.9198 -5.6243 0.1976 0 1
-7.3956 -10.7154 -5.3613 0.2050 0 1
-6.6364 -10.4949 -5.1131 0.2147 0 1
-5.9277 -10.2668 -4.8817 0.2249 0 1
-5.2653 -10.0312 -4.6651 0.2342 0 1
-4.6464 -9.7903 -4.4624 0.2448 0 1
-4.0551 -9.5150 -4.2591 0.2560 0 24
-3.5290 -9.3013 -4.0965 0.2657 0 1
-3.0248 -9.0556 -3.9315 0.2770 0 1
-2.5539 -8.8107 -3.7774 0.2883 0 1
-2.1121 -8.5610 -3.6310 0.2958 0 1
-1.6994 -8.3135 -3.4941 0.3074 0 1
-1.3136 -8.0687 -3.3663 0.3190 0 1
-0.9531 -7.8287 -3.2475 0.3353 0 1
-0.6136 -7.5686 -3.1268 0.3481 0 24
-0.2993 -7.3587 -3.0327 0.3590 0 1
-0.0029 -7.1096 -2.9276 0.3714 0 24
0.2752 -6.9021 -2.8444 0.3827 0 1
0.5361 -6.6788 -2.7590 0.3945 0 1
0.7810 -6.4588 -2.6790 0.4063 0 1
1.0111 -6.2422 -2.6039 0.4180 0 1
1.2272 -6.0283 -2.5333 0.4299 0 1
1.4299 -5.8160 -2.4663 0.4404 0 1
1.6203 -5.6066 -2.4032 0.4517 0 1
1.7917 -5.3784 -2.3344 0.4616 0 24
1.9575 -5.1720 -2.2772 0.4726 0 24
2.1252 -4.9978 -2.2363 0.4854 0 1
2.2738 -4.8009 -2.1874 0.4962 0 1
2.4079 -4.5964 -2.1367 0.4901 0 1
2.5318 -4.3932 -2.0879 0.5016 0 1
2.6473 -4.1939 -2.0423 0.5128 0 1
2.7550 -3.9985 -1.9995 0.5237 0 1
2.8578 -3.8100 -1.9612 0.5560 0 1
2.9570 -3.6283 -1.9274 0.5657 0 1
3.0498 -3.4490 -1.8959 0.5751 0 1
3.1367 -3.2720 -1.8665 0.5842 0 1
3.2179 -3.0970 -1.8391 0.5929 0 1
3.2938 -2.9241 -1.8137 0.6012 0 1
3.3644 -2.7529 -1.7901 0.6091 0 1
3.4309 -2.5840 -1.7687 0.6071 0 1
3.4932 -2.4169 -1.7492 0.6138 0 1
3.5510 -2.2512 -1.7313 0.6202 0 1
3.6051 -2.0870 -1.7153 0.6261 0 1
3.6550 -1.9239 -1.7008 0.6348 0 1
3.7012 -1.7618 -1.6879 0.6396 0 1
3.7434 -1.6005 -1.6764 0.6440 0 1
3.7816 -1.4398 -1.6663 0.6480 0 1
3.8161 -1.2796 -1.6574 0.6514 0 1
3.8468 -1.1199 -1.6498 0.6544 0 1
3.8738 -0.9605 -1.6435 0.6570 0 1
3.8973 -0.8014 -1.6384 0.6590 0 1
3.9171 -0.6424 -1.6345 0.6605 0 1
3.9335 -0.4835 -1.6319 0.6616 0 1
3.9463 -0.3245 -1.6305 0.6622 0 1
3.9556 -0.1655 -1.6303 0.6623 0 1
3.9628 -0.0062 -1.6318 0.6609 0 1
3.9681 0.1536 -1.6352 0.6596 0 1
3.9699 0.3140 -1.6398 0.6577 0 1
3.9681 0.4752 -1.6457 0.6554 0 1
3.9604 0.6368 -1.6518 0.6433 0 1
3.9471 0.7988 -1.6583 0.6407 0 1
3.9301 0.9614 -1.6661 0.6378 0 1
3.9093 1.1248 -1.6751 0.6343 0 1
3.8846 1.2891 -1.6854 0.6304 0 1
3.8559 1.4543 -1.6970 0.6261 0 1
3.8232 1.6205 -1.7099 0.6214 0 1
3.7863 1.7879 -1.7242 0.6162 0 1
3.7452 1.9565 -1.7400 0.6107 0 1
3.6996 2.1264 -1.7571 0.6047 0 1
3.6496 2.2978 -1.7759 0.5979 0 1
3.5950 2.4708 -1.7963 0.5912 0 1
3.5358 2.6457 -1.8185 0.5840 0 1
3.4715 2.8224 -1.8424 0.5764 0 1
3.4019 3.0011 -1.8680 0.5685 0 1
3.3267 3.1817 -1.8955 0.5602 0 1
3.2461 3.3650 -1.9253 0.5557 0 1
3.1597 3.5509 -1.9573 0.5467 0 1
3.0670 3.7394 -1.9915 0.5373 0 1
2.9675 3.9305 -2.0280 0.5276 0 1
2.8592 4.1221 -2.0658 0.5221 0 1
2.7419 4.3139 -2.1048 0.5124 0 1
2.6168 4.5081 -2.1464 0.5030 0 1
2.4834 4.7046 -2.1906 0.4928 0 1
2.3413 4.9039 -2.2377 0.4825 0 1
2.1900 5.1058 -2.2877 0.4719 0 1
2.0168 5.2787 -2.3269 0.4620 0 24
1.8575 5.5181 -2.3975 0.4507 0 1
1.6749 5.7284 -2.4576 0.4397 0 1
1.4744 5.9172 -2.5111 0.4275 0 24
1.2737 6.1582 -2.5895 0.4173 0 1
1.0535 6.3777 -2.6618 0.4059 0 1
0.8193 6.6022 -2.7395 0.3953 0 1
0.5697 6.8302 -2.8223 0.3829 0 1
0.3036 7.0620 -2.9107 0.3713 0 1
0.0199 7.2972 -3.0049 0.3596 0 1
-0.2829 7.5359 -3.1053 0.3480 0 1
-0.6059 7.7753 -3.2114 0.3392 0 1
-0.9505 8.0163 -3.3241 0.3277 0 1
-1.3181 8.2589 -3.4439 0.3172 0 1
-1.7099 8.5003 -3.5704 0.3059 0 1
-2.1281 8.7431 -3.7054 0.2948 0 1
-2.5745 8.9868 -3.8495 0.2838 0 1
-3.0506 9.2284 -4.0023 0.2790 0 1
-3.5605 9.4735 -4.1674 0.2624 0 1
-4.1058 9.7180 -4.3442 0.2517 0 1
-4.6890 9.9603 -4.5332 0.2412 0 1
-5.3167 10.2064 -4.7388 0.2268 0 1
-5.9849 10.4410 -4.9556 0.2215 0 1
-6.6830 10.6421 -5.1746 0.2055 0 24
-7.4461 10.8610 -5.4225 0.2013 0 1
-8.2568 11.0613 -5.6839 0.1883 0 1
-9.1326 11.2594 -5.9698 0.1793 0 1
-10.0681 11.4394 -6.2751 0.1706 0 1
-11.0772 11.6087 -6.6073 0.1622 0 1
-12.1560 11.7538 -6.9629 0.1563 0 1
-13.3155 11.8763 -7.3472 0.1448 0 1
-14.4949 11.9165 -7.7269 0.1300 0 24
-16.0394 12.1385 -8.2829 0.1140 0 1
-17.6385 12.2647 -8.8465 0.9964 0 2
-18.3689 11.7051 -8.9691 0.1131 0 2
-19.9079 11.5868 -9.4851 0.1070 0 2
-21.5127 11.3877 -10.0231 0.1012 0 2
-23.1715 11.0962 -10.5792 0.0959 0 2
-24.8677 10.7006 -11.1478 0.0910 0 2
-26.5790 10.1902 -11.7216 0.0866 0 2
-25.6017 8.6510 -11.1279 0.9830 0 6
-29.9298 8.7886 -12.8449 0.0790 0 2
-31.4965 7.8871 -13.3701 0.0759 0 2
-16.7976 3.4946 -7.0650 0.8736 26 14
-16.8456 2.8028 -7.0321 0.8980 26 14
-37.1180 4.6499 -15.4040 0.0705 0 1
-38.1369 3.2256 -15.7602 0.0662 0 1
-38.6708 1.7077 -15.9394 0.0657 0 1
-38.8243 0.1508 -15.9872 0.0654 0 1
-38.6577 -1.4064 -15.9291 0.0696 0 1
-38.1554 -2.9288 -15.7579 0.0706 0 1
-35.5213 -4.1699 -14.7275 0.0691 0 25
-34.5180 -5.4680 -14.3911 0.0707 0 25
-22.4899 -4.4970 -9.4442 0.6908 16 6
-33.3379 -8.0735 -14.1248 0.0754 0 1
-31.6647 -9.0315 -13.5589 0.0699 0 1
-29.7560 -9.7979 -12.9001 0.0733 0 1
-27.7694 -10.3999 -12.2105 0.0788 0 1
-25.7842 -10.8584 -11.5205 0.0811 0 1
-23.9361 -11.2346 -10.8881 0.0944 0 1
-22.1870 -11.5249 -10.2952 0.1049 0 1
-20.5476 -11.7465 -9.7461 0.1179 0 1
-19.0478 -11.9308 -9.2551 0.1241 0 1
-17.5423 -11.9967 -8.7512 0.1238 0 1
-16.0967 -11.9864 -8.2642 0.1267 0 1
-14.7171 -11.9089 -7.7958 0.1344 0 1
-13.3691 -11.7389 -7.3262 0.1412 0 24
-12.1630 -11.5791 -6.9152 0.1498 0 24
-11.1160 -11.4698 -6.5772 0.1625 0 1
-10.0916 -11.2882 -6.2350 0.1714 0 1
-9.1665 -11.1235 -5.9353 0.1872 0 1
-8.3008 -10.9419 -5.6555 0.1966 0 1
-7.4866 -10.7402 -5.3911 0.2039 0 1
-6.7213 -10.5208 -5.1409 0.2136 0 1
-6.0070 -10.2934 -4.9076 0.2237 0 1
-5.3395 -10.0588 -4.6894 0.2330 0 1
-4.7157 -9.8182 -4.4851 0.2436 0 1
-4.1195 -9.5429 -4.2801 0.2547 0 24
-3.5894 -9.3297 -4.1163 0.2645 0 1
-3.0813 -9.0839 -3.9499 0.2757 0 1
-2.6066 -8.8389 -3.7947 0.2870 0 1
-2.1616 -8.5897 -3.6474 0.2945 0 1
-1.7456 -8.3419 -3.5094 0.3060 0 1
-1.3568 -8.0968 -3.3806 0.3177 0 1
-0.9934 -7.8562 -3.2608 0.3339 0 1
-0.6513 -7.5953 -3.1391 0.3466 0 24
-0.3347 -7.3855 -3.0443 0.3577 0 1
-0.0360 -7.1359 -2.9385 0.3700 0 24
0.2440 -6.9280 -2.8546 0.3813 0 1
2.3682 -4.4699 -2.1488 0.5004 0 1
2.4895 -4.2738 -2.1011 0.5118 0 1
2.6028 -4.0814 -2.0563 0.5229 0 1
2.7086 -3.8924 -2.0144 0.5558 0 1
2.8125 -3.7135 -1.9789 0.5658 0 1
2.9099 -3.5369 -1.9456 0.5755 0 1
3.0012 -3.3625 -1.9146 0.5848 0 1
3.0867 -3.1900 -1.8857 0.5938 0 1
3.1666 -3.0195 -1.8587 0.6024 0 1
3.2413 -2.8507 -1.8337 0.6106 0 1
3.3109 -2.6835 -1.8104 0.6185 0 1
3.3756 -2.5179 -1.7889 0.6259 0 1
3.4364 -2.3541 -1.7695 0.6231 0 1
3.4934 -2.1920 -1.7520 0.6294 0 1
3.5467 -2.0313 -1.7362 0.6385 0 1
3.5961 -1.8717 -1.7222 0.6438 0 1
3.6415 -1.7128 -1.7095 0.6485 0 1
3.6830 -1.5545 -1.6982 0.6529 0 1
3.7205 -1.3968 -1.6882 0.6567 0 1
3.7543 -1.2395 -1.6795 0.6601 0 1
3.7843 -1.0827 -1.6721 0.6630 0 1
3.8108 -0.9261 -1.6659 0.6655 0 1
3.8336 -0.7697 -1.6610 0.6675 0 1
3.8528 -0.6135 -1.6573 0.6690 0 1
3.8686 -0.4573 -1.6548 0.6700 0 1
3.8809 -0.3010 -1.6536 0.6705 0 1
3.8897 -0.1446 -1.6535 0.6705 0 1
3.8965 0.0120 -1.6553 0.6691 0 1
3.9012 0.1691 -1.6588 0.6677 0 1
3.9023 0.3269 -1.6635 0.6658 0 1
3.8999 0.4854 -1.6695 0.6535 0 1
3.8898 0.6440 -1.6749 0.6514 0 1
3.8761 0.8032 -1.6815 0.6488 0 1
3.8586 0.9630 -1.6894 0.6458 0 1
3.8374 1.1235 -1.6985 0.6424 0 1
3.8122 1.2848 -1.7089 0.6384 0 1
3.7832 1.4469 -1.7206 0.6341 0 1
3.7501 1.6101 -1.7337 0.6293 0 1
3.7128 1.7743 -1.7480 0.6242 0 1
3.6713 1.9396 -1.7638 0.6186 0 1
3.6254 2.1062 -1.7811 0.6126 0 1
3.5750 2.2741 -1.7999 0.6058 0 1
3.5202 2.4435 -1.8204 0.5990 0 1
3.4608 2.6147 -1.8426 0.5918 0 1
3.3962 2.7875 -1.8665 0.5842 0 1
3.3264 2.9621 -1.8921 0.5763 0 1
3.2516 3.1389 -1.9199 0.5723 0 1
3.1712 3.3181 -1.9498 0.5635 0 1
3.0849 3.4994 -1.9817 0.5544 0 1
2.9922 3.6829 -2.0158 0.5450 0 1
2.8928 3.8689 -2.0522 0.5354 0 1
2.7849 4.0550 -2.0897 0.5300 0 1
2.6682 4.2413 -2.1286 0.5203 0 1
2.5438 4.4296 -2.1699 0.5109 0 1
2.4113 4.6199 -2.2138 0.5008 0 1
2.2704 4.8126 -2.2605 0.4904 0 1
2.1204 5.0075 -2.3101 0.4799 0 1
1.9495 5.1744 -2.3489 0.4700 0 24
1.7818 5.3758 -2.4058 0.4588 0 24
1.6110 5.6064 -2.4780 0.4478 0 1
1.4193 5.8108 -2.5410 0.4366 0 1
1.2115 5.9978 -2.5993 0.4245 0 24
0.9990 6.2271 -2.6791 0.4143 0 1
0.7690 6.4413 -2.7557 0.4028 0 1
0.5242 6.6574 -2.8368 0.3920 0 1
0.2637 6.8764 -2.9232 0.3796 0 1
-0.0136 7.0980 -3.0153 0.3680 0 1
-0.3089 7.3221 -3.1132 0.3564 0 1
-0.6234 7.5473 -3.2170 0.3477 0 1
-0.9581 7.7717 -3.3264 0.3363 0 1
-1.3144 7.9965 -3.4425 0.3258 0 1
-1.6931 8.2191 -3.5648 0.3146 0 1
-2.0963 8.4417 -3.6950 0.3036 0 1
-2.5255 8.6636 -3.8335 0.2926 0 1
-2.9826 8.8841 -3.9810 0.2818 0 1
-3.4693 9.1024 -4.1381 0.2713 0 1
-3.9887 9.3200 -4.3065 0.2607 0 1
-4.5422 9.5332 -4.4859 0.2503 0 1
-5.1318 9.7408 -4.6771 0.2359 0 1
-5.7640 9.9482 -4.8841 0.2308 0 1
-6.4254 10.1273 -5.0949 0.2213 0 1
-7.1281 10.2944 -5.3191 0.2108 0 1
-7.8747 10.4479 -5.5578 0.2017 0 1
-8.6801 10.6005 -5.8202 0.1889 0 1
-9.5118 10.7067 -6.0838 0.1806 0 24
-10.4222 10.8213 -6.3822 0.1751 0 24
-11.3889 10.9103 -6.6998 0.1641 0 24
-12.4270 10.9807 -7.0446 0.1567 0 24
-13.5244 11.0139 -7.4093 0.1500 0 24
-14.6893 11.0099 -7.7983 0.1302 0 24
-16.0995 11.0840 -8.3032 0.1217 0 1
-17.4636 11.0146 -8.7709 0.1195 0 1
-18.6240 10.7241 -9.1294 0.9762 0 2
-19.4903 10.2016 -9.3451 0.1115 0 2
-20.8672 9.8739 -9.8067 0.1063 0 2
-22.2573 9.4552 -10.2727 0.1014 0 2
-23.6415 8.9383 -10.7368 0.0971 0 2
-24.9971 8.3176 -11.1912 0.0931 0 2
-27.3274 7.8868 -12.0825 0.2763 0 2
-28.6483 7.0327 -12.5312 0.0915 0 1
-16.6264 3.3786 -7.2073 0.8086 26 14
-16.6870 2.6969 -7.1806 0.9030 26 14
-19.3267 2.3300 -8.2695 0.2666 26 14
-32.9463 2.6326 -14.0402 0.0872 0 1
-33.3084 1.3160 -14.1605 0.0864 0 1
-33.3878 -0.0253 -14.1832 0.0817 0 1
-33.1885 -1.3617 -14.1104 0.0790 0 1
-32.2573 -2.6268 -13.7483 0.0786 0 2
-30.4073 -3.7128 -13.0130 0.0803 0 25
-29.6204 -4.8332 -12.7492 0.0820 0 25
-22.2762 -4.5619 -9.6594 0.9830 16 6
-28.4597 -7.0322 -12.4533 0.0793 0 1
-27.1233 -7.8726 -11.9975 0.0844 0 1
-25.6660 -8.5834 -11.4965 0.0937 0 1
-24.2086 -9.1947 -11.0007 0.0968 0 1
-22.7328 -9.6979 -10.4989 0.1050 0 1
-21.2875 -10.1123 -10.0114 0.1101 0 1
-19.9087 -10.4591 -9.5533 0.1226 0 1
-18.5567 -10.7229 -9.1044 0.1219 0 1
-17.1584 -10.8586 -8.6259 0.1242 0 24
-15.8899 -10.9753 -8.2037 0.1311 0 1
-14.6263 -10.9975 -7.7737 0.1384 0 1
-13.3742 -10.9253 -7.3361 0.1449 0 24
-12.2917 -10.8944 -6.9773 0.1529 0 1
-11.2537 -10.8135 -6.6299 0.1656 0 1
-10.2770 -10.7030 -6.3033 0.1741 0 1
-9.3814 -10.5923 -6.0107 0.1898 0 1
-8.5442 -10.4670 -5.7397 0.1988 0 1
-7.7547 -10.3213 -5.4841 0.2058 0 1
-7.0046 -10.1488 -5.2384 0.2151 0 1
-6.3008 -9.9642 -5.0081 0.2249 0 1
-5.6405 -9.7694 -4.7921 0.2347 0 1
-5.0036 -9.5326 -4.5734 0.2448 0 24
-4.4392 -9.3537 -4.3982 0.2551 0 1
-3.8818 -9.1084 -4.2060 0.2658 0 24
-3.3835 -8.9179 -4.0519 0.2759 0 1
-2.9050 -8.6968 -3.8951 0.2871 0 1
-2.4554 -8.4709 -3.7466 0.2944 0 1
-2.0336 -8.2429 -3.6066 0.3058 0 1
-1.6385 -8.0158 -3.4755 0.3173 0 1
-1.2686 -7.7919 -3.3536 0.3343 0 1
-0.9186 -7.5458 -3.2291 0.3456 0 24
-0.5959 -7.3505 -3.1328 0.3569 0 1
-0.2901 -7.1321 -3.0322 0.3687 0 1
-0.0028 -6.8978 -2.9302 0.3810 0 24
0.2672 -6.7023 -2.8494 0.3923 0 1
0.5210 -6.4911 -2.7663 0.4041 0 1
0.7597 -6.2824 -2.6882 0.4158 0 1
0.9843 -6.0764 -2.6149 0.4275 0 1
1.1956 -5.8727 -2.5459 0.4392 0 1
1.3939 -5.6693 -2.4801 0.4494 0 1
1.5804 -5.4687 -2.4182 0.4609 0 1
1.7559 -5.2709 -2.3601 0.4723 0 1
1.9116 -5.0507 -2.2941 0.4818 0 24
2.0765 -4.8832 -2.2541 0.4945 0 1
2.2227 -4.6930 -2.2059 0.4875 0 1
2.3536 -4.4927 -2.1545 0.4991 0 1
2.4759 -4.2963 -2.1064 0.5105 0 1
2.5901 -4.1034 -2.0614 0.5217 0 1
2.6967 -3.9140 -2.0191 0.5326 0 1
2.8008 -3.7341 -1.9829 0.5647 0 1
2.8990 -3.5572 -1.9494 0.5744 0 1
2.9910 -3.3825 -1.9181 0.5837 0 1
3.0771 -3.2098 -1.8889 0.5928 0 1
3.1577 -3.0391 -1.8617 0.6014 0 1
3.2329 -2.8700 -1.8365 0.6097 0 1
3.3031 -2.7027 -1.8130 0.6176 0 1
3.3684 -2.5369 -1.7913 0.6250 0 1
3.4296 -2.3729 -1.7716 0.6223 0 1
3.4870 -2.2106 -1.7539 0.6287 0 1
3.5407 -2.0498 -1.7380 0.6379 0 1
3.5907 -1.8900 -1.7237 0.6432 0 1
3.6365 -1.7311 -1.7109 0.6480 0 1
3.6784 -1.5727 -1.6994 0.6524 0 1
3.7164 -1.4149 -1.6893 0.6563 0 1
3.7506 -1.2577 -1.6804 0.6597 0 1
3.7811 -1.1008 -1.6729 0.6627 0 1
3.8079 -0.9442 -1.6666 0.6652 0 1
3.8311 -0.7878 -1.6615 0.6673 0 1
3.8508 -0.6315 -1.6577 0.6688 0 1
3.8670 -0.4753 -1.6551 0.6699 0 1
3.8796 -0.3191 -1.6536 0.6704 0 1
3.8888 -0.1627 -1.6534 0.6705 0 1
3.8958 -0.0061 -1.6549 0.6692 0 1
3.9008 0.1510 -1.6583 0.6678 0 1
3.9024 0.3087 -1.6629 0.6660 0 1
3.9004 0.4671 -1.6687 0.6637 0 1
3.8912 0.6257 -1.6742 0.6517 0 1
3.8779 0.7848 -1.6807 0.6492 0 1
3.8608 0.9445 -1.6884 0.6462 0 1
3.8400 1.1049 -1.6974 0.6428 0 1
3.8153 1.2661 -1.7077 0.6389 0 1
3.7867 1.4282 -1.7192 0.6346 0 1
3.7541 1.5912 -1.7321 0.6299 0 1
3.7173 1.7553 -1.7463 0.6248 0 1
3.6763 1.9205 -1.7619 0.6192 0 1
3.6309 2.0869 -1.7790 0.6133 0 1
3.5811 2.2546 -1.7976 0.6065 0 1
3.5268 2.4239 -1.8179 0.5998 0 1
3.4679 2.5949 -1.8399 0.5926 0 1
3.4039 2.7675 -1.8636 0.5851 0 1
3.3348 2.9419 -1.8891 0.5772 0 1
3.2605 3.1184 -1.9166 0.5733 0 1
3.1808 3.2973 -1.9462 0.5645 0 1
3.0951 3.4783 -1.9779 0.5555 0 1
3.0032 3.6617 -2.0117 0.5461 0 1
2.9046 3.8474 -2.0478 0.5365 0 1
2.7978 4.0337 -2.0854 0.5311 0 1
2.6820 4.2197 -2.1240 0.5214 0 1
2.5586 4.4077 -2.1650 0.5121 0 1
2.4270 4.5979 -2.2086 0.5020 0 1
2.2871 4.7902 -2.2549 0.4916 0 1
2.1382 4.9849 -2.3042 0.4811 0 1
1.9681 5.1514 -2.3426 0.4712 0 24
1.8017 5.3525 -2.3991 0.4601 0 24
1.6324 5.5830 -2.4710 0.4490 0 1
1.4420 5.7871 -2.5335 0.4379 0 1
1.2355 5.9734 -2.5912 0.4258 0 24
1.0246 6.2028 -2.6707 0.4155 0 1
0.7962 6.4164 -2.7466 0.4041 0 1
0.5532 6.6323 -2.8272 0.3934 0 1
0.2946 6.8510 -2.9130 0.3809 0 1
0.0193 7.0723 -3.0043 0.3694 0 1
-0.2739 7.2961 -3.1016 0.3578 0 1
-0.5861 7.5215 -3.2049 0.3490 0 1
-0.9184 7.7457 -3.3135 0.3376 0 1
-1.2722 7.9709 -3.4289 0.3271 0 1
-1.6482 8.1934 -3.5503 0.3159 0 1
-2.0485 8.4160 -3.6795 0.3049 0 1
-2.4746 8.6380 -3.8171 0.2939 0 1
-2.9284 8.8588 -3.9635 0.2830 0 1
-3.4116 9.0774 -4.1194 0.2723 0 1
-3.9271 9.2951 -4.2865 0.2619 0 1
-4.4765 9.5088 -4.4646 0.2515 0 1
-5.0619 9.7172 -4.6544 0.2412 0 1
-5.6902 9.9268 -4.8606 0.2270 0 1
-6.3471 10.1072 -5.0700 0.2224 0 1
-7.0448 10.2756 -5.2924 0.2118 0 1
-7.7864 10.4311 -5.5295 0.2027 0 1
-8.5845 10.5837 -5.7890 0.1899 0 1
-9.4349 10.7200 -6.0664 0.1812 0 1
-10.3496 10.8462 -6.3685 0.1734 0 1
-11.3172 10.9427 -6.6874 0.1651 0 1
-12.3461 11.0117 -7.0277 0.1567 0 1
-13.3948 11.0121 -7.3662 0.1509 0 24
-14.5469 11.0090 -7.7497 0.1381 0 24
-15.9396 11.0834 -8.2472 0.1225 0 1
-17.3069 11.0284 -8.7178 0.1202 0 1
-18.5568 10.8004 -9.1209 0.9771 0 2
-19.3330 10.2339 -9.2924 0.1121 0 2
-20.7074 9.9161 -9.7531 0.1068 0 2
-22.0969 9.5083 -10.2189 0.1020 0 2
-23.4829 9.0031 -10.6836 0.0975 0 2
-24.8430 8.3946 -11.1396 0.0935 0 2
-26.8921 7.8966 -11.9061 0.2804 0 2
-28.5099 7.1392 -12.4850 0.0918 0 1
-16.6256 3.4589 -7.2138 0.8079 26 14
-16.6791 2.7751 -7.1827 0.9027 26 14
-18.8308 2.3590 -8.0619 0.1321 26 14
-32.8895 2.7817 -14.0214 0.0874 0 1
-33.2799 1.4696 -14.1511 0.0865 0 1
-33.3940 0.1297 -14.1859 0.0817 0 1
-33.2311 -1.2089 -14.1260 0.0789 0 1
-32.7443 -2.5135 -13.9508 0.0802 0 1
-30.4855 -3.5788 -13.0392 0.0801 0 25
-29.7206 -4.7081 -12.7828 0.0818 0 25
-22.2816 -4.4553 -9.6526 0.9941 16 6
-28.6089 -6.9283 -12.5044 0.0790 0 1
-27.2834 -7.7819 -12.0523 0.0840 0 1
-25.8410 -8.5088 -11.5571 0.0863 0 1
-24.3814 -9.1310 -11.0598 0.0963 0 1
-22.9002 -9.6439 -10.5555 0.1045 0 1
-21.4534 -10.0693 -10.0673 0.1095 0 1
-20.0660 -10.4231 -9.6055 0.1219 0 1
-18.7161 -10.6994 -9.1581 0.1212 0 1
-17.3573 -10.8719 -8.7004 0.1278 0 1
-16.0401 -10.9694 -8.2549 0.1303 0 1
-14.7685 -10.9974 -7.8220 0.1375 0 1
-13.5595 -10.9722 -7.4097 0.1440 0 1
-12.4188 -10.9045 -7.0206 0.1519 0 1
-11.3702 -10.8244 -6.6689 0.1646 0 1
-10.3867 -10.7172 -6.3400 0.1731 0 1
-9.4812 -10.6054 -6.0431 0.1888 0 1
-8.6383 -10.4825 -5.7702 0.1977 0 1
-7.8440 -10.3398 -5.5133 0.2070 0 1
-7.0887 -10.1694 -5.2659 0.2139 0 1
-6.3797 -9.9860 -5.0339 0.2238 0 1
-5.6958 -9.7601 -4.8005 0.2336 0 24
-5.0729 -9.5565 -4.5961 0.2437 0 24
-4.5043 -9.3782 -4.4196 0.2538 0 1
-3.9553 -9.1626 -4.2395 0.2637 0 1
-3.4407 -8.9434 -4.0706 0.2746 0 1
-2.9586 -8.7224 -3.9126 0.2858 0 1
-2.5059 -8.4972 -3.7633 0.2931 0 1
-2.0809 -8.2692 -3.6223 0.3045 0 1
-1.6828 -8.0419 -3.4902 0.3160 0 1
-1.3100 -7.8174 -3.3671 0.3302 0 1
-0.9574 -7.5711 -3.2418 0.3443 0 24
-0.6325 -7.3759 -3.1448 0.3555 0 1
-0.3244 -7.1572 -3.0435 0.3674 0 1
-0.0349 -6.9226 -2.9408 0.3796 0 24
0.2369 -6.7268 -2.8593 0.3909 0 1
2.3156 -4.3706 -2.1661 0.5094 0 1
2.4354 -4.1810 -2.1190 0.5207 0 1
2.5474 -3.9945 -2.0749 0.5318 0 1
2.6543 -3.8144 -2.0351 0.5645 0 1
2.7571 -3.6404 -1.9999 0.5744 0 1
2.8535 -3.4684 -1.9670 0.5840 0 1
2.9440 -3.2984 -1.9362 0.5933 0 1
3.0287 -3.1301 -1.9075 0.6023 0 1
3.1080 -2.9635 -1.8807 0.6108 0 1
3.1820 -2.7986 -1.8558 0.6190 0 1
3.2511 -2.6351 -1.8327 0.6268 0 1
3.3154 -2.4729 -1.8114 0.6342 0 1
3.3751 -2.3121 -1.7917 0.6412 0 1
3.4310 -2.1529 -1.7739 0.6379 0 1
3.4843 -1.9956 -1.7585 0.6469 0 1
3.5334 -1.8390 -1.7445 0.6521 0 1
3.5785 -1.6831 -1.7319 0.6568 0 1
