ply
format ascii 1.0
element vertex 1408
property float32 x
property float32 y
property float32 z
property float32 CosAngle
property uint32 ObjIdx
property uint32 ObjTag
end_header
11.1355 5.7449 0.6602 0.4321 0 14
11.1230 6.3164 0.6739 0.2540 0 1
10.0766 6.2702 0.6253 0.4702 0 14
10.0528 6.8302 0.6403 0.3810 0 14
10.9964 8.1352 0.7207 0.2152 0 2
10.5041 8.4442 0.7101 0.5770 0 2
10.5944 9.2410 0.7407 0.1893 0 2
10.6991 10.1169 0.7758 0.1808 0 2
10.8196 11.0869 0.8162 0.1718 0 2
10.9589 12.1712 0.8629 0.1625 0 2
11.1213 13.3963 0.9173 0.1529 0 2
11.1966 14.6459 0.9713 0.7893 0 3
6.4020 9.1104 0.5866 0.9082 22 6
8.8657 13.7594 0.8624 0.8446 0 21
8.6447 14.6793 0.8975 0.8571 0 3
8.0082 14.9396 0.8931 0.4700 0 3
7.9744 16.4287 0.9621 0.4362 0 3
7.9344 18.1693 1.0446 0.4018 0 3
7.7354 19.8511 1.1225 0.3668 0 3
8.2949 24.1061 1.3431 0.9421 0 3
7.7591 25.8836 1.4236 0.2950 0 3
3.3102 25.2027 1.3392 0.3468 0 9
1.2289 13.5520 0.7169 0.0768 0 9
0.6978 13.8703 0.7317 0.2610 0 9
0.1726 17.0760 0.8997 0.2339 0 9
-1.0451 14.8597 0.7848 0.4205 0 9
-30.8130 38.6810 2.6055 0.5679 0 3
-31.1482 36.0325 2.5094 0.2575 0 3
-30.5701 32.6190 2.3553 0.9570 0 3
-31.4826 30.9985 2.3278 0.7070 0 3
-31.8671 28.9510 2.2683 0.2848 0 3
-32.2937 22.9088 2.0860 0.7516 0 3
-32.2579 20.9888 2.0276 0.7732 0 3
-32.2276 19.1727 1.9757 0.7935 0 3
-32.8174 17.7798 1.9665 0.4812 0 3
-32.7751 16.0896 1.9236 0.4457 0 3
-36.1076 -33.5389 2.5964 0.7873 0 20
9.5591 -42.3562 2.2877 0.9724 0 3
8.0958 -30.1742 1.6460 0.9960 0 20
8.6092 -27.6069 1.5236 0.9553 0 3
10.5788 -29.6741 1.6598 0.9429 0 3
11.9174 -29.6122 1.6817 0.9289 0 3
12.1743 -27.0594 1.5633 0.8855 0 3
12.9380 -25.9217 1.5264 0.0919 0 2
10.2153 -18.5617 1.1162 0.9760 0 9
10.0142 -16.5831 1.0206 0.9774 0 20
11.7318 -17.7733 1.1220 0.1250 0 2
11.6178 -16.1505 1.0482 0.8270 0 2
11.7594 -15.0350 1.0056 0.1486 0 1
11.5789 -13.6381 0.9426 0.1601 0 1
11.4629 -12.4515 0.8917 0.1609 0 1
11.3160 -11.3421 0.8441 0.1626 0 1
11.1659 -10.3271 0.8013 0.1697 0 1
11.0110 -9.3923 0.7625 0.1698 0 1
10.8541 -8.5299 0.7273 0.1815 0 1
10.7203 -7.7493 0.6969 0.1894 0 1
10.6381 -7.0573 0.6726 0.2083 0 1
10.5758 -6.4199 0.6518 0.2150 0 1
10.5236 -5.8233 0.6337 0.2226 0 1
10.2032 -5.1221 0.6015 0.2338 0 25
8.8650 -4.0131 0.5127 0.8134 0 9
10.1260 -4.1024 0.5756 0.2443 0 25
10.0946 -3.6250 0.5651 0.2489 0 25
10.0675 -3.1651 0.5560 0.2529 0 25
10.0444 -2.7198 0.5483 0.2565 0 25
10.0250 -2.2868 0.5417 0.2596 0 2
10.3908 -1.9350 0.5569 0.2621 0 1
6.1380 -0.8897 0.3268 0.8545 25 14
4.3201 -0.4500 0.2288 0.2034 25 14
4.2475 -0.2706 0.2242 0.3265 25 14
4.2332 -0.0993 0.2231 0.3282 25 14
4.2345 0.0707 0.2231 0.3281 25 14
4.2723 0.2432 0.2255 0.3247 25 14
4.3809 0.4264 0.2319 0.2007 25 14
4.4953 0.6206 0.2391 0.2749 25 14
6.0653 1.0871 0.3246 0.9615 25 14
10.7631 2.3788 0.5807 0.2452 0 1
10.8414 2.8571 0.5907 0.2410 0 1
10.9266 3.3542 0.6022 0.2344 0 1
11.0235 3.8747 0.6156 0.2293 0 1
11.0882 4.4052 0.6286 0.2387 0 1
11.1110 4.9396 0.6406 0.2342 0 1
11.1336 5.4952 0.6541 0.2333 0 1
10.7760 5.8681 0.6465 0.6967 0 14
10.1005 6.0383 0.6200 0.3499 0 14
10.0386 6.5623 0.6319 0.5541 0 14
10.9826 7.8263 0.7105 0.2183 0 2
10.6807 8.2774 0.7119 0.6309 0 2
10.5523 8.8784 0.7266 0.1930 0 2
10.6509 9.7180 0.7596 0.1846 0 2
10.7641 10.6440 0.7976 0.1758 0 2
10.8946 11.6748 0.8413 0.1667 0 2
11.0461 12.8337 0.8921 0.1572 0 2
11.2236 14.1516 0.9516 0.1474 0 2
10.7206 14.6926 0.9582 0.8028 0 3
9.2069 13.7451 0.8716 0.8356 0 21
9.0019 14.6816 0.9073 0.8479 0 3
8.2068 14.6764 0.8859 0.8684 0 3
7.9901 15.7411 0.9301 0.4513 0 3
7.9531 17.3623 1.0061 0.4171 0 3
7.8393 19.1050 1.0880 0.9213 0 3
8.7791 24.1092 1.3518 0.9360 0 3
7.6954 24.1022 1.3330 0.9492 0 3
7.7090 27.9755 1.5288 0.2747 0 3
1.7020 15.6629 0.8301 0.9807 0 9
1.0708 15.7053 0.8294 0.9354 0 9
0.4713 16.8783 0.8896 0.1762 0 9
-0.3345 27.3031 1.4386 0.4732 0 9
-31.0208 37.2040 2.5521 0.2532 0 3
-31.2996 34.6125 2.4586 0.2628 0 3
-31.3905 32.0284 2.3628 0.6943 0 3
-31.7747 29.9170 2.2993 0.2810 0 3
-32.3094 23.7959 2.1141 0.7416 0 3
-32.2722 21.8257 2.0526 0.7638 0 3
-32.2407 19.9662 1.9980 0.7847 0 3
-32.2118 18.2010 1.9493 0.8043 0 3
-32.6624 16.7625 1.9342 0.4973 0 3
-37.1633 -33.3067 2.6292 0.8634 0 20
-34.9335 -33.9342 2.5659 0.5395 0 20
4.8264 -38.7750 2.0586 0.3411 0 6
5.1168 -24.7136 1.3297 0.2180 0 6
9.1649 -36.7621 1.9961 0.5483 0 3
8.4014 -28.7311 1.5771 0.2760 0 3
9.9882 -29.6779 1.6498 0.9486 0 3
11.3105 -29.6161 1.6703 0.9353 0 3
11.8163 -27.5652 1.5801 0.8933 0 3
12.6708 -26.5598 1.5504 0.8752 0 3
12.6452 -23.9782 1.4282 0.0982 0 2
12.2106 -21.0588 1.2825 0.1093 0 2
11.8639 -18.6889 1.1663 0.1202 0 2
11.5815 -16.7202 1.0716 0.1309 0 2
11.9801 -15.8923 1.0485 0.1548 0 2
11.6556 -14.2346 0.9693 0.1417 0 1
11.5158 -12.9648 0.9136 0.1652 0 1
11.3883 -11.8285 0.8651 0.1587 0 1
11.2312 -10.7647 0.8196 0.1659 0 1
11.0895 -9.8057 0.7799 0.1744 0 1
10.9188 -8.8998 0.7421 0.1779 0 1
10.7776 -8.0867 0.7099 0.1860 0 1
6.1564 -4.2440 0.3940 0.8889 14 6
10.6024 -6.6973 0.6607 0.2121 0 1
10.5444 -6.0825 0.6413 0.2185 0 1
10.2232 -5.3621 0.6082 0.2312 0 25
8.8728 -4.2086 0.5174 0.5321 0 9
10.1414 -4.3204 0.5808 0.2421 0 25
10.1080 -3.8344 0.5696 0.2469 0 25
10.0790 -3.3670 0.5599 0.2512 0 25
10.0542 -2.9156 0.5515 0.2550 0 25
10.0331 -2.4774 0.5445 0.2583 0 25
10.3912 -2.1272 0.5588 0.2607 0 1
10.3524 -1.6893 0.5526 0.2650 0 24
4.3569 -0.5324 0.2313 0.2013 25 14
4.2753 -0.3489 0.2260 0.2060 25 14
4.2394 -0.1751 0.2235 0.3275 25 14
4.2258 -0.0047 0.2226 0.3288 25 14
4.2553 0.1663 0.2244 0.3263 25 14
4.3261 0.3434 0.2286 0.2036 25 14
4.4516 0.5340 0.2362 0.2700 25 14
6.0983 0.9813 0.3254 0.9592 25 14
10.7303 2.1719 0.5768 0.2468 0 1
10.8059 2.6429 0.5861 0.2429 0 1
10.8878 3.1312 0.5969 0.2385 0 1
10.9796 3.6409 0.6094 0.2316 0 1
11.0795 4.1749 0.6238 0.2405 0 1
11.1003 4.6999 0.6351 0.2362 0 1
11.1243 5.2464 0.6480 0.2355 0 1
11.0009 5.7390 0.6537 0.4191 0 14
10.2205 5.8656 0.6209 0.7605 0 14
10.0684 6.3288 0.6266 0.4693 0 14
10.9023 7.4800 0.6966 0.2588 0 1
11.0001 8.2157 0.7233 0.2144 0 2
10.5126 8.5300 0.7133 0.1966 0 2
10.4109 9.1647 0.7308 0.9395 0 20
10.7119 10.2217 0.7801 0.1798 0 2
10.8343 11.2035 0.8211 0.1708 0 2
10.9760 12.3023 0.8686 0.1614 0 2
11.1413 13.5453 0.9240 0.1518 0 2
11.1220 14.6862 0.9706 0.7921 0 3
6.3510 9.1257 0.5858 0.9912 22 6
8.7797 13.7630 0.8601 0.8468 0 21
11.8236 -25.0767 1.1528 0.0961 0 2
11.4581 -21.9687 1.0302 0.1075 0 2
10.5588 -18.4025 0.8822 0.9642 0 9
10.4466 -16.6228 0.8163 0.3498 0 20
11.0761 -16.1470 0.8142 0.8407 0 2
11.0533 -14.8024 0.7681 0.1536 0 1
10.9062 -13.4437 0.7198 0.1656 0 1
10.8082 -12.2803 0.6802 0.1665 0 1
10.6909 -11.2058 0.6440 0.1668 0 1
10.5716 -10.2253 0.6115 0.1756 0 1
10.4441 -9.3200 0.5820 0.1791 0 1
10.3204 -8.4904 0.5557 0.1876 0 1
10.2105 -7.7341 0.5326 0.1957 0 1
6.1838 -4.3045 0.3133 0.6594 14 6
10.1052 -6.4477 0.4984 0.2220 0 1
10.0654 -5.8674 0.4844 0.2299 0 1
9.7823 -5.1878 0.4604 0.2412 0 25
8.9550 -4.2976 0.4130 0.3535 0 9
8.9973 -3.8815 0.4074 0.8157 0 9
9.4405 -3.6304 0.4206 0.3557 0 9
9.6763 -3.2815 0.4248 0.2614 0 25
9.6578 -2.8483 0.4187 0.2652 0 25
9.6422 -2.4275 0.4134 0.2686 0 25
9.9878 -2.0920 0.4243 0.2711 0 1
9.9565 -1.6713 0.4198 0.2755 0 24
4.1466 -0.5259 0.1738 0.2115 25 14
4.1258 -0.3556 0.1722 0.3357 25 14
4.1082 -0.1884 0.1710 0.2621 25 14
4.0946 -0.0232 0.1703 0.3119 25 14
4.1210 0.1423 0.1714 0.2614 25 14
4.1579 0.3110 0.1734 0.3335 25 14
4.2123 0.4858 0.1763 0.2085 25 14
6.1417 0.9596 0.2585 0.8530 25 14
10.2833 2.0327 0.4358 0.2574 0 1
10.3488 2.4813 0.4425 0.2541 0 1
10.4188 2.9451 0.4502 0.2497 0 1
10.4941 3.4270 0.4590 0.2449 0 1
10.5775 3.9309 0.4692 0.2375 0 1
10.6241 4.4414 0.4788 0.2474 0 1
10.6388 4.9584 0.4880 0.2427 0 1
10.6570 5.4981 0.4986 0.2376 0 1
10.6717 6.0601 0.5103 0.2362 0 1
10.5831 6.5854 0.5183 0.2608 0 1
10.4849 7.1237 0.5271 0.2565 0 1
10.5496 7.8047 0.5456 0.0514 0 1
10.2849 8.2680 0.5487 0.6464 0 2
10.0369 8.7547 0.5538 0.1999 0 2
10.1109 9.5607 0.5786 0.1914 0 2
10.1956 10.4474 0.6070 0.1824 0 2
10.2929 11.4315 0.6396 0.1731 0 2
10.4055 12.5341 0.6773 0.1635 0 2
10.5368 13.7828 0.7214 0.1535 0 2
6.4067 9.1170 0.4633 0.9080 22 6
8.8475 13.7312 0.6792 0.8468 0 21
8.6445 14.6789 0.7083 0.8576 0 3
8.0687 15.0525 0.7101 0.4667 0 3
8.0394 16.5626 0.7655 0.4329 0 3
8.0047 18.3302 0.8317 0.3985 0 3
8.7585 22.4766 1.0030 0.9135 0 3
8.2947 24.1055 1.0600 0.9426 0 3
7.8530 26.1966 1.1371 0.2917 0 3
1.8101 13.7814 0.5779 0.2494 0 9
1.2441 13.7192 0.5728 0.1357 0 9
0.9036 17.9595 0.7477 0.3672 0 9
-32.3881 37.4668 2.0592 0.6012 0 3
-32.3358 34.5031 1.9662 0.6297 0 3
-32.2891 31.7925 1.8841 0.6571 0 3
-32.2470 29.2961 1.8115 0.6834 0 3
-32.2090 26.9823 1.7471 0.7086 0 3
-32.1744 24.8247 1.6897 0.7327 0 3
-31.9541 22.6678 1.6290 0.8548 0 3
-32.1115 20.8935 1.5929 0.7771 0 3
-32.0850 19.0879 1.5523 0.7975 0 3
-30.1291 16.3234 1.4248 0.8947 0 3
-33.9535 16.6681 1.5727 0.3245 0 3
-35.9201 -33.3647 2.0384 0.6700 0 20
-35.0469 -35.2788 2.0677 0.6580 0 20
6.0877 -42.6919 1.7931 0.9896 0 3
9.5588 -42.3549 1.8054 0.9730 0 3
7.8351 -29.2025 1.2572 0.9667 0 20
8.6094 -27.6076 1.2024 0.9558 0 3
10.8901 -30.5473 1.3484 0.9433 0 3
11.1042 -27.5916 1.2367 0.9293 0 3
11.9614 -26.5862 1.2122 0.9138 0 3
11.6092 -23.2594 1.0809 0.1024 0 2
11.2890 -20.5127 0.9735 0.1137 0 2
10.0272 -16.6047 0.8065 0.9794 0 20
10.8213 -16.3939 0.8168 0.1356 0 2
10.9468 -13.9959 0.7388 0.1468 0 1
10.8523 -12.7823 0.6972 0.1625 0 1
10.7475 -11.6745 0.6598 0.1643 0 1
10.6225 -10.6471 0.6253 0.1717 0 1
10.5077 -9.7184 0.5951 0.1718 0 1
10.3734 -8.8484 0.5669 0.1839 0 1
10.2577 -8.0612 0.5425 0.1922 0 1
10.1757 -7.3556 0.5221 0.2119 0 1
6.3031 -4.1815 0.3145 0.3912 14 6
10.0813 -6.1197 0.4904 0.2256 0 1
9.7978 -5.4217 0.4656 0.2385 0 25
9.7640 -4.9016 0.4543 0.2444 0 25
8.8929 -4.0257 0.4059 0.9943 0 9
9.3591 -3.7917 0.4199 0.2516 0 9
9.6854 -3.4781 0.4279 0.2595 0 25
9.6657 -3.0387 0.4213 0.2636 0 25
9.6488 -2.6127 0.4156 0.2672 0 25
9.7342 -2.2205 0.4151 0.2765 0 2
9.9897 -1.8603 0.4225 0.2727 0 1
6.1819 -0.8961 0.2597 0.8489 25 14
4.1321 -0.4304 0.1727 0.3347 25 14
4.1165 -0.2623 0.1715 0.2613 25 14
4.0981 -0.0962 0.1704 0.2630 25 14
4.1022 0.0685 0.1706 0.3113 25 14
4.1417 0.2358 0.1725 0.3351 25 14
4.1786 0.4067 0.1746 0.3312 25 14
4.2785 0.5907 0.1796 0.2047 25 14
10.2540 1.8379 0.4331 0.2654 0 1
10.3194 2.2807 0.4394 0.2558 0 1
10.3872 2.7374 0.4466 0.2517 0 1
10.4600 3.2109 0.4550 0.2471 0 1
10.5388 3.7043 0.4645 0.2399 0 1
10.6187 4.2186 0.4751 0.2493 0 1
10.6319 4.7266 0.4838 0.2449 0 1
10.6485 5.2558 0.4938 0.2399 0 1
10.6650 5.8076 0.5049 0.2387 0 1
10.6265 6.3527 0.5148 0.2626 0 1
10.5285 6.8826 0.5230 0.2585 0 1
10.4256 7.4294 0.5323 0.2674 0 1
10.4931 8.1321 0.5520 0.2219 0 2
10.0070 8.4197 0.5438 0.2036 0 2
10.0769 9.1943 0.5672 0.1952 0 2
10.1566 10.0434 0.5939 0.1864 0 2
10.2480 10.9819 0.6246 0.1773 0 2
10.3535 12.0290 0.6599 0.1678 0 2
10.4760 13.2090 0.7010 0.1580 0 2
10.6196 14.5542 0.7491 0.1478 0 2
9.1878 13.7166 0.6865 0.8378 0 21
9.0017 14.6812 0.7160 0.8483 0 3
8.2066 14.6760 0.6991 0.8688 0 3
8.0530 15.8651 0.7398 0.4480 0 3
8.0208 17.5103 0.8008 0.4138 0 3
7.8391 19.1045 0.8586 0.9218 0 3
8.7789 24.1086 1.0668 0.9365 0 3
7.7228 24.1879 1.0557 0.3077 0 3
7.8092 28.3391 1.2222 0.2713 0 3
2.1673 14.4971 0.6095 0.0741 0 9
1.4770 13.5921 0.5685 0.1265 0 9
0.9174 13.4547 0.5607 0.6497 0 9
0.4802 17.1980 0.7154 0.7537 0 9
-0.3081 25.1484 1.0457 0.4689 0 9
-31.3859 37.6420 2.0378 0.4265 0 3
-32.3583 35.7833 2.0060 0.6172 0 3
-32.3092 32.9658 1.9192 0.6451 0 3
-32.2651 30.3787 1.8426 0.6719 0 3
-32.2254 27.9874 1.7747 0.6976 0 3
-32.1894 25.7635 1.7143 0.7222 0 3
-31.1370 22.9324 1.6079 0.8478 0 3
-32.1239 21.7255 1.6125 0.7677 0 3
-32.0965 19.8769 1.5697 0.7886 0 3
-32.0712 18.1215 1.5317 0.8082 0 3
-33.9066 17.4010 1.5846 0.3219 0 3
-37.1961 -33.3361 2.0768 0.7687 0 20
-35.0443 -34.0418 2.0314 0.6740 0 20
5.3146 -42.6980 1.7891 0.9929 0 3
5.1054 -24.6584 1.0470 0.9969 0 6
8.9510 -35.9044 1.5386 0.4499 0 3
8.1927 -28.0173 1.2137 0.8888 0 3
9.9885 -29.6786 1.3020 0.9490 0 3
10.6775 -27.9586 1.2444 0.0739 0 3
11.5431 -26.9280 1.2182 0.0857 0 3
11.7775 -24.6872 1.1373 0.0974 0 2
11.4219 -21.6585 1.0181 0.1088 0 2
10.6224 -18.3196 0.8805 0.1686 0 9
10.9097 -17.1858 0.8464 0.1308 0 2
11.1799 -16.1404 0.8164 0.8385 0 2
11.0315 -14.6339 0.7620 0.1423 0 1
10.8412 -13.2401 0.7115 0.1611 0 24
10.7974 -12.1561 0.6760 0.1675 0 1
10.6766 -11.0894 0.6401 0.1678 0 1
10.5591 -10.1206 0.6081 0.1766 0 1
10.4294 -9.2220 0.5789 0.1801 0 1
10.3073 -8.4013 0.5529 0.1885 0 1
10.2013 -7.6543 0.5303 0.2042 0 1
6.1805 -4.2605 0.3121 0.8859 14 6
10.1002 -6.3800 0.4967 0.2227 0 1
9.8141 -5.6612 0.4711 0.2359 0 2
9.7785 -5.1289 0.4591 0.2419 0 25
8.9222 -4.2320 0.4106 0.7891 0 9
9.0561 -3.8581 0.4093 0.5813 0 9
9.3513 -3.5473 0.4159 0.2550 0 9
9.6740 -3.2317 0.4241 0.2618 0 25
9.6559 -2.8001 0.4180 0.2656 0 25
9.6488 -2.3825 0.4132 0.3660 0 2
9.9880 -2.0446 0.4239 0.2713 0 1
9.9937 -1.6308 0.4210 0.2737 0 1
4.1387 -0.5057 0.1734 0.3334 25 14
4.1242 -0.3366 0.1721 0.3360 25 14
4.1061 -0.1695 0.1709 0.2623 25 14
4.0939 -0.0045 0.1702 0.3120 25 14
4.1259 0.1612 0.1717 0.3367 25 14
4.1620 0.3304 0.1736 0.3330 25 14
4.2255 0.5069 0.1770 0.2077 25 14
10.2304 1.6462 0.4308 0.2668 0 1
10.2908 2.0829 0.4366 0.2575 0 1
10.3565 2.5330 0.4433 0.2536 0 1
10.4271 2.9987 0.4511 0.2492 0 1
10.5030 3.4829 0.4601 0.2443 0 1
10.5876 3.9895 0.4704 0.2369 0 1
10.6256 4.4990 0.4798 0.2469 0 1
10.6407 5.0183 0.4892 0.2422 0 1
10.6589 5.5606 0.4999 0.2411 0 1
10.6698 6.1234 0.5115 0.2643 0 1
10.5720 6.6454 0.5192 0.2604 0 1
10.4737 7.1860 0.5281 0.2560 0 1
10.4859 7.8316 0.5442 0.2250 0 2
10.1945 8.2720 0.5459 0.6497 0 2
10.0448 8.8424 0.5564 0.1990 0 2
10.1199 9.6568 0.5816 0.1904 0 2
10.2059 10.5536 0.6104 0.1814 0 2
10.3048 11.5499 0.6436 0.1720 0 2
10.4193 12.6675 0.6820 0.1624 0 2
10.5530 13.9349 0.7268 0.1523 0 2
6.3658 9.1470 0.4634 0.9191 22 6
8.7617 13.7348 0.6774 0.8490 0 21
10.6573 -22.6032 0.7618 0.1066 0 2
10.4373 -20.0116 0.6880 0.1180 0 2
10.2420 -17.8502 0.6273 0.9703 0 9
10.1610 -16.1684 0.5821 0.8624 0 2
10.4336 -15.2104 0.5623 0.1539 0 1
10.2975 -13.7903 0.5246 0.1666 0 1
10.2259 -12.6052 0.4948 0.1679 0 1
10.1484 -11.5306 0.4682 0.1682 0 1
10.0554 -10.5397 0.4441 0.1846 0 1
9.9703 -9.6436 0.4228 0.1867 0 1
9.8695 -8.8072 0.4032 0.1958 0 1
9.7797 -8.0456 0.3860 0.2045 0 1
9.7308 -7.3707 0.3721 0.2302 0 1
6.2317 -4.3378 0.2315 0.3314 14 6
9.6225 -6.1397 0.3479 0.2441 0 24
9.3982 -5.4784 0.3316 0.2456 0 25
9.3738 -4.9711 0.3234 0.2518 0 25
8.9091 -4.2756 0.3012 0.9772 0 9
8.9646 -3.8674 0.2976 0.3283 0 9
9.0338 -3.4740 0.2950 0.6518 0 9
9.3022 -3.1546 0.2994 0.2720 0 25
9.2897 -2.7398 0.2952 0.2758 0 25
9.2801 -2.3363 0.2917 0.2797 0 2
9.6142 -2.0137 0.2994 0.2813 0 1
9.6233 -1.6153 0.2975 0.2846 0 1
3.9845 -0.5053 0.1224 0.2685 25 14
3.9762 -0.3427 0.1217 0.3201 25 14
3.9692 -0.1820 0.1211 0.3216 25 14
3.9627 -0.0224 0.1208 0.3224 25 14
3.9830 0.1375 0.1215 0.3206 25 14
4.0131 0.3002 0.1227 0.3175 25 14
4.0537 0.4676 0.1244 0.2643 25 14
9.8374 1.5371 0.3035 0.2782 0 1
9.8845 1.9539 0.3071 0.2749 0 1
9.9385 2.3829 0.3115 0.2703 0 1
9.9974 2.8260 0.3167 0.2659 0 1
10.0613 3.2857 0.3226 0.2556 0 1
10.1300 3.7646 0.3294 0.2503 0 1
10.1897 4.2598 0.3367 0.2581 0 1
10.1957 4.7519 0.3429 0.2534 0 1
10.2039 5.2643 0.3500 0.2482 0 1
10.2145 5.8005 0.3581 0.2426 0 1
10.1731 6.3303 0.3652 0.2715 0 1
10.0721 6.8433 0.3712 0.2671 0 1
9.9693 7.3754 0.3780 0.2623 0 1
10.0195 8.0546 0.3919 0.2292 0 2
9.5356 8.3175 0.3857 0.2105 0 2
9.5845 9.0629 0.4021 0.2020 0 2
9.6401 9.8782 0.4207 0.1930 0 2
9.7037 10.7771 0.4421 0.1837 0 2
9.7768 11.7768 0.4666 0.1740 0 2
9.8615 12.8994 0.4950 0.1641 0 2
6.4190 9.1345 0.3403 0.9881 22 6
8.8294 13.7031 0.4969 0.8488 0 21
8.6442 14.6785 0.5193 0.8580 0 3
8.1301 15.1670 0.5246 0.4633 0 3
8.1054 16.6985 0.5658 0.4296 0 3
8.0761 18.4937 0.6152 0.3951 0 3
8.7823 22.5377 0.7373 0.9114 0 3
8.2945 24.1049 0.7771 0.9430 0 3
7.9441 26.5006 0.8433 0.2882 0 3
3.0662 14.3210 0.4464 0.6497 0 9
1.7875 13.6093 0.4184 0.3663 0 9
1.2746 14.0558 0.4302 0.1066 0 9
0.7004 13.9218 0.4249 0.0282 0 9
0.1640 16.2257 0.4946 0.9025 0 9
-32.1993 37.2485 1.5009 0.6050 0 3
-32.1559 34.3111 1.4335 0.6334 0 3
-32.1168 31.6229 1.3740 0.6609 0 3
-32.0816 29.1459 1.3213 0.6872 0 3
-32.0496 26.8487 1.2745 0.7124 0 3
-32.0204 24.7059 1.2329 0.7365 0 3
-31.9911 22.6941 1.1957 0.7594 0 3
-31.9665 20.7992 1.1626 0.7810 0 3
-31.9439 19.0040 1.1330 0.8013 0 3
-32.8142 17.7781 1.1377 0.4817 0 3
-35.0799 17.2210 1.1913 0.3141 0 3
-35.9231 -33.3675 1.4946 0.6804 0 20
-34.8637 -35.0943 1.5080 0.6659 0 20
6.0878 -42.6929 1.3146 0.9900 0 3
9.0309 -40.0157 1.2505 0.7426 0 3
7.8357 -29.2047 0.9217 0.9778 0 20
8.6264 -27.6623 0.8833 0.2854 0 3
10.2131 -28.6483 0.9271 0.2227 0 3
10.6956 -26.5763 0.8733 0.8999 0 3
10.7724 -23.9434 0.8003 0.1015 0 2
10.5288 -21.0948 0.7187 0.1130 0 2
9.9620 -18.1015 0.6298 0.1200 0 9
10.0468 -16.6371 0.5925 0.9818 0 20
10.5933 -16.0485 0.5862 0.1603 0 2
10.3493 -14.3870 0.5402 0.1472 0 1
10.2566 -13.1135 0.5075 0.1637 0 1
10.1903 -12.0026 0.4800 0.1731 0 1
10.0945 -10.9652 0.4543 0.1734 0 1
10.0101 -10.0332 0.4320 0.1897 0 1
9.9127 -9.1680 0.4116 0.1918 0 1
9.8183 -8.3749 0.3934 0.2007 0 1
9.7476 -7.6603 0.3779 0.2266 0 1
9.7111 -7.0197 0.3653 0.2345 0 1
6.2985 -4.1785 0.2304 0.7025 14 6
9.6558 -5.8614 0.3443 0.2531 0 1
9.3842 -5.1928 0.3269 0.2491 0 25
9.1266 -4.5816 0.3113 0.6489 0 9
8.9052 -4.0313 0.2980 0.8972 0 9
9.0241 -3.6560 0.2968 0.2857 0 9
9.3083 -3.3427 0.3015 0.2701 0 25
9.2950 -2.9222 0.2970 0.2742 0 25
9.2836 -2.5138 0.2932 0.2778 0 25
9.6125 -2.1927 0.3005 0.2802 0 1
9.6190 -1.7913 0.2983 0.2834 0 1
4.3779 -0.6346 0.1348 0.0914 25 14
3.9796 -0.4145 0.1220 0.3193 25 14
3.9722 -0.2531 0.1213 0.3210 25 14
3.9655 -0.0931 0.1209 0.3221 25 14
3.9701 0.0663 0.1210 0.3218 25 14
3.9997 0.2277 0.1221 0.3189 25 14
4.0325 0.3925 0.1235 0.2662 25 14
4.0809 0.5634 0.1256 0.2618 25 14
9.8633 1.7678 0.3055 0.2765 0 1
9.9135 2.1910 0.3095 0.2721 0 1
9.9708 2.6277 0.3143 0.2679 0 1
10.0323 3.0796 0.3199 0.2577 0 1
10.0989 3.5497 0.3263 0.2527 0 1
10.1705 4.0406 0.3336 0.2450 0 1
10.1928 4.5314 0.3400 0.2555 0 1
10.2000 5.0344 0.3467 0.2506 0 1
10.2095 5.5596 0.3544 0.2452 0 1
10.2175 6.1082 0.3629 0.2732 0 1
10.1171 6.6136 0.3685 0.2691 0 1
10.0151 7.1369 0.3749 0.2645 0 1
10.1350 7.8545 0.3909 0.0527 0 1
9.8208 8.2630 0.3912 0.6649 0 2
9.5620 8.7245 0.3946 0.2058 0 2
9.6145 9.5073 0.4122 0.1970 0 2
9.6744 10.3672 0.4323 0.1879 0 2
9.7431 11.3198 0.4553 0.1784 0 2
9.8224 12.3848 0.4819 0.1685 0 2
9.9145 13.5879 0.5127 0.1584 0 2
9.1689 13.6883 0.5022 0.8399 0 21
9.0014 14.6807 0.5249 0.8487 0 3
8.2064 14.6756 0.5126 0.8692 0 3
8.1168 15.9909 0.5467 0.4446 0 3
8.0897 17.6607 0.5922 0.4105 0 3
7.8991 19.2508 0.6343 0.3757 0 3
8.7787 24.1080 0.7821 0.9369 0 3
7.8122 24.4681 0.7830 0.3043 0 3
7.9120 28.7120 0.9079 0.2679 0 3
3.4272 14.7216 0.4608 0.1423 0 9
3.9726 26.5727 0.8190 0.2394 0 9
1.5034 13.8354 0.4242 0.2788 0 9
0.9134 13.3960 0.4093 0.2989 0 9
-32.1745 35.5801 1.4623 0.6209 0 3
-31.9586 32.6080 1.3918 0.9577 0 3
-32.0968 30.2202 1.3439 0.6757 0 3
-32.0634 27.8468 1.2946 0.7014 0 3
-32.0331 25.6384 1.2507 0.7260 0 3
-32.0053 23.5719 1.2117 0.7494 0 3
-31.9771 21.6262 1.1768 0.7716 0 3
-31.9537 19.7885 1.1457 0.7925 0 3
-31.9320 18.0429 1.1180 0.8121 0 3
-31.7430 16.2906 1.0876 0.8454 0 3
-35.1245 16.2789 1.1801 0.3171 0 3
-34.8859 -33.8880 1.4826 0.2568 0 20
5.9171 -47.5382 1.4603 0.9925 0 3
5.1217 -24.7374 0.7701 0.2988 0 6
9.0764 -36.4072 1.1438 0.7475 0 3
8.5494 -29.2371 0.9286 0.9613 0 20
9.8968 -29.4063 0.9458 0.2183 0 3
10.4872 -27.4603 0.8961 0.3415 0 3
10.9008 -25.4296 0.8434 0.0963 0 2
10.6298 -22.2815 0.7526 0.1079 0 2
10.0420 -19.0418 0.6562 0.1237 0 9
10.2416 -17.6629 0.6224 0.1305 0 2
10.2599 -16.1622 0.5836 0.8603 0 2
10.4166 -15.0385 0.5577 0.1426 0 1
10.2895 -13.6495 0.5211 0.1594 0 1
10.2184 -12.4795 0.4917 0.1690 0 1
10.1371 -11.4127 0.4653 0.1693 0 1
10.0459 -10.4343 0.4415 0.1856 0 1
9.9582 -9.5447 0.4205 0.1877 0 1
9.8588 -8.7175 0.4012 0.1968 0 1
9.7702 -7.9635 0.3842 0.2054 0 1
9.7267 -7.2982 0.3707 0.2311 0 1
6.2061 -4.2782 0.2298 0.6594 14 6
9.6740 -6.1108 0.3488 0.2679 0 1
9.3953 -5.4196 0.3306 0.2463 0 25
9.3712 -4.9152 0.3226 0.2525 0 25
8.9082 -4.2254 0.3006 0.4379 0 9
8.9635 -3.8186 0.2970 0.4134 0 9
9.1236 -3.4610 0.2975 0.4555 0 9
9.3006 -3.1070 0.2989 0.2725 0 25
9.2884 -2.6935 0.2948 0.2763 0 25
9.2780 -2.2910 0.2913 0.2800 0 2
9.6149 -1.9683 0.2992 0.2823 0 1
9.6244 -1.5705 0.2973 0.2848 0 1
3.9830 -0.4867 0.1223 0.3184 25 14
3.9754 -0.3244 0.1216 0.3203 25 14
3.9684 -0.1639 0.1211 0.3217 25 14
3.9621 -0.0044 0.1208 0.3225 25 14
3.9864 0.1558 0.1216 0.3203 25 14
4.0166 0.3189 0.1228 0.3171 25 14
4.0592 0.4869 0.1246 0.2638 25 14
9.8426 1.5838 0.3039 0.2779 0 1
9.8900 2.0018 0.3076 0.2745 0 1
9.9450 2.4323 0.3121 0.2699 0 1
10.0043 2.8771 0.3173 0.2654 0 1
10.0688 3.3389 0.3234 0.2550 0 1
10.1381 3.8201 0.3303 0.2497 0 1
10.1903 4.3146 0.3373 0.2575 0 1
10.1966 4.8089 0.3437 0.2528 0 1
10.2050 5.3238 0.3509 0.2476 0 1
10.2158 5.8629 0.3591 0.2420 0 1
10.1617 6.3875 0.3659 0.2710 0 1
10.0605 6.9025 0.3719 0.2666 0 1
9.9575 7.4370 0.3789 0.2617 0 1
10.0198 8.1301 0.3933 0.2283 0 2
9.5408 8.3988 0.3875 0.2096 0 2
9.5904 9.1515 0.4041 0.2010 0 2
9.6469 9.9756 0.4230 0.1920 0 2
9.7115 10.8849 0.4447 0.1826 0 2
9.7858 11.8973 0.4696 0.1729 0 2
9.8719 13.0355 0.4985 0.1629 0 2
6.3886 9.1798 0.3409 0.7052 22 6
8.7334 13.6905 0.4950 0.8511 0 21
9.7010 -20.5750 0.4412 0.1171 0 2
9.5840 -18.3756 0.4020 0.1286 0 2
9.4880 -16.5362 0.3698 0.1398 0 2
9.9382 -15.8139 0.3622 0.1651 0 2
9.7102 -14.1558 0.3329 0.1516 0 1
9.6585 -12.9346 0.3131 0.1702 0 1
9.6247 -11.8640 0.2963 0.1779 0 1
9.5708 -10.8744 0.2810 0.1857 0 1
9.5133 -9.9715 0.2673 0.1952 0 1
9.4386 -9.1293 0.2547 0.1973 0 1
9.3663 -8.3582 0.2435 0.2063 0 1
9.3296 -7.6753 0.2343 0.2326 0 1
9.3070 -7.0497 0.2264 0.2407 0 1
9.2941 -6.4695 0.2196 0.2707 0 1
9.2777 -5.9197 0.2134 0.2599 0 1
9.0125 -5.2536 0.2023 0.2562 0 25
8.9983 -4.7719 0.1975 0.2624 0 25
8.6666 -4.1592 0.1864 0.2689 0 9
8.6565 -3.7344 0.1828 0.5250 0 9
8.9647 -3.4474 0.1863 0.2782 0 25
8.9561 -3.0373 0.1834 0.2826 0 25
8.9488 -2.6392 0.1810 0.2864 0 25
8.9422 -2.2513 0.1788 0.2860 0 2
9.2685 -1.9413 0.1837 0.2927 0 1
9.2801 -1.5577 0.1825 0.2947 0 1
3.9722 -0.5037 0.0777 0.9621 25 14
3.9500 -0.3405 0.0769 0.9645 25 14
3.9239 -0.1799 0.0762 0.9735 25 14
3.8982 -0.0220 0.0756 0.9809 25 14
3.9109 0.1350 0.0759 0.9772 25 14
3.9364 0.2945 0.0766 0.9687 25 14
3.9623 0.4570 0.0774 0.9587 25 14
4.4080 0.6887 0.0865 0.0907 25 14
9.5205 1.8819 0.1882 0.2855 0 1
9.5664 2.2937 0.1908 0.2809 0 1
9.6172 2.7185 0.1938 0.2765 0 1
9.6708 3.1581 0.1973 0.2716 0 1
9.7274 3.6150 0.2013 0.2663 0 1
9.7850 4.0906 0.2057 0.2585 0 1
9.7914 4.5635 0.2095 0.2674 0 1
9.7911 5.0514 0.2137 0.2621 0 1
9.7919 5.5605 0.2184 0.2565 0 1
9.7925 6.0934 0.2237 0.2500 0 1
9.6915 6.5847 0.2272 0.2784 0 1
9.5862 7.0920 0.2313 0.2735 0 1
9.4896 7.6286 0.2361 0.2661 0 1
9.4633 8.2544 0.2436 0.6797 0 2
9.1104 8.6147 0.2432 0.2125 0 2
9.1423 9.3682 0.2539 0.2036 0 2
9.1786 10.1940 0.2660 0.1943 0 2
9.2201 11.1062 0.2800 0.1846 0 2
9.2679 12.1229 0.2960 0.1746 0 2
6.4379 9.1615 0.2172 0.9153 22 6
8.8009 13.6588 0.3151 0.8508 0 21
8.6440 14.6780 0.3304 0.8582 0 3
8.1924 15.2832 0.3363 0.4599 0 3
8.1692 16.8300 0.3628 0.4262 0 3
8.1488 18.6601 0.3949 0.3917 0 3
8.8062 22.5991 0.4704 0.9092 0 3
8.2943 24.1043 0.4944 0.9433 0 3
8.0474 26.8451 0.5436 0.2848 0 3
11.6157 45.2862 0.9068 0.0604 0 1
2.4499 14.2073 0.2796 0.8164 0 9
2.0457 15.5751 0.3047 0.5117 0 9
2.1588 23.8071 0.4636 0.3357 0 9
0.2373 23.4753 0.4553 0.1799 0 9
-0.4441 14.7732 0.2867 0.5729 0 9
-32.0129 37.0328 0.9494 0.6087 0 3
-32.1565 31.6620 0.8753 0.7060 0 3
-35.6156 32.3565 0.9333 0.2536 0 3
-31.8919 26.7166 0.8069 0.7162 0 3
-35.7846 27.6102 0.8766 0.2700 0 3
-31.8433 22.5893 0.7572 0.7631 0 3
-34.8283 22.6612 0.8059 0.5506 0 3
-35.9775 21.4037 0.8119 0.2915 0 3
-32.8125 17.7772 0.7238 0.4818 0 3
-36.1695 17.7559 0.7815 0.4463 0 3
-36.3442 16.0643 0.7707 0.4100 0 3
-35.6916 -33.1524 0.9448 0.5507 0 20
-34.7209 -34.9506 0.9555 0.7823 0 20
6.0879 -42.6939 0.8364 0.9903 0 3
8.2889 -45.0894 0.8892 0.1939 0 3
9.4486 -41.8664 0.8324 0.0516 0 3
7.8694 -29.3304 0.5890 0.6799 0 20
8.7343 -28.0080 0.5690 0.2819 0 3
9.7584 -27.3727 0.5636 0.2331 0 3
9.9226 -24.6555 0.5155 0.1003 0 2
9.7614 -21.6964 0.4614 0.1120 0 2
9.6329 -19.2999 0.4184 0.1235 0 2
9.5283 -17.3135 0.3833 0.1348 0 2
9.7580 -16.1589 0.3661 0.8728 0 2
9.7562 -14.7802 0.3435 0.1469 0 1
9.6751 -13.4498 0.3213 0.1659 0 1
9.6393 -12.3243 0.3035 0.1756 0 1
9.5988 -11.3059 0.2876 0.1813 0 1
9.5380 -10.3606 0.2731 0.1910 0 1
9.4732 -9.4952 0.2601 0.1931 0 1
9.3974 -8.6914 0.2483 0.2023 0 1
9.3449 -7.9711 0.2382 0.2257 0 1
9.3167 -7.3217 0.2298 0.2372 0 1
9.2956 -6.7194 0.2225 0.2450 0 1
6.3049 -4.1827 0.1467 0.7020 14 6
9.0194 -5.4751 0.2046 0.2533 0 25
9.0044 -4.9826 0.1996 0.2597 0 25
8.6677 -4.3512 0.1881 0.2639 0 9
8.6593 -3.9200 0.1844 0.2762 0 9
8.8291 -3.5770 0.1848 0.7773 0 9
8.9598 -3.2175 0.1846 0.2807 0 25
8.9519 -2.8143 0.1820 0.2848 0 25
8.9452 -2.4222 0.1797 0.2884 0 25
9.2647 -2.1134 0.1843 0.2908 0 1
9.2441 -1.7215 0.1824 0.2946 0 24
4.1212 -0.5974 0.0808 0.2618 25 14
3.9618 -0.4127 0.0773 0.9600 25 14
3.9354 -0.2507 0.0765 0.9697 25 14
3.9095 -0.0917 0.0758 0.9778 25 14
3.8998 0.0651 0.0756 0.9804 25 14
3.9250 0.2234 0.0762 0.9727 25 14
3.9507 0.3845 0.0770 0.9634 25 14
3.9786 0.5493 0.0779 0.3102 25 14
9.5019 1.7031 0.1872 0.2871 0 1
9.5448 2.1095 0.1896 0.2827 0 1
9.5944 2.5285 0.1924 0.2785 0 1
9.6467 2.9612 0.1957 0.2739 0 1
9.7019 3.4101 0.1995 0.2687 0 1
9.7605 3.8777 0.2037 0.2631 0 1
9.7919 4.3532 0.2078 0.2695 0 1
9.7911 4.8326 0.2118 0.2645 0 1
9.7914 5.3320 0.2162 0.2591 0 1
9.7929 5.8544 0.2213 0.2531 0 1
9.7374 6.3654 0.2256 0.2804 0 1
9.6333 6.8648 0.2294 0.2757 0 1
9.5273 7.3836 0.2338 0.2688 0 1
9.5741 8.0554 0.2427 0.2355 0 2
9.0979 8.3010 0.2389 0.2128 0 2
9.1277 9.0259 0.2490 0.2076 0 2
9.1619 9.8181 0.2605 0.1984 0 2
9.2010 10.6900 0.2736 0.1889 0 2
9.2458 11.6579 0.2886 0.1791 0 2
9.2976 12.7424 0.3059 0.1689 0 2
9.3578 13.9704 0.3261 0.1585 0 2
9.0012 14.6803 0.3340 0.8490 0 3
8.2061 14.6752 0.3261 0.8695 0 3
8.1817 16.1186 0.3506 0.4412 0 3
8.1598 17.8135 0.3800 0.4071 0 3
7.9739 19.4330 0.4074 0.3722 0 3
8.7784 24.1074 0.4976 0.9372 0 3
7.9012 24.7467 0.5038 0.3009 0 3
8.0174 29.0945 0.5853 0.2645 0 3
1.5433 14.2023 0.2771 0.5480 0 9
1.7265 25.3216 0.4923 0.9854 0 9
0.7396 26.4895 0.5140 0.2659 0 9
-0.1801 14.7001 0.2851 0.0053 0 9
-31.9601 32.6096 0.8856 0.6525 0 3
-34.6882 32.6601 0.9241 0.6900 0 3
-31.9032 27.7076 0.8195 0.7051 0 3
-34.5628 27.6632 0.8586 0.6297 0 3
-31.8555 23.4617 0.7673 0.7531 0 3
-32.0342 21.6648 0.7500 0.5653 0 3
-35.9529 22.2652 0.8202 0.2886 0 3
-31.7941 17.9649 0.7083 0.8158 0 3
-34.6174 17.7658 0.7547 0.4621 0 3
-36.1241 16.7421 0.7722 0.4519 0 3
-34.9181 -33.9192 0.9442 0.7917 0 20
5.9172 -47.5391 0.9291 0.9928 0 3
7.4611 -45.0866 0.8863 0.9825 0 3
3.8515 -18.6023 0.3684 0.9578 0 6
9.0927 -36.4726 0.7290 0.6645 0 3
8.5496 -29.2379 0.5908 0.9613 0 20
9.4477 -28.0717 0.5745 0.2287 0 3
10.0079 -26.2053 0.5441 0.0950 0 2
9.8282 -22.9274 0.4838 0.1068 0 2
9.6865 -20.3043 0.4363 0.1185 0 2
9.5722 -18.1510 0.3980 0.1299 0 2
9.4782 -16.3464 0.3665 0.1410 0 2
9.6990 -14.0024 0.3304 0.1527 0 1
9.6545 -12.8072 0.3111 0.1713 0 1
9.6202 -11.7489 0.2945 0.1789 0 1
9.5640 -10.7674 0.2793 0.1867 0 1
9.5073 -9.8748 0.2659 0.1962 0 1
9.4300 -9.0384 0.2533 0.1983 0 1
9.3614 -8.2777 0.2424 0.2219 0 1
9.3269 -7.6022 0.2334 0.2336 0 1
9.3046 -6.9815 0.2256 0.2416 0 1
6.2387 -4.3007 0.1470 0.6561 14 6
9.2765 -5.8597 0.2128 0.2607 0 1
9.0108 -5.1979 0.2018 0.2569 0 25
8.9967 -4.7188 0.1970 0.2631 0 25
8.6655 -4.1103 0.1860 0.2606 0 9
8.6841 -3.6996 0.1831 0.9343 0 9
8.9636 -3.4003 0.1859 0.2788 0 25
8.9552 -2.9916 0.1831 0.2830 0 25
8.9480 -2.5948 0.1807 0.2868 0 25
9.0237 -2.2282 0.1803 0.2971 0 2
9.2697 -1.8976 0.1835 0.2931 0 1
9.2814 -1.5146 0.1824 0.2949 0 1
3.9712 -0.4853 0.0776 0.9629 25 14
3.9471 -0.3221 0.0768 0.9656 25 14
3.9210 -0.1619 0.0761 0.9744 25 14
3.8953 -0.0043 0.0755 0.9817 25 14
3.9138 0.1529 0.0760 0.9763 25 14
3.9393 0.3127 0.0766 0.9677 25 14
3.9653 0.4756 0.0775 0.9575 25 14
9.4838 1.5261 0.1863 0.2885 0 1
9.5253 1.9280 0.1885 0.2851 0 1
9.5721 2.3411 0.1911 0.2804 0 1
9.6231 2.7675 0.1942 0.2760 0 1
9.6770 3.2090 0.1977 0.2711 0 1
9.7341 3.6679 0.2018 0.2657 0 1
9.7912 4.1456 0.2062 0.2579 0 1
9.7914 4.6178 0.2100 0.2668 0 1
9.7911 5.1079 0.2142 0.2615 0 1
9.7921 5.6197 0.2190 0.2558 0 1
9.7829 6.1494 0.2241 0.2823 0 1
9.6797 6.6412 0.2277 0.2779 0 1
9.5741 7.1507 0.2318 0.2730 0 1
9.3813 8.2583 0.2424 0.6829 0 2
9.1138 8.6968 0.2443 0.2115 0 2
9.1462 9.4578 0.2552 0.2025 0 2
9.1830 10.2926 0.2675 0.1932 0 2
9.2252 11.2157 0.2817 0.1835 0 2
9.2737 12.2456 0.2979 0.1735 0 2
6.4310 9.2406 0.2184 0.3832 22 6
9.3344 14.6326 0.3366 0.8394 0 3
8.9026 -18.8815 0.1735 0.1277 0 2
8.8600 -16.9875 0.1592 0.1391 0 2
9.2698 -16.1559 0.1548 0.8846 0 2
9.1361 -14.5376 0.1427 0.1515 0 1
9.0582 -13.2052 0.1331 0.1697 0 24
9.0953 -12.1803 0.1263 0.1808 0 1
9.0861 -11.2002 0.1199 0.1884 0 1
9.0578 -10.2915 0.1139 0.1962 0 1
9.0147 -9.4489 0.1085 0.1984 0 1
8.9634 -8.6698 0.1036 0.2224 0 1
8.9415 -7.9792 0.0996 0.2314 0 1
8.9274 -7.3445 0.0961 0.2432 0 1
8.9255 -6.7607 0.0931 0.2739 0 1
6.2559 -4.3546 0.0634 0.3934 14 6
6.4526 -4.1172 0.0636 0.5125 14 6
8.6574 -5.0466 0.0833 0.2667 0 25
8.6518 -4.5882 0.0814 0.2729 0 25
8.6468 -4.1497 0.0797 0.2787 0 25
8.6424 -3.7283 0.0782 0.2840 0 25
8.6385 -3.3219 0.0769 0.2888 0 25
8.6351 -2.9284 0.0758 0.2931 0 25
8.6321 -2.5458 0.0748 0.2970 0 25
8.8308 -2.2232 0.0757 0.3033 0 2
8.9472 -1.8740 0.0760 0.3034 0 1
8.9604 -1.5041 0.0755 0.3053 0 1
3.9636 -0.5026 0.0332 0.9644 25 14
3.9463 -0.3401 0.0329 0.9656 25 14
3.9202 -0.1797 0.0326 0.9746 25 14
3.8945 -0.0220 0.0324 0.9820 25 14
3.9076 0.1349 0.0325 0.9782 25 14
3.9330 0.2942 0.0328 0.9697 25 14
3.9589 0.4566 0.0331 0.9597 25 14
4.1337 0.6459 0.0348 0.2607 25 14
9.1485 1.8084 0.0775 0.2957 0 24
9.2214 2.2110 0.0788 0.2915 0 1
9.2650 2.6190 0.0800 0.2871 0 1
9.3105 3.0405 0.0814 0.2822 0 1
9.3581 3.4777 0.0830 0.2769 0 1
9.4021 3.9306 0.0847 0.2691 0 1
9.4204 4.3905 0.0864 0.2779 0 1
9.4130 4.8563 0.0880 0.2727 0 1
9.4058 5.3413 0.0899 0.2671 0 1
9.3965 5.8470 0.0920 0.2606 0 1
9.3391 6.3452 0.0938 0.2889 0 1
9.2317 6.8297 0.0954 0.2841 0 1
9.1299 7.3394 0.0974 0.2767 0 1
9.1549 7.9854 0.1010 0.2426 0 2
8.7430 8.2672 0.1000 0.7320 0 2
8.6936 8.9084 0.1035 0.2141 0 2
8.7077 9.6709 0.1082 0.2048 0 2
8.7236 10.5082 0.1135 0.1951 0 2
8.7419 11.4349 0.1196 0.1852 0 2
6.4302 9.1505 0.0930 0.9163 22 6
8.7872 13.6376 0.1348 0.1643 0 2
8.6437 14.6776 0.1416 0.8584 0 3
8.2556 15.4012 0.1452 0.4565 0 3
8.2405 16.9769 0.1568 0.4227 0 3
8.2227 18.8294 0.1708 0.3882 0 3
8.8279 22.6546 0.2021 0.9069 0 3
8.2941 24.1037 0.2119 0.9434 0 3
8.1481 27.1813 0.2358 0.2813 0 3
9.3145 36.3143 0.3116 0.0711 0 2
3.1975 14.9343 0.1269 0.3111 0 9
3.1797 24.2091 0.2029 0.3264 0 9
1.1321 22.5020 0.1873 0.9984 0 6
0.1805 17.8607 0.1485 0.4637 0 9
-29.9609 37.6115 0.3997 0.8847 0 3
-31.8287 36.8198 0.4045 0.6123 0 3
-30.0904 32.1072 0.3657 0.2173 0 3
-30.0975 29.6346 0.3511 0.2410 0 3
-30.7482 27.9345 0.3453 0.8133 0 3
-31.8306 26.6653 0.3451 0.6470 0 3
-35.8413 27.6540 0.3762 0.6159 0 3
-30.2381 21.4506 0.3081 0.2616 0 3
-30.2448 19.6790 0.2999 0.2743 0 3
-29.8420 17.7535 0.2886 0.5163 0 3
-30.1524 16.3360 0.2850 0.4819 0 3
-36.1676 17.7550 0.3349 0.4464 0 3
-37.6138 16.6255 0.3418 0.2986 0 3
-35.3426 -32.8283 0.4009 0.8890 0 20
-34.5719 -34.8006 0.4077 0.8702 0 20
5.5195 -38.7078 0.3250 0.9727 0 6
8.2747 -45.0120 0.3804 0.2566 0 3
7.7393 -34.2925 0.2922 0.9106 0 3
8.1118 -30.2340 0.2602 0.2418 0 20
8.8448 -28.3623 0.2469 0.2785 0 3
9.0534 -25.3953 0.2241 0.0989 0 2
8.9814 -22.3169 0.1999 0.1108 0 2
8.9243 -19.8357 0.1808 0.1225 0 2
8.8779 -17.7871 0.1652 0.1341 0 2
8.9066 -16.1838 0.1535 0.9091 0 2
9.1797 -15.2011 0.1476 0.1404 0 1
9.1085 -13.7991 0.1374 0.1652 0 1
9.0969 -12.6461 0.1295 0.1764 0 1
9.0909 -11.6231 0.1226 0.1842 0 1
9.0727 -10.6862 0.1165 0.1919 0 1
9.0402 -9.8199 0.1109 0.2015 0 1
8.9841 -9.0048 0.1057 0.2037 0 1
8.9510 -8.2785 0.1013 0.2274 0 1
8.9316 -7.6186 0.0976 0.2395 0 1
8.9225 -7.0119 0.0943 0.2477 0 1
8.9390 -6.4616 0.0917 0.2780 0 1
6.2805 -4.1665 0.0626 0.9354 14 6
8.6602 -5.2570 0.0842 0.2638 0 25
8.6542 -4.7888 0.0822 0.2702 0 25
8.6489 -4.3418 0.0804 0.2762 0 25
8.6443 -3.9132 0.0789 0.2817 0 25
8.6401 -3.5004 0.0775 0.2867 0 25
8.6365 -3.1014 0.0763 0.2913 0 25
8.6334 -2.7142 0.0752 0.2953 0 25
8.6357 -2.3384 0.0744 0.2948 0 2
8.9418 -2.0397 0.0762 0.3023 0 1
8.9254 -1.6621 0.0755 0.3047 0 24
4.0438 -0.5862 0.0340 0.2669 25 14
3.9580 -0.4123 0.0331 0.9611 25 14
3.9317 -0.2505 0.0327 0.9708 25 14
3.9059 -0.0917 0.0325 0.9789 25 14
3.8965 0.0651 0.0324 0.9814 25 14
3.9217 0.2232 0.0326 0.9737 25 14
3.9473 0.3842 0.0330 0.9643 25 14
3.9657 0.5475 0.0333 0.9624 25 14
9.1663 1.6429 0.0774 0.2976 0 1
9.2030 2.0340 0.0783 0.2941 0 1
9.2455 2.4365 0.0795 0.2891 0 1
9.2901 2.8518 0.0808 0.2844 0 1
9.3367 3.2818 0.0823 0.2793 0 1
9.3828 3.7277 0.0839 0.2716 0 1
9.4238 4.1895 0.0857 0.2801 0 1
9.4163 4.6476 0.0873 0.2751 0 1
9.4090 5.1237 0.0890 0.2696 0 1
9.4015 5.6204 0.0910 0.2633 0 1
9.3858 6.1355 0.0932 0.2909 0 1
9.2797 6.6128 0.0947 0.2863 0 1
9.1704 7.1069 0.0964 0.2812 0 1
9.0789 7.6388 0.0986 0.2731 0 1
9.0421 8.2501 0.1017 0.6975 0 2
8.6880 8.5911 0.1015 0.2181 0 2
8.7012 9.3244 0.1060 0.2090 0 2
8.7163 10.1268 0.1111 0.1995 0 2
8.7335 11.0119 0.1168 0.1896 0 2
6.5965 9.0405 0.0930 0.8205 22 6
8.7760 13.1018 0.1311 0.1690 0 2
8.8025 14.3564 0.1400 0.1583 0 2
8.2616 14.7744 0.1407 0.4712 0 3
8.2475 16.2483 0.1514 0.4378 0 3
8.2310 17.9690 0.1643 0.4036 0 3
8.0501 19.6186 0.1762 0.3688 0 3
8.7782 24.1067 0.2132 0.9374 0 3
8.1638 25.5693 0.2231 0.2974 0 3
9.2481 33.5606 0.2893 0.0766 0 2
3.5016 15.0412 0.1284 0.8924 0 9
1.6760 24.5806 0.2048 0.2882 0 9
-0.2992 24.4224 0.2030 0.3331 0 9
-31.8414 38.1882 0.4132 0.5993 0 3
-30.0756 30.6868 0.3571 0.2278 0 3
-30.1596 28.3962 0.3443 0.2467 0 3
-31.7446 27.5699 0.3495 0.7088 0 3
-34.5615 27.6621 0.3679 0.6298 0 3
-30.0192 22.1092 0.3099 0.2638 0 3
-30.2345 20.4476 0.3034 0.2712 0 3
-29.8529 18.4875 0.2918 0.5106 0 3
-29.8317 16.8561 0.2848 0.7482 0 3
-34.6156 17.7648 0.3234 0.4622 0 3
-34.9166 -33.9178 0.4046 0.8769 0 20
-34.1313 -35.9289 0.4119 0.8613 0 20
5.9173 -47.5401 0.3982 0.9929 0 3
3.8545 -18.6167 0.1580 0.8853 0 6
8.3175 -33.3630 0.2858 0.2312 0 3
8.5498 -29.2386 0.2532 0.9616 0 20
9.0917 -27.0140 0.2369 0.0935 0 2
9.0112 -23.5955 0.2099 0.1055 0 2
8.9481 -20.8742 0.1888 0.1174 0 2
8.8973 -18.6500 0.1717 0.1290 0 2
8.8557 -16.7924 0.1578 0.1404 0 2
9.3054 -16.0484 0.1542 0.1663 0 2
9.1292 -14.3810 0.1416 0.1528 0 1
9.0995 -13.1369 0.1328 0.1709 0 1
9.0949 -12.0649 0.1256 0.1819 0 1
9.0849 -11.0952 0.1192 0.1895 0 1
9.0541 -10.1935 0.1133 0.1973 0 1
9.0084 -9.3566 0.1079 0.1995 0 1
8.9608 -8.5887 0.1032 0.2234 0 1
8.9392 -7.9043 0.0992 0.2324 0 1
8.9264 -7.2758 0.0957 0.2441 0 1
8.9282 -6.6991 0.0928 0.2747 0 1
6.2314 -4.2957 0.0629 0.7002 14 6
8.6630 -5.4722 0.0852 0.2608 0 25
8.6568 -4.9936 0.0831 0.2674 0 25
8.6512 -4.5376 0.0812 0.2736 0 25
8.6463 -4.1011 0.0795 0.2793 0 25
8.6419 -3.6816 0.0781 0.2845 0 25
8.6381 -3.2768 0.0768 0.2893 0 25
8.6347 -2.8845 0.0757 0.2936 0 25
8.6318 -2.5031 0.0747 0.2974 0 25
8.9375 -2.2069 0.0765 0.3003 0 1
8.9487 -1.8319 0.0759 0.3037 0 1
8.9619 -1.4624 0.0755 0.3055 0 1
3.9626 -0.4842 0.0332 0.9652 25 14
3.9433 -0.3218 0.0329 0.9667 25 14
3.9173 -0.1618 0.0326 0.9755 25 14
3.8916 -0.0043 0.0323 0.9828 25 14
3.9105 0.1528 0.0325 0.9773 25 14
3.9359 0.3125 0.0328 0.9687 25 14
3.9616 0.4752 0.0332 0.9657 25 14
4.3806 0.7049 0.0369 0.0912 25 14
9.1529 1.8526 0.0776 0.2953 0 24
9.2263 2.2565 0.0789 0.2910 0 1
9.2701 2.6660 0.0802 0.2865 0 1
9.3158 3.0892 0.0816 0.2816 0 1
9.3636 3.5283 0.0832 0.2762 0 1
9.4072 3.9831 0.0849 0.2685 0 1
9.4196 4.4424 0.0866 0.2774 0 1
9.4122 4.9102 0.0882 0.2721 0 1
9.4049 5.3975 0.0901 0.2664 0 1
9.3952 5.9056 0.0922 0.2599 0 1
9.3271 6.3993 0.0940 0.2884 0 1
9.2193 6.8856 0.0956 0.2835 0 1
9.1196 7.3997 0.0976 0.2760 0 1
9.1522 8.0567 0.1013 0.2417 0 2
8.6832 8.2858 0.0998 0.2213 0 2
8.6951 8.9914 0.1040 0.2131 0 2
8.7094 9.7617 0.1087 0.2037 0 2
8.7256 10.6083 0.1142 0.1940 0 2
8.7441 11.5463 0.1204 0.1840 0 2
6.4236 9.2300 0.0935 0.4165 22 6
8.7902 13.7796 0.1358 0.1631 0 2
8.2256 -17.4458 -0.0534 0.1382 0 2
8.4490 -16.1994 -0.0506 0.9192 0 2
8.5804 -14.9543 -0.0478 0.1446 0 1
8.5532 -13.6100 -0.0445 0.1699 0 1
8.5705 -12.4942 -0.0420 0.1814 0 1
8.5907 -11.5046 -0.0398 0.1893 0 1
8.6047 -10.6068 -0.0378 0.1990 0 1
8.5617 -9.7278 -0.0359 0.2053 0 24
8.5663 -8.9788 -0.0344 0.2235 0 1
8.5600 -8.2796 -0.0330 0.2329 0 1
8.5552 -7.6344 -0.0318 0.2452 0 1
8.5649 -7.0462 -0.0307 0.2765 0 1
8.5982 -6.5128 -0.0299 0.2843 0 1
6.2178 -4.3281 -0.0210 0.8011 14 6
6.4256 -4.0999 -0.0211 0.5739 14 6
8.3293 -4.8554 -0.0267 0.2772 0 25
8.3311 -4.4181 -0.0261 0.2834 0 25
8.3326 -3.9989 -0.0256 0.2892 0 25
8.3340 -3.5953 -0.0251 0.2945 0 25
8.3352 -3.2053 -0.0247 0.2993 0 25
8.3363 -2.8271 -0.0244 0.3036 0 25
8.3372 -2.4588 -0.0241 0.3075 0 25
8.6338 -2.1736 -0.0247 0.3105 0 1
8.6476 -1.8113 -0.0245 0.3140 0 1
5.2842 -0.8870 -0.0148 0.0021 25 14
3.9550 -0.5016 -0.0110 0.9665 25 14
3.9425 -0.3398 -0.0110 0.9665 25 14
3.9165 -0.1796 -0.0109 0.9755 25 14
3.8909 -0.0220 -0.0108 0.9830 25 14
3.9043 0.1348 -0.0108 0.9790 25 14
3.9296 0.2940 -0.0109 0.9706 25 14
3.9521 0.4558 -0.0110 0.9685 25 14
4.0628 0.6348 -0.0114 0.2653 25 14
8.8344 1.7463 -0.0249 0.3063 0 24
8.9005 2.1340 -0.0254 0.3020 0 1
8.9378 2.5265 -0.0257 0.2976 0 1
8.9762 2.9313 -0.0262 0.2927 0 1
9.0137 3.3497 -0.0266 0.2852 0 1
9.0482 3.7826 -0.0272 0.2797 0 1
9.0766 4.2303 -0.0277 0.2885 0 1
9.0631 4.6758 -0.0283 0.2833 0 1
9.0490 5.1386 -0.0288 0.2776 0 1
9.0313 5.6198 -0.0295 0.2711 0 1
9.0114 6.1226 -0.0302 0.2647 0 1
8.9025 6.5861 -0.0307 0.2946 0 1
8.7965 7.0714 -0.0313 0.2872 0 1
8.6999 7.5885 -0.0320 0.2807 0 1
8.7213 8.2467 -0.0333 0.7340 0 2
8.2870 8.4917 -0.0329 0.2246 0 2
8.2827 9.1990 -0.0343 0.2153 0 2
8.2779 9.9713 -0.0359 0.2057 0 2
8.2725 10.8209 -0.0377 0.1957 0 2
6.4257 9.1440 -0.0310 0.5692 22 6
8.2590 12.8179 -0.0422 0.1748 0 2
8.2507 14.0102 -0.0450 0.1639 0 2
8.2409 15.3738 -0.0483 0.1528 0 2
8.2293 16.9538 -0.0522 0.1414 0 2
8.2154 18.8127 -0.0569 0.1298 0 2
8.1982 21.0387 -0.0626 0.1180 0 2
8.1771 23.7637 -0.0696 0.1060 0 2
8.1502 27.1882 -0.0786 0.0939 0 2
8.1151 31.6384 -0.0905 0.0816 0 2
3.0255 14.1307 -0.0400 0.6973 0 9
8.2972 48.1175 -0.1353 0.0830 0 1
2.0541 15.6393 -0.0437 0.8684 0 9
2.3015 25.3809 -0.0706 0.9007 0 9
1.3660 27.1504 -0.0753 0.8493 0 9
-31.6910 36.6604 -0.1343 0.7607 0 3
-31.6284 33.7482 -0.1281 0.6443 0 3
-31.4035 30.9205 -0.1221 0.6718 0 3
-31.3879 28.5157 -0.1175 0.6981 0 3
-33.0310 27.6708 -0.1194 0.6470 0 3
-29.6977 22.9137 -0.1039 0.4583 0 3
-31.3239 22.2208 -0.1064 0.7703 0 3
-31.3117 20.3732 -0.1035 0.7919 0 3
-31.3002 18.6210 -0.1009 0.8123 0 3
-31.2891 16.9518 -0.0986 0.8313 0 3
-36.1656 17.7540 -0.1116 0.4464 0 3
-35.4145 -32.8951 -0.1339 0.4011 0 20
-34.4441 -34.6720 -0.1354 0.8775 0 20
8.0185 -43.6187 -0.1229 0.0601 0 2
5.5721 -24.6900 -0.0701 0.5121 0 6
8.1259 -30.2864 -0.0869 0.0850 0 2
8.1586 -26.1620 -0.0759 0.0973 0 2
8.1836 -22.9555 -0.0675 0.1094 0 2
8.2035 -20.3838 -0.0609 0.1213 0 2
8.2195 -18.2692 -0.0555 0.1330 0 2
8.2327 -16.4945 -0.0511 0.1446 0 2
8.7092 -15.8251 -0.0500 0.1711 0 2
8.5506 -14.1595 -0.0458 0.1573 0 1
8.5625 -12.9720 -0.0431 0.1757 0 1
8.5840 -11.9330 -0.0407 0.1849 0 1
8.5987 -10.9938 -0.0387 0.1947 0 1
8.6013 -10.1310 -0.0368 0.2024 0 1
8.5759 -9.3155 -0.0351 0.2046 0 1
8.5627 -8.5825 -0.0336 0.2287 0 1
8.5567 -7.9139 -0.0323 0.2379 0 1
8.5571 -7.2991 -0.0312 0.2499 0 1
8.5836 -6.7456 -0.0302 0.2809 0 1
8.5330 -6.1682 -0.0292 0.2739 0 24
6.2266 -4.1308 -0.0207 0.9812 14 6
8.3285 -5.0557 -0.0270 0.2743 0 25
8.3303 -4.6096 -0.0264 0.2807 0 25
8.3320 -4.1827 -0.0258 0.2867 0 25
8.3334 -3.7725 -0.0253 0.2922 0 25
8.3347 -3.3767 -0.0249 0.2972 0 25
8.3358 -2.9934 -0.0245 0.3018 0 25
8.3368 -2.6210 -0.0242 0.3059 0 25
8.3376 -2.2577 -0.0239 0.3095 0 2
8.6412 -1.9712 -0.0246 0.3128 0 1
8.6557 -1.6119 -0.0244 0.3151 0 1
3.9811 -0.5771 -0.0111 0.3096 25 14
3.9501 -0.4114 -0.0110 0.9702 25 14
3.9280 -0.2503 -0.0109 0.9717 25 14
3.9022 -0.0916 -0.0108 0.9799 25 14
3.8932 0.0650 -0.0108 0.9823 25 14
3.9184 0.2231 -0.0109 0.9745 25 14
3.9440 0.3839 -0.0110 0.9652 25 14
3.9573 0.5463 -0.0111 0.9645 25 14
8.8536 1.5869 -0.0249 0.3081 0 1
8.8854 1.9638 -0.0252 0.3046 0 1
8.9211 2.3510 -0.0256 0.2996 0 1
8.9590 2.7502 -0.0260 0.2949 0 1
8.9981 3.1627 -0.0264 0.2898 0 1
9.0327 3.5886 -0.0269 0.2822 0 1
9.0680 4.0313 -0.0275 0.2764 0 1
9.0691 4.4762 -0.0280 0.2856 0 1
9.0553 4.9311 -0.0286 0.2802 0 1
9.0398 5.4042 -0.0292 0.2738 0 1
9.0204 5.8967 -0.0299 0.2676 0 1
8.9512 6.3788 -0.0305 0.2968 0 1
8.8401 6.8510 -0.0310 0.2917 0 1
8.7433 7.3564 -0.0317 0.2836 0 1
8.7556 7.9887 -0.0328 0.2491 0 2
8.3687 8.2753 -0.0326 0.7485 0 2
8.2847 8.8780 -0.0336 0.2195 0 2
8.2801 9.6201 -0.0352 0.2100 0 2
8.2750 10.4338 -0.0369 0.2001 0 2
6.5853 9.0252 -0.0310 0.8219 22 6
8.2624 12.3350 -0.0411 0.1795 0 2
8.2545 13.4627 -0.0437 0.1688 0 2
8.2454 14.7455 -0.0468 0.1578 0 2
8.2347 16.2231 -0.0504 0.1465 0 2
8.2219 17.9492 -0.0547 0.1350 0 2
8.1277 19.8078 -0.0593 0.3653 0 3
8.1870 22.4833 -0.0663 0.1114 0 2
8.1630 25.5666 -0.0744 0.0993 0 2
8.1318 29.5098 -0.0848 0.0871 0 2
8.0902 34.7515 -0.0988 0.0747 0 2
8.4583 44.3235 -0.1250 0.0686 0 24
1.6337 15.0348 -0.0419 0.1680 0 9
1.7114 25.0998 -0.0697 0.4091 0 9
0.7125 25.5196 -0.0707 0.8979 0 9
-31.5254 37.8092 -0.1364 0.5066 0 3
-29.7585 32.9083 -0.1229 0.8549 0 3
-31.4107 32.0491 -0.1243 0.6597 0 3
-31.3947 29.5592 -0.1195 0.6866 0 3
-31.5876 27.4336 -0.1159 0.7123 0 3
-34.5602 27.6611 -0.1226 0.6298 0 3
-31.5604 23.2442 -0.1086 0.7603 0 3
-31.3170 21.1798 -0.1047 0.7825 0 3
-31.3052 19.3869 -0.1020 0.8034 0 3
-31.2939 17.6823 -0.0996 0.8230 0 3
-31.5072 16.1696 -0.0981 0.8413 0 3
-38.2783 17.7405 -0.1169 0.4263 0 3
-38.7624 16.1073 -0.1163 0.2909 0 3
-34.7896 -33.7944 -0.1344 0.8842 0 20
-33.8263 -35.6078 -0.1361 0.9300 0 20
7.4502 -45.0212 -0.1264 0.1246 0 3
7.4578 -36.0206 -0.1019 0.9799 0 3
8.1081 -32.5230 -0.0929 0.0795 0 2
8.1452 -27.8549 -0.0804 0.0918 0 2
8.1733 -24.2852 -0.0710 0.1040 0 2
8.1952 -21.4589 -0.0636 0.1160 0 2
8.2128 -19.1589 -0.0577 0.1279 0 2
8.2271 -17.2452 -0.0529 0.1395 0 2
8.5380 -16.1900 -0.0507 0.9175 0 2
8.5719 -14.7834 -0.0473 0.1459 0 1
8.5551 -13.4767 -0.0442 0.1711 0 1
8.5733 -12.3773 -0.0417 0.1825 0 1
8.5924 -11.3983 -0.0395 0.1904 0 1
8.6057 -10.5099 -0.0376 0.1980 0 1
8.5914 -9.6725 -0.0358 0.2002 0 1
8.5655 -8.8967 -0.0342 0.2245 0 1
8.5593 -8.2039 -0.0328 0.2339 0 1
8.5556 -7.5651 -0.0316 0.2461 0 1
8.5687 -6.9842 -0.0306 0.2774 0 1
8.6018 -6.4542 -0.0298 0.2851 0 1
6.2175 -4.2861 -0.0209 0.8037 14 6
6.4859 -4.0969 -0.0213 0.5702 14 6
8.3295 -4.8049 -0.0266 0.2780 0 25
8.3313 -4.3698 -0.0261 0.2841 0 25
8.3328 -3.9524 -0.0256 0.2898 0 25
8.3342 -3.5505 -0.0251 0.2951 0 25
8.3353 -3.1619 -0.0247 0.2998 0 25
8.3364 -2.7849 -0.0243 0.3041 0 25
8.3373 -2.4177 -0.0240 0.3079 0 25
8.6351 -2.1322 -0.0246 0.3117 0 1
8.6205 -1.7647 -0.0244 0.3139 0 24
4.3834 -0.7153 -0.0123 0.0911 25 14
3.9540 -0.4832 -0.0110 0.9673 25 14
3.9396 -0.3215 -0.0110 0.9676 25 14
3.9136 -0.1616 -0.0109 0.9764 25 14
3.8880 -0.0043 -0.0108 0.9837 25 14
3.9072 0.1527 -0.0108 0.9781 25 14
3.9325 0.3122 -0.0109 0.9695 25 14
3.9531 0.4742 -0.0110 0.9677 25 14
4.1216 0.6632 -0.0116 0.2613 25 14
8.8382 1.7889 -0.0250 0.3057 0 24
8.9046 2.1779 -0.0254 0.3015 0 1
8.9421 2.5717 -0.0258 0.2971 0 1
8.9806 2.9780 -0.0262 0.2921 0 1
9.0175 3.3979 -0.0267 0.2846 0 1
9.0522 3.8328 -0.0272 0.2790 0 1
9.0751 4.2799 -0.0278 0.2879 0 1
9.0615 4.7273 -0.0283 0.2826 0 1
9.0473 5.1923 -0.0289 0.2769 0 1
9.0291 5.6755 -0.0295 0.2704 0 1
8.9993 6.1744 -0.0302 0.2989 0 1
8.8899 6.6396 -0.0307 0.2940 0 1
8.7858 7.1289 -0.0313 0.2865 0 1
8.6886 7.6486 -0.0321 0.2800 0 1
8.6484 8.2526 -0.0331 0.7370 0 2
8.2865 8.5689 -0.0330 0.2236 0 2
8.2822 9.2830 -0.0345 0.2142 0 2
8.2774 10.0634 -0.0361 0.2045 0 2
8.2718 10.9227 -0.0380 0.1945 0 2
6.4251 9.2322 -0.0312 0.5656 22 6
8.2581 12.9455 -0.0425 0.1736 0 2
7.6910 -16.3118 -0.2498 0.9782 0 2
8.0279 -15.3919 -0.2405 0.1436 0 1
8.0050 -13.9515 -0.2228 0.1698 0 1
8.0539 -12.8156 -0.2097 0.1804 0 1
8.0987 -11.8065 -0.1983 0.1898 0 1
8.1374 -10.8976 -0.1884 0.1998 0 1
8.1705 -10.0715 -0.1797 0.2074 0 1
8.1721 -9.2852 -0.1713 0.2242 0 1
8.1825 -8.5766 -0.1642 0.2339 0 1
8.1913 -7.9230 -0.1579 0.2433 0 1
8.2103 -7.3266 -0.1524 0.2786 0 1
8.2536 -6.7901 -0.1481 0.2869 0 1
8.2095 -6.2184 -0.1427 0.2812 0 24
6.2343 -4.3396 -0.1052 0.7989 14 6
6.4105 -4.0903 -0.1053 0.5751 14 6
8.0252 -4.6781 -0.1287 0.2877 0 25
8.0333 -4.2602 -0.1260 0.2939 0 25
8.0405 -3.8587 -0.1235 0.2997 0 25
8.0469 -3.4715 -0.1214 0.3050 0 25
8.0525 -3.0966 -0.1195 0.3098 0 25
8.0574 -2.7325 -0.1179 0.3141 0 25
8.0643 -2.3784 -0.1165 0.3100 0 2
8.3515 -2.1026 -0.1193 0.3219 0 1
8.3392 -1.7467 -0.1180 0.3242 0 24
4.1709 -0.7001 -0.0586 0.2578 25 14
3.9465 -0.5005 -0.0551 0.9685 25 14
3.9377 -0.3394 -0.0547 0.9748 25 14
3.9128 -0.1794 -0.0543 0.9763 25 14
3.8873 -0.0220 -0.0538 0.9838 25 14
3.9010 0.1347 -0.0541 0.9798 25 14
3.9263 0.2937 -0.0545 0.9713 25 14
3.9437 0.4549 -0.0550 0.9705 25 14
4.0036 0.6256 -0.0561 0.3074 25 14
8.5736 1.6948 -0.1211 0.3171 0 1
8.6011 2.0622 -0.1225 0.3133 0 1
8.6329 2.4403 -0.1243 0.3081 0 1
8.6650 2.8297 -0.1263 0.3032 0 1
8.6928 3.2305 -0.1285 0.2957 0 1
8.7199 3.6454 -0.1309 0.2902 0 1
8.7475 4.0769 -0.1337 0.2842 0 1
8.7382 4.5082 -0.1362 0.2938 0 1
8.7182 4.9508 -0.1389 0.2881 0 1
8.6935 5.4095 -0.1418 0.2817 0 1
8.6664 5.8882 -0.1451 0.2752 0 1
8.5959 6.3593 -0.1481 0.3051 0 1
8.4866 6.8223 -0.1508 0.2976 0 1
8.3866 7.3153 -0.1542 0.2912 0 1
8.3809 7.9248 -0.1598 0.2560 0 2
8.0939 8.2939 -0.1605 0.8031 0 2
7.8973 8.7710 -0.1635 0.2258 0 2
7.8756 9.4866 -0.1708 0.2161 0 2
7.8509 10.2695 -0.1791 0.2062 0 2
6.4497 9.1783 -0.1554 0.5670 22 6
7.7907 12.0910 -0.1993 0.1853 0 2
7.7537 13.1662 -0.2117 0.1744 0 2
7.7106 14.3846 -0.2261 0.1633 0 2
7.6602 15.7813 -0.2430 0.1519 0 2
7.6003 17.4042 -0.2631 0.1403 0 2
7.5283 19.3195 -0.2872 0.1285 0 2
7.4399 21.6215 -0.3168 0.1165 0 2
7.3300 24.4520 -0.3536 0.1044 0 2
7.1891 28.0282 -0.4008 0.0921 0 2
7.0029 32.7078 -0.4634 0.0797 0 2
2.4190 14.0284 -0.1972 0.1803 0 9
2.0515 15.6195 -0.2182 0.9867 0 9
2.4546 27.0692 -0.3765 0.5183 0 9
-31.6920 36.6616 -0.6713 0.2884 0 3
-31.4564 33.5647 -0.6372 0.6478 0 3
-16.5950 16.3398 -0.3226 0.6386 0 6
-31.4372 28.5605 -0.5884 0.7016 0 3
-33.0298 27.6698 -0.5969 0.6470 0 3
-35.8386 27.6518 -0.6271 0.6159 0 3
-31.4084 22.2808 -0.5335 0.7737 0 3
-34.8238 22.6583 -0.5755 0.5507 0 3
-31.3921 18.6757 -0.5060 0.8157 0 3
-36.4357 19.7402 -0.5740 0.8347 0 3
-36.1637 17.7531 -0.5581 0.4464 0 3
-40.1077 17.7278 -0.6075 0.4101 0 3
-35.3572 -32.8418 -0.6685 0.9495 0 20
-34.3078 -34.5347 -0.6743 0.9412 0 20
6.4864 -45.4883 -0.6365 0.0580 0 2
6.8252 -37.1272 -0.5229 0.0706 0 2
5.5652 -24.6594 -0.3502 0.9938 0 6
7.2319 -26.9542 -0.3866 0.0955 0 2
7.3631 -23.6110 -0.3426 0.1078 0 2
7.4663 -20.9433 -0.3080 0.1199 0 2
7.5495 -18.7588 -0.2801 0.1318 0 2
7.6178 -16.9319 -0.2572 0.1435 0 2
8.0922 -16.2129 -0.2510 0.1710 0 2
8.0113 -14.5570 -0.2302 0.1500 0 1
7.9866 -13.2255 -0.2140 0.1745 0 24
8.0783 -12.2384 -0.2031 0.1863 0 1
8.1209 -11.2892 -0.1926 0.1954 0 1
8.1570 -10.4291 -0.1834 0.2052 0 1
8.1706 -9.6237 -0.1749 0.2052 0 1
8.1781 -8.8834 -0.1673 0.2296 0 1
8.1876 -8.2065 -0.1606 0.2392 0 1
8.1975 -7.5817 -0.1547 0.2517 0 1
8.2348 -7.0242 -0.1499 0.2833 0 1
8.2764 -6.5042 -0.1458 0.2913 0 1
8.3029 -6.0018 -0.1419 0.2508 0 1
6.2365 -4.1373 -0.1037 0.9311 14 6
