ply
format ascii 1.0
element vertex 1377
property float32 x
property float32 y
property float32 z
property float32 CosAngle
property uint32 ObjIdx
property uint32 ObjTag
end_header
9.0983 -13.0177 0.1320 0.1730 0 1
9.0946 -11.9590 0.1249 0.1829 0 1
9.0839 -10.9986 0.1186 0.1905 0 1
9.0508 -10.1030 0.1127 0.1983 0 1
9.0025 -9.2713 0.1074 0.2005 0 1
8.9585 -8.5134 0.1027 0.2244 0 1
8.9371 -7.8346 0.0988 0.2333 0 1
8.9255 -7.2116 0.0954 0.2450 0 1
8.9309 -6.6413 0.0925 0.2755 0 1
6.2307 -4.2557 0.0627 0.9115 14 6
8.6624 -5.4196 0.0849 0.2616 0 25
8.6562 -4.9435 0.0828 0.2681 0 25
8.6507 -4.4896 0.0810 0.2742 0 25
8.6458 -4.0550 0.0794 0.2799 0 25
8.6415 -3.6370 0.0779 0.2851 0 25
8.6377 -3.2336 0.0767 0.2898 0 25
8.6344 -2.8425 0.0756 0.2940 0 25
8.6316 -2.4621 0.0746 0.2978 0 25
8.9385 -2.1655 0.0764 0.3006 0 1
8.9502 -1.7912 0.0759 0.3039 0 1
4.4458 -0.7053 0.0374 0.0898 25 14
3.9616 -0.4663 0.0332 0.9659 25 14
3.9404 -0.3040 0.0328 0.9677 25 14
3.9144 -0.1442 0.0326 0.9764 25 14
3.8888 0.0130 0.0323 0.9835 25 14
3.9133 0.1704 0.0326 0.9764 25 14
3.9388 0.3304 0.0329 0.9676 25 14
3.9626 0.4934 0.0332 0.9649 25 14
5.2877 0.8753 0.0445 0.0100 25 14
9.1908 1.9034 0.0780 0.2953 0 1
9.2312 2.3020 0.0791 0.2905 0 1
9.2752 2.7130 0.0803 0.2860 0 1
9.3211 3.1379 0.0817 0.2810 0 1
9.3688 3.5790 0.0834 0.2735 0 1
9.4123 4.0359 0.0851 0.2678 0 1
9.4188 4.4947 0.0867 0.2768 0 1
9.4114 4.9647 0.0884 0.2715 0 1
9.4042 5.4545 0.0904 0.2657 0 1
9.3939 5.9652 0.0925 0.2592 0 1
9.3149 6.4542 0.0942 0.2879 0 1
9.2067 6.9427 0.0958 0.2829 0 1
9.1091 7.4614 0.0979 0.2752 0 1
9.1495 8.1299 0.1017 0.2408 0 2
8.6856 8.3655 0.1002 0.2173 0 2
8.6967 9.0772 0.1045 0.2120 0 2
8.7112 9.8559 0.1093 0.2026 0 2
8.7277 10.7125 0.1148 0.1929 0 2
8.7465 11.6626 0.1212 0.1828 0 2
6.4214 9.3199 0.0941 0.9806 22 6
8.7935 13.9287 0.1369 0.1618 0 2
8.4609 14.6765 0.1408 0.8631 0 3
8.2523 15.7440 0.1477 0.4487 0 3
8.2367 17.3778 0.1598 0.4148 0 3
8.1325 19.1049 0.1726 0.9175 0 3
9.0155 23.7879 0.2114 0.1048 0 2
8.0433 24.1021 0.2112 0.9465 0 3
8.1391 28.1012 0.2432 0.2729 0 3
8.8979 36.0862 0.3089 0.9987 0 6
2.9350 14.3623 0.1218 0.4682 0 9
1.8500 15.1848 0.1271 0.7058 0 9
0.9659 23.6095 0.1964 0.4830 0 9
0.0172 24.1074 0.2004 0.9841 0 9
-30.0788 31.4847 0.3619 0.2186 0 3
-30.1229 29.0960 0.3481 0.2449 0 3
-31.7511 28.2939 0.3535 0.7007 0 3
-33.6796 27.6677 0.3623 0.6396 0 3
-30.0736 22.7456 0.3134 0.5553 0 3
-30.2316 21.0112 0.3060 0.2669 0 3
-29.8683 19.0266 0.2943 0.2113 0 3
-29.8368 17.3628 0.2869 0.7426 0 3
-31.8344 16.8514 0.2994 0.9549 0 3
-37.0578 17.7493 0.3415 0.4377 0 3
-37.0670 15.9567 0.3354 0.8145 0 3
-35.1534 -33.3116 0.4025 0.8814 0 20
-34.3763 -35.3015 0.4095 0.8663 0 20
8.5578 -44.0174 0.3727 0.0560 0 3
8.3114 -35.1493 0.3002 0.1186 0 3
8.1673 -29.2410 0.2523 0.9648 0 20
8.9209 -27.6077 0.2411 0.9535 0 3
9.0334 -24.5402 0.2173 0.1019 0 2
8.9657 -21.6337 0.1946 0.1138 0 2
8.9116 -19.2755 0.1765 0.1255 0 2
8.8674 -17.3180 0.1617 0.1370 0 2
9.1152 -16.1663 0.1542 0.8879 0 2
9.1482 -14.8020 0.1446 0.1433 0 1
9.1043 -13.4879 0.1352 0.1678 0 1
9.0960 -12.3732 0.1276 0.1790 0 1
9.0881 -11.3753 0.1210 0.1866 0 1
9.0640 -10.4548 0.1150 0.1944 0 1
9.0254 -9.6023 0.1095 0.1966 0 1
8.9705 -8.8067 0.1045 0.2061 0 1
8.9455 -8.1029 0.1003 0.2298 0 1
8.9292 -7.4577 0.0967 0.2416 0 1
8.9210 -6.8619 0.0935 0.2725 0 1
8.9452 -6.3254 0.0911 0.2799 0 1
6.3670 -4.1290 0.0631 0.4500 14 6
8.6586 -5.1333 0.0837 0.2655 0 25
8.6528 -4.6708 0.0817 0.2718 0 25
8.6477 -4.2287 0.0800 0.2777 0 25
8.6432 -3.8043 0.0785 0.2830 0 25
8.6392 -3.3952 0.0771 0.2879 0 25
8.6357 -2.9994 0.0760 0.2924 0 25
8.2618 12.4184 -0.0413 0.1787 0 2
8.2539 13.5573 -0.0440 0.1679 0 2
8.2447 14.8542 -0.0471 0.1569 0 2
8.2338 16.3495 -0.0507 0.1456 0 2
8.2208 18.0987 -0.0551 0.1341 0 2
8.2051 20.1795 -0.0603 0.1224 0 2
8.1854 22.7044 -0.0669 0.1104 0 2
8.1608 25.8460 -0.0751 0.0983 0 2
8.1290 29.8748 -0.0858 0.0861 0 2
8.0862 35.2498 -0.1002 0.0737 0 2
8.4659 45.1576 -0.1273 0.0688 0 1
2.7922 26.4999 -0.0738 0.5986 0 9
1.6256 25.0491 -0.0695 0.8942 0 9
0.6014 24.4082 -0.0676 0.9819 0 9
-31.6536 37.6971 -0.1364 0.6054 0 3
-29.7266 32.6447 -0.1223 0.4770 0 3
-31.4093 31.8253 -0.1239 0.6621 0 3
-31.3934 29.3519 -0.1191 0.6888 0 3
-31.5864 27.2391 -0.1156 0.7145 0 3
-34.8079 27.6595 -0.1232 0.6271 0 3
-31.3748 22.9377 -0.1077 0.6315 0 3
-31.2791 20.9936 -0.1044 0.5626 0 3
-31.3042 19.2333 -0.1018 0.8052 0 3
-31.2930 17.5356 -0.0994 0.8247 0 3
-36.5820 18.6098 -0.1137 0.8429 0 3
-36.6511 16.8278 -0.1117 0.9257 0 3
-39.0434 16.0604 -0.1170 0.3863 0 3
-37.0380 -33.4529 -0.1383 0.5376 0 20
-34.7150 -33.9838 -0.1346 0.8828 0 20
-33.7226 -35.7755 -0.1362 0.9290 0 20
7.9904 -47.0844 -0.1323 0.0558 0 2
3.9330 -18.6096 -0.0527 0.8849 0 6
8.1125 -31.9779 -0.0914 0.0808 0 2
8.1485 -27.4443 -0.0793 0.0931 0 2
8.1759 -23.9637 -0.0701 0.1053 0 2
8.1973 -21.1994 -0.0630 0.1173 0 2
8.2145 -18.9445 -0.0572 0.1291 0 2
8.2285 -17.0644 -0.0525 0.1407 0 2
8.6202 -16.1813 -0.0508 0.9160 0 2
8.5643 -14.6285 -0.0470 0.1471 0 1
8.5120 -13.2848 -0.0437 0.1712 0 24
8.5759 -12.2702 -0.0415 0.1836 0 1
8.5940 -11.3007 -0.0393 0.1914 0 1
8.6047 -10.4184 -0.0374 0.1991 0 1
8.5877 -9.5861 -0.0357 0.2013 0 1
8.5649 -8.8206 -0.0341 0.2256 0 1
8.5588 -8.1336 -0.0327 0.2349 0 1
8.5560 -7.5006 -0.0315 0.2471 0 1
8.5724 -6.9263 -0.0305 0.2782 0 1
8.6053 -6.3992 -0.0297 0.2859 0 1
6.2172 -4.2465 -0.0209 0.8061 14 6
8.3279 -5.2104 -0.0272 0.2721 0 25
8.3298 -4.7571 -0.0266 0.2786 0 25
8.3315 -4.3240 -0.0260 0.2848 0 25
8.3330 -3.9083 -0.0255 0.2904 0 25
8.3343 -3.5078 -0.0251 0.2956 0 25
8.3355 -3.1204 -0.0247 0.3003 0 25
8.3365 -2.7444 -0.0243 0.3045 0 25
8.3432 -2.3798 -0.0240 0.3004 0 2
8.6367 -2.0924 -0.0246 0.3120 0 1
8.6223 -1.7255 -0.0244 0.3141 0 24
4.1346 -0.6560 -0.0116 0.2605 25 14
3.9530 -0.4653 -0.0110 0.9680 25 14
3.9367 -0.3037 -0.0109 0.9687 25 14
3.9107 -0.1441 -0.0108 0.9773 25 14
3.8852 0.0130 -0.0108 0.9844 25 14
3.9100 0.1703 -0.0108 0.9773 25 14
3.9354 0.3301 -0.0109 0.9685 25 14
3.9542 0.4923 -0.0110 0.9670 25 14
4.3513 0.7203 -0.0122 0.0918 25 14
8.8421 1.8312 -0.0250 0.3053 0 24
8.9089 2.2216 -0.0254 0.3010 0 1
8.9464 2.6168 -0.0258 0.2965 0 1
8.9851 3.0248 -0.0263 0.2916 0 1
9.0214 3.4463 -0.0268 0.2840 0 1
9.0562 3.8832 -0.0273 0.2783 0 1
9.0736 4.3300 -0.0279 0.2873 0 1
9.0600 4.7793 -0.0284 0.2820 0 1
9.0457 5.2466 -0.0290 0.2762 0 1
9.0269 5.7322 -0.0296 0.2697 0 1
8.9870 6.2270 -0.0303 0.2984 0 1
8.8771 6.6941 -0.0308 0.2934 0 1
8.7749 7.1876 -0.0314 0.2857 0 1
8.5746 8.2586 -0.0330 0.7400 0 2
8.2861 8.6486 -0.0332 0.2225 0 2
8.2818 9.3701 -0.0346 0.2131 0 2
8.2768 10.1591 -0.0363 0.2034 0 2
6.7667 9.0227 -0.0312 0.6619 22 6
6.4245 9.3244 -0.0314 0.5618 22 6
8.2573 13.0794 -0.0429 0.1723 0 2
8.2486 14.3082 -0.0458 0.1614 0 2
8.2384 15.7175 -0.0492 0.1502 0 2
8.2264 17.3561 -0.0532 0.1388 0 2
8.1326 19.1052 -0.0575 0.8227 0 3
8.1938 21.6197 -0.0641 0.1153 0 2
8.0999 24.2718 -0.0709 0.3056 0 3
8.1429 28.1143 -0.0811 0.0911 0 2
8.1053 32.8720 -0.0938 0.0787 0 2
2.9722 14.5445 -0.0411 0.6261 0 9
1.9044 15.6312 -0.0436 0.3206 0 9
1.0439 25.5173 -0.0708 0.3993 0 9
-31.4430 32.9127 -0.1261 0.9454 0 3
-31.3997 30.3292 -0.1209 0.6781 0 3
-31.3594 27.9449 -0.1164 0.6700 0 3
-33.6783 27.6667 -0.1207 0.6397 0 3
-31.5645 23.8732 -0.1096 0.7530 0 3
-31.3209 21.7682 -0.1057 0.7756 0 3
-31.3089 19.9443 -0.1028 0.7969 0 3
-31.2975 18.2127 -0.1003 0.8170 0 3
-31.2865 16.5614 -0.0981 0.8357 0 3
-37.0557 17.7483 -0.1138 0.4377 0 3
-38.8653 16.7308 -0.1172 0.4013 0 3
-35.0269 -33.1916 -0.1337 0.8887 0 20
-34.1557 -35.0750 -0.1356 0.9330 0 20
7.0504 -36.2640 -0.1023 0.8812 0 3
7.9349 -33.5570 -0.0955 0.1908 0 3
8.1352 -29.1262 -0.0838 0.0881 0 2
8.1656 -25.2704 -0.0736 0.1004 0 2
8.1892 -22.2468 -0.0657 0.1124 0 2
8.2079 -19.8053 -0.0594 0.1243 0 2
8.2232 -17.7865 -0.0543 0.1360 0 2
8.3056 -16.2208 -0.0505 0.9490 0 2
8.5947 -15.2432 -0.0485 0.1425 0 1
8.5499 -13.8340 -0.0451 0.1680 0 1
8.5667 -12.6914 -0.0424 0.1784 0 1
8.5880 -11.6821 -0.0402 0.1874 0 1
8.6023 -10.7671 -0.0382 0.1972 0 1
8.5989 -9.9183 -0.0364 0.2049 0 1
8.5675 -9.1151 -0.0347 0.2217 0 1
8.5612 -8.4049 -0.0332 0.2311 0 1
8.5552 -7.7494 -0.0320 0.2402 0 1
8.5585 -7.1481 -0.0309 0.2750 0 1
8.5922 -6.6090 -0.0300 0.2829 0 1
6.2206 -4.3988 -0.0211 0.6249 14 6
6.3292 -4.1045 -0.0209 0.5798 14 6
8.3291 -4.9379 -0.0268 0.2760 0 25
8.3308 -4.4969 -0.0262 0.2823 0 25
8.3324 -4.0745 -0.0257 0.2882 0 25
8.3338 -3.6681 -0.0252 0.2936 0 25
8.3351 -3.2757 -0.0248 0.2985 0 25
8.3361 -2.8953 -0.0244 0.3029 0 25
7.8030 11.7287 -0.1951 0.1892 0 2
7.7679 12.7589 -0.2069 0.1784 0 2
7.7272 13.9218 -0.2206 0.1674 0 2
7.6796 15.2490 -0.2365 0.1561 0 2
7.6234 16.7834 -0.2554 0.1446 0 2
7.5562 18.5835 -0.2779 0.1328 0 2
7.4742 20.7318 -0.3053 0.1209 0 2
7.3730 23.3508 -0.3392 0.1088 0 2
7.2447 26.6248 -0.3822 0.0966 0 2
7.0772 30.8511 -0.4385 0.0842 0 2
2.6884 14.3402 -0.2021 0.0604 0 9
6.7908 46.4554 -0.6504 0.0680 0 24
0.9638 14.8512 -0.2062 0.7432 0 9
0.6319 25.6451 -0.3554 0.5382 0 9
-31.4705 37.4791 -0.6779 0.6089 0 3
-16.4419 16.6596 -0.3242 0.5764 0 6
-29.5501 27.6285 -0.5604 0.9576 0 3
-31.4314 27.1055 -0.5750 0.7179 0 3
-34.8066 27.6585 -0.6159 0.6271 0 3
-31.4141 22.9664 -0.5391 0.7657 0 3
-33.7695 22.6651 -0.5634 0.5625 0 3
-36.4483 22.3939 -0.5926 0.8086 0 3
-31.7318 17.7815 -0.5039 0.4944 0 3
-32.5621 16.5649 -0.5061 0.2804 0 3
-38.6321 17.7373 -0.5889 0.4230 0 3
-40.4402 16.6350 -0.6058 0.2808 0 3
-34.6741 -33.9438 -0.6722 0.9443 0 20
-33.6116 -35.6577 -0.6788 0.9320 0 20
-16.8872 -27.2369 -0.4439 0.4785 0 6
6.3337 -49.2388 -0.6877 0.0537 0 2
6.7244 -39.6240 -0.5567 0.0663 0 2
6.9885 -33.0677 -0.4682 0.0789 0 2
7.1788 -28.2974 -0.4044 0.0913 0 2
7.3221 -24.6609 -0.3564 0.1036 0 2
7.4338 -21.7887 -0.3189 0.1158 0 2
7.5231 -19.4560 -0.2890 0.1278 0 2
7.5961 -17.5184 -0.2645 0.1396 0 2
7.8486 -16.2765 -0.2503 0.9570 0 2
8.0213 -15.0572 -0.2363 0.1461 0 1
8.0163 -13.6924 -0.2198 0.1721 0 1
8.0637 -12.5853 -0.2071 0.1827 0 1
8.1076 -11.6002 -0.1961 0.1920 0 1
8.1453 -10.7108 -0.1864 0.2019 0 1
8.1730 -9.8956 -0.1778 0.2096 0 1
8.1746 -9.1249 -0.1697 0.2263 0 1
8.1846 -8.4289 -0.1628 0.2360 0 1
8.1931 -7.7861 -0.1566 0.2453 0 1
8.2201 -7.2061 -0.1514 0.2805 0 1
8.2628 -6.6761 -0.1472 0.2886 0 1
8.3026 -6.1741 -0.1433 0.2963 0 1
6.2337 -4.2577 -0.1046 0.8039 14 6
6.5283 -4.0845 -0.1067 0.5679 14 6
8.0271 -4.5842 -0.1281 0.2891 0 25
8.0350 -4.1701 -0.1254 0.2952 0 25
8.0420 -3.7718 -0.1230 0.3009 0 25
8.0483 -3.3874 -0.1210 0.3061 0 25
8.0537 -3.0149 -0.1191 0.3108 0 25
8.0585 -2.6529 -0.1175 0.3150 0 25
8.0626 -2.2998 -0.1161 0.3188 0 2
8.3551 -2.0242 -0.1191 0.3224 0 1
8.3431 -1.6696 -0.1179 0.3247 0 24
4.0611 -0.6443 -0.0570 0.3029 25 14
3.9445 -0.4643 -0.0550 0.9700 25 14
3.9329 -0.3034 -0.0546 0.9695 25 14
3.9071 -0.1439 -0.0542 0.9782 25 14
3.8817 0.0130 -0.0538 0.9852 25 14
3.9067 0.1701 -0.0542 0.9780 25 14
3.9320 0.3299 -0.0547 0.9692 25 14
3.9458 0.4913 -0.0551 0.9689 25 14
4.1090 0.6801 -0.0577 0.2619 25 14
8.5478 1.7702 -0.1209 0.3158 0 24
8.6083 2.1466 -0.1229 0.3115 0 1
8.6401 2.5272 -0.1247 0.3070 0 1
8.6721 2.9194 -0.1268 0.2997 0 1
8.6989 3.3231 -0.1290 0.2945 0 1
8.7262 3.7417 -0.1315 0.2888 0 1
8.7528 4.1769 -0.1343 0.2978 0 1
8.7339 4.6073 -0.1368 0.2925 0 1
8.7131 5.0537 -0.1395 0.2863 0 1
8.6875 5.5167 -0.1426 0.2802 0 1
8.6601 6.0005 -0.1459 0.2737 0 1
8.5702 6.4627 -0.1487 0.3039 0 1
8.4642 6.9331 -0.1516 0.2962 0 1
8.3631 7.4311 -0.1550 0.2897 0 1
8.3700 8.0616 -0.1610 0.2540 0 2
7.9644 8.3129 -0.1595 0.8084 0 2
7.8926 8.9298 -0.1651 0.2236 0 2
7.8702 9.6601 -0.1726 0.2139 0 2
6.7523 9.0035 -0.1559 0.8159 22 6
7.8159 11.3438 -0.1908 0.1935 0 2
7.7827 12.3276 -0.2020 0.1828 0 2
7.7444 13.4335 -0.2148 0.1719 0 2
7.6998 14.6898 -0.2298 0.1607 0 2
7.6473 16.1344 -0.2473 0.1493 0 2
7.5849 17.8185 -0.2683 0.1376 0 2
7.5095 19.8143 -0.2935 0.1258 0 2
7.4167 22.2245 -0.3246 0.1137 0 2
7.3005 25.2057 -0.3635 0.1016 0 2
7.1506 29.0001 -0.4138 0.0892 0 2
6.9506 34.0127 -0.4809 0.0768 0 2
7.0309 43.1818 -0.6061 0.0746 0 24
1.9185 15.7477 -0.2198 0.2754 0 9
2.0545 25.2904 -0.3515 0.9919 0 9
-31.4750 38.7460 -0.6915 0.5969 0 3
-31.4540 32.9242 -0.6308 0.6544 0 3
-33.8152 32.6623 -0.6513 0.6993 0 3
-31.4351 28.0123 -0.5833 0.7077 0 3
-33.6771 27.6657 -0.6038 0.6397 0 3
-31.4175 23.7620 -0.5457 0.7565 0 3
-31.4064 21.8277 -0.5298 0.7790 0 3
-35.5619 22.6536 -0.5841 0.5426 0 3
-31.3901 18.2667 -0.5031 0.8204 0 3
-32.6895 17.3041 -0.5124 0.2678 0 3
-36.7629 17.6081 -0.5647 0.7547 0 3
-35.0984 -33.2594 -0.6698 0.9476 0 20
-34.0440 -34.9602 -0.6760 0.9390 0 20
6.5860 -43.0382 -0.6031 0.0612 0 2
6.8927 -35.4530 -0.5003 0.0738 0 2
7.1086 -30.0626 -0.4279 0.0863 0 2
7.2686 -26.0237 -0.3743 0.0986 0 2
7.3917 -22.8754 -0.3330 0.1109 0 2
7.4893 -20.3454 -0.3003 0.1229 0 2
7.5683 -18.2618 -0.2738 0.1348 0 2
7.6335 -16.5109 -0.2520 0.1465 0 2
8.1228 -15.8637 -0.2469 0.1739 0 2
8.0041 -14.1958 -0.2258 0.1529 0 1
8.0453 -13.0176 -0.2120 0.1785 0 1
8.0906 -11.9862 -0.2003 0.1900 0 1
8.1306 -11.0600 -0.1902 0.1980 0 1
8.1657 -10.2207 -0.1812 0.2077 0 1
8.1700 -9.4236 -0.1728 0.2223 0 1
8.1807 -8.7036 -0.1655 0.2321 0 1
8.1899 -8.0403 -0.1590 0.2416 0 1
8.2020 -7.4294 -0.1533 0.2771 0 1
8.2459 -6.8870 -0.1488 0.2854 0 1
8.2868 -6.3741 -0.1448 0.2933 0 1
6.2384 -4.4114 -0.1058 0.6231 14 6
6.3146 -4.0950 -0.1043 0.5811 14 6
8.0236 -4.7568 -0.1292 0.2865 0 25
8.0319 -4.3356 -0.1264 0.2928 0 25
8.0393 -3.9312 -0.1240 0.2987 0 25
8.0458 -3.5414 -0.1218 0.3040 0 25
8.0516 -3.1643 -0.1198 0.3089 0 25
8.0567 -2.7982 -0.1181 0.3134 0 25
7.3923 11.1114 -0.3328 0.1996 0 2
7.3357 12.0491 -0.3518 0.1889 0 2
7.2706 13.0992 -0.3736 0.1778 0 2
7.1951 14.2871 -0.3989 0.1666 0 2
7.1068 15.6460 -0.4286 0.1551 0 2
7.0022 17.2211 -0.4636 0.1433 0 2
6.8768 19.0746 -0.5057 0.1314 0 2
6.7239 21.2951 -0.5569 0.1193 0 2
6.5339 24.0127 -0.6206 0.1071 0 2
6.2918 27.4275 -0.7018 0.0947 0 2
5.9735 31.8631 -0.8085 0.0822 0 2
4.8366 33.0869 -0.8339 0.8773 0 19
1.6547 15.7045 -0.3938 0.4704 0 9
0.9902 15.2574 -0.3813 0.2506 0 9
0.4030 16.3548 -0.4080 0.2130 0 9
-0.2417 15.5513 -0.3879 0.8276 0 9
-31.2895 37.2634 -1.2135 0.6123 0 3
-31.5284 34.6233 -1.1678 0.6411 0 3
-31.2844 31.6988 -1.1107 0.6689 0 3
-34.9252 32.6541 -1.1924 0.6874 0 3
-31.2779 26.9731 -1.0300 0.7213 0 3
-34.8053 27.6574 -1.1087 0.6270 0 3
-31.2702 22.8612 -0.9660 0.7691 0 3
-33.7680 22.6641 -1.0142 0.5625 0 3
-36.2902 22.2967 -1.0622 0.8120 0 3
-31.4404 17.6182 -0.8988 0.9660 0 3
-31.4377 15.9929 -0.8796 0.8537 0 3
-36.6183 16.8127 -1.0049 0.9554 0 3
-41.4165 17.0366 -1.1168 0.8876 0 3
-34.6189 -33.8898 -1.2082 0.9741 0 20
-33.3153 -35.3434 -1.2113 0.9717 0 20
5.2967 -41.1772 -1.0354 0.0642 0 2
5.8044 -34.2030 -0.8652 0.0768 0 2
6.1666 -29.1786 -0.7437 0.0893 0 2
6.4376 -25.3759 -0.6529 0.1018 0 2
6.6477 -22.3895 -0.5825 0.1141 0 2
6.8151 -19.9752 -0.5263 0.1262 0 2
6.9513 -17.9772 -0.4807 0.1382 0 2
7.1282 -16.4393 -0.4469 0.9949 0 2
7.4640 -15.4788 -0.4286 0.1364 0 1
7.4726 -14.0271 -0.3964 0.1515 0 1
7.5111 -12.8294 -0.3707 0.1864 0 24
7.5948 -11.8535 -0.3511 0.1938 0 24
7.6623 -10.9630 -0.3336 0.2042 0 24
7.7187 -10.1498 -0.3180 0.2122 0 24
7.7561 -9.3909 -0.3037 0.2228 0 24
7.7819 -8.6866 -0.2908 0.2342 0 24
7.8063 -8.0393 -0.2795 0.2494 0 24
7.8328 -7.4436 -0.2695 0.2637 0 24
7.9255 -6.9478 -0.2628 0.2909 0 1
7.9747 -6.4434 -0.2557 0.2990 0 1
7.9964 -5.9464 -0.2485 0.2578 0 1
6.2502 -4.2690 -0.1888 0.8016 14 6
6.5129 -4.0748 -0.1916 0.5692 14 6
7.7455 -4.4235 -0.2224 0.2996 0 25
7.7588 -4.0267 -0.2180 0.3057 0 25
7.7706 -3.6445 -0.2140 0.3113 0 25
7.7811 -3.2749 -0.2105 0.3165 0 25
7.7903 -2.9163 -0.2074 0.3212 0 25
7.7983 -2.5673 -0.2047 0.3255 0 25
7.8569 -2.2411 -0.2038 0.3379 0 2
8.0911 -1.9602 -0.2076 0.3329 0 1
8.1085 -1.6227 -0.2062 0.3354 0 1
3.9988 -0.6344 -0.1010 0.3075 25 14
3.9360 -0.4633 -0.0988 0.9719 25 14
3.9273 -0.3030 -0.0982 0.9779 25 14
3.9034 -0.1438 -0.0974 0.9789 25 14
3.8784 0.0130 -0.0967 0.9858 25 14
3.9034 0.1700 -0.0974 0.9786 25 14
3.9283 0.3295 -0.0983 0.9771 25 14
3.9374 0.4902 -0.0990 0.9708 25 14
4.0459 0.6697 -0.1023 0.3037 25 14
8.3038 1.7197 -0.2115 0.3267 0 1
8.3272 2.0766 -0.2140 0.3220 0 1
8.3541 2.4435 -0.2171 0.3175 0 1
8.3777 2.8203 -0.2204 0.3102 0 1
8.3986 3.2084 -0.2242 0.3050 0 1
8.4192 3.6101 -0.2284 0.2993 0 1
8.4395 4.0274 -0.2332 0.2932 0 1
8.4303 4.4472 -0.2377 0.3030 0 1
8.4038 4.8743 -0.2423 0.2968 0 1
8.3726 5.3167 -0.2473 0.2907 0 1
8.3390 5.7780 -0.2530 0.2842 0 1
8.2838 6.2467 -0.2587 0.3143 0 1
8.1748 6.6960 -0.2635 0.3066 0 1
8.0708 7.1714 -0.2693 0.3001 0 1
7.9486 8.2963 -0.2865 0.8091 0 2
7.5016 9.2076 -0.2962 0.2243 0 2
6.7408 8.9882 -0.2802 0.8171 22 6
7.4131 10.7593 -0.3258 0.2039 0 2
7.3596 11.6574 -0.3438 0.1933 0 2
7.2981 12.6594 -0.3644 0.1823 0 2
7.2271 13.7880 -0.3882 0.1712 0 2
7.1443 15.0730 -0.4160 0.1597 0 2
7.0467 16.5543 -0.4487 0.1481 0 2
6.9304 18.2862 -0.4877 0.1363 0 2
6.7896 20.3454 -0.5349 0.1242 0 2
6.6160 22.8425 -0.5931 0.1120 0 2
6.3973 25.9449 -0.6664 0.0997 0 2
6.1136 29.9169 -0.7615 0.0873 0 2
5.7319 35.2035 -0.8895 0.0747 0 2
1.9267 15.8145 -0.3973 0.9392 0 9
1.9554 24.0704 -0.6023 0.4340 0 9
0.6973 17.0446 -0.4254 0.3086 0 9
0.0103 14.5000 -0.3616 0.4700 0 9
-31.2903 38.5186 -1.2376 0.6003 0 3
-31.5294 35.7755 -1.1892 0.6296 0 3
-31.1520 32.6081 -1.1246 0.2393 0 3
-33.8140 32.6612 -1.1724 0.6991 0 3
-31.2793 27.8735 -1.0448 0.7111 0 3
-33.6758 27.6647 -1.0869 0.6395 0 3
-30.2948 22.9129 -0.9473 0.9278 0 3
-31.2650 21.7294 -0.9495 0.7824 0 3
-35.5604 22.6526 -1.0515 0.5425 0 3
-31.2559 18.1886 -0.9018 0.8238 0 3
-36.2811 19.2053 -1.0237 0.8425 0 3
-33.8137 16.1955 -0.9350 0.2629 0 3
-41.1631 17.7200 -1.1176 0.4012 0 3
-41.5326 15.9339 -1.1094 0.9427 0 3
-34.9896 -33.1563 -1.2021 0.9503 0 20
-33.8436 -34.7544 -1.2098 0.9729 0 20
5.0286 -44.8407 -1.1253 0.0591 0 2
5.6209 -36.7314 -0.9267 0.0717 0 2
6.0334 -31.0330 -0.7884 0.0843 0 2
6.3367 -26.7980 -0.6867 0.0968 0 2
6.5687 -23.5177 -0.6089 0.1091 0 2
6.7517 -20.8945 -0.5476 0.1213 0 2
6.8994 -18.7429 -0.4981 0.1334 0 2
7.0209 -16.9411 -0.4573 0.1453 0 2
7.5127 -16.2498 -0.4465 0.1734 0 2
7.4687 -14.5863 -0.4087 0.1470 0 1
7.4747 -13.2568 -0.3795 0.1762 0 24
7.5639 -12.2386 -0.3588 0.1910 0 24
7.6359 -11.3125 -0.3404 0.2001 0 24
7.6983 -10.4719 -0.3241 0.2095 0 24
7.7429 -9.6915 -0.3094 0.2185 0 24
7.7724 -8.9650 -0.2959 0.2295 0 24
7.7962 -8.2945 -0.2839 0.2435 0 24
7.8218 -7.6790 -0.2734 0.2583 0 24
7.8501 -7.1106 -0.2641 0.2705 0 24
7.9552 -6.6442 -0.2585 0.2958 0 1
8.0023 -6.1552 -0.2518 0.3036 0 1
6.2563 -4.4240 -0.1911 0.6405 14 6
6.3017 -4.0866 -0.1873 0.7684 14 6
7.7397 -4.5885 -0.2244 0.2970 0 25
7.7536 -4.1854 -0.2197 0.3033 0 25
7.7660 -3.7975 -0.2156 0.3091 0 25
7.7770 -3.4230 -0.2119 0.3145 0 25
7.7867 -3.0602 -0.2086 0.3194 0 25
7.7952 -2.7074 -0.2058 0.3238 0 25
7.0225 10.5555 -0.4568 0.2101 0 2
6.9489 11.4138 -0.4815 0.1993 0 2
6.8648 12.3681 -0.5097 0.1883 0 2
6.7679 13.4388 -0.5421 0.1770 0 2
6.6555 14.6525 -0.5798 0.1655 0 2
6.5237 16.0442 -0.6240 0.1538 0 2
6.3673 17.6616 -0.6764 0.1419 0 2
6.1794 19.5706 -0.7395 0.1298 0 2
5.9497 21.8656 -0.8165 0.1175 0 2
5.6630 24.6864 -0.9126 0.1052 0 2
5.2961 28.2496 -1.0356 0.0927 0 2
2.2894 15.6617 -0.5703 0.8269 0 9
1.6902 16.0414 -0.5812 0.8834 0 9
1.4600 22.4976 -0.8123 0.9972 0 6
-0.2248 14.4639 -0.5212 0.7791 0 9
-31.1104 37.0502 -1.7431 0.6156 0 3
-31.1161 34.1706 -1.6651 0.6444 0 3
-31.1204 31.5327 -1.5963 0.6722 0 3
-34.9240 32.6530 -1.7226 0.6872 0 3
-31.1258 26.8420 -1.4809 0.7246 0 3
-34.8040 27.6564 -1.6017 0.6268 0 3
-30.9708 22.6424 -1.3823 0.7343 0 3
-33.7666 22.6632 -1.4652 0.5623 0 3
-36.1333 22.2004 -1.5280 0.8152 0 3
-31.7287 17.7798 -1.3105 0.4942 0 3
-35.1743 17.8937 -1.4219 0.8529 0 3
-35.2185 16.1700 -1.3963 0.2440 0 3
-43.0457 17.7068 -1.6770 0.3861 0 3
-34.5236 -33.7965 -1.7407 0.9781 0 20
-33.0171 -35.0271 -1.7343 0.9813 0 20
1.9475 -40.8965 -1.4752 0.2870 0 20
3.7665 -42.8088 -1.5484 0.0620 0 2
4.5512 -35.3812 -1.2853 0.0747 0 2
5.1055 -30.0848 -1.0995 0.0873 0 2
5.5173 -26.1065 -0.9614 0.0998 0 2
5.8349 -23.0000 -0.8549 0.1123 0 2
6.0868 -20.5003 -0.7705 0.1246 0 2
6.2912 -18.4395 -0.7020 0.1367 0 2
6.4600 -16.7066 -0.6454 0.1487 0 2
6.9754 -16.0869 -0.6318 0.1772 0 2
6.9398 -14.3918 -0.5757 0.1507 0 1
7.0428 -13.2203 -0.5397 0.1826 0 1
7.1431 -12.2009 -0.5094 0.1934 0 1
7.2357 -11.2929 -0.4832 0.2056 0 1
7.3135 -10.4640 -0.4600 0.2160 0 1
7.3801 -9.7045 -0.4393 0.2200 0 1
7.4269 -8.9923 -0.4202 0.2300 0 1
7.4681 -8.3363 -0.4033 0.2397 0 1
7.5139 -7.7382 -0.3886 0.2637 0 1
7.5341 -7.1598 -0.3745 0.2756 0 24
7.5751 -6.6406 -0.3630 0.2863 0 24
7.7011 -6.2223 -0.3567 0.2974 0 1
7.4158 -5.5147 -0.3330 0.2890 0 25
6.2668 -4.2804 -0.2734 0.7992 14 6
6.4975 -4.0652 -0.2762 0.5703 14 6
7.4829 -4.2735 -0.3105 0.3100 0 25
7.5008 -3.8928 -0.3045 0.3161 0 25
7.5168 -3.5254 -0.2991 0.3217 0 25
7.5309 -3.1696 -0.2944 0.3269 0 25
7.5434 -2.8239 -0.2902 0.3316 0 25
7.5543 -2.4869 -0.2866 0.3359 0 25
7.8135 -2.2287 -0.2928 0.3398 0 2
7.8433 -1.9002 -0.2908 0.3435 0 1
7.8618 -1.5733 -0.2889 0.3458 0 1
3.9385 -0.6248 -0.1437 0.3122 25 14
3.9275 -0.4623 -0.1425 0.9737 25 14
3.9189 -0.3023 -0.1416 0.9796 25 14
3.8997 -0.1437 -0.1406 0.9794 25 14
3.8752 0.0130 -0.1396 0.9863 25 14
3.9001 0.1698 -0.1407 0.9791 25 14
3.9200 0.3288 -0.1417 0.9789 25 14
3.9290 0.4892 -0.1427 0.9725 25 14
3.9901 0.6605 -0.1457 0.3079 25 14
8.0452 1.6662 -0.2960 0.3382 0 1
8.0644 2.0110 -0.2995 0.3333 0 1
8.0860 2.3651 -0.3035 0.3253 0 1
8.1025 2.7277 -0.3080 0.3206 0 1
8.1182 3.1012 -0.3131 0.3154 0 1
8.1330 3.4873 -0.3188 0.3097 0 1
8.1468 3.8877 -0.3252 0.3036 0 1
8.1470 4.2977 -0.3319 0.3134 0 1
8.1155 4.7071 -0.3380 0.3072 0 1
8.0796 5.1306 -0.3448 0.3012 0 1
8.0407 5.5713 -0.3525 0.2947 0 1
7.9984 6.0315 -0.3609 0.2877 0 1
7.9043 6.4745 -0.3681 0.3170 0 1
7.7982 6.9291 -0.3759 0.3105 0 1
7.6860 7.4028 -0.3845 0.3035 0 1
7.6666 8.0020 -0.3993 0.2677 0 2
7.4137 8.3879 -0.4033 0.8659 0 2
7.1658 8.7955 -0.4088 0.2348 0 2
6.6979 8.9309 -0.4022 0.7883 22 6
6.4902 9.4198 -0.4122 0.7256 22 6
6.9799 11.0560 -0.4711 0.2037 0 2
6.9002 11.9693 -0.4978 0.1928 0 2
6.8088 12.9901 -0.5284 0.1816 0 2
6.7031 14.1422 -0.5639 0.1702 0 2
6.5796 15.4570 -0.6053 0.1586 0 2
6.4339 16.9763 -0.6541 0.1467 0 2
6.2598 18.7579 -0.7125 0.1347 0 2
6.0485 20.8830 -0.7833 0.1225 0 2
5.7871 23.4702 -0.8710 0.1102 0 2
5.4562 26.7000 -0.9819 0.0977 0 2
2.2493 13.8144 -0.5043 0.3545 0 9
1.7390 14.2738 -0.5181 0.7930 0 9
1.3625 16.7717 -0.6063 0.4744 0 9
0.6320 15.4476 -0.5570 0.0558 0 9
0.0107 15.0294 -0.5415 0.6143 0 9
-19.0802 36.5286 -1.4849 0.3004 0 6
-31.1076 38.2938 -1.7776 0.6036 0 3
-31.1139 35.3042 -1.6955 0.6329 0 3
-31.1188 32.5734 -1.6231 0.6611 0 3
-31.1237 30.0626 -1.5591 0.6371 0 3
-30.9783 27.6052 -1.4950 0.5174 0 3
-33.6746 27.6636 -1.5702 0.6394 0 3
-31.1275 23.5426 -1.4062 0.7631 0 3
-31.1734 21.6657 -1.3678 0.5756 0 3
-35.5588 22.6516 -1.5191 0.5424 0 3
-31.1227 18.1111 -1.2974 0.8270 0 3
-36.1300 19.1253 -1.4729 0.8457 0 3
-35.1516 16.8363 -1.4043 0.4949 0 3
-41.1607 17.7189 -1.6146 0.4011 0 3
-35.0480 -33.2117 -1.7397 0.9787 0 20
-33.6356 -34.5409 -1.7371 0.9797 0 20
3.3483 -46.7458 -1.6886 0.0568 0 2
4.2686 -38.0638 -1.3800 0.0695 0 2
4.9021 -32.0344 -1.1676 0.0822 0 2
5.3642 -27.5912 -1.0127 0.0948 0 2
5.7156 -24.1716 -0.8949 0.1072 0 2
5.9914 -21.4510 -0.8025 0.1196 0 2
6.2133 -19.2285 -0.7281 0.1318 0 2
6.3954 -17.3737 -0.6670 0.1439 0 2
6.8455 -16.5177 -0.6442 0.9967 0 2
6.9182 -14.9639 -0.5940 0.1460 0 1
6.9960 -13.6630 -0.5531 0.1792 0 1
7.1042 -12.5997 -0.5212 0.1891 0 1
7.1993 -11.6487 -0.4934 0.2024 0 1
7.2832 -10.7899 -0.4690 0.2118 0 1
7.3556 -10.0057 -0.4474 0.2221 0 1
7.4087 -9.2731 -0.4277 0.2260 0 1
7.4521 -8.5955 -0.4099 0.2358 0 1
7.4929 -7.9718 -0.3942 0.2600 0 1
7.5531 -7.4152 -0.3814 0.2782 0 1
7.5585 -6.8466 -0.3675 0.2821 0 24
7.5982 -6.3461 -0.3567 0.2913 0 24
7.7034 -5.9253 -0.3502 0.2483 0 1
6.2740 -4.4365 -0.2769 0.6384 14 6
6.2964 -4.0832 -0.2704 0.7688 14 6
7.4751 -4.4316 -0.3131 0.3074 0 25
7.4938 -4.0451 -0.3068 0.3137 0 25
7.5105 -3.6726 -0.3012 0.3195 0 25
7.5254 -3.3123 -0.2962 0.3249 0 25
7.5385 -2.9626 -0.2918 0.3298 0 25
7.5501 -2.6223 -0.2880 0.3342 0 25
6.6877 10.0523 -0.5690 0.2205 0 2
6.6006 10.8417 -0.5982 0.2097 0 2
6.5016 11.7138 -0.6314 0.1987 0 2
6.3884 12.6851 -0.6694 0.1874 0 2
6.2578 13.7769 -0.7132 0.1759 0 2
6.1060 15.0171 -0.7640 0.1642 0 2
5.9279 16.4426 -0.8238 0.1523 0 2
5.7161 18.1034 -0.8948 0.1402 0 2
5.4610 20.0697 -0.9803 0.1280 0 2
5.1481 22.4419 -1.0852 0.1156 0 2
4.7563 25.3701 -1.2166 0.1031 0 2
2.2807 15.6021 -0.7432 0.8577 0 9
2.2453 21.3090 -1.0099 0.8243 0 20
1.1136 17.1593 -0.8104 0.3190 0 9
0.4219 17.1249 -0.8074 0.3271 0 9
-0.2241 14.4210 -0.6798 0.4289 0 9
-29.0878 37.6109 -2.2409 0.6640 0 3
-29.2875 34.8793 -2.1466 0.1622 0 3
-29.9719 32.9141 -2.0981 0.9512 0 3
-30.9581 31.3681 -2.0772 0.6754 0 3
-30.9674 28.9537 -1.9981 0.7022 0 3
-30.9751 26.7120 -1.9278 0.7278 0 3
-29.1917 23.1967 -1.7573 0.6980 0 3
-30.9835 22.6516 -1.8089 0.7755 0 3
-30.9871 20.7976 -1.7589 0.7976 0 3
-30.9896 19.0400 -1.7142 0.8184 0 3
-29.1245 16.3204 -1.5735 0.9181 0 3
-35.0295 17.8201 -1.8523 0.8560 0 3
-36.8901 16.9375 -1.9132 0.2533 0 3
-43.0430 17.7057 -2.1936 0.3860 0 3
-45.4421 16.5917 -2.2800 0.2427 0 3
-34.4689 -33.7429 -2.2734 0.9788 0 20
-32.9402 -34.9455 -2.2634 0.9831 0 20
1.9371 -40.6779 -1.9194 0.9975 0 20
3.2200 -36.5980 -1.7316 0.0725 0 2
3.9892 -31.0125 -1.4737 0.0851 0 2
4.5565 -26.8494 -1.2835 0.0978 0 2
4.9914 -23.6179 -1.1377 0.1103 0 2
5.3350 -21.0295 -1.0225 0.1227 0 2
5.6128 -18.9039 -0.9294 0.1350 0 2
5.8417 -17.1222 -0.8527 0.1472 0 2
6.3683 -16.4695 -0.8322 0.1759 0 2
6.3984 -14.7561 -0.7580 0.1456 0 1
6.5228 -13.5270 -0.7078 0.1831 0 1
6.6583 -12.4987 -0.6674 0.1930 0 1
6.7770 -11.5755 -0.6322 0.2065 0 1
6.8831 -10.7426 -0.6013 0.2160 0 1
6.9734 -9.9774 -0.5737 0.2264 0 1
7.0429 -9.2611 -0.5484 0.2305 0 1
7.1017 -8.5985 -0.5256 0.2404 0 1
7.1648 -7.9977 -0.5061 0.2648 0 1
7.2337 -7.4496 -0.4894 0.2834 0 1
7.3076 -6.9446 -0.4751 0.2920 0 1
7.3757 -6.4658 -0.4623 0.3001 0 1
7.4052 -5.9832 -0.4487 0.2659 0 1
7.1555 -5.3210 -0.4203 0.2994 0 25
6.2835 -4.2918 -0.3586 0.7967 14 6
6.4822 -4.0556 -0.3604 0.5714 14 6
7.2374 -4.1332 -0.3928 0.3203 0 25
7.2593 -3.7675 -0.3855 0.3265 0 25
7.2788 -3.4138 -0.3789 0.3321 0 25
7.2962 -3.0708 -0.3731 0.3373 0 25
7.3115 -2.7371 -0.3680 0.3420 0 25
7.3269 -2.4121 -0.3636 0.3459 0 2
7.5882 -2.1644 -0.3719 0.3485 0 1
7.6102 -1.8437 -0.3691 0.3532 0 1
7.6298 -1.5269 -0.3667 0.3569 0 1
3.9277 -0.6231 -0.1874 0.9678 25 14
3.9191 -0.4613 -0.1860 0.9753 25 14
3.9105 -0.3017 -0.1849 0.9813 25 14
3.8961 -0.1435 -0.1838 0.9799 25 14
3.8719 0.0130 -0.1825 0.9867 25 14
3.8968 0.1697 -0.1838 0.9795 25 14
3.9118 0.3282 -0.1850 0.9805 25 14
3.9207 0.4881 -0.1862 0.9741 25 14
3.9357 0.6515 -0.1880 0.3120 25 14
7.8025 1.6159 -0.3755 0.3485 0 1
7.8177 1.9495 -0.3797 0.3447 0 1
7.8323 2.2909 -0.3846 0.3357 0 1
7.8446 2.6409 -0.3901 0.3310 0 1
7.8557 3.0009 -0.3963 0.3258 0 1
7.8653 3.3726 -0.4033 0.3201 0 1
7.8735 3.7573 -0.4112 0.3140 0 1
7.8802 4.1570 -0.4199 0.3075 0 1
7.8461 4.5508 -0.4275 0.3176 0 1
7.8062 4.9570 -0.4358 0.3116 0 1
7.7628 5.3788 -0.4451 0.3051 0 1
7.7156 5.8182 -0.4554 0.2981 0 1
7.6513 6.2673 -0.4661 0.3317 0 1
7.5444 6.7036 -0.4757 0.3251 0 1
7.4311 7.1573 -0.4863 0.3180 0 1
7.3140 7.6340 -0.4983 0.3049 0 1
7.2983 8.2574 -0.5194 0.2696 0 2
6.9299 8.5059 -0.5171 0.9148 0 2
6.6944 8.9263 -0.5259 0.7954 22 6
6.4830 9.4093 -0.5385 0.5279 22 6
6.6372 10.5132 -0.5860 0.2141 0 2
6.5433 11.3500 -0.6175 0.2032 0 2
6.4361 12.2789 -0.6534 0.1920 0 2
6.3129 13.3191 -0.6947 0.1806 0 2
6.1703 14.4954 -0.7425 0.1690 0 2
6.0035 15.8407 -0.7984 0.1572 0 2
5.8064 17.3992 -0.8645 0.1451 0 2
5.5702 19.2318 -0.9437 0.1330 0 2
5.2828 21.4250 -1.0400 0.1206 0 2
4.9261 24.1058 -1.1596 0.1082 0 2
2.2699 13.9409 -0.6657 0.2719 0 9
2.5327 20.7888 -0.9870 0.5143 0 20
2.4936 30.6951 -1.4515 0.2771 0 20
1.1272 27.5525 -1.2997 0.0305 0 20
0.0103 14.4237 -0.6798 0.7527 0 9
-29.8663 39.9425 -2.3506 0.5767 0 3
-29.4670 36.2742 -2.2026 0.1483 0 3
-29.0766 32.9925 -2.0727 0.2813 0 3
-30.9537 32.4005 -2.1119 0.6643 0 3
-30.9639 29.9082 -2.0290 0.6915 0 3
-18.5424 16.5234 -1.1706 0.6098 0 6
-29.1973 23.9855 -1.7809 0.7289 0 3
-30.0074 22.6955 -1.7732 0.2994 0 3
-30.9858 21.5353 -1.7785 0.7888 0 3
-30.9887 19.7404 -1.7317 0.8101 0 3
-30.9906 18.0342 -1.6899 0.8301 0 3
-30.8124 16.3105 -1.6431 0.9248 0 3
-37.0477 17.7445 -1.9360 0.4373 0 3
-40.2696 17.3353 -2.0663 0.7885 0 3
-41.5164 15.9277 -2.0958 0.9478 0 3
-35.0914 -33.2528 -2.2785 0.9766 0 20
-33.5571 -34.4603 -2.2670 0.9815 0 20
-19.2273 -27.4264 -1.5786 0.7194 0 6
1.5406 -49.1548 -2.3179 0.0104 0 2
2.7717 -38.6959 -1.8284 0.9662 0 6
3.7078 -33.0629 -1.5681 0.0800 0 2
4.3460 -28.4000 -1.3541 0.0927 0 2
4.8283 -24.8347 -1.1924 0.1052 0 2
4.3911 -18.5703 -0.8994 0.7020 0 6
5.5071 -19.7169 -0.9648 0.1301 0 2
5.7541 -17.8075 -0.8820 0.1423 0 2
6.1726 -16.7686 -0.8422 0.9987 0 2
6.3675 -15.3644 -0.7839 0.1408 0 1
6.4614 -13.9758 -0.7257 0.1786 0 1
6.6070 -12.9034 -0.6832 0.1886 0 1
6.7294 -11.9350 -0.6458 0.2022 0 1
6.8428 -11.0719 -0.6134 0.2128 0 1
6.9382 -10.2788 -0.5845 0.2223 0 1
7.0170 -9.5452 -0.5584 0.2263 0 1
7.0787 -8.8602 -0.5345 0.2364 0 1
7.1381 -8.2333 -0.5136 0.2609 0 1
7.2021 -7.6624 -0.4956 0.2704 0 1
7.2784 -7.1455 -0.4807 0.2886 0 1
7.3488 -6.6566 -0.4673 0.2968 0 1
7.3986 -6.1794 -0.4543 0.2626 0 1
7.1429 -5.4942 -0.4247 0.2943 0 2
6.2918 -4.4491 -0.3632 0.6363 14 6
6.3009 -4.0862 -0.3539 0.9792 14 6
7.2278 -4.2850 -0.3960 0.3178 0 25
7.2507 -3.9139 -0.3883 0.3240 0 25
7.2712 -3.5556 -0.3815 0.3299 0 25
7.2894 -3.2084 -0.3754 0.3352 0 25
7.3055 -2.8711 -0.3700 0.3401 0 25
7.3197 -2.5423 -0.3652 0.3446 0 25
6.3830 9.5943 -0.6712 0.2309 0 2
6.2853 10.3237 -0.7040 0.2201 0 2
6.1746 11.1246 -0.7411 0.2091 0 2
6.0488 12.0107 -0.7832 0.1979 0 2
5.9046 12.9994 -0.8316 0.1864 0 2
5.7383 14.1127 -0.8873 0.1747 0 2
5.5447 15.3799 -0.9522 0.1627 0 2
5.3171 16.8397 -1.0285 0.1507 0 2
5.0461 18.5449 -1.1194 0.1384 0 2
4.7186 20.5696 -1.2292 0.1261 0 2
4.3159 23.0211 -1.3642 0.1136 0 2
2.2810 15.6041 -0.9185 0.8617 0 9
1.9834 18.8240 -1.1024 0.1019 0 20
1.5058 23.2028 -1.3543 0.9959 0 20
1.0839 43.9927 -2.5631 0.0750 0 1
-0.2251 14.4848 -0.8437 0.4610 0 9
-30.7578 36.6303 -2.7859 0.6220 0 3
-30.7791 33.8005 -2.6626 0.6508 0 3
-30.4290 30.8321 -2.5230 0.1678 0 3
-29.8387 27.8983 -2.3792 0.9700 0 3
-29.7215 25.6310 -2.2859 0.1852 0 3
-29.4348 23.3899 -2.1897 0.1933 0 3
-29.1762 21.3303 -2.1050 0.1955 0 3
-29.1630 19.5734 -2.0457 0.8006 0 3
-30.8566 18.9583 -2.1093 0.8214 0 3
-31.7257 17.7781 -2.1182 0.4937 0 3
-34.9064 17.7574 -2.2810 0.4584 0 3
-41.1153 18.8774 -2.6350 0.8759 0 3
-43.3529 17.8332 -2.7303 0.2383 0 3
-34.3919 -33.6676 -2.8031 0.9822 0 20
-32.6918 -34.6820 -2.7760 0.2222 0 20
0.3570 -48.1574 -2.8049 0.0575 0 1
1.8023 -37.8472 -2.2068 0.0702 0 2
2.8117 -31.9568 -1.8685 0.0829 0 2
3.5504 -27.6009 -1.6208 0.0956 0 2
4.1136 -24.2399 -1.4320 0.1082 0 2
4.5566 -21.5605 -1.2835 0.1207 0 2
4.9136 -19.3684 -1.1638 0.1332 0 2
5.2069 -17.5369 -1.0655 0.1454 0 2
5.7509 -16.8561 -1.0373 0.1741 0 2
5.8550 -15.1420 -0.9456 0.1441 0 1
5.9617 -13.7491 -0.8728 0.1778 0 24
6.1673 -12.7898 -0.8270 0.1936 0 1
6.3144 -11.8530 -0.7822 0.2061 0 1
6.4476 -11.0130 -0.7433 0.2169 0 1
6.5629 -10.2428 -0.7085 0.2264 0 1
6.6578 -9.5258 -0.6769 0.2306 0 1
6.7349 -8.8561 -0.6480 0.2409 0 1
6.8161 -8.2527 -0.6234 0.2655 0 1
6.8914 -7.6925 -0.6015 0.2751 0 1
6.9752 -7.1834 -0.5832 0.2938 0 1
7.0538 -6.7034 -0.5668 0.3023 0 1
7.0963 -6.2209 -0.5496 0.2681 0 1
6.8779 -5.5572 -0.5150 0.2957 0 2
6.9125 -5.1403 -0.5017 0.3098 0 25
6.3004 -4.3033 -0.4444 0.7941 14 6
6.4670 -4.0461 -0.4443 0.5724 14 6
7.0072 -4.0018 -0.4700 0.3307 0 25
7.0325 -3.6498 -0.4615 0.3368 0 25
7.0552 -3.3090 -0.4539 0.3424 0 25
7.0754 -2.9779 -0.4471 0.3476 0 25
7.0932 -2.6554 -0.4411 0.3523 0 25
7.1106 -2.3408 -0.4360 0.3562 0 2
7.3654 -2.1009 -0.4461 0.3596 0 1
7.3897 -1.7903 -0.4429 0.3635 0 1
7.4111 -1.4831 -0.4402 0.3673 0 1
3.9192 -0.6218 -0.2311 0.9693 25 14
3.9107 -0.4603 -0.2293 0.9769 25 14
3.9022 -0.3011 -0.2280 0.9828 25 14
3.8924 -0.1434 -0.2269 0.9803 25 14
3.8687 0.0130 -0.2253 0.9870 25 14
3.8935 0.1696 -0.2270 0.9798 25 14
3.9035 0.3275 -0.2282 0.9820 25 14
3.9124 0.4871 -0.2296 0.9756 25 14
3.9214 0.6491 -0.2315 0.9677 25 14
7.5769 1.5692 -0.4507 0.3638 0 1
7.5890 1.8925 -0.4555 0.3599 0 1
7.5993 2.2228 -0.4612 0.3557 0 1
7.6076 2.5611 -0.4675 0.3508 0 1
7.6143 2.9087 -0.4747 0.3455 0 1
7.6191 3.2670 -0.4828 0.3397 0 1
7.6221 3.6373 -0.4919 0.3335 0 1
7.6232 4.0214 -0.5020 0.3268 0 1
7.5948 4.4051 -0.5114 0.3300 0 1
7.5517 4.7954 -0.5210 0.3239 0 1
7.5047 5.1999 -0.5318 0.3174 0 1
7.4535 5.6206 -0.5437 0.3104 0 1
7.4009 6.0622 -0.5572 0.3027 0 1
7.3087 6.4942 -0.5695 0.3354 0 1
7.1940 6.9289 -0.5817 0.3283 0 1
7.0721 7.3815 -0.5954 0.3208 0 1
6.9603 7.8750 -0.6121 0.3065 0 1
6.9213 8.4953 -0.6382 0.9148 0 2
6.5024 8.6704 -0.6312 0.2441 0 2
6.4194 9.3170 -0.6590 0.2352 0 2
6.3263 10.0207 -0.6902 0.2245 0 2
6.2211 10.7912 -0.7255 0.2136 0 2
6.1017 11.6409 -0.7655 0.2024 0 2
5.9654 12.5858 -0.8112 0.1910 0 2
5.8086 13.6456 -0.8638 0.1794 0 2
5.6267 14.8465 -0.9247 0.1676 0 2
5.4138 16.2229 -0.9961 0.1556 0 2
5.1617 17.8213 -1.0806 0.1434 0 2
4.8590 19.7060 -1.1821 0.1311 0 2
4.4895 21.9691 -1.3060 0.1187 0 2
4.0292 24.7463 -1.4603 0.1061 0 2
2.5105 20.6067 -1.2091 0.5089 0 20
2.6669 32.8284 -1.9183 0.3609 0 2
1.6774 41.0017 -2.3901 0.0724 0 1
0.0351 49.2209 -2.8668 0.0612 0 1
-30.5676 37.6290 -2.8236 0.7503 0 3
-30.7709 34.9149 -2.7106 0.6393 0 3
-30.5499 31.9778 -2.5758 0.6675 0 3
-29.9098 28.8901 -2.4220 0.1731 0 3
-18.5422 16.5232 -1.4465 0.7600 0 6
-29.3173 24.0841 -2.2098 0.6387 0 3
-29.3118 22.1694 -2.1405 0.1914 0 3
-29.1604 20.2666 -2.0683 0.7919 0 3
-30.8543 19.6548 -2.1307 0.8132 0 3
-30.8594 17.9579 -2.0795 0.8332 0 3
-35.8310 18.9671 -2.3613 0.8519 0 3
-37.0457 17.7435 -2.3924 0.4371 0 3
-40.0717 17.2501 -2.5410 0.7112 0 3
-46.0962 17.6847 -2.8756 0.3637 0 3
-35.0127 -33.1782 -2.8094 0.9800 0 20
-33.3516 -34.2492 -2.7843 0.9569 0 20
1.3515 -43.1224 -2.5128 0.0650 0 2
1.8779 -26.2172 -1.5309 0.5727 0 20
3.2768 -29.2199 -1.7125 0.0905 0 2
3.9027 -25.5034 -1.5027 0.1031 0 2
4.3893 -22.5767 -1.3396 0.1157 0 2
4.3630 -18.4513 -1.1043 0.5315 0 6
5.0948 -18.2407 -1.1031 0.1405 0 2
5.5198 -17.0822 -1.0456 0.9864 0 2
5.8036 -15.7661 -0.9785 0.1393 0 1
5.9256 -14.2981 -0.9015 0.1554 0 1
6.1009 -13.1960 -0.8467 0.1891 0 1
6.2570 -12.2199 -0.7996 0.1990 0 1
6.3957 -11.3431 -0.7584 0.2126 0 1
6.5188 -10.5476 -0.7222 0.2222 0 1
6.6238 -9.8131 -0.6896 0.2264 0 1
6.7048 -9.1205 -0.6593 0.2367 0 1
6.7834 -8.4905 -0.6330 0.2615 0 1
6.8618 -7.9147 -0.6101 0.2713 0 1
6.9414 -7.3851 -0.5903 0.2902 0 1
7.0228 -6.8945 -0.5732 0.2989 0 1
7.0850 -6.4176 -0.5568 0.2646 0 1
7.1118 -5.9397 -0.5397 0.2730 0 1
6.8973 -5.3053 -0.5068 0.3067 0 25
6.3113 -4.4629 -0.4502 0.7559 14 6
6.3304 -4.1053 -0.4394 0.7741 14 6
6.7342 -3.9924 -0.4560 0.5144 14 6
7.0226 -3.7908 -0.4648 0.3344 0 25
7.0464 -3.4456 -0.4568 0.3402 0 25
7.0675 -3.1108 -0.4497 0.3456 0 25
7.0863 -2.7849 -0.4435 0.3505 0 25
7.1047 -2.4676 -0.4381 0.3546 0 2
6.1046 9.1758 -0.7645 0.2413 0 2
5.9983 9.8524 -0.8002 0.2305 0 2
5.8786 10.5912 -0.8403 0.2195 0 2
5.7431 11.4037 -0.8857 0.2082 0 2
5.5888 12.3040 -0.9375 0.1968 0 2
5.4120 13.3101 -0.9967 0.1851 0 2
5.2077 14.4451 -1.0652 0.1732 0 2
4.9697 15.7395 -1.1450 0.1611 0 2
4.6894 17.2339 -1.2390 0.1489 0 2
4.3549 18.9839 -1.3511 0.1365 0 2
3.9497 21.0679 -1.4869 0.1240 0 2
2.2842 15.6260 -1.0955 0.9642 0 9
2.1873 20.7590 -1.4480 0.2799 0 20
1.5058 23.2022 -1.6129 0.9952 0 20
0.9374 38.0442 -2.6399 0.0712 0 1
-0.7046 45.3431 -3.1458 0.0679 0 1
-30.5842 36.4236 -3.2993 0.6251 0 3
-30.6130 33.6181 -3.1541 0.6539 0 3
-30.6378 31.0436 -3.0257 0.6816 0 3
-30.6591 28.6654 -2.9116 0.7083 0 3
-19.1590 16.5221 -1.7550 0.9832 0 6
-28.8491 22.9244 -2.5562 0.9782 0 3
-30.7039 22.4473 -2.6384 0.7816 0 3
-30.3625 20.3784 -2.5367 0.1977 0 3
-30.1128 18.5013 -2.4517 0.2050 0 3
-29.9583 16.7877 -2.3823 0.2189 0 3
-34.9046 17.7565 -2.7166 0.4581 0 3
-40.9502 18.8016 -3.1258 0.8788 0 3
-40.8813 16.8164 -3.0665 0.5292 0 3
-34.3389 -33.6157 -3.3335 0.9520 0 20
-32.9515 -34.9574 -3.3325 0.3888 0 20
-18.5847 -27.4484 -2.2995 0.8096 0 22
0.3013 -40.6432 -2.8195 0.0698 0 1
1.5673 -32.9113 -2.2856 0.0807 0 2
2.4949 -28.3562 -1.9747 0.0934 0 2
3.1981 -24.8624 -1.7389 0.1061 0 2
3.7488 -22.0901 -1.5543 0.1187 0 2
4.1910 -19.8307 -1.4060 0.1312 0 2
4.5534 -17.9488 -1.2846 0.1436 0 2
5.1206 -17.2463 -1.2480 0.1720 0 2
5.2954 -15.5209 -1.1376 0.1419 0 1
5.4625 -14.1270 -1.0507 0.1851 0 1
5.6678 -13.0714 -0.9883 0.1928 0 1
5.8476 -12.1269 -0.9339 0.2028 0 1
6.0068 -11.2756 -0.8863 0.2165 0 1
6.1484 -10.5020 -0.8442 0.2273 0 1
6.2701 -9.7859 -0.8062 0.2304 0 1
6.3668 -9.1095 -0.7710 0.2555 0 1
6.4666 -8.5033 -0.7411 0.2658 0 1
6.5565 -7.9384 -0.7142 0.2758 0 1
6.6444 -7.4168 -0.6908 0.2952 0 1
6.7342 -6.9352 -0.6706 0.3041 0 1
6.7897 -6.4524 -0.6498 0.2699 0 1
6.8264 -5.9843 -0.6297 0.2785 0 1
6.6433 -5.3676 -0.5925 0.3124 0 2
6.6852 -4.9713 -0.5779 0.3201 0 25
6.2846 -4.2925 -0.5279 0.3275 14 6
6.3852 -3.9949 -0.5225 0.5982 14 6
6.7909 -3.8782 -0.5425 0.3410 0 25
6.8193 -3.5391 -0.5330 0.3471 0 25
6.8447 -3.2102 -0.5244 0.3527 0 25
6.8673 -2.8903 -0.5169 0.3579 0 25
6.8873 -2.5783 -0.5102 0.3626 0 25
7.0390 -2.3173 -0.5141 0.5778 0 2
7.1556 -2.0410 -0.5162 0.3699 0 1
7.1814 -1.7398 -0.5126 0.3738 0 1
4.1877 -0.8381 -0.2963 0.2702 25 14
3.9108 -0.6205 -0.2747 0.9707 25 14
3.9023 -0.4593 -0.2726 0.9783 25 14
3.8939 -0.3004 -0.2709 0.9842 25 14
3.8855 -0.1431 -0.2697 0.9886 25 14
3.8654 0.0129 -0.2681 0.9871 25 14
3.8865 0.1693 -0.2699 0.9881 25 14
3.8953 0.3268 -0.2712 0.9833 25 14
3.9042 0.4861 -0.2729 0.9770 25 14
3.9131 0.6477 -0.2751 0.9691 25 14
7.3641 1.5251 -0.5217 0.3741 0 1
7.3736 1.8387 -0.5272 0.3702 0 1
7.3811 2.1589 -0.5335 0.3659 0 1
7.3863 2.4866 -0.5406 0.3611 0 1
7.3894 2.8228 -0.5487 0.3558 0 1
7.3904 3.1689 -0.5578 0.3500 0 1
7.3891 3.5262 -0.5680 0.3437 0 1
7.3831 3.8947 -0.5791 0.3337 0 1
7.3595 4.2686 -0.5902 0.3404 0 1
7.3134 4.6441 -0.6010 0.3342 0 1
7.2632 5.0326 -0.6130 0.3277 0 1
7.2084 5.4358 -0.6263 0.3207 0 1
7.1521 5.8583 -0.6413 0.3130 0 1
7.0871 6.2973 -0.6577 0.3456 0 1
6.9712 6.7144 -0.6714 0.3385 0 1
6.8481 7.1477 -0.6867 0.3310 0 1
6.7305 7.6150 -0.7050 0.3167 0 1
6.6732 8.1909 -0.7329 0.2812 0 2
6.4767 8.6360 -0.7488 0.9512 0 2
6.1444 8.9179 -0.7513 0.2438 0 2
6.0428 9.5717 -0.7852 0.2349 0 2
5.9288 10.2841 -0.8235 0.2240 0 2
5.8000 11.0653 -0.8667 0.2128 0 2
5.6537 11.9282 -0.9157 0.2014 0 2
5.4865 12.8890 -0.9717 0.1898 0 2
5.2940 13.9686 -1.0363 0.1780 0 2
5.0706 15.1943 -1.1112 0.1660 0 2
4.8086 16.6020 -1.1990 0.1538 0 2
4.4976 18.2407 -1.3033 0.1415 0 2
4.1235 20.1782 -1.4287 0.1291 0 2
3.6655 22.5122 -1.5822 0.1166 0 2
2.5031 20.5461 -1.4358 0.8794 0 20
1.8212 22.4177 -1.5602 0.8064 0 6
1.4520 35.4919 -2.4641 0.0788 0 1
0.0301 42.1874 -2.9265 0.0736 0 1
-30.5713 37.6336 -3.3635 0.6132 0 3
-28.7582 32.6312 -3.0173 0.9523 0 3
-30.6282 32.0598 -3.0758 0.6705 0 3
-30.6509 29.6059 -2.9562 0.6976 0 3
-30.6704 27.3308 -2.8498 0.7237 0 3
-30.6871 25.2094 -2.7550 0.7486 0 3
-30.5430 23.1006 -2.6565 0.3019 0 3
-30.4947 21.1940 -2.5762 0.1874 0 3
-30.2095 19.2440 -2.4847 0.2022 0 3
-30.0018 17.4588 -2.4080 0.2163 0 3
-33.5606 17.7653 -2.6342 0.4725 0 3
-40.9480 19.6126 -3.1496 0.8721 0 3
-40.2449 17.3247 -3.0395 0.2160 0 3
-46.0932 17.6836 -3.4247 0.3634 0 3
-35.0603 -33.2233 -3.3507 0.9471 0 20
-33.2899 -34.1859 -3.3101 0.9587 0 20
-0.3863 -43.6883 -3.0308 0.0644 0 1
1.1642 -37.1457 -2.5781 0.0756 0 2
1.8728 -26.1461 -1.8184 0.9047 0 20
2.9352 -26.1738 -1.8271 0.1010 0 2
3.5411 -23.1403 -1.6239 0.1136 0 2
4.0231 -20.6929 -1.4623 0.1261 0 2
4.3515 -18.4027 -1.3118 0.8715 0 6
4.8800 -17.4719 -1.2584 0.9357 0 2
5.2172 -16.1459 -1.1771 0.1432 0 1
5.3939 -14.6530 -1.0832 0.1490 0 1
5.5878 -13.4831 -1.0125 0.1896 0 1
5.7781 -12.4978 -0.9551 0.1995 0 1
5.9445 -11.6095 -0.9048 0.2121 0 1
6.0931 -10.8066 -0.8606 0.2230 0 1
6.2233 -10.0696 -0.8212 0.2325 0 1
6.3289 -9.3762 -0.7847 0.2367 0 1
6.4275 -8.7432 -0.7528 0.2617 0 1
6.5212 -8.1623 -0.7247 0.2718 0 1
6.6059 -7.6194 -0.6995 0.2816 0 1
6.6988 -7.1269 -0.6785 0.3005 0 1
6.7734 -6.6497 -0.6585 0.2663 0 1
6.8121 -6.1705 -0.6376 0.2750 0 1
6.8435 -5.7157 -0.6185 0.2770 0 1
6.6683 -5.1291 -0.5836 0.3170 0 25
6.2795 -4.4404 -0.5335 0.8019 14 6
6.2954 -4.0826 -0.5205 0.5999 14 6
6.7345 -3.9926 -0.5431 0.5141 14 6
6.8082 -3.6750 -0.5367 0.3447 0 25
6.8348 -3.3422 -0.5278 0.3505 0 25
6.8585 -3.0188 -0.5198 0.3558 0 25
6.8795 -2.7037 -0.5128 0.3607 0 25
6.8994 -2.3963 -0.5067 0.3633 0 2
5.9004 8.8689 -0.8577 0.9818 0 2
5.7360 9.4216 -0.8881 0.2409 0 2
5.6092 10.1059 -0.9306 0.2299 0 2
5.4664 10.8543 -0.9785 0.2186 0 2
5.3046 11.6784 -1.0327 0.2071 0 2
5.1203 12.5928 -1.0945 0.1954 0 2
4.9089 13.6163 -1.1654 0.1835 0 2
4.6645 14.7729 -1.2473 0.1715 0 2
4.3793 16.0943 -1.3429 0.1593 0 2
4.0427 17.6231 -1.4558 0.1469 0 2
3.6404 19.4179 -1.5906 0.1345 0 2
1.9850 13.5790 -1.1049 0.2566 0 20
2.5472 24.1743 -1.9571 0.1093 0 2
1.5057 23.2017 -1.8720 0.9944 0 20
0.8183 33.2135 -2.6750 0.0804 0 1
-0.6079 39.1182 -3.1499 0.0687 0 1
-2.6119 46.8336 -3.7766 0.0668 0 1
-31.6282 37.6668 -3.9600 0.7676 0 3
-30.4484 33.4374 -3.6411 0.6568 0 3
-30.4798 30.8835 -3.4936 0.6846 0 3
-29.5441 27.6229 -3.2565 0.9723 0 3
-30.5305 26.3286 -3.2459 0.7368 0 3
-30.5508 24.2767 -3.1418 0.7612 0 3
-30.5657 22.3462 -3.0485 0.7845 0 3
-30.5807 20.5249 -2.9653 0.8065 0 3
-30.5934 18.7966 -2.8910 0.8272 0 3
-31.3154 17.5482 -2.8902 0.5310 0 3
-34.9027 17.7556 -3.1529 0.4578 0 3
-40.7862 18.7263 -3.6134 0.8816 0 3
-45.9292 18.8929 -3.9986 0.8970 0 3
-45.8665 16.7467 -3.9313 0.7955 0 3
-34.2764 -33.5545 -3.8620 0.8919 0 20
-32.6612 -34.6494 -3.8338 0.3920 0 20
-20.2276 -27.4331 -2.7443 0.7800 0 22
-18.5897 -27.4556 -2.6696 0.8118 0 22
-1.3604 -41.5108 -3.3440 0.0670 0 1
0.2609 -35.1966 -2.8339 0.0780 0 1
1.3862 -29.1092 -2.3463 0.0912 0 2
2.2419 -25.4808 -2.0595 0.1039 0 2
2.9090 -22.6150 -1.8358 0.1165 0 2
3.4430 -20.2881 -1.6568 0.1291 0 2
3.8793 -18.3558 -1.5105 0.1416 0 2
4.4750 -17.6395 -1.4652 0.1695 0 2
4.7115 -15.8682 -1.3327 0.1466 0 1
4.9281 -14.4445 -1.2288 0.1523 0 1
5.1643 -13.3556 -1.1529 0.1931 0 1
5.3750 -12.3961 -1.0878 0.2046 0 1
5.5614 -11.5332 -1.0309 0.2170 0 1
5.7274 -10.7511 -0.9808 0.2269 0 1
5.8752 -10.0352 -0.9363 0.2365 0 1
5.9981 -9.3615 -0.8952 0.2552 0 1
6.1150 -8.7493 -0.8594 0.2658 0 1
6.2204 -8.1795 -0.8274 0.2761 0 1
6.3156 -7.6467 -0.7985 0.2861 0 1
6.4157 -7.1615 -0.7741 0.3055 0 1
6.4842 -6.6778 -0.7494 0.2714 0 1
6.5329 -6.2084 -0.7256 0.2803 0 1
6.5759 -5.7647 -0.7041 0.2888 0 1
6.4265 -5.1924 -0.6652 0.3219 0 2
6.4721 -4.8128 -0.6494 0.3303 0 25
6.2949 -4.2996 -0.6138 0.7511 14 6
6.3853 -3.9950 -0.6064 0.5339 14 6
6.5872 -3.7619 -0.6108 0.3512 0 25
6.6183 -3.4348 -0.6004 0.3573 0 25
6.6461 -3.1171 -0.5910 0.3629 0 25
6.6709 -2.8076 -0.5827 0.3681 0 25
6.6938 -2.5059 -0.5755 0.3706 0 2
6.9298 -2.2813 -0.5874 0.3770 0 1
6.9576 -1.9846 -0.5825 0.3814 0 1
6.9842 -1.6920 -0.5786 0.3840 0 1
4.1277 -0.8261 -0.3389 0.2739 25 14
3.9023 -0.6191 -0.3181 0.9720 25 14
3.8940 -0.4583 -0.3157 0.9795 25 14
3.8856 -0.2998 -0.3138 0.9855 25 14
3.8773 -0.1428 -0.3124 0.9899 25 14
3.8622 0.0129 -0.3110 0.9871 25 14
3.8784 0.1689 -0.3126 0.9893 25 14
3.8872 0.3261 -0.3141 0.9846 25 14
3.8959 0.4851 -0.3161 0.9783 25 14
3.9047 0.6463 -0.3187 0.9704 25 14
4.2118 0.8723 -0.3463 0.3243 25 14
7.1698 1.7879 -0.5949 0.3804 0 1
7.1748 2.0986 -0.6019 0.3762 0 1
7.1771 2.4161 -0.6097 0.3713 0 1
7.1771 2.7417 -0.6186 0.3660 0 1
7.1746 3.0764 -0.6285 0.3602 0 1
7.1696 3.4214 -0.6396 0.3540 0 1
7.1565 3.7752 -0.6515 0.3440 0 1
7.1341 4.1379 -0.6640 0.3375 0 1
7.0894 4.5018 -0.6762 0.3445 0 1
7.0364 4.8754 -0.6892 0.3380 0 1
6.9786 5.2625 -0.7037 0.3310 0 1
6.9191 5.6675 -0.7201 0.3233 0 1
6.8595 6.0951 -0.7388 0.3151 0 1
6.7616 6.5124 -0.7558 0.3488 0 1
6.6376 6.9280 -0.7725 0.3412 0 1
6.5151 7.3712 -0.7921 0.3269 0 1
6.3906 7.8439 -0.8146 0.3179 0 1
6.3224 8.4302 -0.8484 0.2820 0 2
6.0635 8.8005 -0.8605 0.9786 0 2
5.7833 9.1606 -0.8722 0.2452 0 2
5.6623 9.8219 -0.9128 0.2343 0 2
5.5263 10.5431 -0.9584 0.2232 0 2
5.3725 11.3350 -1.0099 0.2118 0 2
5.1978 12.2109 -1.0685 0.2002 0 2
4.9981 13.1877 -1.1355 0.1884 0 2
4.7678 14.2871 -1.2127 0.1764 0 2
4.5002 15.5374 -1.3024 0.1642 0 2
4.1859 16.9763 -1.4078 0.1519 0 2
3.8122 18.6551 -1.5330 0.1395 0 2
2.1879 13.4377 -1.0962 0.5093 0 20
2.1410 17.5735 -1.4254 0.9714 0 20
1.8204 22.4087 -1.8102 0.9983 0 6
1.2871 31.4617 -2.5352 0.1260 0 1
0.0260 36.4657 -2.9360 0.0769 0 1
-1.7134 43.4004 -3.4971 0.0692 0 1
-30.3961 37.4179 -3.8814 0.6162 0 3
-30.5898 34.7094 -3.7250 0.1334 0 3
-30.4676 31.8917 -3.5512 0.6735 0 3
-30.4964 29.4567 -3.4138 0.7006 0 3
-30.5214 27.1980 -3.2915 0.7266 0 3
-30.5429 25.0910 -3.1825 0.7515 0 3
-30.5615 23.1146 -3.0852 0.7752 0 3
-30.5749 21.2498 -2.9979 0.7977 0 3
-30.5885 19.4854 -2.9200 0.8190 0 3
-30.6060 17.8104 -2.8511 0.9691 0 3
-31.4545 16.6504 -2.8655 0.2106 0 3
-40.7828 19.5334 -3.6408 0.8749 0 3
-40.7544 17.5441 -3.5724 0.2187 0 3
-41.9391 16.0899 -3.6167 0.3631 0 3
-34.9972 -33.1635 -3.8819 0.9481 0 20
-33.0749 -33.9651 -3.8171 0.9024 0 20
-19.2441 -27.4504 -2.6992 0.8426 0 22
-2.2077 -45.0079 -3.6281 0.0610 0 1
-0.3317 -37.5131 -3.0204 0.0731 0 1
1.0225 -32.6255 -2.6281 0.0860 0 2
1.8705 -26.1150 -2.1080 0.9766 0 20
2.6577 -23.6993 -1.9201 0.1114 0 2
3.2404 -21.1752 -1.7247 0.1240 0 2
3.7128 -19.0970 -1.5664 0.1366 0 2
4.2455 -17.9543 -1.4854 0.8891 0 2
4.6073 -16.4955 -1.3789 0.1276 0 1
4.8477 -15.0022 -1.2694 0.1474 0 1
5.0704 -13.7743 -1.1818 0.1909 0 1
5.2931 -12.7719 -1.1131 0.2000 0 1
5.4887 -11.8718 -1.0531 0.2125 0 1
5.6625 -11.0587 -1.0003 0.2225 0 1
5.8175 -10.3177 -0.9537 0.2333 0 1
5.9498 -9.6270 -0.9112 0.2364 0 1
6.0692 -8.9915 -0.8734 0.2615 0 1
6.1791 -8.4053 -0.8399 0.2720 0 1
6.2782 -7.8582 -0.8098 0.2821 0 1
6.3756 -7.3539 -0.7836 0.3018 0 1
6.4628 -6.8758 -0.7598 0.2677 0 1
6.5140 -6.3950 -0.7350 0.2767 0 1
6.5591 -5.9413 -0.7125 0.2854 0 1
6.5914 -5.5052 -0.6915 0.2874 0 1
6.4537 -4.9641 -0.6555 0.3272 0 25
6.2985 -4.4538 -0.6211 0.7422 14 6
6.2899 -4.0790 -0.6036 0.7638 14 6
6.5737 -3.8972 -0.6153 0.3486 0 25
6.6061 -3.5660 -0.6044 0.3549 0 25
6.6352 -3.2446 -0.5947 0.3607 0 25
6.6612 -2.9319 -0.5860 0.3661 0 25
6.6842 -2.6269 -0.5782 0.3710 0 25
6.8430 -2.3767 -0.5832 0.6549 0 2
5.8964 8.8629 -0.9759 0.9924 0 2
5.5152 9.0589 -0.9723 0.9960 0 2
5.3630 9.6624 -1.0131 0.2402 0 2
5.2147 10.3546 -1.0629 0.2289 0 2
5.0475 11.1123 -1.1189 0.2175 0 2
4.8580 11.9478 -1.1824 0.2058 0 2
4.6421 12.8761 -1.2548 0.1939 0 2
4.3942 13.9167 -1.3379 0.1819 0 2
4.1072 15.0945 -1.4341 0.1697 0 2
3.7719 16.4425 -1.5466 0.1573 0 2
3.3755 18.0052 -1.6794 0.1449 0 2
1.9659 13.4482 -1.2460 0.9797 0 20
2.3229 22.0461 -2.0323 0.1197 0 2
1.6055 24.7394 -2.2728 0.1071 0 2
0.7297 29.6165 -2.7160 0.1009 0 1
-0.5289 34.0352 -3.1206 0.0876 0 1
-2.2381 40.1318 -3.6849 0.0721 0 1
-4.6432 48.2765 -4.4463 0.0645 0 1
-28.4050 39.9458 -4.4936 0.2365 0 3
-28.9709 37.4598 -4.3414 0.3074 0 3
-31.6272 37.6656 -4.5090 0.7669 0 3
-30.2854 33.2583 -4.1238 0.6598 0 3
-32.2378 32.6648 -4.2075 0.7134 0 3
-30.3560 28.3820 -3.8099 0.7141 0 3
-19.1410 16.5066 -2.3172 0.7890 0 6
-30.4095 24.1644 -3.5609 0.7640 0 3
-30.4285 22.2459 -3.4556 0.7873 0 3
-30.4472 20.4352 -3.3617 0.8092 0 3
-30.4631 18.7166 -3.2778 0.8300 0 3
-31.7211 17.7755 -3.3336 0.4925 0 3
-33.0049 16.7901 -3.3948 0.1956 0 3
-40.6232 18.6515 -4.0980 0.8843 0 3
-40.8611 16.8082 -4.0506 0.8073 0 3
-44.0272 16.0751 -4.2969 0.3477 0 3
-34.2314 -33.5104 -4.3917 0.8927 0 20
-32.7381 -34.7310 -4.3757 0.5468 0 20
-20.2670 -27.4866 -3.1308 0.7572 0 22
-18.5964 -27.4655 -3.0408 0.8588 0 22
-3.1275 -42.8049 -3.9347 0.0632 0 1
-1.1744 -35.8359 -3.2871 0.0753 0 1
0.2299 -31.0159 -2.8435 0.0896 0 1
1.3105 -27.5192 -2.5258 0.1018 0 2
2.0352 -23.1311 -2.1288 0.1143 0 2
2.6675 -20.7372 -1.9168 0.1269 0 2
