ply
format ascii 1.0
element vertex 1380
property float32 x
property float32 y
property float32 z
property float32 CosAngle
property uint32 ObjIdx
property uint32 ObjTag
end_header
-7.6607 12.5388 -5.4868 0.1773 0 24
-8.6190 12.9115 -5.7968 0.1720 0 24
-9.6941 13.3300 -6.1547 0.1654 0 1
-10.8386 13.7105 -6.5262 0.1532 0 1
-12.1053 14.1090 -6.9419 0.1389 0 1
-13.5804 14.5986 -7.4453 0.1186 0 1
-15.7391 15.6121 -8.2781 0.1023 0 1
-16.7846 15.3622 -8.4964 0.8220 0 2
-43.1575 -13.2030 -17.4250 0.0594 0 1
-39.9431 -13.9970 -16.3411 0.0632 0 1
-36.7465 -14.5587 -15.2604 0.0669 0 1
-33.7703 -14.9752 -14.2629 0.0731 0 1
-30.8977 -15.2143 -13.2971 0.0698 0 1
-28.1225 -15.2804 -12.3571 0.0708 0 1
-25.5293 -15.2300 -11.4773 0.0705 0 1
-23.0354 -15.0283 -10.6191 0.0684 0 1
-20.6217 -14.6670 -9.7703 0.0765 0 1
-18.6135 -14.3983 -9.0856 0.1126 0 1
-16.8545 -14.1551 -8.4979 0.1204 0 1
-15.2125 -13.8551 -7.9443 0.1257 0 1
-13.7024 -13.5256 -7.4336 0.1322 0 1
-12.2912 -13.1481 -6.9491 0.1378 0 24
-11.0906 -12.8625 -6.5572 0.1493 0 1
-9.9524 -12.5263 -6.1770 0.1628 0 1
-8.9418 -12.2326 -5.8502 0.1797 0 1
-8.0096 -11.9354 -5.5496 0.1895 0 1
-7.1187 -11.5879 -5.2508 0.1980 0 24
-6.3371 -11.3102 -5.0055 0.2075 0 1
-5.5937 -10.9970 -4.7635 0.2180 0 1
-4.9052 -10.6850 -4.5393 0.2272 0 1
-4.2666 -10.3735 -4.3306 0.2381 0 1
-3.6752 -10.0669 -4.1376 0.2498 0 1
-3.1264 -9.7642 -3.9584 0.2602 0 1
-2.6170 -9.4668 -3.7921 0.2716 0 1
-2.1438 -9.1750 -3.6378 0.2831 0 1
-1.7023 -8.8819 -3.4916 0.2910 0 1
-1.2920 -8.5953 -3.3558 0.3027 0 1
-0.9101 -8.3143 -3.2292 0.3143 0 1
-0.5545 -8.0390 -3.1111 0.3262 0 1
-0.2231 -7.7726 -3.0021 0.3431 0 1
0.0860 -7.4917 -2.8927 0.3555 0 24
0.3752 -7.2593 -2.8065 0.3670 0 1
0.6455 -7.0109 -2.7183 0.3788 0 1
0.8984 -6.7676 -2.6358 0.3907 0 1
1.1352 -6.5294 -2.5588 0.4024 0 1
1.3568 -6.2942 -2.4860 0.4144 0 1
1.5643 -6.0635 -2.4177 0.4250 0 1
1.7586 -5.8365 -2.3535 0.4366 0 1
1.9326 -5.5906 -2.2838 0.4448 0 24
2.1114 -5.3958 -2.2371 0.4590 0 1
2.2716 -5.1816 -2.1844 0.4701 0 1
2.4218 -4.9713 -2.1350 0.4809 0 1
2.5582 -4.7560 -2.0850 0.4751 0 1
2.6824 -4.5399 -2.0359 0.4866 0 1
2.7979 -4.3286 -1.9900 0.4978 0 1
2.9055 -4.1219 -1.9471 0.5088 0 1
3.0055 -3.9195 -1.9070 0.5195 0 1
3.1038 -3.7276 -1.8728 0.5507 0 1
3.1965 -3.5396 -1.8414 0.5601 0 1
3.2831 -3.3543 -1.8122 0.5692 0 1
3.3640 -3.1716 -1.7850 0.5778 0 1
3.4406 -2.9921 -1.7604 0.5769 0 1
3.5122 -2.8149 -1.7378 0.5844 0 1
3.5789 -2.6394 -1.7169 0.5916 0 1
3.6407 -2.4656 -1.6977 0.5983 0 1
3.6984 -2.2936 -1.6802 0.6046 0 1
3.7520 -2.1231 -1.6645 0.6104 0 1
3.8013 -1.9538 -1.6502 0.6157 0 1
3.8464 -1.7856 -1.6373 0.6205 0 1
3.8881 -1.6185 -1.6260 0.6281 0 1
3.9259 -1.4521 -1.6161 0.6319 0 1
3.9599 -1.2864 -1.6075 0.6353 0 1
3.9901 -1.1212 -1.6002 0.6382 0 1
4.0167 -0.9565 -1.5942 0.6407 0 1
4.0396 -0.7920 -1.5894 0.6426 0 1
4.0590 -0.6277 -1.5858 0.6440 0 1
4.0749 -0.4635 -1.5834 0.6450 0 1
4.0872 -0.2993 -1.5823 0.6455 0 1
4.0961 -0.1349 -1.5823 0.6455 0 1
4.1037 0.0297 -1.5844 0.6439 0 1
4.1087 0.1949 -1.5881 0.6424 0 1
4.1102 0.3609 -1.5930 0.6404 0 1
4.1081 0.5277 -1.5991 0.6380 0 1
4.1020 0.6953 -1.6063 0.6257 0 1
4.0881 0.8632 -1.6132 0.6231 0 1
4.0704 1.0318 -1.6212 0.6200 0 1
4.0488 1.2013 -1.6306 0.6164 0 1
4.0234 1.3718 -1.6412 0.6124 0 1
3.9939 1.5434 -1.6531 0.6080 0 1
3.9603 1.7162 -1.6665 0.6031 0 1
3.9225 1.8904 -1.6812 0.5979 0 1
3.8804 2.0661 -1.6973 0.5922 0 1
3.8338 2.2434 -1.7150 0.5857 0 1
3.7827 2.4224 -1.7343 0.5792 0 1
3.7268 2.6034 -1.7552 0.5723 0 1
3.6662 2.7867 -1.7780 0.5650 0 1
3.6003 2.9721 -1.8025 0.5573 0 1
3.5290 3.1599 -1.8289 0.5492 0 1
3.4518 3.3501 -1.8572 0.5409 0 1
3.3686 3.5429 -1.8875 0.5322 0 1
3.2792 3.7386 -1.9200 0.5271 0 1
3.1838 3.9383 -1.9553 0.5176 0 1
3.0813 4.1413 -1.9930 0.5078 0 1
2.9684 4.3434 -2.0312 0.5023 0 1
2.8470 4.5477 -2.0715 0.4930 0 1
2.7174 4.7551 -2.1145 0.4830 0 1
2.5790 4.9659 -2.1604 0.4727 0 1
2.4314 5.1801 -2.2093 0.4622 0 1
2.2738 5.3981 -2.2615 0.4516 0 1
2.1057 5.6198 -2.3171 0.4411 0 1
1.9157 5.8132 -2.3632 0.4299 0 24
1.7348 6.0748 -2.4392 0.4190 0 1
1.5305 6.3088 -2.5064 0.4078 0 1
1.3124 6.5473 -2.5781 0.3965 0 1
1.0787 6.7850 -2.6525 0.4081 0 1
0.8310 7.0400 -2.7370 0.3735 0 1
0.5653 7.2958 -2.8253 0.3618 0 1
0.2809 7.5571 -2.9197 0.3501 0 1
-0.0235 7.8241 -3.0208 0.3384 0 1
-0.3497 8.0940 -3.1279 0.3294 0 1
-0.6991 8.3682 -3.2422 0.3178 0 1
-1.0736 8.6481 -3.3646 0.3063 0 1
-1.4750 8.9309 -3.4949 0.2957 0 1
-1.9048 9.2143 -3.6328 0.2908 0 1
-2.3650 9.4985 -3.7793 0.2795 0 1
-2.8588 9.7874 -3.9367 0.2610 0 1
-3.3951 10.0975 -4.1130 0.2498 0 1
-3.9702 10.4047 -4.2997 0.2406 0 1
-4.5756 10.6824 -4.4868 0.2261 0 24
-5.2655 11.0449 -4.7242 0.2152 0 1
-5.9723 11.3323 -4.9457 0.2034 0 24
-6.7596 11.6648 -5.2052 0.1923 0 24
-7.5654 11.9243 -5.4523 0.1834 0 24
-8.4747 12.2415 -5.7484 0.1766 0 24
-9.4511 12.5439 -6.0639 0.1706 0 24
-10.4998 12.8294 -6.4007 0.1642 0 24
-11.7227 13.2041 -6.8172 0.1510 0 1
-13.0033 13.5122 -7.2403 0.1318 0 1
-14.3633 13.7730 -7.6831 0.1048 0 24
-16.4813 14.5796 -8.4957 0.1343 0 2
-17.2523 14.0682 -8.5948 0.1117 0 2
-19.0556 14.3040 -9.1993 0.1044 0 2
-21.0158 14.4936 -9.8565 0.0974 0 2
-23.1403 14.6234 -10.5687 0.0908 0 2
-25.1515 14.5149 -11.2118 0.9427 0 21
-27.8950 14.6376 -12.1627 0.0789 0 25
-30.5178 14.4820 -13.0420 0.0736 0 25
-33.2857 14.1871 -13.9699 0.0687 0 25
-36.1703 13.7277 -14.9370 0.0643 0 2
-39.1287 13.0785 -15.9288 0.0603 0 2
-42.1009 12.2158 -16.9252 0.0567 0 2
-45.0084 11.1209 -17.8999 0.0536 0 2
-22.6131 -4.5749 -8.9076 0.9986 16 6
-44.4637 -12.7836 -17.8625 0.0613 0 1
-41.1782 -13.6517 -16.7494 0.0607 0 24
-38.0803 -14.3462 -15.7112 0.0640 0 1
-34.9993 -14.8165 -14.6739 0.0696 0 1
-32.1756 -15.1724 -13.7346 0.0648 0 1
-29.2823 -15.2744 -12.7513 0.0776 0 1
-26.5608 -15.2417 -11.8234 0.0745 0 1
-24.0667 -15.1266 -10.9749 0.0739 0 1
-21.5838 -14.8075 -10.1059 0.0719 0 1
-19.4147 -14.4995 -9.3555 0.1055 0 1
-17.5774 -14.2619 -8.7393 0.1171 0 1
-15.8860 -13.9840 -8.1712 0.1222 0 1
-14.3262 -13.6704 -7.6454 0.1285 0 1
-12.8927 -13.3319 -7.1605 0.1375 0 1
-11.6026 -13.0046 -6.7289 0.1455 0 1
-10.4177 -12.6657 -6.3318 0.1546 0 1
-9.3571 -12.3562 -5.9842 0.1757 0 1
-8.3936 -12.0612 -5.6734 0.1853 0 1
-7.4995 -11.7569 -5.3841 0.1931 0 1
-6.6683 -11.4427 -5.1134 0.2033 0 1
-5.8999 -11.1287 -4.8632 0.2136 0 1
-5.1891 -10.8166 -4.6319 0.2241 0 1
-4.5298 -10.5042 -4.4166 0.2335 0 1
-3.9189 -10.1954 -4.2171 0.2451 0 1
-3.3527 -9.8913 -4.0323 0.2554 0 1
-2.8168 -9.5566 -3.8466 0.2656 0 24
-2.3390 -9.2972 -3.7014 0.2783 0 1
-1.8844 -9.0047 -3.5519 0.2860 0 1
-1.4613 -8.7153 -3.4119 0.2978 0 1
-1.0678 -8.4323 -3.2816 0.3093 0 1
-0.7013 -8.1542 -3.1599 0.3212 0 1
-0.3599 -7.8836 -3.0470 0.3380 0 1
-0.0415 -7.6004 -2.9345 0.3509 0 24
0.2558 -7.3656 -2.8455 0.3620 0 1
0.5338 -7.1149 -2.7547 0.3738 0 1
0.7938 -6.8695 -2.6699 0.3857 0 1
1.0373 -6.6292 -2.5906 0.3975 0 1
1.2652 -6.3928 -2.5161 0.4094 0 1
1.4785 -6.1603 -2.4460 0.4211 0 1
1.6782 -5.9316 -2.3800 0.4317 0 1
1.8581 -5.6851 -2.3092 0.4406 0 24
2.0408 -5.4873 -2.2604 0.4543 0 1
2.2053 -5.2714 -2.2062 0.4654 0 1
2.3597 -5.0595 -2.1554 0.4764 0 1
2.5031 -4.8487 -2.1068 0.4702 0 1
2.6311 -4.6304 -2.0562 0.4818 0 1
2.7503 -4.4171 -2.0089 0.4931 0 1
2.8611 -4.2085 -1.9648 0.5042 0 1
2.9642 -4.0043 -1.9235 0.5150 0 1
3.0628 -3.8077 -1.8867 0.5467 0 1
3.1582 -3.6185 -1.8544 0.5562 0 1
3.2474 -3.4321 -1.8242 0.5654 0 1
3.3306 -3.2483 -1.7962 0.5742 0 1
3.4088 -3.0673 -1.7705 0.5737 0 1
3.4827 -2.8893 -1.7471 0.5813 0 1
3.5514 -2.7132 -1.7255 0.5886 0 1
3.6153 -2.5387 -1.7056 0.5955 0 1
3.6745 -2.3658 -1.6873 0.6020 0 1
3.7299 -2.1948 -1.6709 0.6080 0 1
3.7810 -2.0251 -1.6560 0.6135 0 1
3.8279 -1.8564 -1.6425 0.6185 0 1
3.8710 -1.6888 -1.6306 0.6263 0 1
3.9105 -1.5221 -1.6201 0.6304 0 1
3.9460 -1.3562 -1.6110 0.6340 0 1
3.9778 -1.1908 -1.6031 0.6371 0 1
4.0059 -1.0259 -1.5966 0.6397 0 1
4.0304 -0.8613 -1.5912 0.6418 0 1
4.0513 -0.6969 -1.5871 0.6435 0 1
4.0686 -0.5327 -1.5843 0.6447 0 1
4.0824 -0.3685 -1.5826 0.6453 0 1
4.0928 -0.2042 -1.5821 0.6455 0 1
4.1006 -0.0397 -1.5833 0.6444 0 1
4.1070 0.1252 -1.5864 0.6431 0 1
4.1100 0.2909 -1.5908 0.6413 0 1
4.1094 0.4573 -1.5964 0.6391 0 1
4.1053 0.6246 -1.6033 0.6363 0 1
4.0944 0.7923 -1.6101 0.6242 0 1
4.0783 0.9606 -1.6177 0.6213 0 1
4.0584 1.1297 -1.6265 0.6180 0 1
4.0346 1.2998 -1.6366 0.6141 0 1
4.0068 1.4709 -1.6479 0.6099 0 1
3.9750 1.6432 -1.6607 0.6052 0 1
3.9390 1.8168 -1.6748 0.6001 0 1
3.8987 1.9919 -1.6903 0.5946 0 1
3.8540 2.1684 -1.7073 0.5883 0 1
3.8048 2.3467 -1.7260 0.5820 0 1
3.7509 2.5269 -1.7461 0.5752 0 1
3.6923 2.7092 -1.7682 0.5681 0 1
3.6287 2.8937 -1.7919 0.5606 0 1
3.5597 3.0804 -1.8175 0.5527 0 1
3.4851 3.2696 -1.8450 0.5444 0 1
3.4045 3.4613 -1.8745 0.5359 0 1
3.3176 3.6558 -1.9060 0.5270 0 1
3.2248 3.8538 -1.9401 0.5217 0 1
3.1254 4.0553 -1.9768 0.5120 0 1
3.0171 4.2582 -2.0149 0.5063 0 1
2.8992 4.4612 -2.0542 0.4972 0 1
2.7731 4.6673 -2.0961 0.4872 0 1
2.6384 4.8766 -2.1407 0.4771 0 1
2.4948 5.0894 -2.1883 0.4667 0 1
2.3415 5.3058 -2.2391 0.4561 0 1
2.1779 5.5260 -2.2933 0.4453 0 1
1.9918 5.7166 -2.3373 0.4350 0 24
1.8078 5.9472 -2.3999 0.4233 0 24
1.6182 6.2096 -2.4776 0.4125 0 1
1.4061 6.4462 -2.5473 0.4012 0 1
1.1796 6.6874 -2.6218 0.3898 0 1
0.9377 6.9339 -2.7015 0.3784 0 1
0.6795 7.1873 -2.7873 0.3667 0 1
0.4031 7.4462 -2.8791 0.3550 0 1
0.1073 7.7109 -2.9774 0.3433 0 1
-0.2095 7.9801 -3.0821 0.3343 0 1
-0.5489 8.2520 -3.1931 0.3227 0 1
-0.9126 8.5295 -3.3119 0.3111 0 1
-1.3026 8.8119 -3.4392 0.3004 0 1
-1.7203 9.0957 -3.5740 0.2891 0 1
-2.1671 9.3782 -3.7163 0.2843 0 1
-2.6464 9.6649 -3.8689 0.2730 0 1
-3.1642 9.9661 -4.0371 0.2545 0 1
-3.7228 10.2752 -4.2195 0.2451 0 1
-4.3228 10.5837 -4.4140 0.2343 0 1
-4.9572 10.8682 -4.6120 0.2195 0 24
-5.6592 11.1936 -4.8427 0.2083 0 24
-6.4291 11.5405 -5.1004 0.2022 0 1
-7.2369 11.8451 -5.3593 0.1924 0 1
-8.1109 12.1504 -5.6403 0.1792 0 1
-9.0701 12.4719 -5.9540 0.1698 0 1
-10.0909 12.7647 -6.2823 0.1668 0 1
-11.2205 13.0777 -6.6529 0.1548 0 1
-12.4408 13.3736 -7.0521 0.1460 0 1
-13.8305 13.7189 -7.5212 0.1268 0 1
-15.6372 14.3120 -8.1844 0.0562 0 1
-40.5460 -8.9200 -16.5597 0.0592 0 1
-38.3491 -10.0669 -15.8149 0.0620 0 1
-36.0416 -11.0260 -15.0339 0.0690 0 1
-33.7761 -11.8359 -14.2758 0.0747 0 1
-31.3765 -12.4311 -13.4619 0.0642 0 1
-28.7602 -12.7535 -12.5492 0.0685 0 1
-26.3153 -12.9579 -11.7002 0.0730 0 1
-24.1478 -13.1208 -10.9621 0.0788 0 1
-22.1486 -13.2132 -10.2873 0.0889 0 1
-20.2620 -13.2190 -9.6500 0.1089 0 1
-18.5294 -13.1789 -9.0698 0.1163 0 1
-16.9149 -13.0844 -8.5300 0.1234 0 1
-15.3774 -12.9146 -8.0099 0.1280 0 1
-13.9497 -12.7050 -7.5261 0.1343 0 1
-12.6244 -12.4614 -7.0756 0.1429 0 1
-11.4246 -12.2211 -6.6730 0.1559 0 1
-10.3231 -11.9724 -6.3056 0.1650 0 1
-9.3288 -11.7415 -5.9817 0.1808 0 1
-8.4111 -11.5065 -5.6852 0.1903 0 1
-7.5547 -11.2575 -5.4078 0.1978 0 1
-6.7534 -10.9933 -5.1463 0.2076 0 1
-6.0090 -10.7247 -4.9036 0.2179 0 1
-5.3172 -10.4535 -4.6781 0.2267 0 1
-4.6724 -10.1777 -4.4670 0.2380 0 1
-4.0732 -9.9032 -4.2713 0.2489 0 1
-3.5036 -9.5968 -4.0751 0.2593 0 24
-2.9960 -9.3571 -3.9190 0.2704 0 1
-2.5123 -9.0879 -3.7610 0.2817 0 1
-2.0604 -8.8179 -3.6120 0.2893 0 1
-1.6386 -8.5495 -3.4723 0.3010 0 1
-1.2455 -8.2857 -3.3421 0.3127 0 1
-0.8785 -8.0256 -3.2204 0.3241 0 1
-0.5361 -7.7725 -3.1076 0.3409 0 1
-0.2154 -7.5038 -2.9944 0.3539 0 24
0.0835 -7.2813 -2.9045 0.3648 0 1
0.3640 -7.0424 -2.8128 0.3766 0 1
0.6268 -6.8077 -2.7269 0.3884 0 1
0.8731 -6.5773 -2.6466 0.4002 0 1
1.1042 -6.3510 -2.5713 0.4119 0 1
1.3208 -6.1273 -2.5002 0.4238 0 1
1.5238 -5.9066 -2.4332 0.4344 0 1
1.7142 -5.6894 -2.3702 0.4456 0 1
1.8849 -5.4527 -2.3013 0.4549 0 24
2.0607 -5.2663 -2.2557 0.4682 0 1
2.2183 -5.0601 -2.2038 0.4793 0 1
2.3663 -4.8573 -2.1552 0.4901 0 1
2.4992 -4.6464 -2.1044 0.4842 0 1
2.6220 -4.4376 -2.0560 0.4956 0 1
2.7363 -4.2333 -2.0106 0.5068 0 1
2.8428 -4.0330 -1.9682 0.5177 0 1
2.9437 -3.8389 -1.9296 0.5498 0 1
3.0419 -3.6532 -1.8962 0.5595 0 1
3.1338 -3.4702 -1.8651 0.5689 0 1
3.2197 -3.2896 -1.8360 0.5779 0 1
3.3000 -3.1112 -1.8091 0.5865 0 1
3.3749 -2.9350 -1.7840 0.5947 0 1
3.4458 -2.7616 -1.7614 0.5931 0 1
3.5120 -2.5901 -1.7406 0.6002 0 1
3.5734 -2.4200 -1.7215 0.6069 0 1
3.6306 -2.2516 -1.7041 0.6132 0 1
3.6839 -2.0846 -1.6884 0.6190 0 1
3.7329 -1.9187 -1.6741 0.6242 0 1
3.7781 -1.7539 -1.6615 0.6323 0 1
3.8196 -1.5899 -1.6503 0.6366 0 1
3.8571 -1.4267 -1.6404 0.6404 0 1
3.8909 -1.2640 -1.6318 0.6438 0 1
3.9209 -1.1018 -1.6245 0.6467 0 1
3.9472 -0.9399 -1.6185 0.6491 0 1
3.9700 -0.7783 -1.6137 0.6510 0 1
3.9892 -0.6169 -1.6101 0.6525 0 1
4.0049 -0.4556 -1.6078 0.6534 0 1
4.0170 -0.2942 -1.6066 0.6539 0 1
4.0257 -0.1326 -1.6067 0.6539 0 1
4.0331 0.0292 -1.6088 0.6523 0 1
4.0378 0.1916 -1.6124 0.6508 0 1
4.0391 0.3546 -1.6173 0.6489 0 1
4.0368 0.5185 -1.6234 0.6464 0 1
4.0290 0.6830 -1.6300 0.6343 0 1
4.0150 0.8477 -1.6368 0.6316 0 1
3.9972 1.0132 -1.6448 0.6286 0 1
3.9757 1.1796 -1.6541 0.6250 0 1
3.9502 1.3468 -1.6647 0.6210 0 1
3.9208 1.5151 -1.6766 0.6166 0 1
3.8872 1.6846 -1.6899 0.6118 0 1
3.8495 1.8552 -1.7045 0.6066 0 1
3.8075 2.0272 -1.7206 0.6009 0 1
3.7610 2.2007 -1.7381 0.5944 0 1
3.7100 2.3759 -1.7573 0.5879 0 1
3.6544 2.5528 -1.7781 0.5811 0 1
3.5941 2.7319 -1.8007 0.5738 0 1
3.5285 2.9128 -1.8251 0.5661 0 1
3.4576 3.0960 -1.8512 0.5581 0 1
3.3810 3.2813 -1.8793 0.5498 0 1
3.2984 3.4690 -1.9094 0.5412 0 1
3.2103 3.6601 -1.9420 0.5361 0 1
3.1157 3.8541 -1.9769 0.5266 0 1
3.0142 4.0511 -2.0141 0.5169 0 1
2.9028 4.2475 -2.0521 0.5114 0 1
2.7830 4.4454 -2.0920 0.5022 0 1
2.6550 4.6460 -2.1344 0.4922 0 1
2.5186 4.8495 -2.1797 0.4820 0 1
2.3731 5.0561 -2.2279 0.4715 0 1
2.2181 5.2658 -2.2792 0.4609 0 1
2.0529 5.4789 -2.3338 0.4505 0 1
1.8768 5.6950 -2.3918 0.4396 0 1
1.6891 5.9147 -2.4536 0.4285 0 1
1.4891 6.1380 -2.5193 0.4173 0 1
1.2759 6.3651 -2.5894 0.4060 0 1
1.0487 6.5961 -2.6641 0.3946 0 1
0.8065 6.8327 -2.7443 0.3831 0 1
0.5481 7.0742 -2.8302 0.3715 0 1
0.2721 7.3201 -2.9219 0.3599 0 1
-0.0228 7.5706 -3.0198 0.3482 0 1
-0.3381 7.8246 -3.1240 0.3393 0 1
-0.6750 8.0799 -3.2341 0.3277 0 1
-1.0353 8.3393 -3.3519 0.3162 0 1
-1.4205 8.6006 -3.4771 0.3057 0 1
-1.8322 8.8629 -3.6100 0.2944 0 1
-2.2726 9.1278 -3.7520 0.2896 0 1
-2.7427 9.3897 -3.9019 0.2785 0 1
-3.2477 9.6593 -4.0648 0.2600 0 1
-3.7914 9.9360 -4.2420 0.2508 0 1
-4.3736 10.2106 -4.4307 0.2401 0 1
-5.0019 10.4922 -4.6364 0.2255 0 1
-5.6576 10.7351 -4.8403 0.2146 0 24
-6.3955 11.0365 -5.0879 0.2088 0 1
-7.1639 11.2915 -5.3339 0.1992 0 1
-7.9886 11.5393 -5.5982 0.1858 0 1
-8.8570 11.7554 -5.8709 0.1785 0 24
-9.8159 11.9937 -6.1820 0.1724 0 24
-10.8406 12.2105 -6.5130 0.1652 0 24
-12.0279 12.4987 -6.9190 0.1531 0 1
-13.2538 12.7090 -7.3244 0.1414 0 1
-14.5178 12.8427 -7.7315 0.1201 0 24
-16.2223 13.2283 -8.3494 0.1100 0 1
-17.3568 13.0289 -8.6568 0.9749 0 2
-18.8290 12.9854 -9.1234 0.1082 0 2
-20.5777 13.0040 -9.7096 0.1017 0 2
-22.4362 12.9479 -10.3327 0.0956 0 2
-24.3983 12.8028 -10.9905 0.0898 0 2
-26.4526 12.5529 -11.6792 0.0845 0 2
-28.5809 12.1818 -12.3927 0.0797 0 2
-30.7569 11.6732 -13.1221 0.0753 0 2
-25.7456 8.6053 -10.8279 0.9940 0 6
-35.1007 10.1846 -14.5784 0.0677 0 2
-37.1688 9.1838 -15.2717 0.0647 0 2
-16.9425 3.4708 -6.8984 0.8806 26 14
-17.0154 2.7790 -6.8770 0.9413 26 14
-44.1980 5.4068 -17.7611 0.0593 0 1
-45.8057 3.7442 -18.3319 0.0557 0 1
-46.0793 -1.7955 -18.3940 0.0529 0 1
-45.0669 -3.5729 -18.0327 0.0550 0 24
-44.1887 -5.2961 -17.7521 0.0570 0 1
-42.9044 -6.8997 -17.3335 0.0628 0 1
-22.5292 -4.5580 -9.1685 0.9979 16 6
-39.3036 -9.6094 -16.1392 0.0623 0 1
-36.9983 -10.6372 -15.3557 0.0637 0 1
-34.7160 -11.5093 -14.5887 0.0700 0 1
-32.4853 -12.2384 -13.8468 0.0770 0 1
-29.8519 -12.6374 -12.9303 0.0665 0 1
-27.3483 -12.8961 -12.0607 0.0680 0 1
-25.0464 -13.0649 -11.2680 0.0768 0 1
-22.9632 -13.1773 -10.5605 0.0866 0 1
-20.9796 -13.1863 -9.8840 0.1063 0 1
-19.2543 -13.2094 -9.3138 0.1090 0 1
-17.5832 -13.1317 -8.7537 0.1205 0 1
-16.0127 -12.9923 -8.2251 0.1247 0 1
-14.5411 -12.8001 -7.7272 0.1329 0 1
-13.1696 -12.5666 -7.2609 0.1392 0 1
-11.9152 -12.3211 -6.8368 0.1521 0 1
-10.7768 -12.0790 -6.4569 0.1611 0 1
-9.7351 -11.8359 -6.1129 0.1769 0 1
-8.7560 -11.5624 -5.7852 0.1868 0 24
-7.9095 -11.3657 -5.5233 0.1958 0 1
-7.0840 -11.1054 -5.2542 0.2036 0 1
-6.3160 -10.8383 -5.0037 0.2135 0 1
-5.6027 -10.5682 -4.7712 0.2239 0 1
-4.9383 -10.2939 -4.5541 0.2329 0 1
-4.3204 -10.0187 -4.3520 0.2443 0 1
-3.7457 -9.7449 -4.1643 0.2544 0 1
-3.2104 -9.4714 -3.9891 0.2656 0 1
-2.7120 -9.2010 -3.8262 0.2769 0 1
-2.2472 -8.9324 -3.6740 0.2844 0 1
-1.8127 -8.6621 -3.5300 0.2960 0 1
-1.4078 -8.3963 -3.3959 0.3077 0 1
-1.0301 -8.1349 -3.2707 0.3192 0 1
-0.6775 -7.8783 -3.1541 0.3359 0 1
-0.3483 -7.6285 -3.0460 0.3478 0 1
-0.0402 -7.3631 -2.9370 0.3602 0 24
0.2480 -7.1425 -2.8507 0.3717 0 1
0.5181 -6.9061 -2.7624 0.3834 0 1
0.7712 -6.6739 -2.6798 0.3953 0 1
1.0086 -6.4459 -2.6024 0.4070 0 1
1.2313 -6.2212 -2.5297 0.4189 0 1
1.4399 -5.9993 -2.4610 0.4294 0 1
1.6355 -5.7805 -2.3962 0.4410 0 1
1.8118 -5.5434 -2.3263 0.4497 0 24
1.9818 -5.3287 -2.2678 0.4607 0 24
2.1531 -5.1466 -2.2253 0.4746 0 1
2.3051 -4.9424 -2.1753 0.4856 0 1
2.4448 -4.7358 -2.1259 0.4793 0 1
2.5713 -4.5251 -2.0760 0.4908 0 1
2.6891 -4.3189 -2.0293 0.5021 0 1
2.7989 -4.1169 -1.9857 0.5132 0 1
2.9011 -3.9190 -1.9449 0.5239 0 1
3.0013 -3.7312 -1.9100 0.5555 0 1
3.0958 -3.5470 -1.8779 0.5650 0 1
3.1842 -3.3654 -1.8480 0.5741 0 1
3.2668 -3.1861 -1.8202 0.5829 0 1
3.3440 -3.0090 -1.7943 0.5913 0 1
3.4164 -2.8343 -1.7706 0.5900 0 1
3.4846 -2.6622 -1.7492 0.5973 0 1
3.5481 -2.4915 -1.7293 0.6041 0 1
3.6069 -2.3223 -1.7111 0.6106 0 1
3.6619 -2.1548 -1.6948 0.6166 0 1
3.7127 -1.9885 -1.6800 0.6221 0 1
3.7595 -1.8232 -1.6666 0.6304 0 1
3.8026 -1.6589 -1.6548 0.6348 0 1
3.8418 -1.4954 -1.6444 0.6389 0 1
3.8771 -1.3325 -1.6353 0.6424 0 1
3.9087 -1.1701 -1.6274 0.6455 0 1
3.9366 -1.0081 -1.6209 0.6481 0 1
3.9608 -0.8464 -1.6156 0.6503 0 1
3.9815 -0.6849 -1.6115 0.6519 0 1
3.9987 -0.5236 -1.6086 0.6531 0 1
4.0123 -0.3622 -1.6069 0.6538 0 1
4.0225 -0.2007 -1.6065 0.6539 0 1
4.0301 -0.0390 -1.6076 0.6528 0 1
4.0362 0.1231 -1.6107 0.6515 0 1
4.0390 0.2858 -1.6151 0.6498 0 1
4.0382 0.4493 -1.6207 0.6475 0 1
4.0338 0.6137 -1.6275 0.6353 0 1
4.0213 0.7782 -1.6338 0.6328 0 1
4.0052 0.9434 -1.6413 0.6299 0 1
3.9852 1.1094 -1.6501 0.6266 0 1
3.9614 1.2762 -1.6601 0.6228 0 1
3.9337 1.4441 -1.6714 0.6185 0 1
3.9019 1.6130 -1.6841 0.6139 0 1
3.8659 1.7831 -1.6982 0.6088 0 1
3.8257 1.9546 -1.7136 0.6033 0 1
3.7811 2.1274 -1.7305 0.5974 0 1
3.7321 2.3019 -1.7490 0.5907 0 1
3.6784 2.4780 -1.7691 0.5840 0 1
3.6201 2.6562 -1.7910 0.5769 0 1
3.5568 2.8363 -1.8146 0.5694 0 1
3.4882 3.0185 -1.8400 0.5616 0 1
3.4140 3.2029 -1.8672 0.5534 0 1
3.3339 3.3896 -1.8964 0.5448 0 1
3.2482 3.5792 -1.9279 0.5400 0 1
3.1564 3.7720 -1.9619 0.5307 0 1
3.0579 3.9677 -1.9981 0.5210 0 1
2.9510 4.1649 -2.0360 0.5154 0 1
2.8345 4.3617 -2.0749 0.5058 0 1
2.7100 4.5611 -2.1162 0.4964 0 1
2.5772 4.7634 -2.1603 0.4863 0 1
2.4356 4.9686 -2.2072 0.4759 0 1
2.2847 5.1770 -2.2572 0.4654 0 1
2.1238 5.3887 -2.3104 0.4547 0 1
1.9413 5.5717 -2.3535 0.4444 0 24
1.7607 5.7923 -2.4148 0.4327 0 24
1.5681 6.0172 -2.4803 0.4215 0 24
1.3674 6.2690 -2.5593 0.4108 0 1
1.1462 6.4983 -2.6320 0.3995 0 1
0.9105 6.7323 -2.7098 0.3880 0 1
0.6591 6.9719 -2.7933 0.3764 0 1
0.3907 7.2159 -2.8825 0.3648 0 1
0.1039 7.4645 -2.9777 0.3531 0 1
-0.2026 7.7176 -3.0795 0.3415 0 1
-0.5303 7.9718 -3.1868 0.3326 0 1
-0.8805 8.2295 -3.3013 0.3211 0 1
-1.2551 8.4910 -3.4237 0.3104 0 1
-1.6553 8.7520 -3.5529 0.2992 0 1
-2.0834 9.0161 -3.6911 0.2880 0 1
-2.5407 9.2791 -3.8375 0.2832 0 1
-3.0296 9.5421 -3.9934 0.2721 0 1
-3.5581 9.8206 -4.1664 0.2554 0 1
-4.1232 10.0948 -4.3495 0.2446 0 1
-4.7308 10.3719 -4.5472 0.2299 0 1
-5.3881 10.6573 -4.7634 0.2195 0 1
-6.0877 10.9277 -4.9896 0.2141 0 1
-6.8302 11.1795 -5.2257 0.1974 0 24
-7.6006 11.3860 -5.4606 0.1880 0 24
-8.4717 11.6491 -5.7454 0.1812 0 24
-9.4423 11.9442 -6.0732 0.1712 0 1
-10.4004 12.1219 -6.3710 0.1682 0 24
-11.4796 12.3403 -6.7228 0.1558 0 24
-12.6567 12.5546 -7.1109 0.1489 0 24
-14.0311 12.8420 -7.5870 0.1293 0 1
-34.1381 -7.5103 -14.3936 0.0740 0 1
-32.5920 -8.5556 -13.8755 0.0761 0 1
-30.7685 -9.4129 -13.2495 0.0704 0 1
-28.8214 -10.0997 -12.5757 0.0752 0 1
-26.8481 -10.6370 -11.8916 0.0810 0 1
-24.9160 -11.0488 -11.2235 0.0926 0 1
-23.1034 -11.3763 -10.6044 0.1023 0 1
-21.4031 -11.6294 -10.0304 0.1076 0 1
-19.8484 -11.8409 -9.5171 0.1207 0 1
-18.3479 -11.9702 -9.0210 0.1201 0 1
-16.8793 -12.0053 -8.5293 0.1270 0 1
-15.4569 -11.9565 -8.0469 0.1302 0 1
-14.1187 -11.8575 -7.5922 0.1368 0 1
-12.8135 -11.6702 -7.1368 0.1449 0 24
-11.7107 -11.5595 -6.7758 0.1578 0 1
-10.6485 -11.3909 -6.4209 0.1665 0 1
-9.6711 -11.2163 -6.0985 0.1822 0 1
-8.7755 -11.0451 -5.8090 0.1913 0 1
-7.9358 -10.8563 -5.5375 0.2007 0 1
-7.1435 -10.6448 -5.2789 0.2080 0 1
-6.4025 -10.4220 -5.0367 0.2180 0 1
-5.6913 -10.1576 -4.7945 0.2278 0 24
-5.0635 -9.9547 -4.5990 0.2375 0 1
-4.4592 -9.7134 -4.4012 0.2482 0 1
-3.8821 -9.4386 -4.2025 0.2591 0 24
-3.3676 -9.2244 -4.0436 0.2692 0 1
-2.8751 -8.9794 -3.8824 0.2805 0 1
-2.4143 -8.7335 -3.7312 0.2878 0 1
-1.9742 -8.4491 -3.5729 0.3028 0 24
-1.5790 -8.2385 -3.4542 0.3109 0 1
-1.2018 -7.9952 -3.3292 0.3226 0 1
-0.8491 -7.7571 -3.2133 0.3389 0 1
-0.5172 -7.4994 -3.0954 0.3519 0 24
-0.2092 -7.2900 -3.0031 0.3626 0 1
0.0810 -7.0615 -2.9080 0.3744 0 1
0.3533 -6.8362 -2.8188 0.3862 0 1
0.6090 -6.6143 -2.7352 0.3980 0 1
0.8490 -6.3958 -2.6568 0.4097 0 1
1.0746 -6.1806 -2.5832 0.4214 0 1
1.2864 -5.9676 -2.5138 0.4332 0 1
1.4851 -5.7563 -2.4480 0.4434 0 1
1.6656 -5.5279 -2.3774 0.4535 0 24
1.8392 -5.3205 -2.3181 0.4640 0 24
2.0016 -5.1152 -2.2619 0.4755 0 24
2.1670 -4.9432 -2.2225 0.4884 0 1
2.3124 -4.7467 -2.1742 0.4817 0 1
2.4424 -4.5408 -2.1231 0.4932 0 1
2.5637 -4.3390 -2.0753 0.5046 0 1
2.6768 -4.1412 -2.0305 0.5157 0 1
2.7823 -3.9472 -1.9886 0.5266 0 1
2.8846 -3.7619 -1.9521 0.5586 0 1
2.9819 -3.5812 -1.9189 0.5682 0 1
3.0729 -3.4028 -1.8880 0.5775 0 1
3.1582 -3.2267 -1.8592 0.5865 0 1
3.2378 -3.0526 -1.8324 0.5951 0 1
3.3122 -2.8804 -1.8075 0.6033 0 1
3.3814 -2.7100 -1.7844 0.6111 0 1
3.4469 -2.5421 -1.7636 0.6088 0 1
3.5079 -2.3757 -1.7446 0.6155 0 1
3.5647 -2.2107 -1.7272 0.6217 0 1
3.6176 -2.0471 -1.7116 0.6275 0 1
3.6665 -1.8846 -1.6976 0.6360 0 1
3.7117 -1.7230 -1.6850 0.6407 0 1
3.7528 -1.5621 -1.6739 0.6450 0 1
3.7901 -1.4019 -1.6640 0.6488 0 1
3.8236 -1.2421 -1.6555 0.6522 0 1
3.8534 -1.0828 -1.6482 0.6551 0 1
3.8795 -0.9238 -1.6422 0.6575 0 1
3.9021 -0.7650 -1.6374 0.6594 0 1
3.9211 -0.6064 -1.6338 0.6608 0 1
3.9366 -0.4478 -1.6315 0.6618 0 1
3.9487 -0.2891 -1.6303 0.6622 0 1
3.9572 -0.1303 -1.6304 0.6622 0 1
3.9643 0.0287 -1.6325 0.6607 0 1
3.9688 0.1883 -1.6361 0.6592 0 1
3.9698 0.3486 -1.6410 0.6573 0 1
3.9673 0.5096 -1.6471 0.6548 0 1
3.9579 0.6709 -1.6530 0.6428 0 1
3.9439 0.8327 -1.6598 0.6401 0 1
3.9261 0.9952 -1.6678 0.6371 0 1
3.9045 1.1584 -1.6771 0.6336 0 1
3.8791 1.3226 -1.6876 0.6296 0 1
3.8497 1.4876 -1.6995 0.6252 0 1
3.8162 1.6538 -1.7126 0.6204 0 1
3.7785 1.8210 -1.7272 0.6152 0 1
3.7366 1.9895 -1.7432 0.6095 0 1
3.6903 2.1594 -1.7606 0.6031 0 1
3.6395 2.3307 -1.7797 0.5966 0 1
3.5842 2.5038 -1.8003 0.5898 0 1
3.5241 2.6787 -1.8228 0.5826 0 1
3.4590 2.8554 -1.8470 0.5749 0 1
3.3885 3.0341 -1.8729 0.5670 0 1
3.3124 3.2147 -1.9007 0.5587 0 1
3.2310 3.3982 -1.9309 0.5541 0 1
3.1437 3.5842 -1.9632 0.5450 0 1
3.0500 3.7728 -1.9977 0.5356 0 1
2.9494 3.9640 -2.0346 0.5259 0 1
2.8396 4.1549 -2.0723 0.5204 0 1
2.7212 4.3467 -2.1117 0.5107 0 1
2.5950 4.5409 -2.1536 0.5013 0 1
2.4604 4.7375 -2.1982 0.4911 0 1
2.3172 4.9368 -2.2457 0.4808 0 1
2.1646 5.1388 -2.2961 0.4702 0 1
1.9904 5.3120 -2.3359 0.4602 0 24
1.8195 5.5214 -2.3939 0.4490 0 24
1.6453 5.7615 -2.4673 0.4379 0 1
1.4437 5.9508 -2.5215 0.4257 0 24
1.2411 6.1913 -2.6002 0.4156 0 1
1.0192 6.4110 -2.6731 0.4042 0 1
0.7833 6.6357 -2.7514 0.3936 0 1
0.5318 6.8639 -2.8349 0.3812 0 1
0.2638 7.0957 -2.9239 0.3696 0 1
-0.0221 7.3310 -3.0188 0.3580 0 1
-0.3270 7.5696 -3.1199 0.3464 0 1
-0.6523 7.8085 -3.2266 0.3376 0 1
-0.9993 8.0493 -3.3400 0.3261 0 1
-1.3694 8.2912 -3.4604 0.3156 0 1
-1.7638 8.5324 -3.5878 0.3044 0 1
-2.1848 8.7749 -3.7237 0.2934 0 1
-2.6342 9.0182 -3.8687 0.2824 0 1
-3.1130 9.2586 -4.0223 0.2776 0 1
-3.6265 9.5041 -4.1888 0.2610 0 1
-4.1754 9.7479 -4.3667 0.2504 0 1
-4.7622 9.9893 -4.5569 0.2400 0 1
-5.3944 10.2357 -4.7644 0.2255 0 1
-6.0651 10.4664 -4.9812 0.2204 0 1
-6.7688 10.6688 -5.2028 0.2040 0 24
-7.4967 10.8288 -5.4234 0.1939 0 24
-8.3512 11.0840 -5.7147 0.1873 0 1
-9.2317 11.2799 -6.0021 0.1783 0 1
-10.1720 11.4574 -6.3090 0.1697 0 1
-11.1874 11.6252 -6.6436 0.1613 0 1
-12.2704 11.7661 -7.0003 0.1555 0 1
-13.3762 11.8329 -7.3540 0.1478 0 24
-14.6311 11.9308 -7.7740 0.1267 0 24
-16.1886 12.1519 -8.3353 0.1133 0 1
-17.6828 12.1950 -8.8452 0.9966 0 2
-18.5097 11.6971 -9.0163 0.1126 0 2
-20.0521 11.5720 -9.5334 0.1064 0 2
-21.6592 11.3654 -10.0722 0.1008 0 2
-23.3188 11.0657 -10.6286 0.0955 0 2
-25.0139 10.6615 -11.1969 0.0906 0 2
-26.7220 10.1418 -11.7695 0.0862 0 2
-25.6248 8.5649 -11.1256 0.9539 0 6
-30.0584 8.7216 -12.8880 0.0787 0 2
-31.8050 7.8585 -13.4906 0.2410 0 2
-16.7919 3.4400 -7.0582 0.8845 26 14
-16.8507 2.7521 -7.0307 0.8981 26 14
-37.2075 4.5517 -15.4356 0.0703 0 1
-38.1846 3.1212 -15.7761 0.0661 0 1
-38.6921 1.6024 -15.9464 0.0656 0 1
-38.8220 0.0475 -15.9862 0.0654 0 1
-38.6353 -1.5055 -15.9214 0.0696 0 1
-36.2297 -2.8723 -14.9655 0.0594 0 2
-35.4678 -4.2509 -14.7095 0.0692 0 25
-34.4519 -5.5404 -14.3689 0.0708 0 25
-22.4471 -4.5414 -9.4306 0.9143 16 6
-33.2534 -8.1302 -14.0964 0.0749 0 1
-31.4450 -9.0406 -13.4730 0.0699 0 24
-29.6559 -9.8317 -12.8654 0.0735 0 1
-27.6738 -10.4257 -12.1774 0.0791 0 1
-25.6891 -10.8751 -11.4871 0.0905 0 1
-23.8538 -11.2483 -10.8599 0.0946 0 1
-22.1141 -11.5353 -10.2706 0.1051 0 1
-20.4854 -11.7554 -9.7257 0.1181 0 1
-18.9909 -11.9363 -9.2365 0.1244 0 1
-17.4883 -11.9978 -8.7331 0.1240 0 1
-16.0470 -11.9844 -8.2473 0.1270 0 1
-14.6733 -11.9055 -7.7809 0.1346 0 1
-13.3304 -11.7344 -7.3130 0.1415 0 24
-12.1293 -11.5740 -6.9037 0.1501 0 24
-11.0874 -11.4651 -6.5676 0.1628 0 1
-10.0669 -11.2833 -6.2267 0.1717 0 1
-9.1459 -11.1195 -5.9286 0.1874 0 1
-8.2831 -10.9378 -5.6497 0.1968 0 1
-7.4714 -10.7361 -5.3861 0.2041 0 1
-6.7086 -10.5169 -5.1367 0.2137 0 1
-5.9965 -10.2899 -4.9042 0.2239 0 1
-5.3309 -10.0556 -4.6866 0.2331 0 1
-4.7088 -9.8154 -4.4828 0.2437 0 1
-4.1142 -9.5406 -4.2784 0.2548 0 24
-3.5854 -9.3278 -4.1150 0.2646 0 1
-3.0786 -9.0825 -3.9490 0.2757 0 1
-2.6050 -8.8380 -3.7941 0.2870 0 1
-2.1609 -8.5893 -3.6471 0.2945 0 1
-1.7457 -8.3419 -3.5095 0.3060 0 1
-1.3577 -8.0973 -3.3809 0.3177 0 1
-0.9950 -7.8572 -3.2613 0.3339 0 1
-0.6533 -7.5967 -3.1397 0.3465 0 24
-0.3373 -7.3873 -3.0451 0.3576 0 1
-0.0389 -7.1382 -2.9394 0.3699 0 24
0.2407 -6.9307 -2.8557 0.3812 0 1
0.5032 -6.7074 -2.7698 0.3930 0 1
0.7497 -6.4875 -2.6892 0.4048 0 1
0.9813 -6.2709 -2.6137 0.4165 0 1
1.1988 -6.0572 -2.5426 0.4283 0 1
1.4029 -5.8450 -2.4752 0.4388 0 1
1.5945 -5.6355 -2.4117 0.4501 0 1
1.7745 -5.4294 -2.3521 0.4615 0 1
1.9344 -5.2014 -2.2852 0.4709 0 24
2.1029 -5.0265 -2.2437 0.4838 0 1
2.2525 -4.8296 -2.1944 0.4947 0 1
2.3887 -4.6271 -2.1443 0.4884 0 1
2.5136 -4.4236 -2.0951 0.4998 0 1
2.6301 -4.2241 -2.0490 0.5111 0 1
2.7388 -4.0285 -2.0059 0.5221 0 1
2.8417 -3.8387 -1.9667 0.5544 0 1
2.9416 -3.6570 -1.9326 0.5642 0 1
3.0353 -3.4777 -1.9008 0.5737 0 1
3.1230 -3.3006 -1.8711 0.5828 0 1
3.2049 -3.1257 -1.8435 0.5915 0 1
3.2815 -2.9527 -1.8178 0.5998 0 1
3.3529 -2.7816 -1.7939 0.6078 0 1
3.4198 -2.6126 -1.7721 0.6059 0 1
3.4828 -2.4456 -1.7524 0.6127 0 1
3.5411 -2.2800 -1.7343 0.6192 0 1
3.5958 -2.1159 -1.7180 0.6251 0 1
3.6463 -1.9529 -1.7033 0.6339 0 1
3.6931 -1.7910 -1.6902 0.6388 0 1
3.7360 -1.6298 -1.6784 0.6433 0 1
3.7749 -1.4693 -1.6680 0.6473 0 1
3.8099 -1.3094 -1.6589 0.6508 0 1
3.8413 -1.1499 -1.6511 0.6539 0 1
3.8690 -0.9908 -1.6446 0.6565 0 1
3.8930 -0.8319 -1.6393 0.6586 0 1
3.9135 -0.6732 -1.6352 0.6603 0 1
3.9305 -0.5146 -1.6323 0.6614 0 1
3.9440 -0.3560 -1.6307 0.6621 0 1
3.9540 -0.1973 -1.6302 0.6623 0 1
3.9613 -0.0384 -1.6313 0.6612 0 1
3.9673 0.1210 -1.6344 0.6599 0 1
3.9698 0.2809 -1.6388 0.6581 0 1
3.9688 0.4416 -1.6444 0.6559 0 1
3.9627 0.6029 -1.6505 0.6437 0 1
3.9502 0.7644 -1.6568 0.6413 0 1
3.9340 0.9266 -1.6643 0.6384 0 1
3.9141 1.0895 -1.6730 0.6351 0 1
3.8903 1.2533 -1.6830 0.6313 0 1
3.8625 1.4179 -1.6943 0.6271 0 1
3.8308 1.5836 -1.7069 0.6225 0 1
3.7949 1.7504 -1.7209 0.6174 0 1
3.7548 1.9184 -1.7363 0.6120 0 1
3.7103 2.0876 -1.7531 0.6061 0 1
3.6615 2.2583 -1.7714 0.5994 0 1
3.6080 2.4306 -1.7914 0.5927 0 1
3.5500 2.6048 -1.8131 0.5857 0 1
3.4871 2.7807 -1.8366 0.5782 0 1
3.4189 2.9585 -1.8618 0.5704 0 1
3.3451 3.1383 -1.8888 0.5622 0 1
3.2660 3.3205 -1.9179 0.5579 0 1
3.1813 3.5055 -1.9493 0.5489 0 1
3.0903 3.6930 -1.9829 0.5396 0 1
2.9927 3.8831 -2.0188 0.5300 0 1
2.8872 4.0748 -2.0564 0.5244 0 1
2.7720 4.2656 -2.0948 0.5148 0 1
2.6492 4.4588 -2.1357 0.5055 0 1
2.5182 4.6543 -2.1791 0.4954 0 1
2.3786 4.8525 -2.2253 0.4852 0 1
2.2301 5.0533 -2.2745 0.4747 0 1
2.0719 5.2570 -2.3268 0.4640 0 1
1.9035 5.4634 -2.3824 0.4536 0 1
1.7243 5.6725 -2.4413 0.4426 0 1
1.5335 5.8846 -2.5041 0.4315 0 1
1.3305 6.0997 -2.5708 0.4203 0 1
1.1144 6.3180 -2.6418 0.4090 0 1
0.8846 6.5406 -2.7178 0.3977 0 1
0.6397 6.7673 -2.7991 0.3861 0 1
0.3788 6.9976 -2.8857 0.3745 0 1
0.1007 7.2314 -2.9780 0.3629 0 1
-0.1961 7.4686 -3.0765 0.3513 0 1
-0.5127 7.7078 -3.1810 0.3425 0 1
-0.8503 7.9475 -3.2913 0.3310 0 1
-1.2106 8.1898 -3.4091 0.3195 0 1
-1.5945 8.4306 -3.5331 0.3091 0 1
-2.0040 8.6726 -3.6653 0.2980 0 1
-2.4412 8.9156 -3.8064 0.2870 0 1
-2.9077 9.1582 -3.9567 0.2822 0 1
-3.4057 9.4002 -4.1170 0.2638 0 1
-3.9396 9.6453 -4.2903 0.2549 0 1
-4.5101 9.8879 -4.4752 0.2443 0 1
-5.1224 10.1317 -4.6749 0.2299 0 1
-5.7794 10.3743 -4.8901 0.2245 0 1
-6.4702 10.5902 -5.1103 0.2148 0 1
-7.2087 10.7989 -5.3465 0.2042 0 1
-7.9973 10.9969 -5.5991 0.1912 0 1
-8.8233 11.1612 -5.8586 0.1820 0 24
-9.7357 11.3472 -6.1567 0.1759 0 24
-10.7052 11.5078 -6.4721 0.1703 0 24
-11.7537 11.6589 -6.8172 0.1579 0 24
-12.9351 11.8390 -7.2206 0.1474 0 1
-29.2538 -6.4357 -12.7242 0.0781 0 1
-27.9841 -7.3460 -12.2905 0.0803 0 1
-26.6179 -8.1431 -11.8246 0.0863 0 1
-25.1539 -8.8145 -11.3225 0.0952 0 1
-23.6782 -9.3811 -10.8192 0.0985 0 1
-22.2226 -9.8545 -10.3268 0.1068 0 1
-20.7998 -10.2420 -9.8489 0.1189 0 1
-19.4370 -10.5611 -9.3970 0.1246 0 1
-18.0826 -10.7876 -8.9446 0.1241 0 1
-16.7547 -10.9308 -8.4982 0.1309 0 1
-15.4498 -10.9885 -8.0538 0.1335 0 1
-14.2102 -10.9922 -7.6318 0.1398 0 1
-13.0336 -10.9462 -7.2303 0.1476 0 1
-11.9356 -10.8706 -6.8580 0.1601 0 1
-10.9206 -10.7797 -6.5185 0.1684 0 1
-9.9684 -10.6634 -6.2009 0.1840 0 1
-9.0994 -10.5532 -5.9194 0.1928 0 1
-8.2800 -10.4214 -5.6542 0.2018 0 1
-7.5046 -10.2665 -5.4022 0.2087 0 1
-6.7713 -10.0901 -5.1620 0.2182 0 1
-6.0833 -9.9024 -4.9369 0.2282 0 1
-5.4374 -9.7045 -4.7255 0.2374 0 1
-4.8311 -9.4978 -4.5266 0.2478 0 1
-4.2629 -9.2859 -4.3405 0.2575 0 1
-3.7299 -9.0686 -4.1655 0.2684 0 1
-3.2305 -8.8489 -4.0017 0.2794 0 1
-2.7625 -8.6279 -3.8484 0.2905 0 1
-2.3222 -8.4004 -3.7023 0.2979 0 1
-1.9025 -8.1425 -3.5521 0.3134 0 24
-1.5232 -7.9472 -3.4374 0.3234 0 1
-1.1613 -7.7254 -3.3186 0.3378 0 1
-0.8188 -7.4800 -3.1965 0.3493 0 24
-0.5025 -7.2849 -3.1020 0.3604 0 1
-0.2029 -7.0676 -3.0036 0.3723 0 1
0.0786 -6.8527 -2.9112 0.3840 0 1
0.3432 -6.6401 -2.8245 0.3957 0 1
0.5920 -6.4300 -2.7430 0.4075 0 1
0.8260 -6.2226 -2.6665 0.4192 0 1
1.0463 -6.0177 -2.5947 0.4308 0 1
1.2534 -5.8144 -2.5267 0.4414 0 1
1.4479 -5.6122 -2.4621 0.4527 0 1
1.6309 -5.4127 -2.4014 0.4642 0 1
1.7953 -5.1934 -2.3343 0.4738 0 24
1.9550 -4.9960 -2.2790 0.4846 0 24
2.1177 -4.8305 -2.2405 0.4975 0 1
2.2594 -4.6378 -2.1915 0.4907 0 1
2.3877 -4.4390 -2.1412 0.5022 0 1
2.5075 -4.2439 -2.0940 0.5135 0 1
2.6194 -4.0523 -2.0498 0.5246 0 1
2.7246 -3.8653 -2.0089 0.5573 0 1
2.8273 -3.6872 -1.9738 0.5673 0 1
2.9236 -3.5112 -1.9410 0.5769 0 1
3.0139 -3.3374 -1.9103 0.5861 0 1
3.0984 -3.1656 -1.8817 0.5950 0 1
3.1774 -2.9956 -1.8551 0.6036 0 1
3.2512 -2.8274 -1.8303 0.6117 0 1
3.3200 -2.6608 -1.8074 0.6195 0 1
3.3839 -2.4956 -1.7862 0.6269 0 1
3.4442 -2.3325 -1.7671 0.6239 0 1
3.5006 -2.1709 -1.7498 0.6303 0 1
3.5533 -2.0107 -1.7343 0.6392 0 1
3.6021 -1.8515 -1.7205 0.6444 0 1
3.6469 -1.6929 -1.7080 0.6491 0 1
3.6878 -1.5351 -1.6969 0.6534 0 1
3.7248 -1.3777 -1.6871 0.6572 0 1
3.7580 -1.2208 -1.6785 0.6605 0 1
3.7876 -1.0643 -1.6713 0.6634 0 1
3.8135 -0.9081 -1.6653 0.6657 0 1
3.8359 -0.7521 -1.6605 0.6677 0 1
3.8547 -0.5961 -1.6570 0.6691 0 1
3.8701 -0.4402 -1.6546 0.6700 0 1
3.8820 -0.2843 -1.6535 0.6705 0 1
3.8904 -0.1281 -1.6535 0.6705 0 1
3.8972 0.0282 -1.6556 0.6689 0 1
3.9014 0.1851 -1.6592 0.6675 0 1
3.9022 0.3426 -1.6641 0.6655 0 1
3.8990 0.5008 -1.6699 0.6534 0 1
3.8887 0.6592 -1.6755 0.6512 0 1
3.8746 0.8181 -1.6822 0.6486 0 1
3.8568 0.9776 -1.6902 0.6455 0 1
3.8352 1.1379 -1.6994 0.6420 0 1
3.8098 1.2989 -1.7099 0.6381 0 1
3.7805 1.4609 -1.7217 0.6337 0 1
3.7471 1.6238 -1.7348 0.6289 0 1
3.7095 1.7878 -1.7493 0.6237 0 1
3.6678 1.9529 -1.7652 0.6181 0 1
3.6216 2.1192 -1.7825 0.6121 0 1
3.5710 2.2869 -1.8014 0.6053 0 1
3.5160 2.4562 -1.8219 0.5985 0 1
3.4563 2.6271 -1.8442 0.5913 0 1
3.3915 2.7997 -1.8682 0.5837 0 1
3.3215 2.9741 -1.8939 0.5757 0 1
3.2464 3.1507 -1.9218 0.5717 0 1
3.1658 3.3296 -1.9517 0.5629 0 1
3.0793 3.5107 -1.9837 0.5538 0 1
2.9864 3.6941 -2.0179 0.5445 0 1
2.8868 3.8798 -2.0543 0.5348 0 1
2.7784 4.0655 -2.0918 0.5294 0 1
2.6616 4.2514 -2.1307 0.5197 0 1
2.5370 4.4395 -2.1721 0.5104 0 1
2.4044 4.6296 -2.2161 0.5003 0 1
2.2633 4.8220 -2.2628 0.4899 0 1
2.1132 5.0167 -2.3124 0.4794 0 1
1.9422 5.1833 -2.3514 0.4695 0 24
1.7744 5.3845 -2.4083 0.4584 0 24
1.6034 5.6147 -2.4805 0.4473 0 1
1.4116 5.8188 -2.5435 0.4362 0 1
1.2038 6.0055 -2.6019 0.4241 0 24
0.9912 6.2345 -2.6817 0.4139 0 1
0.7612 6.4483 -2.7583 0.4024 0 1
0.5163 6.6641 -2.8394 0.3917 0 1
0.2559 6.8827 -2.9258 0.3793 0 1
-0.0214 7.1040 -3.0178 0.3677 0 1
-0.3166 7.3277 -3.1157 0.3561 0 1
-0.6309 7.5525 -3.2195 0.3474 0 1
-0.9654 7.7764 -3.3288 0.3360 0 1
-1.3214 8.0008 -3.4448 0.3256 0 1
-1.6999 8.2229 -3.5670 0.3144 0 1
-2.1027 8.4451 -3.6970 0.3034 0 1
-2.5314 8.6665 -3.8354 0.2925 0 1
-2.9879 8.8866 -3.9827 0.2817 0 1
-3.4740 9.1044 -4.1396 0.2712 0 1
-3.9928 9.3215 -4.3078 0.2606 0 1
-4.5453 9.5343 -4.4869 0.2502 0 1
-5.1340 9.7416 -4.6778 0.2359 0 1
-5.7650 9.9485 -4.8844 0.2308 0 1
-6.4252 10.1272 -5.0948 0.2213 0 1
-7.1264 10.2939 -5.3185 0.2108 0 1
-7.8714 10.4473 -5.5567 0.2018 0 1
-8.6749 10.5996 -5.8184 0.1889 0 1
-9.5045 10.7055 -6.0814 0.1807 0 24
-10.4127 10.8202 -6.3791 0.1752 0 24
-11.3767 10.9091 -6.6957 0.1642 0 24
-12.4120 10.9799 -7.0396 0.1569 0 24
-13.5064 11.0136 -7.4033 0.1501 0 24
-14.6662 11.0092 -7.7902 0.1320 0 24
-16.0717 11.0839 -8.2935 0.1218 0 1
-17.4338 11.0172 -8.7608 0.1196 0 1
-18.6101 10.7399 -9.1276 0.9764 0 2
-19.4550 10.2088 -9.3333 0.1117 0 2
-20.8287 9.8841 -9.7938 0.1064 0 2
-22.2159 9.4689 -10.2588 0.1016 0 2
-23.5979 8.9562 -10.7221 0.0972 0 2
-24.9522 8.3401 -11.1762 0.0932 0 2
-27.1919 7.8899 -12.0276 0.2775 0 2
-28.6033 7.0674 -12.5162 0.0916 0 1
-16.6261 3.4060 -7.2095 0.8083 26 14
-16.6842 2.7249 -7.1814 0.9029 26 14
-18.8455 2.3054 -8.0653 0.3221 26 14
-32.9241 2.6912 -14.0329 0.0873 0 1
-33.2969 1.3790 -14.1567 0.0864 0 1
-33.3907 0.0408 -14.1844 0.0817 0 1
-33.2076 -1.2940 -14.1174 0.0789 0 1
-32.7045 -2.5928 -13.9365 0.0793 0 1
-30.4448 -3.6489 -13.0256 0.0802 0 25
-29.6701 -4.7714 -12.7658 0.0819 0 25
-22.2784 -4.5072 -9.6556 0.9834 16 6
-28.5386 -6.9774 -12.4803 0.0791 0 1
-27.2106 -7.8232 -12.0274 0.0842 0 1
-25.7631 -8.5412 -11.5300 0.0865 0 1
-24.3086 -9.1579 -11.0348 0.0965 0 1
-22.8325 -9.6658 -10.5326 0.1047 0 1
-21.3891 -10.0860 -10.0457 0.1098 0 1
-20.0077 -10.4365 -9.5861 0.1221 0 1
-18.6597 -10.7078 -9.1391 0.1214 0 1
-17.2626 -10.8501 -8.6614 0.1237 0 24
-15.9920 -10.9713 -8.2385 0.1305 0 1
-14.7254 -10.9974 -7.8074 0.1378 0 1
-13.5209 -10.9705 -7.3965 0.1442 0 1
-12.3846 -10.9018 -7.0089 0.1522 0 1
-11.3409 -10.8217 -6.6590 0.1649 0 1
-10.3609 -10.7139 -6.3313 0.1734 0 1
-9.4595 -10.6025 -6.0360 0.1890 0 1
-8.6194 -10.4794 -5.7640 0.1980 0 1
-7.8277 -10.3365 -5.5080 0.2072 0 1
-7.0746 -10.1659 -5.2613 0.2141 0 1
-6.3678 -9.9827 -5.0300 0.2240 0 1
-5.6859 -9.7570 -4.7972 0.2338 0 24
-5.0649 -9.5537 -4.5935 0.2438 0 24
-4.4979 -9.3758 -4.4175 0.2540 0 1
-3.9503 -9.1605 -4.2378 0.2638 0 1
-3.4370 -8.9417 -4.0694 0.2747 0 1
-2.9561 -8.7211 -3.9118 0.2858 0 1
-2.5043 -8.4964 -3.7628 0.2931 0 1
-2.0802 -8.2688 -3.6220 0.3045 0 1
-1.6830 -8.0420 -3.4902 0.3160 0 1
-1.3108 -7.8179 -3.3674 0.3301 0 1
-0.9588 -7.5720 -3.2423 0.3443 0 24
-0.6345 -7.3772 -3.1454 0.3555 0 1
-0.3268 -7.1589 -3.0443 0.3673 0 1
-0.0378 -6.9248 -2.9417 0.3795 0 24
0.2337 -6.7294 -2.8604 0.3908 0 1
0.4890 -6.5182 -2.7767 0.4026 0 1
0.7292 -6.3097 -2.6982 0.4143 0 1
0.9551 -6.1037 -2.6244 0.4259 0 1
1.1677 -5.9003 -2.5551 0.4376 0 1
1.3674 -5.6971 -2.4888 0.4479 0 1
1.5496 -5.4770 -2.4180 0.4578 0 24
1.7318 -5.2986 -2.3680 0.4707 0 1
1.8980 -5.1035 -2.3130 0.4819 0 1
2.0545 -4.9109 -2.2614 0.4929 0 1
2.2018 -4.7209 -2.2128 0.5037 0 1
2.3346 -4.5223 -2.1620 0.4974 0 1
2.4580 -4.3257 -2.1135 0.5088 0 1
2.5732 -4.1327 -2.0680 0.5200 0 1
2.6807 -3.9431 -2.0255 0.5309 0 1
2.7848 -3.7620 -1.9883 0.5631 0 1
2.8838 -3.5851 -1.9545 0.5729 0 1
2.9766 -3.4104 -1.9230 0.5823 0 1
3.0635 -3.2378 -1.8935 0.5913 0 1
3.1448 -3.0670 -1.8660 0.6000 0 1
3.2207 -2.8981 -1.8405 0.6083 0 1
3.2916 -2.7308 -1.8168 0.6163 0 1
3.3576 -2.5651 -1.7949 0.6238 0 1
3.4192 -2.4010 -1.7748 0.6212 0 1
3.4772 -2.2388 -1.7568 0.6276 0 1
3.5315 -2.0781 -1.7406 0.6336 0 1
3.5820 -1.9185 -1.7261 0.6423 0 1
3.6285 -1.7597 -1.7131 0.6472 0 1
3.6710 -1.6015 -1.7014 0.6516 0 1
3.7096 -1.4440 -1.6910 0.6556 0 1
3.7445 -1.2869 -1.6820 0.6591 0 1
3.7756 -1.1302 -1.6742 0.6622 0 1
3.8030 -0.9739 -1.6677 0.6648 0 1
3.8269 -0.8178 -1.6624 0.6669 0 1
3.8472 -0.6618 -1.6583 0.6685 0 1
3.8640 -0.5059 -1.6555 0.6697 0 1
3.8774 -0.3500 -1.6538 0.6704 0 1
3.8872 -0.1940 -1.6534 0.6706 0 1
3.8943 -0.0377 -1.6544 0.6694 0 1
3.9000 0.1189 -1.6575 0.6682 0 1
3.9023 0.2762 -1.6619 0.6664 0 1
3.9011 0.4341 -1.6674 0.6642 0 1
3.8935 0.5924 -1.6730 0.6522 0 1
3.8810 0.7510 -1.6792 0.6497 0 1
3.8648 0.9103 -1.6867 0.6469 0 1
3.8448 1.0703 -1.6954 0.6435 0 1
3.8210 1.2310 -1.7053 0.6398 0 1
3.7933 1.3925 -1.7166 0.6356 0 1
3.7616 1.5550 -1.7291 0.6310 0 1
3.7259 1.7185 -1.7430 0.6260 0 1
3.6859 1.8831 -1.7583 0.6205 0 1
3.6416 2.0489 -1.7750 0.6147 0 1
3.5929 2.2160 -1.7932 0.6080 0 1
3.5397 2.3846 -1.8130 0.6014 0 1
3.4820 2.5549 -1.8346 0.5944 0 1
3.4194 2.7268 -1.8579 0.5869 0 1
3.3516 2.9004 -1.8829 0.5791 0 1
3.2786 3.0759 -1.9098 0.5753 0 1
3.2005 3.2540 -1.9389 0.5667 0 1
3.1165 3.4341 -1.9700 0.5577 0 1
3.0263 3.6165 -2.0032 0.5485 0 1
2.9296 3.8013 -2.0387 0.5389 0 1
2.8255 3.9877 -2.0761 0.5334 0 1
2.7117 4.1728 -2.1140 0.5238 0 1
2.5905 4.3600 -2.1544 0.5140 0 1
2.4613 4.5492 -2.1972 0.5046 0 1
2.3238 4.7406 -2.2428 0.4943 0 1
2.1776 4.9343 -2.2911 0.4839 0 1
2.0098 5.0994 -2.3284 0.4741 0 24
1.8567 5.3288 -2.3972 0.4628 0 1
1.6808 5.5294 -2.4550 0.4519 0 1
1.4939 5.7325 -2.5165 0.4409 0 1
1.2906 5.9166 -2.5725 0.4284 0 24
1.0841 6.1460 -2.6511 0.4185 0 1
0.8598 6.3579 -2.7254 0.4073 0 1
0.6214 6.5729 -2.8046 0.3965 0 1
0.3676 6.7902 -2.8887 0.3841 0 1
0.0976 7.0105 -2.9783 0.3726 0 1
-0.1899 7.2332 -3.0737 0.3610 0 1
-0.4961 7.4582 -3.1752 0.3495 0 1
-0.8219 7.6819 -3.2819 0.3408 0 1
-1.1687 7.9066 -3.3953 0.3295 0 1
-1.5375 8.1293 -3.5146 0.3191 0 1
-1.9298 8.3515 -3.6412 0.3080 0 1
-2.3475 8.5733 -3.7760 0.2971 0 1
-2.7921 8.7941 -3.9195 0.2862 0 1
-3.2655 9.0130 -4.0723 0.2755 0 1
-3.7702 9.2306 -4.2356 0.2651 0 1
-4.3082 9.4452 -4.4100 0.2546 0 1
-4.8813 9.6549 -4.5958 0.2443 0 1
-5.4949 9.8636 -4.7964 0.2301 0 1
-6.1421 10.0533 -5.0046 0.2253 0 1
-6.8255 10.2248 -5.2224 0.2159 0 1
-7.5522 10.3847 -5.4546 0.2055 0 1
-8.3298 10.5370 -5.7059 0.1926 0 1
-9.1629 10.6796 -5.9777 0.1839 0 1
-10.0554 10.8093 -6.2714 0.1753 0 1
-11.0040 10.9152 -6.5842 0.1677 0 1
-12.0084 10.9907 -6.9152 0.1592 0 1
-24.9096 -5.4800 -11.1699 0.0960 0 25
-24.6315 -6.4659 -11.1527 0.0979 0 1
-23.5726 -7.2114 -10.7958 0.1009 0 1
-22.4640 -7.8719 -10.4246 0.1070 0 1
-21.2807 -8.4313 -10.0246 0.1133 0 1
-20.1046 -8.9152 -9.6316 0.1219 0 1
-18.9381 -9.3253 -9.2448 0.1276 0 1
-17.7306 -9.6339 -8.8372 0.1275 0 1
-16.5430 -9.8691 -8.4362 0.1305 0 1
-15.3637 -10.0233 -8.0338 0.1368 0 1
-14.2272 -10.1190 -7.6460 0.1431 0 1
-13.1346 -10.1602 -7.2724 0.1505 0 1
-12.1003 -10.1623 -6.9202 0.1630 0 1
-11.1378 -10.1440 -6.5976 0.1710 0 1
-10.2246 -10.0926 -6.2918 0.1793 0 1
-9.3821 -10.0362 -6.0167 0.1948 0 1
-8.5872 -9.9592 -5.7590 0.2035 0 1
-7.8337 -9.8597 -5.5150 0.2125 0 1
-7.1128 -9.7305 -5.2785 0.2190 0 1
-6.4141 -9.5579 -5.0410 0.2284 0 24
-5.7731 -9.3976 -4.8302 0.2381 0 24
-5.1866 -9.2568 -4.6469 0.2477 0 1
-4.6172 -9.0772 -4.4601 0.2581 0 1
-4.0810 -8.8896 -4.2838 0.2677 0 1
-3.5769 -8.6966 -4.1182 0.2785 0 1
-3.1030 -8.4996 -3.9627 0.2895 0 1
-2.6563 -8.2962 -3.8150 0.2966 0 1
-2.2361 -8.0889 -3.6754 0.3079 0 1
-1.8416 -7.8818 -3.5448 0.3218 0 1
-1.4710 -7.6750 -3.4224 0.3333 0 1
-1.1231 -7.4715 -3.3089 0.3476 0 1
-0.7953 -7.2656 -3.2009 0.3584 0 1
-0.4870 -7.0604 -3.0994 0.3701 0 1
-0.1968 -6.8565 -3.0040 0.3819 0 1
0.0763 -6.6540 -2.9143 0.3935 0 1
0.3335 -6.4532 -2.8299 0.4053 0 1
0.5758 -6.2541 -2.7505 0.4170 0 1
0.8041 -6.0569 -2.6759 0.4286 0 1
1.0192 -5.8617 -2.6056 0.4402 0 1
1.2217 -5.6674 -2.5390 0.4504 0 1
1.4122 -5.4738 -2.4757 0.4619 0 1
1.5916 -5.2825 -2.4162 0.4733 0 1
1.7607 -5.0934 -2.3602 0.4846 0 1
1.9100 -4.8811 -2.2955 0.4931 0 24
2.0700 -4.7219 -2.2579 0.5065 0 1
2.2082 -4.5328 -2.2081 0.4997 0 1
2.3348 -4.3407 -2.1586 0.5111 0 1
2.4532 -4.1520 -2.1120 0.5224 0 1
2.5638 -3.9664 -2.0684 0.5334 0 1
2.6702 -3.7881 -2.0297 0.5660 0 1
2.7718 -3.6147 -1.9949 0.5759 0 1
2.8671 -3.4434 -1.9623 0.5854 0 1
2.9566 -3.2739 -1.9319 0.5946 0 1
3.0403 -3.1062 -1.9035 0.6035 0 1
3.1187 -2.9402 -1.8771 0.6120 0 1
3.1919 -2.7758 -1.8525 0.6201 0 1
3.2601 -2.6128 -1.8297 0.6279 0 1
3.3237 -2.4512 -1.8086 0.6352 0 1
3.3826 -2.2908 -1.7892 0.6421 0 1
3.4382 -2.1323 -1.7718 0.6420 0 1
3.4908 -1.9754 -1.7566 0.6476 0 1
3.5393 -1.8192 -1.7428 0.6527 0 1
3.5838 -1.6636 -1.7304 0.6574 0 1
3.6244 -1.5087 -1.7193 0.6616 0 1
3.6611 -1.3542 -1.7095 0.6654 0 1
3.6941 -1.2001 -1.7010 0.6687 0 1
3.7234 -1.0463 -1.6938 0.6716 0 1
3.7492 -0.8928 -1.6878 0.6739 0 1
3.7713 -0.7394 -1.6831 0.6759 0 1
3.7900 -0.5861 -1.6795 0.6773 0 1
3.8052 -0.4328 -1.6772 0.6782 0 1
3.8169 -0.2795 -1.6761 0.6787 0 1
3.8252 -0.1260 -1.6761 0.6787 0 1
3.8317 0.0277 -1.6781 0.6771 0 1
3.8357 0.1820 -1.6817 0.6757 0 1
3.8363 0.3368 -1.6866 0.6737 0 1
3.8316 0.4922 -1.6918 0.6617 0 1
3.8212 0.6477 -1.6973 0.6595 0 1
3.8071 0.8038 -1.7041 0.6569 0 1
3.7893 0.9605 -1.7120 0.6539 0 1
3.7678 1.1179 -1.7212 0.6504 0 1
3.7424 1.2760 -1.7316 0.6465 0 1
3.7131 1.4349 -1.7433 0.6421 0 1
3.6798 1.5946 -1.7564 0.6374 0 1
3.6424 1.7554 -1.7708 0.6322 0 1
3.6008 1.9172 -1.7865 0.6266 0 1
3.5548 2.0801 -1.8038 0.6206 0 1
3.5044 2.2442 -1.8225 0.6138 0 1
3.4497 2.4099 -1.8429 0.6071 0 1
3.3904 2.5770 -1.8650 0.5999 0 1
3.3260 2.7456 -1.8888 0.5923 0 1
3.2569 2.9162 -1.9146 0.5888 0 1
3.1826 3.0888 -1.9423 0.5804 0 1
3.1027 3.2632 -1.9720 0.5716 0 1
3.0168 3.4395 -2.0036 0.5626 0 1
2.9248 3.6179 -2.0374 0.5533 0 1
2.8262 3.7984 -2.0735 0.5437 0 1
2.7194 3.9790 -2.1107 0.5383 0 1
2.6039 4.1594 -2.1491 0.5287 0 1
2.4811 4.3416 -2.1900 0.5188 0 1
2.3504 4.5255 -2.2333 0.5093 0 1
2.2114 4.7114 -2.2793 0.4990 0 1
2.0637 4.8991 -2.3281 0.4886 0 1
1.9068 5.0889 -2.3800 0.4779 0 1
1.7311 5.2530 -2.4222 0.4676 0 24
1.5632 5.4739 -2.4931 0.4566 0 1
1.3754 5.6693 -2.5548 0.4456 0 1
1.1760 5.8666 -2.6203 0.4344 0 1
0.9644 6.0661 -2.6900 0.4234 0 1
0.7400 6.2694 -2.7647 0.4119 0 1
0.5016 6.4742 -2.8438 0.4012 0 1
0.2484 6.6804 -2.9277 0.3897 0 1
-0.0207 6.8887 -3.0169 0.3774 0 1
-0.3067 7.0987 -3.1117 0.3659 0 1
-0.6107 7.3099 -3.2125 0.3544 0 1
-0.9335 7.5191 -3.3182 0.3459 0 1
-1.2763 7.7275 -3.4301 0.3355 0 1
-1.6398 7.9325 -3.5474 0.3244 0 1
-2.0258 8.1363 -3.6720 0.3134 0 1
-2.4356 8.3383 -3.8043 0.3025 0 1
-2.8706 8.5376 -3.9447 0.2918 0 1
-3.3325 8.7334 -4.0937 0.2811 0 1
-3.8230 8.9253 -4.2523 0.2680 0 1
-4.3454 9.1149 -4.4222 0.2577 0 1
-4.8991 9.2958 -4.6018 0.2503 0 1
-5.4871 9.4690 -4.7928 0.2362 0 1
-6.1070 9.6257 -4.9924 0.2317 0 1
-6.7582 9.7621 -5.1998 0.2225 0 1
-7.4461 9.8827 -5.4191 0.2123 0 1
-8.1770 9.9912 -5.6542 0.1995 0 1
-8.9591 10.0912 -5.9098 0.1908 0 1
-9.7946 10.1780 -6.1861 0.1823 0 1
-10.6738 10.2351 -6.4763 0.1749 0 1
-11.6005 10.2620 -6.7829 0.1666 0 1
-12.5815 10.2595 -7.1097 0.1592 0 1
-13.6079 10.2148 -7.4517 0.1514 0 1
-14.6947 10.1342 -7.8175 0.1326 0 1
-15.9014 10.0488 -8.2379 0.1288 0 1
-17.0949 9.8655 -8.6439 0.1246 0 1
-18.3098 9.6079 -9.0556 0.1187 0 1
-19.8263 9.4084 -9.6109 0.1319 0 2
-20.7385 8.8392 -9.8729 0.7965 0 2
-21.9003 8.3119 -10.2587 0.6383 0 2
-23.4406 7.8349 -10.8240 0.1101 0 2
-24.1987 7.0214 -11.0348 0.0994 0 1
-16.4544 4.0656 -7.4228 0.5084 26 14
-16.4407 3.3680 -7.3496 0.9626 26 14
-16.4973 2.6944 -7.3207 0.8560 26 14
-18.4232 2.2537 -8.1285 0.1435 26 14
-28.3444 2.3169 -12.4547 0.0793 0 1
-28.6669 1.1872 -12.5653 0.0787 0 1
-28.7712 0.0352 -12.6002 0.0800 0 1
-28.6208 -1.1152 -12.5439 0.0804 0 1
-28.2346 -2.2384 -12.4040 0.0832 0 1
-26.6368 -3.1925 -11.7490 0.0913 0 25
-26.0239 -4.1851 -11.5435 0.0929 0 25
-22.1589 -4.4830 -9.9010 0.9840 16 6
-24.3891 -5.9629 -10.9957 0.0968 0 2
-24.0300 -6.9088 -10.9502 0.0994 0 1
-22.9371 -7.6043 -10.5829 0.1054 0 1
-21.7856 -8.2074 -10.1955 0.1114 0 1
-20.6000 -8.7207 -9.7968 0.1198 0 1
-19.4289 -9.1617 -9.4074 0.1254 0 1
-18.2372 -9.5130 -9.0082 0.1251 0 1
-17.0422 -9.7795 -8.6051 0.1309 0 1
-15.8559 -9.9659 -8.2017 0.1340 0 1
-14.7011 -10.0857 -7.8078 0.1407 0 1
-13.5886 -10.1484 -7.4276 0.1473 0 1
-12.5267 -10.1638 -7.0647 0.1549 0 1
-11.4769 -10.1028 -6.6962 0.1632 0 24
-10.6034 -10.1180 -6.4186 0.1757 0 1
-9.7296 -10.0611 -6.1295 0.1912 0 1
-8.9171 -9.9946 -5.8659 0.1998 0 1
-8.1463 -9.9042 -5.6162 0.2086 0 1
-7.4116 -9.7871 -5.3766 0.2150 0 1
-6.6960 -9.6218 -5.1338 0.2244 0 24
-6.0570 -9.4954 -4.9325 0.2339 0 1
-5.4371 -9.3300 -4.7292 0.2434 0 1
-4.8529 -9.1538 -4.5374 0.2537 0 1
-4.3030 -8.9695 -4.3568 0.2633 0 1
-3.7856 -8.7785 -4.1867 0.2739 0 1
-3.2991 -8.5830 -4.0270 0.2849 0 1
-2.8415 -8.3831 -3.8765 0.2919 0 1
-2.4100 -8.1764 -3.7331 0.3031 0 1
-1.9979 -7.9413 -3.5862 0.3183 0 24
-1.6244 -7.7622 -3.4730 0.3284 0 1
-1.2629 -7.5317 -3.3445 0.3421 0 24
-0.9310 -7.3524 -3.2457 0.3535 0 1
-0.6146 -7.1467 -3.1414 0.3652 0 1
-0.3169 -6.9422 -3.0435 0.3769 0 1
-0.0367 -6.7219 -2.9439 0.3891 0 24
0.2270 -6.5376 -2.8648 0.4003 0 1
0.4755 -6.3378 -2.7834 0.4120 0 1
0.7095 -6.1398 -2.7068 0.4237 0 1
0.9301 -5.9437 -2.6347 0.4353 0 1
1.1379 -5.7494 -2.5668 0.4454 0 1
1.3289 -5.5367 -2.4936 0.4578 0 24
1.5173 -5.3628 -2.4408 0.4685 0 1
1.6907 -5.1728 -2.3833 0.4798 0 1
1.8451 -4.9612 -2.3181 0.4900 0 24
1.9962 -4.7717 -2.2652 0.4995 0 24
2.1522 -4.6147 -2.2300 0.4948 0 1
2.2825 -4.4212 -2.1791 0.5063 0 1
2.4043 -4.2311 -2.1313 0.5177 0 1
2.5181 -4.0442 -2.0864 0.5288 0 1
2.6254 -3.8617 -2.0451 0.5617 0 1
2.7297 -3.6875 -2.0093 0.5717 0 1
2.8277 -3.5154 -1.9758 0.5814 0 1
2.9196 -3.3451 -1.9445 0.5908 0 1
3.0057 -3.1767 -1.9153 0.5998 0 1
3.0863 -3.0100 -1.8880 0.6085 0 1
3.1616 -2.8449 -1.8627 0.6168 0 1
3.2320 -2.6813 -1.8391 0.6246 0 1
3.2975 -2.5191 -1.8173 0.6321 0 1
3.3583 -2.3583 -1.7972 0.6392 0 1
3.4150 -2.1987 -1.7788 0.6360 0 1
3.4692 -2.0414 -1.7628 0.6453 0 1
3.5194 -1.8849 -1.7484 0.6506 0 1
3.5655 -1.7291 -1.7354 0.6555 0 1
3.6077 -1.5739 -1.7238 0.6599 0 1
3.6461 -1.4192 -1.7135 0.6639 0 1
3.6806 -1.2650 -1.7045 0.6674 0 1
3.7115 -1.1111 -1.6967 0.6704 0 1
3.7388 -0.9574 -1.6902 0.6730 0 1
3.7624 -0.8040 -1.6849 0.6751 0 1
3.7826 -0.6507 -1.6809 0.6767 0 1
3.7992 -0.4974 -1.6780 0.6779 0 1
