ply
format ascii 1.0
element vertex 1571
property float32 x
property float32 y
property float32 z
property float32 I
end_header
-14.8923 16.0814 -7.9087 0.9110
-16.7170 16.6535 -8.5145 0.9045
-20.4138 17.2973 -9.6548 0.8925
-27.5658 18.1436 -11.9080 0.8691
-29.5218 17.7700 -12.4335 0.8637
-35.6638 17.7267 -14.3708 0.8442
-30.5284 13.6701 -12.0697 0.8674
-35.9389 14.3849 -13.9683 0.8482
-41.0572 -20.6016 -16.5754 0.8226
-36.4443 -20.1633 -15.0289 0.8377
-28.7382 -19.0715 -12.4455 0.8636
-24.1294 -17.4521 -10.7454 0.8811
-22.7031 -17.8558 -10.4223 0.8844
-18.4059 -17.0441 -9.0517 0.8988
-16.0873 -16.1479 -8.2248 0.9076
-14.2937 -15.5527 -7.6221 0.9141
-12.7114 -15.0010 -7.0949 0.9198
-10.0102 -13.9504 -6.1956 0.9296
-6.0441 -12.1592 -4.8996 0.9439
-4.5455 -11.3554 -4.4135 0.9493
-3.8715 -10.9280 -4.1834 0.9519
-2.7205 -10.2298 -3.8196 0.9560
-2.2049 -9.8764 -3.6515 0.9579
-1.7215 -9.4940 -3.4817 0.9598
-1.2875 -9.1964 -3.3508 0.9613
-0.8792 -8.8679 -3.2156 0.9628
0.1748 -7.9414 -2.8662 0.9668
1.0219 -7.1057 -2.5904 0.9699
1.2668 -6.8409 -2.5104 0.9708
1.4953 -6.5818 -2.4355 0.9717
1.9077 -6.0820 -2.3000 0.9733
2.0937 -5.8405 -2.2388 0.9740
2.4305 -5.3737 -2.1281 0.9752
2.5829 -5.1478 -2.0782 0.9758
2.7217 -4.9196 -2.0287 0.9764
2.9619 -4.4635 -1.9329 0.9775
3.0693 -4.2438 -1.8898 0.9780
3.2636 -3.8224 -1.8136 0.9789
3.3561 -3.6244 -1.7824 0.9792
3.4438 -3.4310 -1.7541 0.9795
3.5260 -3.2407 -1.7281 0.9798
3.7398 -2.6837 -1.6610 0.9806
3.8584 -2.3227 -1.6251 0.9810
3.9599 -1.9685 -1.5957 0.9814
4.0447 -1.6191 -1.5721 0.9816
4.1148 -1.2739 -1.5543 0.9818
4.1443 -1.1022 -1.5474 0.9819
4.1700 -0.9311 -1.5417 0.9820
4.1921 -0.7602 -1.5373 0.9820
4.2455 -0.0777 -1.5322 0.9821
4.2575 0.2654 -1.5392 0.9820
4.2582 0.4382 -1.5446 0.9820
4.2344 0.9619 -1.5668 0.9817
4.1923 1.3148 -1.5854 0.9815
4.1653 1.4931 -1.5966 0.9814
4.0150 2.2211 -1.6556 0.9807
3.9127 2.5963 -1.6944 0.9802
3.8544 2.7875 -1.7164 0.9800
3.7220 3.1778 -1.7660 0.9794
3.6473 3.3772 -1.7936 0.9791
3.4792 3.7853 -1.8552 0.9784
3.2840 4.2075 -1.9259 0.9776
3.1742 4.4232 -1.9645 0.9771
2.9260 4.8602 -2.0470 0.9762
2.7887 5.0849 -2.0926 0.9756
2.6418 5.3140 -2.1414 0.9751
2.4847 5.5478 -2.1934 0.9745
2.1366 6.0301 -2.3084 0.9732
1.9441 6.2791 -2.3718 0.9724
1.5158 6.7881 -2.5097 0.9709
1.2775 7.0434 -2.5830 0.9700
1.0271 7.3339 -2.6722 0.9690
0.7560 7.6215 -2.7636 0.9680
0.4642 7.9141 -2.8606 0.9668
-0.1871 8.5203 -3.0752 0.9644
-0.9416 9.1530 -3.3202 0.9616
-1.3630 9.4809 -3.4562 0.9601
-1.8163 9.8106 -3.6002 0.9585
-2.8375 10.5131 -3.9293 0.9547
-3.4163 10.8934 -4.1195 0.9526
-4.7132 11.6496 -4.5346 0.9480
-7.1639 12.9507 -5.3404 0.9390
-9.1750 13.8275 -5.9879 0.9319
-13.1511 15.4042 -7.3085 0.9175
-14.8868 16.0786 -7.9067 0.9110
-20.4082 17.2958 -9.6529 0.8925
-24.9634 17.9153 -11.0873 0.8775
-27.5656 18.1472 -11.9086 0.8691
-29.5156 17.7701 -12.4316 0.8637
-30.5214 13.6704 -12.0674 0.8674
-41.0686 -20.6025 -16.5792 0.8225
-36.4545 -20.1644 -15.0323 0.8376
-32.3650 -19.6445 -13.6614 0.8513
-3.7046 -10.4600 -4.1436 0.9537
-3.1329 -10.1238 -3.9572 0.9558
-1.6599 -9.1590 -3.4758 0.9610
-1.2379 -8.8484 -3.3363 0.9626
-0.4828 -8.2497 -3.0858 0.9653
-0.1447 -7.9623 -2.9737 0.9666
0.1699 -7.6861 -2.8708 0.9677
0.4633 -7.4172 -2.7751 0.9688
0.9928 -6.8987 -2.6026 0.9707
2.3725 -5.2441 -2.1493 0.9757
2.6578 -4.8031 -2.0498 0.9768
2.8956 -4.3625 -1.9552 0.9779
3.1975 -3.7443 -1.8386 0.9792
3.3750 -3.3618 -1.7788 0.9799
3.9317 -1.7603 -1.6086 0.9818
4.0090 -1.4200 -1.5881 0.9820
4.0712 -1.0824 -1.5730 0.9822
4.0967 -0.9143 -1.5674 0.9822
4.1518 -0.4113 -1.5579 0.9823
4.1712 -0.0759 -1.5578 0.9823
4.1799 0.6014 -1.5769 0.9821
4.1723 0.7730 -1.5845 0.9820
4.1570 0.9447 -1.5919 0.9820
4.0877 1.4657 -1.6216 0.9816
4.0566 1.6417 -1.6341 0.9815
4.0212 1.8192 -1.6481 0.9813
3.9374 2.1787 -1.6803 0.9810
3.5711 3.3072 -1.8175 0.9794
3.4907 3.5042 -1.8470 0.9791
3.4041 3.7042 -1.8786 0.9787
3.2110 4.1148 -1.9490 0.9780
3.1027 4.3244 -1.9874 0.9775
2.5770 5.1848 -2.1620 0.9756
2.4222 5.4097 -2.2133 0.9750
2.2569 5.6389 -2.2680 0.9744
2.0801 5.8723 -2.3263 0.9738
1.8912 6.1105 -2.3885 0.9731
1.6894 6.3536 -2.4550 0.9723
1.2410 6.8462 -2.5981 0.9707
0.9958 7.1149 -2.6827 0.9698
-0.1815 8.2280 -3.0732 0.9655
-2.2125 9.7368 -3.7285 0.9583
-3.2617 10.3972 -4.0690 0.9545
-4.4911 11.0977 -4.4705 0.9502
-5.9239 11.8051 -4.9320 0.9452
-6.7471 12.1945 -5.2041 0.9422
-9.6252 13.3072 -6.1327 0.9323
-15.6143 15.5549 -8.2300 0.9102
-16.7739 15.4153 -8.5069 0.9073
-22.6076 16.2215 -10.3902 0.8880
-24.8855 14.9793 -10.8461 0.8834
-44.8622 8.1335 -17.0251 0.8231
-32.7078 -4.7047 -12.3392 0.8684
-41.5971 -16.8327 -16.7564 0.8256
-34.0586 -17.0898 -14.2291 0.8498
-24.9478 -16.5561 -11.1805 0.8800
-23.2655 -16.8272 -10.7218 0.8846
-20.8966 -16.4350 -9.9272 0.8927
-18.3967 -15.7081 -9.0330 0.9019
-14.6224 -14.6775 -7.7364 0.9153
-11.7060 -13.8145 -6.7614 0.9256
-10.4484 -13.3881 -6.3415 0.9301
-8.3042 -12.6160 -5.6399 0.9375
-7.3697 -12.2428 -5.3360 0.9408
-6.5115 -11.8744 -5.0569 0.9438
-5.7019 -11.4709 -4.7834 0.9468
-4.3251 -10.8051 -4.3460 0.9515
-2.6052 -9.7962 -3.7852 0.9576
-1.6609 -9.1598 -3.4761 0.9610
-1.2389 -8.8491 -3.3366 0.9626
-0.4836 -8.2504 -3.0861 0.9653
0.1692 -7.6868 -2.8710 0.9677
0.4626 -7.4178 -2.7753 0.9688
0.7364 -7.1554 -2.6860 0.9698
0.9922 -6.8993 -2.6028 0.9707
1.6632 -6.1610 -2.3829 0.9731
1.8516 -5.9031 -2.3102 0.9739
2.3722 -5.2446 -2.1494 0.9757
2.5223 -5.0270 -2.1002 0.9763
2.8953 -4.3631 -1.9553 0.9779
3.1006 -3.9425 -1.8729 0.9788
3.1973 -3.7447 -1.8387 0.9792
3.3748 -3.3623 -1.7789 0.9799
3.5322 -2.9932 -1.7289 0.9804
3.6030 -2.8120 -1.7066 0.9807
3.6686 -2.6326 -1.6861 0.9809
3.7295 -2.4550 -1.6673 0.9811
3.7865 -2.2794 -1.6503 0.9813
3.8391 -2.1053 -1.6350 0.9815
3.8874 -1.9325 -1.6211 0.9816
4.1630 -0.2441 -1.5572 0.9824
4.1712 -0.0763 -1.5578 0.9823
4.1786 0.0919 -1.5607 0.9823
4.1826 0.2607 -1.5649 0.9823
4.1379 1.1169 -1.6004 0.9819
4.1148 1.2905 -1.6103 0.9818
4.0213 1.8187 -1.6480 0.9813
3.8355 2.5451 -1.7189 0.9805
3.7774 2.7318 -1.7407 0.9803
3.7142 2.9209 -1.7644 0.9800
3.6456 3.1125 -1.7900 0.9797
3.5713 3.3067 -1.8174 0.9794
3.4043 3.7038 -1.8785 0.9787
3.2112 4.1143 -1.9489 0.9780
3.1029 4.3239 -1.9873 0.9775
2.9844 4.5336 -2.0268 0.9771
2.7221 4.9635 -2.1139 0.9761
2.5773 5.1843 -2.1619 0.9756
1.8917 6.1099 -2.3884 0.9731
1.6899 6.3531 -2.4548 0.9723
1.4741 6.6015 -2.5258 0.9715
1.2416 6.8457 -2.5980 0.9707
0.7324 7.3835 -2.7706 0.9688
0.4493 7.6586 -2.8647 0.9678
-0.1807 8.2273 -3.0729 0.9655
-0.5309 8.5194 -3.1874 0.9642
-1.3118 9.1243 -3.4421 0.9614
-2.2114 9.7360 -3.7281 0.9583
-2.7137 10.0546 -3.8888 0.9565
-3.8359 10.7017 -4.2451 0.9526
-4.4895 11.0968 -4.4700 0.9502
-5.9220 11.8042 -4.9314 0.9452
-6.7451 12.1936 -5.2034 0.9422
-8.5505 12.8865 -5.7749 0.9361
-10.7622 13.6858 -6.5013 0.9284
-12.0245 14.0847 -6.9153 0.9240
-15.6088 15.5524 -8.2279 0.9102
-16.7734 15.4178 -8.5073 0.9073
-20.3046 15.8485 -9.6181 0.8959
-22.6020 16.2206 -10.3883 0.8880
-25.1399 16.5503 -11.2392 0.8794
-24.8827 14.9808 -10.8455 0.8834
-31.0143 17.0099 -13.2085 0.8598
-35.9643 14.3990 -14.4658 0.8475
-44.8596 8.1374 -17.0244 0.8231
-41.6066 -16.8319 -16.7596 0.8256
-37.6965 -17.0471 -15.4487 0.8381
-34.0667 -17.0899 -14.2318 0.8498
-30.7280 -16.9969 -13.1126 0.8608
-27.6775 -16.7993 -12.0899 0.8709
-24.9524 -16.5558 -11.1819 0.8800
-2.9991 -9.6917 -3.9169 0.9574
-2.4975 -9.3948 -3.7532 0.9592
-1.5965 -8.8096 -3.4567 0.9623
-0.4663 -7.9688 -3.0820 0.9664
0.1646 -7.4457 -2.8754 0.9686
0.9645 -6.7024 -2.6144 0.9714
1.4159 -6.2298 -2.4666 0.9730
1.8047 -5.7518 -2.3275 0.9745
2.1588 -5.3337 -2.2216 0.9756
2.3164 -5.1201 -2.1697 0.9762
2.4643 -4.9103 -2.1212 0.9767
2.8313 -4.2658 -1.9767 0.9783
3.0359 -3.8596 -1.8959 0.9792
3.1333 -3.6691 -1.8629 0.9795
3.2243 -3.4815 -1.8321 0.9799
3.4642 -2.9351 -1.7530 0.9807
3.5997 -2.5826 -1.7105 0.9812
3.7691 -2.0665 -1.6596 0.9817
3.9016 -1.5615 -1.6225 0.9821
3.9382 -1.3949 -1.6131 0.9822
3.9709 -1.2289 -1.6049 0.9823
4.0798 -0.4042 -1.5829 0.9826
4.0909 -0.2395 -1.5822 0.9826
4.1098 0.2566 -1.5898 0.9825
4.1099 0.4233 -1.5952 0.9824
4.1065 0.5909 -1.6018 0.9824
4.0973 0.7591 -1.6088 0.9823
4.0819 0.9276 -1.6161 0.9822
4.0626 1.0970 -1.6247 0.9821
4.0125 1.4387 -1.6458 0.9819
3.9813 1.6113 -1.6583 0.9818
3.9064 1.9604 -1.6875 0.9814
3.7606 2.4959 -1.7426 0.9808
3.7027 2.6783 -1.7644 0.9806
3.6398 2.8629 -1.7879 0.9803
3.5715 3.0498 -1.8133 0.9801
3.4976 3.2391 -1.8405 0.9798
3.4177 3.4309 -1.8697 0.9794
3.2395 3.8234 -1.9348 0.9787
3.0339 4.2286 -2.0094 0.9779
2.7916 4.6379 -2.0900 0.9771
1.2071 6.6589 -2.6128 0.9714
0.9664 6.9052 -2.6920 0.9705
0.7094 7.1587 -2.7775 0.9696
0.1400 7.6824 -2.9666 0.9676
-0.5133 8.2243 -3.1815 0.9653
-1.6799 9.0692 -3.5611 0.9612
-2.1252 9.3526 -3.7030 0.9597
-2.6027 9.6397 -3.8551 0.9581
-3.1182 9.9398 -4.0221 0.9563
-4.2731 10.5591 -4.3979 0.9523
-4.9052 10.8435 -4.5950 0.9502
-5.6048 11.1693 -4.8249 0.9478
-7.1789 11.8243 -5.3408 0.9424
-9.0064 12.4518 -5.9333 0.9362
-11.1520 13.0602 -6.6306 0.9290
-12.3700 13.3578 -7.0291 0.9249
-13.7527 13.7004 -7.4949 0.9201
-15.5251 14.2677 -8.1409 0.9136
-18.1954 14.1994 -8.9110 0.9058
-24.3612 14.6637 -10.9781 0.8852
-29.3104 14.5687 -12.6373 0.8691
-40.7895 12.6257 -16.4856 0.8327
-44.5622 8.0791 -17.4855 0.8235
-32.5837 -4.6868 -12.7097 0.8684
-39.3688 -14.1143 -16.1472 0.8358
-36.1947 -14.6465 -15.0752 0.8458
-27.5988 -15.2694 -12.1778 0.8735
-18.2492 -14.3529 -8.9639 0.9052
-16.5111 -14.0980 -8.3825 0.9111
-13.4031 -13.4536 -7.3321 0.9218
-10.8382 -12.7904 -6.4727 0.9306
-7.8126 -11.8691 -5.4862 0.9409
-3.5410 -9.9950 -4.0940 0.9556
-2.4987 -9.3955 -3.7536 0.9592
-1.5975 -8.8102 -3.4570 0.9623
-0.4671 -7.9695 -3.0822 0.9663
0.1639 -7.4462 -2.8756 0.9686
0.9640 -6.7029 -2.6146 0.9714
1.1972 -6.4650 -2.5385 0.9722
2.3161 -5.1206 -2.1698 0.9762
2.4640 -4.9108 -2.1213 0.9767
2.8311 -4.2663 -1.9768 0.9783
3.1331 -3.6695 -1.8629 0.9795
3.2241 -3.4819 -1.8322 0.9799
3.3092 -3.2969 -1.8035 0.9802
3.3886 -3.1144 -1.7770 0.9805
3.4641 -2.9355 -1.7531 0.9807
3.7166 -2.2374 -1.6749 0.9816
3.7689 -2.0669 -1.6596 0.9817
3.8170 -1.8975 -1.6457 0.9819
3.8611 -1.7291 -1.6334 0.9820
3.9015 -1.5618 -1.6226 0.9821
3.9709 -1.2293 -1.6049 0.9823
4.0252 -0.8987 -1.5924 0.9825
4.0470 -0.7339 -1.5880 0.9825
4.0988 -0.0750 -1.5828 0.9826
4.1060 0.0903 -1.5857 0.9825
4.1099 0.4229 -1.5952 0.9824
4.1066 0.5905 -1.6018 0.9824
4.0627 1.0966 -1.6247 0.9821
4.0125 1.4383 -1.6457 0.9819
3.9814 1.6109 -1.6582 0.9818
3.9461 1.7847 -1.6721 0.9816
3.9065 1.9599 -1.6874 0.9814
3.8624 2.1367 -1.7042 0.9813
3.8139 2.3152 -1.7226 0.9811
3.4179 3.4305 -1.8697 0.9795
3.3319 3.6250 -1.9010 0.9791
3.2397 3.8229 -1.9347 0.9787
3.0342 4.2281 -2.0093 0.9779
2.9171 4.4313 -2.0483 0.9775
2.7919 4.6375 -2.0899 0.9771
2.6581 4.8469 -2.1343 0.9766
2.2005 5.4965 -2.2859 0.9749
2.0151 5.6870 -2.3294 0.9745
1.6440 6.1804 -2.4692 0.9730
1.4329 6.4171 -2.5386 0.9722
1.2076 6.6583 -2.6127 0.9714
0.9670 6.9046 -2.6918 0.9705
0.7100 7.1581 -2.7772 0.9696
-0.1746 7.9516 -3.0708 0.9665
-0.8746 8.5013 -3.2996 0.9640
-1.2629 8.7844 -3.4264 0.9627
-1.6789 9.0685 -3.5608 0.9612
-2.6016 9.6390 -3.8547 0.9581
-3.6737 10.2493 -4.2037 0.9544
-4.2717 10.5583 -4.3975 0.9523
-4.9036 10.8427 -4.5945 0.9503
-5.6031 11.1686 -4.8243 0.9478
-7.1769 11.8236 -5.3402 0.9424
-8.0475 12.1284 -5.6197 0.9395
-10.0239 12.7470 -6.2609 0.9328
-11.1493 13.0595 -6.6297 0.9290
-15.5199 14.2656 -8.1389 0.9136
-16.9345 14.3519 -8.5705 0.9092
-18.1912 14.1989 -8.9096 0.9058
-20.0820 14.4122 -9.5435 0.8994
-22.1349 14.5720 -10.2318 0.8926
-32.0163 14.3399 -13.5444 0.8603
-40.7825 12.6277 -16.4833 0.8327
-44.5627 8.0835 -17.4860 0.8235
-42.5979 -13.3579 -17.2363 0.8258
-39.3763 -14.1128 -16.1498 0.8358
-36.2019 -14.6454 -15.0776 0.8458
-33.2510 -15.0367 -14.0896 0.8552
-25.0397 -15.1983 -11.3091 0.8820
-22.5432 -14.9573 -10.4453 0.8905
-3.3757 -9.5313 -4.0333 0.9574
-2.3986 -9.0225 -3.7239 0.9606
-1.9443 -8.7129 -3.5609 0.9623
-1.5374 -8.4831 -3.4388 0.9636
-0.4511 -7.7080 -3.0798 0.9673
-0.1356 -7.4607 -2.9764 0.9684
0.1595 -7.2179 -2.8798 0.9694
0.9376 -6.5154 -2.6256 0.9721
1.1653 -6.2895 -2.5514 0.9728
1.3786 -6.0659 -2.4812 0.9736
1.5785 -5.8454 -2.4151 0.9743
1.9334 -5.3915 -2.2846 0.9756
2.1073 -5.2066 -2.2404 0.9761
2.2625 -5.0008 -2.1894 0.9766
2.5366 -4.5841 -2.0898 0.9777
2.7694 -4.1724 -1.9975 0.9787
2.8739 -3.9729 -1.9559 0.9791
2.9746 -3.7816 -1.9192 0.9795
3.5326 -2.5345 -1.7342 0.9815
3.5927 -2.3644 -1.7155 0.9816
3.8693 -1.3705 -1.6373 0.9825
3.9306 -1.0450 -1.6223 0.9826
3.9558 -0.8828 -1.6167 0.9827
4.0207 -0.2354 -1.6065 0.9828
4.0284 -0.0733 -1.6071 0.9828
4.0388 0.2522 -1.6141 0.9827
4.0351 0.5806 -1.6261 0.9826
4.0242 0.7455 -1.6325 0.9825
4.0088 0.9110 -1.6398 0.9825
3.9664 1.2444 -1.6581 0.9823
3.8334 1.9237 -1.7108 0.9817
3.7894 2.0968 -1.7275 0.9815
3.7411 2.2714 -1.7457 0.9813
3.6880 2.4477 -1.7656 0.9811
3.6304 2.6260 -1.7872 0.9809
3.3471 3.3600 -1.8917 0.9798
3.0732 3.9383 -1.9926 0.9787
2.9676 4.1362 -2.0306 0.9783
2.7282 4.5327 -2.1103 0.9775
1.9637 5.5437 -2.3459 0.9750
1.7841 5.7645 -2.4069 0.9743
1.5925 5.9894 -2.4721 0.9737
0.6882 6.9449 -2.7837 0.9704
-0.1696 7.6912 -3.0686 0.9674
-1.2179 8.4660 -3.4117 0.9638
-2.0433 8.9922 -3.6782 0.9611
-4.0764 10.0730 -4.3345 0.9543
-6.0361 10.9094 -4.9732 0.9477
-6.7757 11.1603 -5.2078 0.9453
-7.5447 11.3683 -5.4424 0.9429
-9.3828 11.9293 -6.0539 0.9367
-10.3839 12.1606 -6.3784 0.9335
-17.1767 13.4045 -8.6908 0.9104
-19.7575 13.0043 -9.4348 0.9032
-21.5710 12.9842 -10.0427 0.8972
-25.5116 12.6805 -11.3638 0.8845
-29.7791 11.9194 -12.7944 0.8710
-31.9728 11.3264 -13.5299 0.8641
-36.2746 9.6461 -14.9720 0.8507
-16.9575 3.0744 -6.8742 0.9285
-18.6812 2.6150 -7.5242 0.9220
-46.2131 2.7076 -18.4651 0.8193
-45.6449 -2.8477 -18.2422 0.8212
-44.6597 -4.5975 -17.9080 0.8242
-37.9477 -10.2449 -15.6785 0.8443
-33.3783 -11.9666 -14.1437 0.8584
-25.8999 -12.9960 -11.5585 0.8827
-23.7478 -13.1388 -10.8256 0.8897
-19.9356 -13.2298 -9.5436 0.9021
-18.2022 -13.1651 -8.9605 0.9078
-15.0791 -12.8753 -7.9090 0.9182
-13.6683 -12.6570 -7.4305 0.9229
-12.3619 -12.4085 -6.9865 0.9273
-10.0988 -11.9178 -6.2309 0.9349
-7.3719 -11.1997 -5.3482 0.9439
-6.5816 -10.9336 -5.0904 0.9465
-5.1648 -10.3903 -4.6283 0.9513
-4.5292 -10.1140 -4.4203 0.9534
-3.9385 -9.8391 -4.2273 0.9554
-3.3770 -9.5320 -4.0337 0.9574
-2.3996 -9.0232 -3.7243 0.9606
-1.9453 -8.7136 -3.5612 0.9623
-1.1509 -8.2203 -3.3109 0.9649
-0.1363 -7.4612 -2.9766 0.9684
0.9371 -6.5159 -2.6258 0.9720
1.1648 -6.2900 -2.5516 0.9728
1.3782 -6.0664 -2.4814 0.9736
1.5781 -5.8459 -2.4153 0.9743
1.9330 -5.3920 -2.2848 0.9756
2.1069 -5.2071 -2.2406 0.9761
2.2621 -5.0013 -2.1895 0.9766
2.6569 -4.3766 -2.0422 0.9782
3.1612 -3.4139 -1.8559 0.9802
3.2456 -3.2335 -1.8274 0.9805
3.3979 -2.8794 -1.7766 0.9810
3.4677 -2.7064 -1.7546 0.9812
3.5325 -2.5349 -1.7343 0.9815
3.5925 -2.3648 -1.7156 0.9816
3.7485 -1.8634 -1.6697 0.9821
3.8329 -1.5344 -1.6468 0.9824
3.8692 -1.3709 -1.6374 0.9825
3.9306 -1.0454 -1.6223 0.9826
3.9557 -0.8832 -1.6167 0.9827
3.9953 -0.5594 -1.6092 0.9828
4.0097 -0.3976 -1.6072 0.9828
4.0284 -0.0737 -1.6071 0.9828
4.0353 0.0887 -1.6100 0.9828
4.0388 0.2518 -1.6141 0.9827
4.0387 0.4156 -1.6195 0.9827
4.0351 0.5802 -1.6261 0.9826
4.0242 0.7451 -1.6325 0.9825
3.9896 1.0769 -1.6483 0.9824
3.8730 1.7517 -1.6955 0.9819
3.8335 1.9233 -1.7108 0.9817
3.6882 2.4473 -1.7656 0.9811
3.5679 2.8059 -1.8105 0.9806
3.5000 2.9882 -1.8357 0.9804
3.4266 3.1728 -1.8627 0.9801
3.2622 3.5492 -1.9228 0.9795
3.0734 3.9378 -1.9925 0.9787
2.9679 4.1357 -2.0305 0.9783
2.5966 4.7346 -2.1539 0.9770
2.4559 4.9400 -2.2005 0.9765
1.9641 5.5432 -2.3458 0.9750
0.4217 7.1885 -2.8723 0.9695
-0.1689 7.6906 -3.0684 0.9674
-0.4951 7.9455 -3.1754 0.9663
-1.2170 8.4654 -3.4114 0.9638
-2.0423 8.9915 -3.6779 0.9611
-2.4981 9.2556 -3.8240 0.9596
-4.0751 10.0724 -4.3340 0.9543
-7.5428 11.3677 -5.4417 0.9429
-8.4421 11.6739 -5.7465 0.9398
-9.3805 11.9288 -6.0531 0.9367
-10.3814 12.1601 -6.3776 0.9335
-12.5893 12.5438 -7.0888 0.9263
-13.9581 12.8300 -7.5623 0.9216
-15.4496 13.0934 -8.0779 0.9165
-17.1759 13.4064 -8.6910 0.9104
-18.0521 12.9553 -8.8630 0.9087
-21.5666 12.9843 -10.0412 0.8973
-23.4874 12.8817 -10.6852 0.8910
-27.6099 12.3663 -12.0672 0.8778
-29.7740 11.9206 -12.7927 0.8710
-34.1499 10.5740 -14.2597 0.8573
-36.2698 9.6484 -14.9704 0.8508
-16.9702 3.7899 -6.9358 0.9279
-18.6701 2.6152 -7.5198 0.9220
-45.6468 -2.8435 -18.2428 0.8212
-44.6622 -4.5935 -17.9088 0.8242
-32.4596 -4.6658 -13.0805 0.8683
-40.1906 -9.1275 -16.4394 0.8374
-33.3835 -11.9649 -14.1454 0.8584
-30.9020 -12.5014 -13.2966 0.8663
-28.3076 -12.8012 -12.3922 0.8748
-23.7528 -13.1386 -10.8273 0.8897
-19.9394 -13.2297 -9.5449 0.9021
-3.2462 -9.1657 -4.0040 0.9588
-2.3055 -8.6724 -3.6952 0.9619
-1.1101 -7.9348 -3.2992 0.9659
-0.7624 -7.6967 -3.1849 0.9671
-0.4366 -7.4617 -3.0778 0.9682
-0.1314 -7.2300 -2.9777 0.9692
0.1548 -7.0018 -2.8839 0.9702
0.4233 -6.7768 -2.7960 0.9711
0.9120 -6.3370 -2.6363 0.9727
1.3429 -5.9087 -2.4952 0.9741
1.5387 -5.6977 -2.4303 0.9748
1.8868 -5.2617 -2.3017 0.9761
2.3517 -4.6858 -2.1589 0.9776
2.7096 -4.0823 -2.0176 0.9790
2.9153 -3.7061 -1.9417 0.9798
3.1003 -3.3476 -1.8788 0.9805
3.1840 -3.1716 -1.8506 0.9807
3.4031 -2.6554 -1.7775 0.9815
3.4674 -2.4877 -1.7573 0.9817
3.6345 -1.9927 -1.7068 0.9822
3.8631 -1.0271 -1.6460 0.9829
3.8880 -0.8677 -1.6404 0.9829
3.9094 -0.7086 -1.6360 0.9830
3.9597 -0.0721 -1.6308 0.9830
3.9649 0.5705 -1.6495 0.9828
3.9531 0.7323 -1.6555 0.9828
3.9183 1.0580 -1.6713 0.9826
3.8952 1.2221 -1.6811 0.9825
3.8682 1.3870 -1.6921 0.9824
3.8019 1.7199 -1.7183 0.9821
3.6704 2.2285 -1.7682 0.9816
3.4305 2.9294 -1.8576 0.9807
3.3575 3.1094 -1.8844 0.9804
3.1047 3.6643 -1.9777 0.9794
2.9036 4.0469 -2.0510 0.9787
2.7892 4.2379 -2.0892 0.9783
2.3983 4.8253 -2.2189 0.9770
2.2506 5.0264 -2.2678 0.9765
2.0933 5.2302 -2.3198 0.9759
1.7386 5.6175 -2.4214 0.9749
1.5577 5.8584 -2.4962 0.9741
1.3557 6.0738 -2.5626 0.9734
1.1406 6.2923 -2.6333 0.9727
0.9118 6.5149 -2.7088 0.9719
0.6681 6.7417 -2.7897 0.9711
-0.4796 7.6838 -3.1702 0.9672
-1.1749 8.1666 -3.3975 0.9649
-1.5575 8.4082 -3.5212 0.9637
-1.9657 8.6507 -3.6530 0.9624
-2.8667 9.1381 -3.9437 0.9594
-3.8955 9.6260 -4.2761 0.9561
-5.0750 10.1134 -4.6594 0.9522
-5.7314 10.3586 -4.8749 0.9501
-6.4208 10.5758 -5.0947 0.9479
-9.6808 11.3373 -6.1389 0.9375
-10.6496 11.5000 -6.4541 0.9344
-11.6958 11.6514 -6.7981 0.9311
-12.8759 11.8330 -7.2010 0.9271
-14.0906 11.9394 -7.6051 0.9232
-17.0024 12.1996 -8.6171 0.9135
-17.9324 11.8030 -8.8402 0.9113
-19.3365 11.6392 -9.2936 0.9070
-20.9196 11.4708 -9.8243 0.9019
-25.9577 10.3899 -11.5133 0.8861
-27.6658 9.8006 -12.0860 0.8808
-16.7972 3.7496 -7.0870 0.9283
-17.9648 2.5147 -7.4697 0.9245
-37.8688 3.7536 -15.6701 0.8482
-38.7579 -0.8540 -15.9637 0.8456
-38.2475 -2.3862 -15.7802 0.8472
-32.4248 -4.6639 -13.4893 0.8679
-32.3051 -8.7215 -13.7789 0.8652
-30.4283 -9.5449 -13.1318 0.8711
-28.4681 -10.2062 -12.4532 0.8774
-24.5810 -11.1188 -11.1094 0.8898
-22.7836 -11.4323 -10.4967 0.8956
-21.0922 -11.6696 -9.9261 0.9010
-19.5615 -11.8757 -9.4233 0.9057
-16.5951 -12.0028 -8.4336 0.9152
-12.5671 -11.6373 -7.0529 0.9286
-11.4167 -11.4597 -6.6610 0.9324
-9.4749 -11.1816 -6.0351 0.9386
-8.5894 -11.0061 -5.7489 0.9414
-5.5600 -10.1394 -4.7618 0.9512
-4.3100 -9.6245 -4.3424 0.9554
-3.7677 -9.4124 -4.1748 0.9571
-2.3065 -8.6730 -3.6955 0.9619
-1.8807 -8.4241 -3.5543 0.9633
-1.4828 -8.1779 -3.4224 0.9647
-1.1110 -7.9354 -3.2995 0.9659
0.1541 -7.0023 -2.8841 0.9702
0.4227 -6.7773 -2.7962 0.9711
0.6747 -6.5557 -2.7138 0.9719
0.9114 -6.3375 -2.6365 0.9727
1.1338 -6.1226 -2.5640 0.9734
1.3425 -5.9092 -2.4953 0.9741
1.5382 -5.6982 -2.4304 0.9748
1.8864 -5.2621 -2.3019 0.9761
2.2102 -4.8865 -2.2084 0.9771
2.4791 -4.4811 -2.1088 0.9781
2.5982 -4.2800 -2.0618 0.9786
2.8130 -3.8895 -1.9766 0.9794
2.9150 -3.7065 -1.9418 0.9798
3.0106 -3.5261 -1.9092 0.9801
3.1001 -3.3480 -1.8789 0.9805
3.1838 -3.1720 -1.8506 0.9807
3.4029 -2.6558 -1.7775 0.9815
3.4673 -2.4881 -1.7573 0.9817
3.5269 -2.3216 -1.7387 0.9819
3.5827 -2.1568 -1.7220 0.9821
3.7261 -1.6687 -1.6812 0.9825
3.8021 -1.3471 -1.6610 0.9827
3.8630 -1.0274 -1.6460 0.9829
3.9415 -0.3909 -1.6310 0.9830
3.9597 -0.0724 -1.6308 0.9830
3.9697 0.2475 -1.6378 0.9829
3.9649 0.5701 -1.6495 0.9828
3.9377 0.8945 -1.6628 0.9827
3.8953 1.2217 -1.6810 0.9825
3.8372 1.5525 -1.7045 0.9823
3.8020 1.7195 -1.7183 0.9821
3.7625 1.8877 -1.7334 0.9820
3.7188 2.0572 -1.7500 0.9818
3.6705 2.2281 -1.7681 0.9816
3.6177 2.4006 -1.7879 0.9814
3.4982 2.7510 -1.8325 0.9809
3.2791 3.2911 -1.9131 0.9801
3.0081 3.8540 -2.0132 0.9791
2.9039 4.0465 -2.0509 0.9787
2.7895 4.2375 -2.0891 0.9783
2.6675 4.4308 -2.1297 0.9779
2.2509 5.0259 -2.2677 0.9765
1.7391 5.6170 -2.4213 0.9749
1.5582 5.8579 -2.4961 0.9741
1.3562 6.0733 -2.5625 0.9734
1.1412 6.2918 -2.6331 0.9727
0.9123 6.5143 -2.7087 0.9719
0.4090 6.9718 -2.8758 0.9702
0.1320 7.2058 -2.9677 0.9693
-0.1635 7.4433 -3.0658 0.9683
-1.1740 8.1660 -3.3972 0.9649
-1.9647 8.6502 -3.6527 0.9624
-2.4004 8.8938 -3.7933 0.9609
-3.3617 9.3789 -4.1026 0.9578
-3.8942 9.6255 -4.2757 0.9561
-4.4632 9.8689 -4.4601 0.9542
-5.0735 10.1128 -4.6589 0.9522
-9.6786 11.3368 -6.1382 0.9376
-12.8732 11.8328 -7.2001 0.9272
-14.0876 11.9392 -7.6041 0.9232
-17.9313 11.8046 -8.8402 0.9113
-19.3329 11.6395 -9.2924 0.9070
-20.9158 11.4713 -9.8231 0.9020
-22.5577 11.2149 -10.3735 0.8968
-25.9537 10.3911 -11.5120 0.8861
-27.6618 9.8021 -12.0846 0.8808
-29.3364 9.0836 -12.6460 0.8756
-30.9402 8.2307 -13.1837 0.8707
-17.9555 2.5151 -7.4659 0.9246
-37.8669 3.7570 -15.6694 0.8482
-38.5167 2.2603 -15.8877 0.8463
-38.7584 -0.8503 -15.9638 0.8456
-25.0777 -4.6422 -10.5020 0.8955
-33.8863 -7.6958 -14.3091 0.8604
-32.3094 -8.7194 -13.7804 0.8652
-26.4992 -10.7202 -11.7710 0.8837
-24.5853 -11.1180 -11.1108 0.8898
-22.7875 -11.4316 -10.4980 0.8956
-19.5650 -11.8753 -9.4244 0.9057
-18.0590 -11.9821 -8.9243 0.9105
-2.6530 -8.5731 -3.8123 0.9617
-2.2184 -8.3447 -3.6680 0.9632
-1.0731 -7.6698 -3.2899 0.9669
-0.4230 -7.2286 -3.0760 0.9690
-0.1274 -7.0113 -2.9789 0.9700
0.1502 -6.7964 -2.8878 0.9709
0.4112 -6.5839 -2.8023 0.9717
0.8874 -6.1666 -2.6466 0.9733
1.3087 -5.7581 -2.5084 0.9747
1.4953 -5.5370 -2.4364 0.9754
1.8421 -5.1369 -2.3182 0.9766
2.1605 -4.7753 -2.2265 0.9775
2.2981 -4.5790 -2.1764 0.9780
2.5419 -4.1863 -2.0805 0.9789
2.6518 -3.9952 -2.0370 0.9794
2.7567 -3.8109 -1.9980 0.9798
2.9524 -3.4572 -1.9313 0.9804
3.1240 -3.1118 -1.8731 0.9810
3.7010 -1.4812 -1.6934 0.9828
3.7972 -1.0096 -1.6691 0.9831
3.8220 -0.8530 -1.6635 0.9831
3.8431 -0.6966 -1.6592 0.9832
3.8749 -0.3839 -1.6541 0.9832
3.8855 -0.2275 -1.6534 0.9832
3.8928 -0.0709 -1.6539 0.9832
3.8992 0.0861 -1.6568 0.9832
3.9022 0.2436 -1.6609 0.9832
3.9017 0.4018 -1.6662 0.9831
3.8957 0.5605 -1.6719 0.9830
3.8839 0.7195 -1.6779 0.9830
3.8491 1.0393 -1.6936 0.9828
3.8259 1.2003 -1.7034 0.9827
3.7679 1.5249 -1.7267 0.9825
3.7328 1.6887 -1.7404 0.9824
3.6935 1.8535 -1.7555 0.9822
3.6499 2.0196 -1.7720 0.9820
3.6018 2.1869 -1.7900 0.9819
3.5492 2.3556 -1.8096 0.9817
3.4922 2.5261 -1.8309 0.9814
3.2134 3.2258 -1.9342 0.9804
3.1301 3.4061 -1.9651 0.9801
3.0406 3.5886 -1.9981 0.9798
2.8418 3.9607 -2.0708 0.9790
2.7287 4.1460 -2.1085 0.9787
2.6083 4.3334 -2.1486 0.9783
2.4799 4.5228 -2.1912 0.9778
2.3432 4.7144 -2.2364 0.9774
2.1977 4.9084 -2.2846 0.9769
2.0431 5.1047 -2.3357 0.9764
1.8786 5.3034 -2.3900 0.9758
1.7036 5.5042 -2.4476 0.9753
1.5176 5.7075 -2.5088 0.9747
1.3199 5.9132 -2.5738 0.9740
0.8864 6.3334 -2.7167 0.9726
-0.4641 7.4354 -3.1647 0.9681
-0.7887 7.6599 -3.2711 0.9671
-1.1344 7.8851 -3.3841 0.9660
-1.8932 8.3315 -3.6295 0.9635
-3.7285 9.2134 -4.2222 0.9577
-4.2653 9.4290 -4.3962 0.9560
-4.8373 9.6397 -4.5816 0.9542
-6.0963 10.0412 -4.9901 0.9502
-6.7787 10.2141 -5.2076 0.9481
-7.5044 10.3752 -5.4395 0.9459
-8.2805 10.5278 -5.6898 0.9435
-10.0039 10.8027 -6.2545 0.9380
-10.9523 10.9106 -6.5672 0.9350
-11.9561 10.9878 -6.8980 0.9319
-13.0309 11.0415 -7.2555 0.9285
-14.1657 11.0547 -7.6331 0.9249
-15.3780 11.0341 -8.0403 0.9210
-16.8140 11.0668 -8.5509 0.9162
-18.9321 10.3810 -9.1721 0.9104
-20.2038 10.0423 -9.5844 0.9066
-21.5908 9.6680 -10.0493 0.9023
-24.3549 8.6277 -10.9760 0.8938
-25.6870 7.9510 -11.4226 0.8897
-28.4605 7.5682 -12.5102 0.8799
-16.6221 3.7105 -7.2349 0.9287
-17.3319 2.4261 -7.4344 0.9268
-33.1692 1.9433 -14.1145 0.8655
-33.3930 0.6094 -14.1877 0.8649
-30.0140 -4.3172 -12.8812 0.8765
-24.9805 -4.6267 -10.7922 0.8955
-28.9149 -6.5696 -12.5961 0.8791
-26.3648 -8.2702 -11.7379 0.8868
-24.8958 -8.9255 -11.2349 0.8914
-23.4082 -9.4723 -10.7271 0.8961
-21.9571 -9.9319 -10.2373 0.9006
-19.1856 -10.6147 -9.3143 0.9091
-11.7220 -10.8547 -6.7866 0.9329
-10.7170 -10.7574 -6.4505 0.9361
-9.7809 -10.6424 -6.1402 0.9391
-8.1091 -10.3906 -5.5991 0.9443
-6.6149 -10.0496 -5.1109 0.9491
-5.9348 -9.8592 -4.8885 0.9512
-5.2786 -9.6262 -4.6637 0.9534
-4.6973 -9.4497 -4.4829 0.9552
-3.6095 -9.0173 -4.1261 0.9587
-2.2194 -8.3452 -3.6683 0.9632
-1.8122 -8.1175 -3.5332 0.9645
-1.0739 -7.6704 -3.2902 0.9669
-0.1281 -7.0118 -2.9791 0.9700
0.4106 -6.5844 -2.8025 0.9717
0.8869 -6.1671 -2.6467 0.9733
1.9988 -4.9399 -2.2638 0.9771
2.1601 -4.7758 -2.2266 0.9775
2.4239 -4.3813 -2.1270 0.9785
2.5416 -4.1867 -2.0806 0.9789
2.6515 -3.9957 -2.0371 0.9794
2.8575 -3.6333 -1.9636 0.9801
3.2014 -2.9424 -1.8471 0.9813
3.4631 -2.2796 -1.7613 0.9821
3.5185 -2.1181 -1.7446 0.9823
3.6612 -1.6396 -1.7041 0.9827
3.7367 -1.3239 -1.6840 0.9829
3.7971 -1.0099 -1.6691 0.9831
3.8607 -0.5406 -1.6560 0.9832
3.8749 -0.3843 -1.6541 0.9832
3.8927 -0.0712 -1.6539 0.9832
3.8992 0.0857 -1.6568 0.9832
3.9022 0.2433 -1.6609 0.9832
3.8839 0.7191 -1.6779 0.9830
3.8684 0.8787 -1.6852 0.9829
3.8491 1.0390 -1.6936 0.9828
3.8260 1.2000 -1.7034 0.9827
3.7990 1.3618 -1.7144 0.9826
3.7680 1.5245 -1.7267 0.9825
3.7329 1.6883 -1.7404 0.9824
3.6500 2.0192 -1.7719 0.9820
3.6019 2.1865 -1.7899 0.9819
3.5493 2.3552 -1.8095 0.9817
3.3633 2.8715 -1.8786 0.9810
3.2909 3.0472 -1.9053 0.9807
3.1303 3.4056 -1.9650 0.9801
3.0408 3.5882 -1.9980 0.9798
2.9449 3.7730 -2.0332 0.9794
2.8420 3.9603 -2.0707 0.9790
2.6085 4.3329 -2.1485 0.9783
1.8790 5.3029 -2.3899 0.9758
1.7040 5.5037 -2.4475 0.9753
1.3203 5.9128 -2.5736 0.9740
0.3969 6.7659 -2.8791 0.9710
0.1280 6.9864 -2.9683 0.9701
-0.4633 7.4349 -3.1645 0.9681
-0.7879 7.6594 -3.2709 0.9671
-1.8922 8.3310 -3.6292 0.9636
-2.3086 8.5535 -3.7635 0.9622
-3.2240 8.9946 -4.0590 0.9593
-4.2640 9.4285 -4.3958 0.9560
-5.4478 9.8483 -4.7810 0.9523
-6.0947 10.0407 -4.9896 0.9502
-6.7771 10.2137 -5.2070 0.9481
-7.5027 10.3748 -5.4389 0.9459
-8.2786 10.5275 -5.6892 0.9435
-10.9500 10.9104 -6.5664 0.9350
-11.9537 10.9876 -6.8972 0.9319
-14.1630 11.0547 -7.6322 0.9249
-15.3749 11.0340 -8.0391 0.9210
-18.9306 10.3825 -9.1718 0.9104
-20.2006 10.0431 -9.5833 0.9066
-22.9783 9.1998 -10.5145 0.8980
-28.4572 7.5701 -12.5091 0.8799
-16.6536 3.0209 -7.1899 0.9291
-17.3233 2.4265 -7.4308 0.9268
-33.1684 1.9464 -14.1142 0.8655
-33.3196 -0.7310 -14.1576 0.8652
-32.9537 -2.0528 -14.0259 0.8663
-30.0159 -4.3146 -12.8819 0.8765
-27.7604 -7.4918 -12.2146 0.8825
-26.3682 -8.2686 -11.7391 0.8868
-24.8992 -8.9241 -11.2361 0.8914
-21.9605 -9.9310 -10.2384 0.9006
-20.5465 -10.3074 -9.7649 0.9049
-19.1887 -10.6140 -9.3153 0.9091
-17.8259 -10.8197 -8.8582 0.9134
-16.4994 -10.9472 -8.4114 0.9175
-2.9935 -8.4521 -3.9269 0.9616
-2.1369 -8.0381 -3.6425 0.9643
-1.7474 -7.8307 -3.5138 0.9656
-1.3771 -7.5988 -3.3821 0.9668
-0.7145 -7.2130 -3.1744 0.9688
-0.4101 -7.0076 -3.0742 0.9698
-0.1237 -6.8035 -2.9801 0.9707
0.6388 -6.2009 -2.7300 0.9731
0.8640 -6.0037 -2.6564 0.9739
1.6406 -5.2288 -2.4000 0.9764
1.7990 -5.0169 -2.3341 0.9770
1.9535 -4.8266 -2.2803 0.9775
2.2464 -4.4761 -2.1933 0.9784
2.4872 -4.0962 -2.0987 0.9793
2.5959 -3.9110 -2.0558 0.9797
2.7019 -3.7351 -2.0189 0.9801
2.8018 -3.5619 -1.9847 0.9804
2.8956 -3.3907 -1.9527 0.9807
2.9834 -3.2214 -1.9229 0.9810
3.0657 -3.0538 -1.8950 0.9813
3.1426 -2.8878 -1.8691 0.9815
3.2144 -2.7234 -1.8451 0.9818
3.3435 -2.3988 -1.8021 0.9822
3.4012 -2.2384 -1.7832 0.9824
3.4562 -2.0802 -1.7666 0.9825
3.5076 -1.9231 -1.7519 0.9827
3.5549 -1.7667 -1.7385 0.9828
3.5981 -1.6110 -1.7265 0.9829
3.6375 -1.4557 -1.7158 0.9830
3.6730 -1.3010 -1.7065 0.9831
3.7048 -1.1466 -1.6984 0.9832
3.7785 -0.6849 -1.6817 0.9834
3.8099 -0.3775 -1.6767 0.9834
3.8204 -0.2237 -1.6760 0.9834
3.8274 -0.0697 -1.6765 0.9834
3.8365 0.2395 -1.6834 0.9834
3.8358 0.3951 -1.6887 0.9833
3.8282 0.5508 -1.6938 0.9833
3.8008 0.8638 -1.7070 0.9831
3.7816 1.0211 -1.7154 0.9830
3.6264 1.8199 -1.7769 0.9824
3.5829 1.9825 -1.7933 0.9823
3.5351 2.1463 -1.8112 0.9821
3.4261 2.4782 -1.8518 0.9817
3.2266 2.9882 -1.9260 0.9810
3.1498 3.1620 -1.9546 0.9807
3.0672 3.3376 -1.9852 0.9804
2.9785 3.5153 -2.0178 0.9801
2.8834 3.6951 -2.0526 0.9797
2.7817 3.8770 -2.0898 0.9794
2.5513 4.2388 -2.1667 0.9786
1.6614 5.3680 -2.4609 0.9758
1.2855 5.7595 -2.5844 0.9746
0.6307 6.3649 -2.8011 0.9725
0.1235 6.7786 -2.9691 0.9708
-0.4493 7.1995 -3.1591 0.9690
-0.7631 7.4107 -3.2626 0.9680
-2.2237 8.2358 -3.7360 0.9634
-2.6468 8.4371 -3.8726 0.9621
-3.0961 8.6354 -4.0176 0.9607
-4.0809 9.0213 -4.3363 0.9577
-4.6203 9.2074 -4.5115 0.9560
-5.1923 9.3844 -4.6970 0.9542
-5.8003 9.5537 -4.8947 0.9524
-7.1074 9.8263 -5.3111 0.9484
-7.8173 9.9389 -5.5377 0.9463
-8.5777 10.0454 -5.7850 0.9439
-10.2517 10.2127 -6.3373 0.9388
-13.1232 10.2411 -7.2902 0.9299
-16.5466 9.9599 -8.4580 0.9191
-17.7525 9.7343 -8.8667 0.9154
-18.9711 9.4296 -9.2780 0.9116
-20.3222 9.0999 -9.7515 0.9073
-21.3327 8.5387 -10.0632 0.9045
-23.6961 7.3347 -10.8634 0.8973
-24.8081 6.5969 -11.2422 0.8940
-16.4516 3.6725 -7.3822 0.9290
-16.4606 2.9843 -7.3264 0.9296
-16.8308 2.3559 -7.4428 0.9285
-28.5537 1.6729 -12.5264 0.8826
-26.8455 -2.7636 -11.8190 0.8888
-26.2964 -3.7824 -11.6349 0.8905
-24.7596 -5.6255 -11.1197 0.8951
-23.3803 -7.3341 -10.7312 0.8985
-21.0652 -8.5242 -9.9521 0.9055
-18.7117 -9.3891 -9.1685 0.9126
-17.5044 -9.6845 -8.7610 0.9164
-15.1390 -10.0467 -7.9572 0.9237
-14.0074 -10.1311 -7.5709 0.9273
-10.9461 -10.1362 -6.5335 0.9369
-7.6513 -9.8041 -5.4465 0.9471
-6.9604 -9.7002 -5.2287 0.9492
-6.2687 -9.5236 -4.9933 0.9514
-5.6526 -9.3903 -4.8000 0.9533
-3.4628 -8.6507 -4.0808 0.9601
-2.9945 -8.4526 -3.9272 0.9616
-2.5528 -8.2466 -3.7807 0.9630
-1.3779 -7.5993 -3.3823 0.9668
-1.0388 -7.4201 -3.2813 0.9678
-0.7152 -7.2135 -3.1746 0.9688
-0.1243 -6.8040 -2.9803 0.9707
0.6382 -6.2013 -2.7302 0.9731
0.8635 -6.0041 -2.6565 0.9739
1.0757 -5.8089 -2.5872 0.9745
1.2754 -5.6139 -2.5212 0.9752
1.6402 -5.2293 -2.4001 0.9764
1.7987 -5.0174 -2.3343 0.9770
1.9532 -4.8270 -2.2805 0.9775
2.1118 -4.6691 -2.2442 0.9779
2.2461 -4.4765 -2.1934 0.9784
2.7017 -3.7355 -2.0190 0.9801
2.9832 -3.2218 -1.9229 0.9810
3.2812 -2.5608 -1.8228 0.9820
3.5547 -1.7671 -1.7385 0.9828
3.7047 -1.1469 -1.6984 0.9832
3.7574 -0.8390 -1.6861 0.9833
3.7784 -0.6852 -1.6817 0.9834
3.7959 -0.5315 -1.6786 0.9834
3.8099 -0.3778 -1.6767 0.9834
3.8204 -0.2240 -1.6760 0.9834
3.8337 0.0843 -1.6793 0.9834
3.8358 0.3947 -1.6887 0.9833
3.8282 0.5505 -1.6938 0.9833
3.8164 0.7066 -1.6998 0.9832
3.7585 1.1788 -1.7251 0.9829
3.7316 1.3376 -1.7360 0.9828
3.7006 1.4973 -1.7483 0.9827
3.6657 1.6579 -1.7619 0.9826
3.5352 2.1460 -1.8111 0.9821
3.4829 2.3111 -1.8306 0.9819
3.4262 2.4778 -1.8518 0.9817
3.2981 2.8158 -1.8992 0.9812
3.2268 2.9878 -1.9259 0.9810
3.1500 3.1615 -1.9545 0.9807
2.5516 4.2384 -2.1666 0.9786
2.4250 4.4219 -2.2086 0.9782
2.1472 4.7943 -2.3006 0.9773
1.8234 5.1461 -2.3910 0.9764
1.4795 5.5623 -2.5207 0.9752
0.8627 6.1598 -2.7240 0.9732
0.6313 6.3644 -2.8010 0.9725
-0.7623 7.4102 -3.2624 0.9680
-2.2227 8.2353 -3.7357 0.9634
-3.0951 8.6349 -4.0172 0.9607
-4.0797 9.0209 -4.3359 0.9577
-4.6190 9.2070 -4.5111 0.9560
-5.7989 9.5533 -4.8943 0.9524
-7.1058 9.8260 -5.3106 0.9484
-7.8155 9.9387 -5.5372 0.9463
-8.5759 10.0452 -5.7844 0.9440
-12.1133 10.2659 -6.9538 0.9330
-13.1208 10.2413 -7.2894 0.9299
-17.7497 9.7349 -8.8658 0.9154
-18.9683 9.4304 -9.2771 0.9116
-20.3200 9.1013 -9.7509 0.9074
-21.3302 8.5400 -10.0623 0.9045
-23.6934 7.3363 -10.8624 0.8973
-24.8057 6.5988 -11.2414 0.8940
-16.4517 3.6741 -7.3824 0.9290
-28.4296 -1.7710 -12.4748 0.8830
-26.2979 -3.7801 -11.6354 0.8905
-25.5961 -4.7382 -11.4002 0.8926
-24.3540 -6.5725 -11.0473 0.8957
-22.2636 -7.9795 -10.3576 0.9019
-21.0680 -8.5230 -9.9530 0.9055
-19.8914 -8.9953 -9.5607 0.9091
-17.5072 -9.6839 -8.7620 0.9163
-16.3169 -9.9038 -8.3592 0.9200
-1.6821 -7.5379 -3.4849 0.9667
-0.1201 -6.6058 -2.9811 0.9714
0.6217 -6.0354 -2.7377 0.9737
0.8415 -5.8477 -2.6657 0.9744
1.0489 -5.6608 -2.5977 0.9751
1.2443 -5.4747 -2.5333 0.9757
1.7656 -4.9238 -2.3602 0.9773
2.1965 -4.3767 -2.2096 0.9787
2.3193 -4.1914 -2.1615 0.9792
2.4343 -4.0091 -2.1163 0.9796
2.5435 -3.8321 -2.0753 0.9800
2.6487 -3.6616 -2.0391 0.9804
2.7476 -3.4930 -2.0053 0.9807
3.0853 -2.8351 -1.8906 0.9818
3.1565 -2.6743 -1.8667 0.9820
3.2229 -2.5148 -1.8446 0.9822
3.4935 -1.7362 -1.7603 0.9830
3.5755 -1.4309 -1.7377 0.9832
3.6108 -1.2789 -1.7284 0.9833
3.6423 -1.1272 -1.7204 0.9834
3.6703 -0.9758 -1.7136 0.9835
3.6946 -0.8246 -1.7081 0.9835
3.7327 -0.5223 -1.7007 0.9836
3.7568 -0.2199 -1.6980 0.9836
3.7637 -0.0685 -1.6985 0.9836
3.7697 0.0832 -1.7014 0.9836
3.7723 0.2355 -1.7054 0.9836
3.7706 0.3883 -1.7104 0.9835
3.7506 0.6948 -1.7211 0.9834
3.7350 0.8488 -1.7283 0.9833
3.7158 1.0033 -1.7367 0.9833
3.6350 1.4711 -1.7694 0.9829
3.6001 1.6286 -1.7829 0.9828
3.5178 1.9465 -1.8141 0.9825
3.4702 2.1070 -1.8318 0.9823
3.3618 2.4317 -1.8722 0.9820
3.3007 2.5963 -1.8949 0.9817
3.2351 2.7626 -1.9196 0.9815
3.1643 2.9305 -1.9460 0.9813
3.0881 3.1000 -1.9744 0.9810
2.8242 3.6192 -2.0714 0.9801
2.6137 3.9712 -2.1452 0.9794
2.3715 4.3251 -2.2257 0.9786
2.0978 4.6852 -2.3163 0.9777
1.9367 4.8389 -2.3518 0.9774
1.7797 5.0242 -2.4050 0.9769
1.0518 5.8020 -2.6606 0.9745
0.3739 6.3846 -2.8858 0.9723
-0.1495 6.7779 -3.0590 0.9707
-0.4354 6.9760 -3.1538 0.9698
-1.0602 7.3698 -3.3596 0.9679
-1.4008 7.5622 -3.4702 0.9668
-1.7613 7.7511 -3.5866 0.9657
-2.5476 8.1210 -3.8404 0.9633
-2.9759 8.3002 -3.9786 0.9620
-5.5273 9.1041 -4.8057 0.9543
-6.1234 9.2266 -4.9966 0.9526
-8.8425 9.5486 -5.8722 0.9445
-9.6276 9.5910 -6.1319 0.9421
-10.4488 9.6025 -6.4033 0.9396
-11.3125 9.5854 -6.6904 0.9370
-12.2152 9.5325 -6.9914 0.9343
-13.1538 9.4381 -7.3050 0.9314
-15.1563 9.1230 -7.9821 0.9253
-18.3334 8.2093 -9.0638 0.9156
-20.3764 7.2183 -9.7540 0.9095
-21.3443 6.6068 -10.0817 0.9066
-16.3263 3.6445 -7.5480 0.9292
-24.7207 2.4504 -11.2091 0.8967
-25.0151 1.4656 -11.3066 0.8959
-25.1868 0.4596 -11.3666 0.8953
-25.1941 -0.5551 -11.3708 0.8953
-24.9974 -1.5595 -11.3012 0.8959
-24.7897 -2.5520 -11.2447 0.8964
-22.8004 -4.2229 -10.4629 0.9032
-22.1160 -5.0249 -10.2335 0.9053
-21.9248 -5.9191 -10.2470 0.9051
-21.0481 -6.6025 -9.9535 0.9077
-20.1337 -7.2182 -9.6509 0.9104
-16.0509 -8.8804 -8.2770 0.9227
-15.0010 -9.1071 -7.9184 0.9259
-12.9748 -9.3843 -7.2253 0.9321
-12.0206 -9.4541 -6.9004 0.9351
-11.1222 -9.4967 -6.5991 0.9378
-6.6150 -9.2187 -5.1197 0.9514
-5.9873 -9.0961 -4.9136 0.9533
-5.3932 -8.9594 -4.7186 0.9551
-4.3000 -8.6505 -4.3589 0.9585
-2.8796 -8.1282 -3.8909 0.9629
-1.3370 -7.3736 -3.3813 0.9676
-1.0057 -7.1834 -3.2729 0.9687
-0.6931 -6.9907 -3.1698 0.9696
-0.3985 -6.7982 -3.0727 0.9706
0.3882 -6.2248 -2.8142 0.9730
0.8410 -5.8481 -2.6659 0.9744
1.4279 -5.2897 -2.4722 0.9762
1.6016 -5.1060 -2.4146 0.9768
2.1962 -4.3771 -2.2097 0.9787
2.4340 -4.0095 -2.1164 0.9796
2.5432 -3.8325 -2.0754 0.9800
2.6485 -3.6620 -2.0392 0.9804
2.7474 -3.4934 -2.0053 0.9807
2.9273 -3.1613 -1.9440 0.9813
3.0851 -2.8355 -1.8907 0.9818
3.2227 -2.5152 -1.8446 0.9822
3.2845 -2.3569 -1.8241 0.9824
3.3956 -2.0441 -1.7884 0.9828
3.4465 -1.8900 -1.7736 0.9829
3.4934 -1.7366 -1.7603 0.9830
3.5754 -1.4313 -1.7378 0.9832
3.6107 -1.2793 -1.7284 0.9833
3.6423 -1.1276 -1.7204 0.9834
3.6702 -0.9762 -1.7136 0.9835
3.6945 -0.8249 -1.7081 0.9835
3.7153 -0.6738 -1.7038 0.9836
3.7568 -0.2203 -1.6980 0.9836
3.7697 0.0829 -1.7013 0.9836
3.7723 0.2352 -1.7054 0.9836
3.7707 0.3880 -1.7104 0.9835
3.7506 0.6945 -1.7211 0.9834
3.7351 0.8484 -1.7283 0.9833
3.6659 1.3141 -1.7572 0.9831
3.6002 1.6283 -1.7829 0.9828
3.5612 1.7867 -1.7978 0.9827
3.5179 1.9461 -1.8140 0.9825
3.3620 2.4314 -1.8721 0.9820
3.2353 2.7622 -1.9195 0.9815
3.1645 2.9301 -1.9460 0.9813
3.0883 3.0996 -1.9743 0.9810
2.6140 3.9708 -2.1451 0.9794
2.4966 4.1470 -2.1841 0.9790
2.2391 4.5040 -2.2696 0.9782
2.0982 4.6848 -2.3162 0.9777
1.2531 5.6118 -2.5945 0.9751
1.0522 5.8016 -2.6605 0.9745
0.6139 6.1888 -2.8062 0.9731
0.1205 6.5803 -2.9696 0.9715
-0.4347 6.9755 -3.1536 0.9698
-0.7380 7.1739 -3.2541 0.9688
-1.0595 7.3694 -3.3594 0.9679
-1.7604 7.7507 -3.5863 0.9657
-5.5260 9.1038 -4.8053 0.9543
-6.7469 9.3298 -5.1952 0.9507
-7.4034 9.4146 -5.4042 0.9488
-8.8407 9.5485 -5.8716 0.9445
-9.6257 9.5910 -6.1313 0.9421
-11.3104 9.5855 -6.6897 0.9370
-12.2130 9.5327 -6.9907 0.9343
-13.1515 9.4384 -7.3042 0.9314
-16.2050 8.8877 -8.3395 0.9221
-17.2688 8.5855 -8.7018 0.9189
-19.3715 7.7558 -9.4153 0.9125
-22.2297 5.9135 -10.3793 0.9040
-16.3585 2.9674 -7.5017 0.9296
-16.5316 2.3156 -7.5322 0.9294
-25.1865 0.4620 -11.3665 0.8953
-25.1944 -0.5528 -11.3709 0.8953
-23.3743 -3.3599 -10.6553 0.9016
-22.8018 -4.2209 -10.4634 0.9032
-22.1177 -5.0231 -10.2340 0.9053
-21.0502 -6.6009 -9.9543 0.9077
-19.1777 -7.7583 -9.3346 0.9132
-18.1572 -8.2110 -8.9916 0.9163
-17.1096 -8.5832 -8.6371 0.9194
-16.0534 -8.8798 -8.2779 0.9226
-15.0034 -9.1066 -7.9193 0.9259
-2.3694 -7.6566 -3.7239 0.9653
-1.6313 -7.3103 -3.4801 0.9675
-1.2932 -7.1360 -3.3695 0.9685
-0.6714 -6.7787 -3.1650 0.9704
-0.3861 -6.5982 -3.0709 0.9713
-0.1164 -6.4019 -2.9750 0.9722
0.1379 -6.2368 -2.8985 0.9729
0.8199 -5.6976 -2.6745 0.9749
1.7255 -4.8118 -2.3751 0.9777
1.8669 -4.6126 -2.3120 0.9783
2.0072 -4.4365 -2.2624 0.9788
2.1483 -4.2807 -2.2253 0.9791
2.2696 -4.1014 -2.1779 0.9795
2.3831 -3.9248 -2.1334 0.9800
2.6949 -3.4260 -2.0252 0.9810
2.8730 -3.1021 -1.9645 0.9815
2.9538 -2.9423 -1.9371 0.9818
3.1001 -2.6265 -1.8878 0.9822
3.2272 -2.3154 -1.8454 0.9826
3.2836 -2.1610 -1.8264 0.9828
3.3375 -2.0087 -1.8099 0.9830
3.4337 -1.7065 -1.7815 0.9832
3.4763 -1.5564 -1.7697 0.9833
3.6090 -0.9595 -1.7351 0.9837
3.6332 -0.8108 -1.7296 0.9837
3.6709 -0.5137 -1.7222 0.9838
3.6947 -0.2163 -1.7196 0.9838
3.7096 0.2316 -1.7269 0.9837
3.7065 0.3817 -1.7312 0.9837
3.6982 0.5321 -1.7360 0.9837
3.6863 0.6829 -1.7419 0.9836
3.6516 0.9860 -1.7574 0.9835
3.6286 1.1384 -1.7669 0.9834
3.6018 1.2915 -1.7778 0.9833
3.5710 1.4452 -1.7899 0.9832
3.5363 1.5998 -1.8033 0.9830
3.4544 1.9114 -1.8343 0.9827
3.4070 2.0686 -1.8519 0.9826
3.2392 2.5479 -1.9148 0.9820
2.8599 3.3754 -2.0555 0.9807
2.6672 3.7175 -2.1258 0.9800
2.3200 4.2312 -2.2420 0.9789
1.9033 4.7555 -2.3799 0.9777
1.7380 4.9065 -2.4184 0.9773
1.4067 5.2905 -2.5435 0.9761
0.8168 5.8363 -2.7381 0.9743
0.1165 6.3924 -2.9705 0.9722
-0.1451 6.5781 -3.0571 0.9714
-1.0262 7.1333 -3.3484 0.9687
-1.3544 7.3120 -3.4551 0.9677
-1.7011 7.4865 -3.5671 0.9667
-3.2954 8.1431 -4.0816 0.9620
-4.7397 8.5663 -4.5487 0.9577
-6.4220 8.8787 -5.0913 0.9528
-7.6706 8.9831 -5.4883 0.9492
-8.3500 9.0167 -5.7098 0.9472
-9.0692 9.0347 -5.9478 0.9451
-9.8186 9.0234 -6.1958 0.9429
-10.6008 8.9823 -6.4557 0.9406
-11.4134 8.9069 -6.7266 0.9381
-12.2517 8.7909 -7.0062 0.9357
-13.1169 8.6335 -7.2960 0.9331
-14.9121 8.1768 -7.9017 0.9277
-15.8431 7.8748 -8.2202 0.9249
-17.6648 7.0705 -8.8405 0.9195
-18.5428 6.5688 -9.1400 0.9169
-19.3586 5.9921 -9.4154 0.9145
-20.1007 5.3451 -9.6638 0.9123
-16.2006 3.6164 -7.7124 0.9294
-16.2195 2.9406 -7.6588 0.9299
-22.1683 2.1973 -10.3504 0.9064
-22.3978 1.3123 -10.4244 0.9058
-21.4114 -3.0798 -10.0506 0.9090
-20.5493 -4.6689 -9.7910 0.9112
-19.8860 -5.3687 -9.5703 0.9132
-16.6343 -7.5243 -8.4826 0.9226
-14.7957 -8.1859 -7.8564 0.9281
-13.8715 -8.4214 -7.5398 0.9309
-12.9633 -8.6028 -7.2287 0.9337
-10.4326 -8.9079 -6.3738 0.9413
-9.6644 -8.9494 -6.1198 0.9436
-8.2372 -8.9627 -5.6559 0.9477
-7.5637 -8.9261 -5.4360 0.9497
-6.9159 -8.8617 -5.2228 0.9516
-5.1542 -8.5624 -4.6434 0.9569
-4.6245 -8.4333 -4.4688 0.9585
-4.1228 -8.2940 -4.3034 0.9600
-3.6480 -8.1463 -4.1471 0.9614
-3.1984 -7.9902 -3.9988 0.9628
-1.6321 -7.3107 -3.4803 0.9675
-1.2940 -7.1364 -3.3698 0.9685
-0.3868 -6.5986 -3.0711 0.9713
-0.1170 -6.4023 -2.9752 0.9722
0.8195 -5.6980 -2.6747 0.9749
1.0189 -5.5023 -2.5999 0.9756
1.2135 -5.3417 -2.5451 0.9761
1.7251 -4.8122 -2.3752 0.9777
1.8666 -4.6130 -2.3121 0.9783
2.2693 -4.1019 -2.1780 0.9795
2.4928 -3.7564 -2.0947 0.9803
2.7866 -3.2637 -1.9939 0.9812
3.1658 -2.4708 -1.8659 0.9824
3.2271 -2.3157 -1.8455 0.9826
3.2835 -2.1614 -1.8264 0.9828
3.3374 -2.0091 -1.8099 0.9830
3.4336 -1.7069 -1.7816 0.9832
3.5149 -1.4071 -1.7591 0.9834
3.5813 -1.1087 -1.7419 0.9836
3.6537 -0.6626 -1.7253 0.9838
3.6845 -0.3654 -1.7203 0.9838
3.7096 0.2313 -1.7269 0.9837
3.6864 0.6826 -1.7419 0.9836
3.6516 0.9857 -1.7573 0.9835
3.6286 1.1381 -1.7669 0.9834
3.6018 1.2911 -1.7778 0.9833
3.5711 1.4449 -1.7899 0.9832
3.5364 1.5994 -1.8033 0.9830
3.3554 2.2265 -1.8710 0.9824
3.2996 2.3862 -1.8920 0.9822
3.1743 2.7101 -1.9392 0.9818
3.0284 3.0395 -1.9935 0.9813
2.9472 3.2065 -2.0235 0.9810
2.4434 4.0586 -2.2011 0.9793
2.3203 4.2308 -2.2419 0.9789
2.1896 4.4044 -2.2853 0.9785
1.7384 4.9060 -2.4183 0.9773
1.0251 5.6519 -2.6688 0.9750
0.3641 6.2064 -2.8886 0.9730
-0.1445 6.5777 -3.0569 0.9714
-0.7149 6.9491 -3.2457 0.9697
-1.0255 7.1328 -3.3482 0.9687
-3.2944 8.1428 -4.0812 0.9620
-4.2302 8.4320 -4.3831 0.9592
-5.8362 8.7957 -4.9045 0.9545
-7.6691 8.9830 -5.4879 0.9492
-8.3483 9.0166 -5.7093 0.9472
-9.0675 9.0347 -5.9473 0.9451
-10.5989 8.9825 -6.4551 0.9406
-11.4115 8.9071 -6.7259 0.9381
-13.1149 8.6339 -7.2954 0.9331
-13.9969 8.4269 -7.5909 0.9305
-14.9100 8.1774 -7.9010 0.9277
-16.7597 7.5066 -8.5323 0.9222
-18.5408 6.5700 -9.1393 0.9169
-19.3567 5.9935 -9.4148 0.9145
-20.0991 5.3467 -9.6633 0.9123
-16.2194 2.9421 -7.6589 0.9299
-16.4261 2.3009 -7.7064 0.9295
-22.5132 0.4129 -10.4619 0.9055
-22.5080 -0.4938 -10.4602 0.9055
-22.3518 -1.3924 -10.4053 0.9059
-22.0656 -2.2694 -10.3063 0.9068
-21.4127 -3.0779 -10.0511 0.9090
-21.0633 -3.8991 -9.9528 0.9098
-19.8876 -5.3671 -9.5708 0.9131
-18.3634 -6.5816 -9.0635 0.9176
-16.6364 -7.5233 -8.4833 0.9226
-12.9654 -8.6025 -7.2294 0.9337
-2.2866 -7.3892 -3.6986 0.9663
-1.5783 -7.0729 -3.4652 0.9684
-1.2525 -6.9114 -3.3586 0.9693
-0.9438 -6.7460 -3.2571 0.9702
-0.6515 -6.5776 -3.1606 0.9711
-0.3750 -6.4081 -3.0694 0.9719
0.1341 -6.0669 -2.9017 0.9735
1.1848 -5.2130 -2.5562 0.9766
1.3616 -5.0422 -2.4974 0.9771
1.9640 -4.3411 -2.2783 0.9791
2.1017 -4.1878 -2.2405 0.9794
2.6437 -3.3609 -2.0447 0.9812
2.9001 -2.8888 -1.9573 0.9820
3.1709 -2.2750 -1.8661 0.9828
3.2272 -2.1239 -1.8474 0.9830
3.2807 -1.9746 -1.8309 0.9832
3.4907 -1.2364 -1.7707 0.9837
3.5492 -0.9436 -1.7561 0.9838
3.5731 -0.7974 -1.7506 0.9839
3.6239 -0.3590 -1.7413 0.9840
3.6340 -0.2127 -1.7406 0.9840
3.6483 0.2278 -1.7479 0.9839
3.6439 0.3753 -1.7516 0.9839
3.6237 0.6713 -1.7622 0.9838
3.6082 0.8200 -1.7693 0.9837
3.4741 1.5716 -1.8233 0.9832
3.4354 1.7240 -1.8380 0.9831
3.3926 1.8772 -1.8540 0.9830
3.3455 2.0313 -1.8715 0.9828
3.2943 2.1864 -1.8906 0.9826
3.2392 2.3430 -1.9116 0.9824
3.1147 2.6598 -1.9585 0.9820
2.6126 3.6414 -2.1430 0.9803
1.8601 4.6474 -2.3936 0.9780
1.5445 4.9900 -2.4977 0.9771
1.3726 5.1623 -2.5542 0.9766
1.1908 5.3352 -2.6139 0.9761
0.9986 5.5088 -2.6771 0.9755
0.3529 6.0265 -2.8866 0.9736
0.1132 6.2127 -2.9712 0.9728
-0.1409 6.3880 -3.0553 0.9721
-0.4096 6.5627 -3.1442 0.9713
-0.6936 6.7362 -3.2381 0.9704
-0.9939 6.9086 -3.3375 0.9695
-4.5382 8.2022 -4.4823 0.9593
-5.0428 8.3060 -4.6463 0.9578
-5.5720 8.3957 -4.8182 0.9563
-6.1225 8.4646 -4.9953 0.9547
-8.5646 8.5320 -5.7806 0.9478
-10.6962 8.3471 -6.4876 0.9416
-11.4512 8.2165 -6.7393 0.9394
-12.2264 8.0474 -6.9990 0.9372
-13.0130 7.8329 -7.2626 0.9349
-13.8117 7.5734 -7.5320 0.9325
-16.9567 6.0069 -8.6019 0.9233
-17.6651 5.4679 -8.8423 0.9213
-18.3104 4.8691 -9.0597 0.9194
-16.1567 2.9292 -7.8515 0.9298
-16.3951 2.2950 -7.9160 0.9292
-20.0775 1.9901 -9.6474 0.9144
-20.2805 1.1882 -9.7141 0.9139
-20.3722 0.3717 -9.7429 0.9136
-20.2301 -1.2621 -9.6921 0.9141
-19.9940 -2.0583 -9.6110 0.9147
-18.1723 -4.9060 -9.0005 0.9199
-17.5323 -5.4996 -8.7862 0.9218
-16.0996 -6.5149 -8.3047 0.9259
-13.7046 -7.5823 -7.4892 0.9329
-12.8873 -7.8238 -7.2090 0.9353
-11.3115 -8.1813 -6.6752 0.9400
-10.5544 -8.3010 -6.4206 0.9422
-9.8256 -8.3896 -6.1779 0.9443
-7.8176 -8.5062 -5.5242 0.9501
-5.4582 -8.2923 -4.7470 0.9569
-2.6633 -7.5176 -3.8136 0.9653
-2.2875 -7.3895 -3.6988 0.9663
-1.9173 -7.2094 -3.5671 0.9675
-1.2533 -6.9117 -3.3589 0.9693
-0.6522 -6.5780 -3.1608 0.9711
-0.3756 -6.4085 -3.0696 0.9719
0.3677 -5.8964 -2.8249 0.9741
0.5892 -5.7251 -2.7520 0.9748
1.1844 -5.2134 -2.5564 0.9766
1.3612 -5.0426 -2.4975 0.9771
1.5284 -4.8728 -2.4420 0.9776
1.6864 -4.7042 -2.3895 0.9781
1.8254 -4.5114 -2.3271 0.9787
1.9637 -4.3415 -2.2784 0.9791
2.1015 -4.1883 -2.2406 0.9794
2.4438 -3.6827 -2.1134 0.9806
2.6435 -3.3613 -2.0447 0.9812
2.8198 -3.0453 -1.9845 0.9818
2.8999 -2.8891 -1.9574 0.9820
3.1708 -2.2753 -1.8661 0.9828
3.3300 -1.8262 -1.8160 0.9833
3.3755 -1.6780 -1.8025 0.9834
3.4174 -1.5305 -1.7905 0.9835
3.4559 -1.3834 -1.7800 0.9836
3.5217 -1.0903 -1.7628 0.9838
3.5731 -0.7978 -1.7506 0.9839
3.5935 -0.6517 -1.7463 0.9839
3.6239 -0.3594 -1.7413 0.9840
3.6406 -0.0666 -1.7411 0.9840
3.6461 0.0802 -1.7438 0.9840
3.6356 0.5228 -1.7563 0.9838
3.5890 0.9688 -1.7776 0.9837
3.5661 1.1184 -1.7871 0.9836
3.5393 1.2687 -1.7978 0.9835
3.4742 1.5713 -1.8232 0.9832
3.4355 1.7237 -1.8379 0.9831
3.1795 2.5004 -1.9342 0.9822
3.0452 2.8196 -1.9844 0.9818
2.8897 3.1439 -2.0419 0.9812
2.8035 3.3082 -2.0735 0.9810
2.7113 3.4738 -2.1071 0.9807
2.5062 3.8071 -2.1795 0.9800
2.3919 3.9730 -2.2175 0.9796
2.2705 4.1400 -2.2578 0.9793
1.5448 4.9896 -2.4976 0.9771
1.3730 5.1619 -2.5541 0.9766
0.3535 6.0261 -2.8864 0.9736
-0.1403 6.3876 -3.0551 0.9721
-0.6929 6.7358 -3.2378 0.9704
-0.9932 6.9082 -3.3372 0.9695
-2.3666 7.5464 -3.7817 0.9655
-2.7576 7.6934 -3.9079 0.9644
-3.1693 7.8336 -4.0407 0.9632
-4.5371 8.2020 -4.4820 0.9593
-5.0416 8.3057 -4.6459 0.9578
-6.1212 8.4645 -4.9949 0.9547
-6.6927 8.5108 -5.1771 0.9531
-9.2492 8.5017 -6.0072 0.9458
-9.9593 8.4404 -6.2424 0.9438
-11.4494 8.2168 -6.7387 0.9394
-12.2246 8.0478 -6.9984 0.9372
-13.0111 7.8334 -7.2620 0.9349
-14.6145 7.2658 -7.8042 0.9302
-15.4213 6.9071 -8.0798 0.9278
-17.6635 5.4693 -8.8417 0.9213
-18.3089 4.8705 -9.0592 0.9194
-16.1567 2.9308 -7.8516 0.9298
-20.0769 1.9920 -9.6472 0.9144
-20.2802 1.1901 -9.7140 0.9139
-20.3722 0.3737 -9.7429 0.9136
-20.3534 -0.4465 -9.7346 0.9137
-19.9947 -2.0564 -9.6112 0.9147
-19.2447 -3.5624 -9.3585 0.9169
-18.7485 -4.2579 -9.1932 0.9183
-17.5339 -5.4983 -8.7867 0.9218
-14.5215 -7.2849 -7.7685 0.9305
-13.7066 -7.5816 -7.4898 0.9329
-12.8892 -7.8233 -7.2096 0.9353
-2.5773 -7.2769 -3.7970 0.9662
-2.2086 -7.1372 -3.6747 0.9672
-1.8594 -6.9944 -3.5597 0.9683
-1.5282 -6.8481 -3.4511 0.9692
-1.2139 -6.6983 -3.3482 0.9701
-0.6326 -6.3862 -3.1564 0.9718
-0.1100 -6.0520 -2.9772 0.9734
0.3586 -5.7417 -2.8296 0.9747
0.5731 -5.5635 -2.7509 0.9754
0.7793 -5.4153 -2.6910 0.9759
0.9732 -5.2522 -2.6273 0.9765
1.4941 -4.7620 -2.4548 0.9780
1.6493 -4.5994 -2.4033 0.9785
1.7861 -4.4128 -2.3415 0.9790
1.9222 -4.2487 -2.2937 0.9794
2.1747 -3.9300 -2.2092 0.9802
2.2885 -3.7690 -2.1688 0.9805
2.5939 -3.2976 -2.0636 0.9815
2.6839 -3.1428 -2.0328 0.9817
2.7684 -2.9892 -2.0039 0.9820
2.8477 -2.8366 -1.9770 0.9822
2.9220 -2.6851 -1.9518 0.9825
3.1159 -2.2355 -1.8862 0.9831
3.2252 -1.9412 -1.8515 0.9834
3.2742 -1.7952 -1.8366 0.9835
3.3606 -1.5046 -1.8110 0.9837
3.3983 -1.3600 -1.8003 0.9838
3.4635 -1.0719 -1.7833 0.9840
3.4907 -0.9281 -1.7766 0.9840
3.5144 -0.7843 -1.7711 0.9841
3.5514 -0.4969 -1.7638 0.9841
3.5863 0.0792 -1.7644 0.9841
3.5827 0.3690 -1.7715 0.9841
3.5625 0.6600 -1.7820 0.9840
3.5470 0.8061 -1.7891 0.9839
3.5278 0.9526 -1.7973 0.9838
3.4478 1.3954 -1.8294 0.9836
3.3749 1.6937 -1.8573 0.9833
3.3324 1.8439 -1.8732 0.9832
3.2356 2.1474 -1.9100 0.9828
3.1805 2.3006 -1.9307 0.9827
