ply
format ascii 1.0
element vertex 1400
property float32 x
property float32 y
property float32 z
property float32 CosAngle
property uint32 ObjIdx
property uint32 ObjTag
end_header
-3.6948 -7.3698 -4.1690 0.3100 0 1
-3.2867 -7.2705 -4.0349 0.3180 0 1
-2.8956 -7.1581 -3.9048 0.3286 0 1
-2.5233 -7.0383 -3.7810 0.3394 0 1
-2.1693 -6.9126 -3.6638 0.3532 0 1
-1.8330 -6.7833 -3.5533 0.3642 0 1
-1.5131 -6.6491 -3.4484 0.3752 0 1
-1.2090 -6.5107 -3.3487 0.3864 0 1
-0.9196 -6.3674 -3.2533 0.3967 0 1
-0.6447 -6.2203 -3.1624 0.4080 0 1
-0.3837 -6.0709 -3.0761 0.4194 0 1
-0.1359 -5.9197 -2.9944 0.4309 0 1
0.0992 -5.7668 -2.9167 0.4407 0 1
0.3223 -5.6127 -2.8430 0.4522 0 1
0.5340 -5.4578 -2.7732 0.4636 0 1
0.7347 -5.3025 -2.7070 0.4751 0 1
0.9251 -5.1469 -2.6444 0.4863 0 1
1.1057 -4.9911 -2.5852 0.4975 0 1
1.2766 -4.8343 -2.5285 0.5088 0 1
1.4383 -4.6774 -2.4746 0.5199 0 1
1.5916 -4.5209 -2.4237 0.5308 0 1
1.7366 -4.3650 -2.3756 0.5415 0 1
1.8621 -4.1830 -2.3154 0.5516 0 24
1.9893 -4.0255 -2.2706 0.5622 0 24
2.1122 -3.8743 -2.2315 0.5791 0 1
2.2260 -3.7195 -2.1920 0.5895 0 1
2.3333 -3.5657 -2.1549 0.5997 0 1
2.4345 -3.4129 -2.1200 0.6096 0 1
2.5299 -3.2612 -2.0872 0.6192 0 1
2.6196 -3.1105 -2.0565 0.6284 0 1
2.7039 -2.9607 -2.0276 0.6373 0 1
2.7831 -2.8119 -2.0007 0.6459 0 1
2.8574 -2.6639 -1.9755 0.6542 0 1
2.9268 -2.5168 -1.9520 0.6582 0 1
2.9913 -2.3701 -1.9299 0.6658 0 1
3.0513 -2.2243 -1.9095 0.6729 0 1
3.1078 -2.0797 -1.8910 0.6841 0 1
3.1611 -1.9362 -1.8746 0.6901 0 1
3.2103 -1.7933 -1.8595 0.6957 0 1
3.2557 -1.6507 -1.8459 0.7008 0 1
3.2973 -1.5086 -1.8336 0.7055 0 1
3.3351 -1.3668 -1.8227 0.7097 0 1
3.3694 -1.2252 -1.8130 0.7135 0 1
3.4003 -1.0840 -1.8048 0.7090 0 1
3.4280 -0.9430 -1.7979 0.7117 0 1
3.4521 -0.8021 -1.7922 0.7140 0 1
3.4729 -0.6612 -1.7877 0.7158 0 1
3.4901 -0.5202 -1.7844 0.7171 0 1
3.5040 -0.3792 -1.7823 0.7180 0 1
3.5145 -0.2381 -1.7814 0.7183 0 1
3.5217 -0.0968 -1.7816 0.7183 0 1
3.5269 0.0447 -1.7837 0.7166 0 1
3.5282 0.1866 -1.7867 0.7048 0 1
3.5242 0.3287 -1.7899 0.7035 0 1
3.5168 0.4711 -1.7943 0.7018 0 1
3.5058 0.6138 -1.7998 0.6997 0 1
3.4912 0.7568 -1.8065 0.6971 0 1
3.4731 0.9003 -1.8144 0.6941 0 1
3.4513 1.0442 -1.8234 0.6906 0 1
3.4258 1.1886 -1.8337 0.6867 0 1
3.3966 1.3335 -1.8453 0.6824 0 1
3.3634 1.4790 -1.8580 0.6778 0 1
3.3264 1.6251 -1.8722 0.6841 0 1
3.2862 1.7723 -1.8881 0.6784 0 1
3.2418 1.9203 -1.9054 0.6722 0 1
3.1931 2.0689 -1.9240 0.6655 0 1
3.1387 2.2175 -1.9434 0.6525 0 1
3.0812 2.3680 -1.9651 0.6453 0 1
3.0190 2.5193 -1.9884 0.6377 0 1
2.9520 2.6716 -2.0134 0.6298 0 1
2.8800 2.8249 -2.0400 0.6216 0 1
2.8028 2.9792 -2.0685 0.6131 0 1
2.7202 3.1345 -2.0987 0.6042 0 1
2.6319 3.2909 -2.1309 0.5951 0 1
2.5377 3.4484 -2.1651 0.5857 0 1
2.4370 3.6063 -2.2010 0.5807 0 1
2.3279 3.7622 -2.2373 0.5713 0 1
2.2123 3.9187 -2.2757 0.5617 0 1
2.0898 4.0759 -2.3163 0.5518 0 1
1.9483 4.2080 -2.3450 0.5434 0 24
1.8127 4.3669 -2.3910 0.5329 0 24
1.6692 4.5264 -2.4396 0.5223 0 24
1.5248 4.7090 -2.5031 0.5112 0 1
1.3629 4.8680 -2.5564 0.5010 0 1
1.1919 5.0267 -2.6125 0.4902 0 1
1.0116 5.1855 -2.6717 0.4795 0 1
0.8216 5.3455 -2.7349 0.4684 0 1
0.6211 5.5053 -2.8016 0.4573 0 1
0.4095 5.6645 -2.8720 0.4461 0 1
0.1865 5.8229 -2.9461 0.4349 0 1
-0.0487 5.9733 -3.0208 0.4229 0 24
-0.2966 6.1347 -3.1059 0.4133 0 1
-0.5577 6.2879 -3.1923 0.4021 0 1
-0.8328 6.4388 -3.2832 0.3910 0 1
-1.1224 6.5867 -3.3789 0.3799 0 1
-1.4267 6.7282 -3.4780 0.3725 0 1
-1.7459 6.8629 -3.5810 0.3615 0 1
-2.0810 6.9923 -3.6892 0.3509 0 1
-2.4327 7.1154 -3.8027 0.3404 0 1
-2.8014 7.2314 -3.9217 0.3301 0 1
-3.1877 7.3392 -4.0463 0.3200 0 1
-3.5918 7.4373 -4.1766 0.3102 0 1
-4.0142 7.5245 -4.3127 0.3004 0 1
-4.4551 7.5995 -4.4547 0.2908 0 1
-4.9149 7.6612 -4.6029 0.2786 0 1
-5.3954 7.7105 -4.7590 0.2694 0 1
-5.8931 7.7405 -4.9197 0.2629 0 1
-6.4065 7.7484 -5.0842 0.2544 0 1
-6.9366 7.7350 -5.2540 0.2462 0 1
-7.4800 7.6955 -5.4270 0.2413 0 1
-8.0410 7.6339 -5.6069 0.2249 0 1
-8.6318 7.5596 -5.8024 0.2173 0 1
-9.2371 7.4562 -6.0031 0.2099 0 1
-9.8533 7.3202 -6.2073 0.2030 0 1
-10.4791 7.1506 -6.4154 0.1951 0 1
-11.1157 6.9479 -6.6289 0.1884 0 1
-11.7531 6.7056 -6.8428 0.1833 0 1
-12.3863 6.4219 -7.0555 0.1753 0 1
-13.0157 6.0982 -7.2686 0.1701 0 1
-13.6284 5.7297 -7.4761 0.1654 0 1
-14.2130 5.3146 -7.6734 0.1616 0 1
-14.7682 4.8558 -7.8615 0.1552 0 1
-15.2260 4.3372 -8.0060 0.1528 0 24
-15.7463 3.8091 -8.1924 0.1501 0 1
-16.1496 3.2264 -8.3281 0.1488 0 1
-16.4838 2.6099 -8.4396 0.1468 0 1
-16.7480 1.9662 -8.5275 0.1458 0 1
-16.9369 1.3017 -8.5901 0.1441 0 1
-17.0468 0.6232 -8.6262 0.1435 0 1
-17.0744 -0.0618 -8.6344 0.1438 0 1
-17.0240 -0.7457 -8.6172 0.1442 0 1
-16.8932 -1.4213 -8.5729 0.1450 0 1
-16.6844 -2.0812 -8.5026 0.1466 0 1
-16.4074 -2.7196 -8.4103 0.1485 0 1
-16.0619 -3.3299 -8.2951 0.1506 0 1
-15.6543 -3.9070 -8.1591 0.1531 0 1
-3.7796 -7.1415 -4.1991 0.3145 0 1
-3.3810 -7.0604 -4.0682 0.3246 0 1
-2.9979 -6.9653 -3.9408 0.3327 0 1
-2.6319 -6.8613 -3.8191 0.3433 0 1
-2.2831 -6.7509 -3.7036 0.3570 0 1
-1.9445 -6.6136 -3.5825 0.3668 0 24
-1.6342 -6.5142 -3.4903 0.3788 0 1
-1.3325 -6.3881 -3.3913 0.3899 0 1
-1.0450 -6.2573 -3.2969 0.4000 0 1
-0.7711 -6.1210 -3.2062 0.4112 0 1
-0.5106 -5.9818 -3.1200 0.4225 0 1
-0.2630 -5.8400 -3.0380 0.4324 0 1
-0.0275 -5.6837 -2.9538 0.4459 0 24
0.1957 -5.5377 -2.8797 0.4573 0 24
0.4086 -5.4031 -2.8159 0.4665 0 1
0.6105 -5.2551 -2.7494 0.4780 0 1
0.8021 -5.1064 -2.6863 0.4892 0 1
0.9841 -4.9572 -2.6265 0.5003 0 1
1.1568 -4.8076 -2.5698 0.5116 0 1
1.3203 -4.6564 -2.5153 0.5227 0 1
1.4753 -4.5053 -2.4637 0.5336 0 1
1.6222 -4.3545 -2.4149 0.5444 0 1
1.7588 -4.1978 -2.3653 0.5362 0 1
1.8806 -4.0267 -2.3096 0.5647 0 24
2.0028 -3.8746 -2.2667 0.5765 0 24
2.1217 -3.7294 -2.2298 0.5922 0 1
2.2311 -3.5793 -2.1919 0.6025 0 1
2.3344 -3.4300 -2.1562 0.6124 0 1
2.4318 -3.2816 -2.1226 0.6221 0 1
2.5235 -3.1341 -2.0911 0.6315 0 1
2.6099 -2.9874 -2.0615 0.6406 0 1
2.6910 -2.8415 -2.0338 0.6493 0 1
2.7672 -2.6963 -2.0079 0.6577 0 1
2.8384 -2.5517 -1.9836 0.6619 0 1
2.9049 -2.4077 -1.9608 0.6696 0 1
2.9668 -2.2645 -1.9396 0.6769 0 1
3.0246 -2.1220 -1.9201 0.6884 0 1
3.0797 -1.9810 -1.9030 0.6946 0 1
3.1307 -1.8404 -1.8873 0.7004 0 1
3.1778 -1.7003 -1.8730 0.7058 0 1
3.2211 -1.5605 -1.8600 0.7107 0 1
3.2607 -1.4210 -1.8484 0.7151 0 1
3.2966 -1.2817 -1.8381 0.7191 0 1
3.3290 -1.1427 -1.8291 0.7227 0 1
3.3578 -1.0038 -1.8213 0.7258 0 1
3.3833 -0.8651 -1.8148 0.7205 0 1
3.4057 -0.7265 -1.8097 0.7225 0 1
3.4247 -0.5879 -1.8058 0.7241 0 1
3.4402 -0.4492 -1.8030 0.7252 0 1
3.4525 -0.3105 -1.8014 0.7258 0 1
3.4613 -0.1716 -1.8010 0.7260 0 1
3.4670 -0.0325 -1.8018 0.7249 0 1
3.4705 0.1069 -1.8044 0.7131 0 1
3.4684 0.2465 -1.8070 0.7121 0 1
3.4628 0.3864 -1.8107 0.7107 0 1
3.4538 0.5265 -1.8156 0.7087 0 1
3.4412 0.6669 -1.8216 0.7064 0 1
3.4251 0.8077 -1.8288 0.7036 0 1
3.4054 0.9489 -1.8371 0.7004 0 1
3.3820 1.0905 -1.8467 0.6968 0 1
3.3549 1.2326 -1.8575 0.6928 0 1
3.3243 1.3752 -1.8696 0.7000 0 1
3.2903 1.5186 -1.8833 0.6950 0 1
3.2525 1.6626 -1.8983 0.6895 0 1
3.2106 1.8074 -1.9147 0.6835 0 1
3.1647 1.9529 -1.9326 0.6772 0 1
3.1132 2.0982 -1.9511 0.6707 0 1
3.0576 2.2444 -1.9711 0.6574 0 1
2.9985 2.3920 -1.9934 0.6501 0 1
2.9347 2.5405 -2.0172 0.6424 0 1
2.8660 2.6898 -2.0426 0.6344 0 1
2.7924 2.8399 -2.0698 0.6260 0 1
2.7135 2.9910 -2.0987 0.6174 0 1
2.6292 3.1429 -2.1295 0.6085 0 1
2.5393 3.2958 -2.1622 0.5993 0 1
2.4435 3.4495 -2.1969 0.5898 0 1
2.3404 3.6024 -2.2325 0.5850 0 1
2.2299 3.7541 -2.2692 0.5756 0 1
2.1129 3.9063 -2.3080 0.5659 0 1
1.9769 4.0340 -2.3346 0.5577 0 24
1.8582 4.2118 -2.3924 0.5460 0 1
1.7199 4.3649 -2.4381 0.5357 0 1
1.5659 4.4956 -2.4740 0.5263 0 24
1.4195 4.6712 -2.5372 0.5153 0 1
1.2568 4.8241 -2.5907 0.5051 0 1
1.0852 4.9766 -2.6470 0.4944 0 1
0.9045 5.1296 -2.7069 0.4836 0 1
0.7142 5.2825 -2.7702 0.4726 0 1
0.5136 5.4347 -2.8369 0.4615 0 1
0.3022 5.5858 -2.9071 0.4503 0 1
0.0797 5.7357 -2.9811 0.4391 0 1
-0.1544 5.8776 -3.0556 0.4260 0 24
-0.4006 6.0223 -3.1366 0.4185 0 24
-0.6603 6.1719 -3.2258 0.4066 0 1
-0.9330 6.3119 -3.3159 0.3956 0 1
-1.2195 6.4483 -3.4105 0.3858 0 1
-1.5196 6.5769 -3.5080 0.3774 0 1
-1.8340 6.6988 -3.6094 0.3668 0 1
-2.1633 6.8147 -3.7157 0.3560 0 1
-2.5081 6.9236 -3.8269 0.3457 0 1
-2.8687 7.0246 -3.9433 0.3355 0 1
-3.2455 7.1166 -4.0649 0.3255 0 1
-3.6386 7.1982 -4.1916 0.3158 0 1
-4.0483 7.2681 -4.3235 0.3062 0 1
-4.4745 7.3252 -4.4608 0.2968 0 1
-4.9174 7.3679 -4.6035 0.2876 0 1
-5.3777 7.3962 -4.7523 0.2757 0 1
-5.8538 7.4065 -4.9061 0.2694 0 1
-6.3427 7.3942 -5.0627 0.2610 0 1
-6.8454 7.3605 -5.2237 0.2530 0 1
-7.3607 7.3033 -5.3887 0.2453 0 1
-7.8847 7.2185 -5.5555 0.2408 0 1
-8.4358 7.1221 -5.7375 0.2245 0 1
-8.9981 6.9979 -5.9239 0.2174 0 1
-9.5670 6.8421 -6.1125 0.2107 0 1
-10.1406 6.6536 -6.3030 0.2075 0 1
-10.7219 6.4345 -6.4984 0.1972 0 1
-11.2998 6.1783 -6.6928 0.1915 0 1
-11.8148 5.8565 -6.8529 0.1833 0 24
-12.4196 5.5468 -7.0688 0.1788 0 1
-12.9591 5.1741 -7.2516 0.1743 0 1
-13.4203 4.7429 -7.3971 0.1705 0 24
-13.9452 4.3069 -7.5849 0.1673 0 1
-14.3793 3.8158 -7.7314 0.1652 0 1
-14.7645 3.2897 -7.8611 0.1598 0 1
-15.0990 2.7330 -7.9743 0.1576 0 1
-15.3106 2.1405 -8.0341 0.1571 0 24
-15.5714 1.5426 -8.1319 0.1558 0 1
-15.7078 0.9213 -8.1772 0.1554 0 1
-15.7720 0.2906 -8.1979 0.1550 0 1
-15.7668 -0.3428 -8.1957 0.1551 0 1
-15.6920 -0.9725 -8.1706 0.1555 0 1
-15.4862 -1.5860 -8.0901 0.1566 0 24
-15.2788 -2.1877 -8.0212 0.1581 0 24
-15.0633 -2.7781 -7.9602 0.1599 0 1
-14.7334 -3.3340 -7.8504 0.1621 0 1
-14.3481 -3.8584 -7.7214 0.1624 0 1
-13.9064 -4.3454 -7.5716 0.1664 0 1
-13.3822 -4.7793 -7.3847 0.1686 0 24
-12.9004 -5.2003 -7.2284 0.1734 0 1
-12.3515 -5.5654 -7.0404 0.1780 0 1
-11.7953 -5.8955 -6.8529 0.1878 0 1
-11.2237 -6.1851 -6.6599 0.1935 0 1
-10.6444 -6.4360 -6.4643 0.1994 0 1
-10.0621 -6.6498 -6.2679 0.2056 0 1
-9.4994 -6.8414 -6.0837 0.2196 0 1
-8.9397 -7.0000 -5.9006 0.2244 0 1
-8.3848 -7.1267 -5.7188 0.2315 0 1
-7.8391 -7.2246 -5.5401 0.2390 0 1
-7.2998 -7.2909 -5.3617 0.2442 0 1
-6.7742 -7.3324 -5.1879 0.2524 0 1
-6.2642 -7.3519 -5.0195 0.2628 0 1
-5.7520 -7.3274 -4.8411 0.2702 0 24
-5.2938 -7.3317 -4.6996 0.2787 0 1
-4.8326 -7.2931 -4.5467 0.2880 0 1
-4.3894 -7.2396 -4.3999 0.2977 0 1
-3.9651 -7.1745 -4.2600 0.3100 0 1
-3.5587 -7.0983 -4.1265 0.3200 0 1
-3.1687 -7.0095 -3.9977 0.3280 0 1
-2.7949 -6.9092 -3.8733 0.3385 0 1
-2.4383 -6.8010 -3.7547 0.3492 0 1
-2.0989 -6.6883 -3.6429 0.3630 0 1
-1.7752 -6.5696 -3.5366 0.3739 0 1
-1.4668 -6.4456 -3.4353 0.3849 0 1
-1.1730 -6.3171 -3.3390 0.3960 0 1
-0.8930 -6.1829 -3.2465 0.4062 0 1
-0.6265 -6.0449 -3.1583 0.4174 0 1
-0.3731 -5.9043 -3.0745 0.4288 0 1
-0.1323 -5.7611 -2.9948 0.4386 0 1
0.0966 -5.6160 -2.9190 0.4500 0 1
0.3141 -5.4696 -2.8471 0.4614 0 1
0.5207 -5.3220 -2.7790 0.4727 0 1
0.7169 -5.1736 -2.7143 0.4841 0 1
0.9032 -5.0246 -2.6531 0.4953 0 1
1.0800 -4.8752 -2.5950 0.5064 0 1
1.2476 -4.7246 -2.5395 0.5177 0 1
1.4064 -4.5735 -2.4866 0.5287 0 1
1.5569 -4.4225 -2.4366 0.5395 0 1
1.6989 -4.2703 -2.3884 0.5310 0 1
1.8232 -4.0956 -2.3298 0.5598 0 24
1.9486 -3.9431 -2.2857 0.5718 0 24
2.0703 -3.7974 -2.2477 0.5875 0 1
2.1826 -3.6469 -2.2087 0.5979 0 1
2.2886 -3.4972 -2.1720 0.6080 0 1
2.3886 -3.3485 -2.1375 0.6178 0 1
2.4828 -3.2005 -2.1051 0.6273 0 1
2.5716 -3.0535 -2.0746 0.6365 0 1
2.6550 -2.9072 -2.0461 0.6454 0 1
2.7335 -2.7617 -2.0194 0.6539 0 1
2.8070 -2.6169 -1.9944 0.6583 0 1
2.8755 -2.4726 -1.9708 0.6662 0 1
2.9394 -2.3290 -1.9490 0.6737 0 1
2.9990 -2.1861 -1.9286 0.6808 0 1
3.0553 -2.0445 -1.9105 0.6919 0 1
3.1081 -1.9038 -1.8942 0.6979 0 1
3.1570 -1.7635 -1.8793 0.7034 0 1
3.2020 -1.6235 -1.8657 0.7085 0 1
3.2433 -1.4839 -1.8535 0.7132 0 1
3.2808 -1.3445 -1.8426 0.7174 0 1
3.3148 -1.2054 -1.8330 0.7211 0 1
3.3452 -1.0664 -1.8247 0.7244 0 1
3.3722 -0.9277 -1.8176 0.7273 0 1
3.3960 -0.7890 -1.8119 0.7217 0 1
3.4165 -0.6504 -1.8074 0.7235 0 1
3.4336 -0.5118 -1.8041 0.7248 0 1
3.4474 -0.3731 -1.8020 0.7256 0 1
3.4577 -0.2343 -1.8011 0.7260 0 1
3.4648 -0.0953 -1.8013 0.7259 0 1
3.4698 0.0440 -1.8033 0.7243 0 1
3.4698 0.1835 -1.8057 0.7126 0 1
3.4658 0.3232 -1.8089 0.7114 0 1
3.4583 0.4632 -1.8133 0.7097 0 1
3.4473 0.6035 -1.8188 0.7075 0 1
3.4328 0.7442 -1.8254 0.7049 0 1
3.4147 0.8852 -1.8332 0.7019 0 1
3.3930 1.0266 -1.8422 0.6985 0 1
3.3676 1.1684 -1.8525 0.6947 0 1
3.3385 1.3107 -1.8639 0.6904 0 1
3.3061 1.4538 -1.8769 0.6973 0 1
3.2700 1.5976 -1.8914 0.6920 0 1
3.2300 1.7420 -1.9071 0.6863 0 1
3.1859 1.8871 -1.9243 0.6801 0 1
3.1373 2.0328 -1.9427 0.6735 0 1
3.0828 2.1780 -1.9616 0.6606 0 1
3.0257 2.3253 -1.9831 0.6534 0 1
2.9640 2.4734 -2.0062 0.6459 0 1
2.8976 2.6223 -2.0309 0.6380 0 1
2.8262 2.7721 -2.0573 0.6298 0 1
2.7497 2.9227 -2.0855 0.6213 0 1
2.6679 3.0743 -2.1154 0.6126 0 1
2.5806 3.2267 -2.1472 0.6035 0 1
2.4874 3.3801 -2.1810 0.5941 0 1
2.3881 3.5341 -2.2166 0.5892 0 1
2.2805 3.6856 -2.2524 0.5799 0 1
2.1665 3.8376 -2.2902 0.5703 0 1
2.0458 3.9900 -2.3302 0.5605 0 1
1.9068 4.1182 -2.3584 0.5521 0 24
1.7733 4.2719 -2.4037 0.5417 0 24
1.6322 4.4260 -2.4516 0.5311 0 24
1.4901 4.6022 -2.5139 0.5201 0 1
1.3313 4.7552 -2.5663 0.5099 0 1
1.1637 4.9078 -2.6213 0.4992 0 1
0.9872 5.0604 -2.6794 0.4886 0 1
0.8013 5.2136 -2.7412 0.4776 0 1
0.6054 5.3661 -2.8064 0.4665 0 1
0.3989 5.5178 -2.8750 0.4553 0 1
0.1815 5.6683 -2.9472 0.4442 0 1
-0.0474 5.8171 -3.0231 0.4339 0 1
-0.2880 5.9576 -3.0997 0.4219 0 24
-0.5418 6.1078 -3.1866 0.4116 0 1
-0.8083 6.2492 -3.2747 0.4005 0 1
-1.0885 6.3873 -3.3672 0.3895 0 1
-1.3825 6.5198 -3.4636 0.3799 0 1
-1.6903 6.6445 -3.5631 0.3716 0 1
-2.0129 6.7632 -3.6671 0.3610 0 1
-2.3506 6.8754 -3.7761 0.3503 0 1
-2.7040 6.9801 -3.8901 0.3400 0 1
-3.0735 7.0763 -4.0094 0.3299 0 1
-3.4593 7.1628 -4.1338 0.3202 0 1
-3.8614 7.2381 -4.2633 0.3105 0 1
-4.2802 7.3011 -4.3982 0.3010 0 1
-4.7156 7.3505 -4.5385 0.2917 0 1
-5.1676 7.3849 -4.6841 0.2797 0 1
-5.6378 7.4051 -4.8367 0.2709 0 1
-6.1203 7.4023 -4.9915 0.2648 0 1
-6.6169 7.3785 -5.1506 0.2566 0 1
-7.1268 7.3321 -5.3138 0.2487 0 1
-7.6473 7.2602 -5.4800 0.2441 0 1
-8.1852 7.1685 -5.6544 0.2278 0 1
-8.7434 7.0577 -5.8395 0.2205 0 1
-9.3097 6.9164 -6.0272 0.2137 0 1
-9.8814 6.7428 -6.2169 0.2097 0 1
-10.4597 6.5378 -6.4103 0.1999 0 1
-11.0398 6.2986 -6.6053 0.1940 0 1
-11.6137 6.0213 -6.7984 0.1885 0 1
-12.1723 5.7030 -6.9857 0.1839 0 1
-12.7186 5.3472 -7.1701 0.1763 0 1
-13.2429 4.9519 -7.3476 0.1724 0 1
-13.7348 4.5161 -7.5137 0.1686 0 1
-14.1908 4.0423 -7.6681 0.1654 0 1
-14.5956 3.5308 -7.8039 0.1610 0 1
-14.9551 2.9878 -7.9256 0.1585 0 1
-15.1974 2.4062 -7.9963 0.1577 0 24
-15.4872 1.8182 -8.1038 0.1563 0 1
-15.6552 1.2032 -8.1598 0.1553 0 1
-15.7518 0.5759 -8.1915 0.1551 0 1
-15.7771 -0.0571 -8.1992 0.1550 0 1
-15.7345 -0.6893 -8.1849 0.1553 0 1
-15.6206 -1.3142 -8.1465 0.1563 0 1
-15.4374 -1.9257 -8.0848 0.1575 0 1
-15.1933 -2.5183 -8.0035 0.1590 0 1
-14.8892 -3.0868 -7.9023 0.1610 0 1
-14.4760 -3.6129 -7.7537 0.1623 0 24
-3.6415 -6.8806 -4.1558 0.3245 0 1
-3.2608 -6.8093 -4.0304 0.3322 0 1
-2.8943 -6.7246 -3.9083 0.3426 0 1
-2.5438 -6.6316 -3.7918 0.3561 0 1
-2.2094 -6.5328 -3.6816 0.3668 0 1
-1.8897 -6.4272 -3.5764 0.3776 0 1
-1.5844 -6.3156 -3.4760 0.3885 0 1
-1.2930 -6.1987 -3.3803 0.3995 0 1
-1.0148 -6.0765 -3.2888 0.4095 0 1
-0.7494 -5.9488 -3.2008 0.4206 0 1
-0.4966 -5.8176 -3.1170 0.4304 0 1
-0.2559 -5.6835 -3.0372 0.4417 0 1
-0.0268 -5.5360 -2.9554 0.4553 0 24
0.1911 -5.4087 -2.8892 0.4643 0 1
0.3985 -5.2687 -2.8207 0.4756 0 1
0.5956 -5.1274 -2.7556 0.4870 0 1
0.7831 -4.9851 -2.6939 0.4982 0 1
0.9612 -4.8420 -2.6353 0.5093 0 1
1.1305 -4.6983 -2.5797 0.5202 0 1
1.2909 -4.5529 -2.5264 0.5314 0 1
1.4432 -4.4072 -2.4757 0.5423 0 1
1.5876 -4.2615 -2.4277 0.5530 0 1
1.7209 -4.1074 -2.3774 0.5448 0 1
1.8421 -3.9442 -2.3239 0.5740 0 24
1.9626 -3.7967 -2.2816 0.5849 0 24
2.0803 -3.6565 -2.2458 0.6005 0 1
2.1883 -3.5105 -2.2083 0.6107 0 1
2.2903 -3.3651 -2.1730 0.6206 0 1
2.3865 -3.2205 -2.1398 0.6302 0 1
2.4772 -3.0766 -2.1086 0.6396 0 1
2.5626 -2.9333 -2.0793 0.6486 0 1
2.6430 -2.7907 -2.0519 0.6573 0 1
2.7183 -2.6486 -2.0261 0.6618 0 1
2.7887 -2.5070 -2.0018 0.6698 0 1
2.8545 -2.3660 -1.9793 0.6775 0 1
2.9159 -2.2256 -1.9583 0.6847 0 1
2.9736 -2.0862 -1.9391 0.6962 0 1
3.0281 -1.9478 -1.9221 0.7023 0 1
3.0787 -1.8099 -1.9065 0.7081 0 1
3.1254 -1.6723 -1.8923 0.7134 0 1
3.1684 -1.5349 -1.8795 0.7183 0 1
3.2076 -1.3978 -1.8679 0.7227 0 1
3.2433 -1.2610 -1.8577 0.7267 0 1
3.2754 -1.1243 -1.8487 0.7302 0 1
3.3040 -0.9877 -1.8410 0.7333 0 1
3.3292 -0.8513 -1.8345 0.7359 0 1
3.3510 -0.7148 -1.8292 0.7380 0 1
3.3695 -0.5784 -1.8251 0.7397 0 1
3.3848 -0.4420 -1.8223 0.7328 0 1
3.3969 -0.3055 -1.8207 0.7334 0 1
3.4056 -0.1688 -1.8203 0.7336 0 1
3.4111 -0.0319 -1.8211 0.7325 0 1
3.4134 0.1051 -1.8231 0.7209 0 1
3.4112 0.2425 -1.8256 0.7198 0 1
3.4056 0.3800 -1.8293 0.7184 0 1
3.3965 0.5178 -1.8342 0.7165 0 1
3.3840 0.6559 -1.8401 0.7142 0 1
3.3679 0.7943 -1.8473 0.7114 0 1
3.3483 0.9330 -1.8556 0.7082 0 1
3.3254 1.0723 -1.8652 0.7166 0 1
3.2990 1.2120 -1.8762 0.7124 0 1
3.2689 1.3523 -1.8885 0.7078 0 1
3.2351 1.4931 -1.9021 0.7027 0 1
3.1974 1.6345 -1.9170 0.6972 0 1
3.1558 1.7765 -1.9333 0.6914 0 1
3.1102 1.9192 -1.9510 0.6851 0 1
3.0589 2.0616 -1.9693 0.6786 0 1
3.0032 2.2045 -1.9888 0.6654 0 1
2.9445 2.3490 -2.0108 0.6581 0 1
2.8813 2.4943 -2.0344 0.6505 0 1
2.8132 2.6402 -2.0596 0.6425 0 1
2.7403 2.7870 -2.0865 0.6342 0 1
2.6622 2.9344 -2.1151 0.6257 0 1
2.5788 3.0826 -2.1455 0.6168 0 1
2.4898 3.2316 -2.1778 0.6076 0 1
2.3951 3.3813 -2.2121 0.5982 0 1
2.2935 3.5303 -2.2474 0.5935 0 1
2.1846 3.6778 -2.2836 0.5841 0 1
2.0692 3.8256 -2.3219 0.5745 0 1
1.9356 3.9497 -2.3481 0.5663 0 24
1.8081 4.0983 -2.3913 0.5561 0 24
1.6824 4.2697 -2.4499 0.5445 0 1
1.5388 4.4177 -2.4974 0.5341 0 1
1.3874 4.5654 -2.5473 0.5242 0 1
1.2278 4.7127 -2.5998 0.5140 0 1
1.0596 4.8592 -2.6550 0.5034 0 1
0.8827 5.0061 -2.7137 0.4927 0 1
0.6966 5.1524 -2.7756 0.4817 0 1
0.5006 5.2977 -2.8408 0.4706 0 1
0.2944 5.4417 -2.9093 0.4596 0 1
0.0776 5.5841 -2.9813 0.4484 0 1
-0.1502 5.7176 -3.0534 0.4351 0 24
-0.3899 5.8615 -3.1360 0.4271 0 1
-0.6404 5.9854 -3.2135 0.4178 0 24
-0.9056 6.1271 -3.3065 0.4051 0 1
-1.1828 6.2543 -3.3980 0.3942 0 1
-1.4728 6.3744 -3.4926 0.3847 0 1
-1.7761 6.4874 -3.5907 0.3766 0 1
-2.0931 6.5934 -3.6930 0.3661 0 1
-2.4243 6.6922 -3.7998 0.3558 0 1
-2.7700 6.7829 -3.9113 0.3457 0 1
-3.1305 6.8644 -4.0276 0.3354 0 1
-3.5059 6.9356 -4.1487 0.3259 0 1
-3.8961 6.9950 -4.2744 0.3163 0 1
-4.3012 7.0415 -4.4049 0.3069 0 1
-4.7211 7.0738 -4.5401 0.2978 0 1
-5.1554 7.0904 -4.6800 0.2889 0 1
-5.6044 7.0909 -4.8250 0.2773 0 1
-6.0648 7.0702 -4.9728 0.2714 0 1
-6.5364 7.0282 -5.1238 0.2634 0 1
-7.0184 6.9636 -5.2780 0.2557 0 1
-7.5093 6.8749 -5.4351 0.2483 0 1
-8.0108 6.7633 -5.5968 0.2379 0 1
-8.5327 6.6359 -5.7705 0.2308 0 1
-9.0596 6.4791 -5.9460 0.2239 0 1
-9.5886 6.2914 -6.1223 0.2175 0 1
-10.1117 6.0683 -6.2955 0.2121 0 1
-10.6380 5.8164 -6.4725 0.2022 0 1
-11.1553 5.5296 -6.6467 0.1969 0 1
-11.6547 5.2051 -6.8141 0.1925 0 1
-12.1340 4.8447 -6.9749 0.1881 0 1
-12.5449 4.4335 -7.1030 0.1818 0 24
-13.0186 4.0207 -7.2738 0.1781 0 1
-13.3578 3.5447 -7.3778 0.1756 0 24
-13.7534 3.0644 -7.5222 0.1734 0 1
-14.0466 2.5425 -7.6205 0.1712 0 1
-14.2860 1.9973 -7.7006 0.1692 0 1
-14.4665 1.4332 -7.7607 0.1679 0 1
-14.5872 0.8556 -7.8006 0.1659 0 1
-14.6460 0.2699 -7.8200 0.1654 0 1
-14.6421 -0.3183 -7.8185 0.1660 0 1
-14.5759 -0.9033 -7.7962 0.1665 0 1
-14.4476 -1.4796 -7.7531 0.1675 0 1
-14.2593 -2.0417 -7.6899 0.1690 0 1
-14.0119 -2.5842 -7.6063 0.1683 0 1
-13.7143 -3.1034 -7.5064 0.1706 0 1
-13.3222 -3.5825 -7.3646 0.1739 0 24
-12.9782 -4.0553 -7.2587 0.1773 0 1
-12.5426 -4.4795 -7.1100 0.1800 0 1
-12.0783 -4.8688 -6.9521 0.1897 0 1
-11.5964 -5.2252 -6.7901 0.1942 0 1
-11.0916 -5.5438 -6.6196 0.1985 0 1
-10.5723 -5.8261 -6.4442 0.2039 0 1
-10.0449 -6.0736 -6.2665 0.2178 0 1
-9.5268 -6.2961 -6.0961 0.2218 0 1
-9.0067 -6.4865 -5.9253 0.2282 0 1
-8.4880 -6.6463 -5.7551 0.2350 0 1
-7.9736 -6.7772 -5.5865 0.2421 0 1
-7.4626 -6.8777 -5.4177 0.2468 0 1
-6.9599 -6.9514 -5.2513 0.2546 0 1
-6.4694 -7.0025 -5.0894 0.2647 0 1
-5.9921 -7.0325 -4.9323 0.2731 0 1
-5.5282 -7.0423 -4.7795 0.2798 0 1
-5.0766 -7.0309 -4.6296 0.2889 0 1
-4.6406 -7.0032 -4.4849 0.2982 0 1
-4.2213 -6.9623 -4.3466 0.3103 0 1
-3.8068 -6.8881 -4.2014 0.3195 0 24
-3.4308 -6.8433 -4.0866 0.3300 0 1
-3.0577 -6.7639 -3.9627 0.3379 0 1
-2.7000 -6.6744 -3.8436 0.3484 0 1
-2.3584 -6.5783 -3.7306 0.3620 0 1
-2.0321 -6.4757 -3.6232 0.3727 0 1
-1.7204 -6.3666 -3.5207 0.3835 0 1
-1.4228 -6.2520 -3.4229 0.3945 0 1
-1.1387 -6.1325 -3.3298 0.4055 0 1
-0.8676 -6.0069 -3.2400 0.4155 0 1
-0.6092 -5.8773 -3.1544 0.4253 0 1
-0.3630 -5.7443 -3.0727 0.4366 0 1
-0.1288 -5.6089 -2.9951 0.4479 0 1
0.0941 -5.4713 -2.9213 0.4592 0 1
0.3062 -5.3320 -2.8511 0.4705 0 1
0.5079 -5.1913 -2.7846 0.4820 0 1
0.6997 -5.0494 -2.7214 0.4932 0 1
0.8820 -4.9067 -2.6614 0.5043 0 1
1.0552 -4.7632 -2.6044 0.5153 0 1
1.2196 -4.6186 -2.5501 0.5265 0 1
1.3755 -4.4729 -2.4982 0.5374 0 1
1.5234 -4.3272 -2.4490 0.5482 0 1
1.6620 -4.1774 -2.4001 0.5397 0 1
1.7854 -4.0109 -2.3438 0.5684 0 24
1.9091 -3.8633 -2.3005 0.5802 0 24
2.0295 -3.7226 -2.2634 0.5958 0 1
2.1403 -3.5763 -2.2250 0.6061 0 1
2.2450 -3.4306 -2.1887 0.6162 0 1
2.3438 -3.2857 -2.1546 0.6259 0 1
2.4369 -3.1414 -2.1225 0.6354 0 1
2.5247 -2.9979 -2.0923 0.6446 0 1
2.6074 -2.8550 -2.0641 0.6534 0 1
2.6850 -2.7127 -2.0376 0.6581 0 1
2.7575 -2.5708 -2.0126 0.6662 0 1
2.8253 -2.4295 -1.9892 0.6741 0 1
2.8887 -2.2889 -1.9675 0.6815 0 1
2.9478 -2.1488 -1.9474 0.6885 0 1
3.0040 -2.0102 -1.9296 0.6996 0 1
3.0564 -1.8721 -1.9134 0.7055 0 1
3.1048 -1.7343 -1.8985 0.7111 0 1
3.1495 -1.5969 -1.8851 0.7161 0 1
3.1904 -1.4597 -1.8730 0.7208 0 1
3.2276 -1.3227 -1.8621 0.7250 0 1
3.2613 -1.1859 -1.8526 0.7287 0 1
3.2915 -1.0493 -1.8443 0.7320 0 1
3.3183 -0.9128 -1.8372 0.7348 0 1
3.3416 -0.7764 -1.8314 0.7371 0 1
3.3616 -0.6400 -1.8268 0.7390 0 1
3.3783 -0.5036 -1.8234 0.7324 0 1
3.3919 -0.3671 -1.8213 0.7332 0 1
3.4021 -0.2305 -1.8204 0.7336 0 1
3.4090 -0.0937 -1.8206 0.7335 0 1
3.4132 0.0433 -1.8223 0.7212 0 1
3.4126 0.1805 -1.8243 0.7204 0 1
3.4085 0.3179 -1.8275 0.7191 0 1
3.4010 0.4556 -1.8318 0.7174 0 1
3.3901 0.5935 -1.8373 0.7153 0 1
3.3756 0.7318 -1.8439 0.7127 0 1
3.3576 0.8704 -1.8517 0.7097 0 1
3.3361 1.0094 -1.8607 0.7183 0 1
3.3113 1.1489 -1.8711 0.7143 0 1
3.2829 1.2889 -1.8828 0.7099 0 1
3.2508 1.4295 -1.8958 0.7050 0 1
3.2149 1.5706 -1.9101 0.6998 0 1
3.1751 1.7124 -1.9258 0.6941 0 1
3.1313 1.8548 -1.9429 0.6880 0 1
3.0828 1.9975 -1.9610 0.6815 0 1
3.0287 2.1398 -1.9797 0.6750 0 1
2.9716 2.2837 -2.0007 0.6614 0 1
2.9104 2.4286 -2.0236 0.6540 0 1
2.8445 2.5743 -2.0481 0.6461 0 1
2.7738 2.7207 -2.0742 0.6380 0 1
2.6980 2.8678 -2.1020 0.6296 0 1
2.6171 3.0157 -2.1316 0.6208 0 1
2.5306 3.1643 -2.1630 0.6118 0 1
2.4386 3.3137 -2.1964 0.6025 0 1
2.3406 3.4638 -2.2317 0.5930 0 1
2.2345 3.6112 -2.2670 0.5884 0 1
2.1221 3.7589 -2.3043 0.5789 0 1
1.9908 3.8827 -2.3293 0.5709 0 24
1.8774 4.0548 -2.3854 0.5592 0 1
1.7351 4.1800 -2.4161 0.5504 0 24
1.6045 4.3510 -2.4756 0.5388 0 1
1.4499 4.4779 -2.5127 0.5292 0 24
1.3008 4.6463 -2.5758 0.5184 0 1
1.1365 4.7932 -2.6297 0.5082 0 1
0.9636 4.9398 -2.6868 0.4976 0 1
0.7817 5.0865 -2.7473 0.4866 0 1
0.5903 5.2323 -2.8110 0.4756 0 1
0.3888 5.3769 -2.8779 0.4646 0 1
0.1768 5.5201 -2.9484 0.4535 0 1
-0.0461 5.6614 -3.0224 0.4432 0 1
-0.2804 5.7999 -3.0998 0.4321 0 1
-0.5257 5.9271 -3.1766 0.4219 0 24
-0.7849 6.0684 -3.2666 0.4101 0 1
-1.0561 6.1974 -3.3562 0.3991 0 1
-1.3403 6.3209 -3.4494 0.3895 0 1
-1.6376 6.4374 -3.5460 0.3813 0 1
-1.9483 6.5464 -3.6463 0.3708 0 1
-2.2731 6.6486 -3.7510 0.3605 0 1
-2.6122 6.7431 -3.8604 0.3502 0 1
-2.9660 6.8288 -3.9746 0.3399 0 1
-3.3347 6.9049 -4.0935 0.3300 0 1
-3.7182 6.9697 -4.2171 0.3206 0 1
-4.1166 7.0222 -4.3454 0.3111 0 1
-4.5299 7.0611 -4.4785 0.3019 0 1
-4.9577 7.0850 -4.6163 0.2929 0 1
-5.3997 7.0924 -4.7586 0.2841 0 1
-5.8558 7.0823 -4.9058 0.2751 0 1
-6.3222 7.0498 -5.0552 0.2670 0 1
-6.7997 6.9956 -5.2081 0.2592 0 1
-7.2869 6.9180 -5.3639 0.2516 0 1
-7.7818 6.8152 -5.5222 0.2444 0 1
-8.2964 6.6969 -5.6919 0.2339 0 1
-8.8214 6.5536 -5.8666 0.2270 0 1
-9.3499 6.3800 -6.0427 0.2204 0 1
-9.8764 6.1732 -6.2177 0.2148 0 1
-10.3533 5.9069 -6.3633 0.2086 0 24
-10.9234 5.6634 -6.5686 0.1992 0 1
-11.4316 5.3560 -6.7393 0.1947 0 1
-11.9206 5.0117 -6.9033 0.1900 0 1
-12.3871 4.6319 -7.0599 0.1828 0 1
-12.8297 4.2185 -7.2098 0.1797 0 1
-13.2382 3.7710 -7.3482 0.1763 0 1
-13.6052 3.2912 -7.4725 0.1746 0 1
-13.9206 2.7811 -7.5783 0.1721 0 1
-14.1853 2.2460 -7.6671 0.1701 0 1
-14.3923 1.6897 -7.7360 0.1685 0 1
-14.5402 1.1175 -7.7851 0.1674 0 1
-14.6273 0.5348 -7.8139 0.1656 0 1
-14.6513 -0.0530 -7.8216 0.1659 0 1
-14.6136 -0.6401 -7.8088 0.1662 0 1
-14.5131 -1.2211 -7.7751 0.1670 0 1
-14.3516 -1.7902 -7.7209 0.1682 0 1
-14.1295 -2.3420 -7.6459 0.1700 0 1
-13.8549 -2.8723 -7.5536 0.1695 0 1
-13.5300 -3.3768 -7.4445 0.1720 0 1
-3.5116 -6.6352 -4.1152 0.3345 0 1
-3.1473 -6.5722 -3.9945 0.3422 0 1
-2.7965 -6.4974 -3.8776 0.3525 0 1
-2.4610 -6.4156 -3.7667 0.3659 0 1
-2.1395 -6.3260 -3.6607 0.3765 0 1
-1.8316 -6.2294 -3.5593 0.3872 0 1
-1.5370 -6.1265 -3.4624 0.3981 0 1
-1.2553 -6.0180 -3.3699 0.4090 0 1
-0.9860 -5.9038 -3.2811 0.4173 0 1
-0.7286 -5.7837 -3.1955 0.4285 0 1
-0.4832 -5.6602 -3.1140 0.4397 0 1
-0.2487 -5.5225 -3.0303 0.4539 0 24
-0.0261 -5.3943 -2.9570 0.4647 0 24
0.1863 -5.2727 -2.8921 0.4735 0 1
0.3887 -5.1393 -2.8252 0.4849 0 1
0.5813 -5.0044 -2.7617 0.4960 0 1
0.7647 -4.8681 -2.7013 0.5071 0 1
0.9391 -4.7308 -2.6439 0.5181 0 1
1.1050 -4.5926 -2.5893 0.5290 0 1
1.2625 -4.4527 -2.5371 0.5401 0 1
1.4120 -4.3121 -2.4873 0.5509 0 1
1.5535 -4.1701 -2.4394 0.5419 0 1
1.6842 -4.0197 -2.3891 0.5534 0 1
1.8047 -3.8641 -2.3378 0.5826 0 24
1.9235 -3.7211 -2.2962 0.5941 0 24
2.0399 -3.5856 -2.2613 0.6087 0 1
2.1465 -3.4435 -2.2243 0.6189 0 1
2.2473 -3.3020 -2.1895 0.6287 0 1
2.3424 -3.1609 -2.1566 0.6383 0 1
2.4321 -3.0205 -2.1257 0.6476 0 1
2.5166 -2.8806 -2.0968 0.6565 0 1
2.5959 -2.7410 -2.0694 0.6613 0 1
2.6703 -2.6019 -2.0437 0.6697 0 1
2.7400 -2.4633 -2.0197 0.6776 0 1
2.8053 -2.3252 -1.9973 0.6852 0 1
2.8661 -2.1876 -1.9765 0.6924 0 1
2.9236 -2.0511 -1.9577 0.7038 0 1
2.9777 -1.9154 -1.9408 0.7100 0 1
3.0279 -1.7800 -1.9253 0.7157 0 1
3.0742 -1.6449 -1.9112 0.7210 0 1
3.1168 -1.5099 -1.8985 0.7258 0 1
3.1557 -1.3752 -1.8870 0.7302 0 1
3.1911 -1.2407 -1.8768 0.7342 0 1
3.2229 -1.1063 -1.8679 0.7377 0 1
3.2513 -0.9720 -1.8602 0.7407 0 1
3.2763 -0.8377 -1.8537 0.7433 0 1
3.2979 -0.7035 -1.8485 0.7454 0 1
3.3162 -0.5693 -1.8444 0.7471 0 1
3.3312 -0.4350 -1.8415 0.7482 0 1
3.3429 -0.3006 -1.8399 0.7489 0 1
3.3513 -0.1661 -1.8393 0.7491 0 1
3.3564 -0.0314 -1.8399 0.7415 0 1
3.3575 0.1034 -1.8413 0.7409 0 1
3.3553 0.2385 -1.8439 0.7399 0 1
3.3497 0.3737 -1.8476 0.7384 0 1
3.3408 0.5093 -1.8525 0.7365 0 1
3.3285 0.6451 -1.8585 0.7341 0 1
3.3128 0.7813 -1.8658 0.7312 0 1
3.2936 0.9178 -1.8742 0.7279 0 1
3.2709 1.0547 -1.8839 0.7242 0 1
3.2446 1.1920 -1.8948 0.7200 0 1
3.2147 1.3298 -1.9070 0.7154 0 1
3.1810 1.4681 -1.9205 0.7104 0 1
3.1436 1.6070 -1.9353 0.7049 0 1
3.1022 1.7464 -1.9515 0.6991 0 1
3.0569 1.8864 -1.9691 0.6929 0 1
3.0059 2.0259 -1.9870 0.6864 0 1
2.9503 2.1656 -2.0062 0.6799 0 1
2.8919 2.3070 -2.0279 0.6661 0 1
2.8292 2.4492 -2.0513 0.6585 0 1
2.7618 2.5919 -2.0762 0.6506 0 1
2.6895 2.7353 -2.1028 0.6424 0 1
2.6122 2.8793 -2.1311 0.6338 0 1
2.5296 3.0239 -2.1612 0.6250 0 1
2.4417 3.1692 -2.1930 0.6159 0 1
2.3481 3.3149 -2.2268 0.6066 0 1
2.2480 3.4603 -2.2620 0.6019 0 1
2.1405 3.6037 -2.2976 0.5926 0 1
2.0142 3.7239 -2.3208 0.5848 0 24
1.9067 3.8907 -2.3751 0.5732 0 1
1.7700 4.0118 -2.4037 0.5647 0 24
1.6460 4.1775 -2.4613 0.5532 0 1
1.5050 4.3206 -2.5080 0.5429 0 1
1.3503 4.4435 -2.5458 0.5332 0 24
1.1997 4.6050 -2.6086 0.5225 0 1
1.0349 4.7459 -2.6627 0.5123 0 1
0.8617 4.8871 -2.7203 0.5017 0 1
0.6796 5.0272 -2.7808 0.4907 0 1
0.4882 5.1660 -2.8445 0.4798 0 1
0.2869 5.3032 -2.9113 0.4687 0 1
0.0756 5.4385 -2.9815 0.4577 0 1
-0.1462 5.5642 -3.0512 0.4443 0 24
-0.3793 5.7013 -3.1322 0.4365 0 1
-0.6235 5.8279 -3.2129 0.4255 0 1
-0.8774 5.9362 -3.2894 0.4161 0 24
-1.1478 6.0695 -3.3861 0.4038 0 1
-1.4282 6.1812 -3.4776 0.3944 0 1
-1.7211 6.2866 -3.5729 0.3863 0 1
-2.0265 6.3837 -3.6714 0.3759 0 1
-2.3450 6.4734 -3.7742 0.3657 0 1
-2.6769 6.5548 -3.8812 0.3556 0 1
-3.0222 6.6270 -3.9926 0.3457 0 1
-3.3811 6.6888 -4.1084 0.3359 0 1
-3.7535 6.7390 -4.2285 0.3277 0 1
-4.1391 6.7761 -4.3526 0.3183 0 1
-4.5379 6.7992 -4.4810 0.3092 0 1
-4.9493 6.8071 -4.6135 0.3003 0 1
-5.3730 6.7981 -4.7499 0.2917 0 1
-5.8080 6.7709 -4.8900 0.2870 0 1
-6.2523 6.7228 -5.0326 0.2788 0 1
-6.7058 6.6535 -5.1783 0.2710 0 1
-7.1670 6.5615 -5.3265 0.2634 0 1
-7.6342 6.4453 -5.4768 0.2562 0 1
-8.1110 6.3080 -5.6325 0.2413 0 1
-8.5990 6.1498 -5.7951 0.2345 0 1
-9.0436 5.9338 -5.9293 0.2286 0 24
-9.5702 5.7433 -6.1183 0.2228 0 1
-10.0445 5.4920 -6.2754 0.2172 0 1
-10.5154 5.2124 -6.4335 0.2076 0 1
-10.9716 4.9000 -6.5869 0.2033 0 1
-11.4071 4.5544 -6.7330 0.1989 0 1
-11.8208 4.1776 -6.8726 0.1956 0 1
-12.2016 3.7684 -7.0003 0.1933 0 1
-12.5504 3.3305 -7.1178 0.1858 0 1
-12.8634 2.8661 -7.2242 0.1831 0 1
-13.0805 2.3677 -7.2868 0.1820 0 24
-13.3412 1.8652 -7.3844 0.1801 0 1
-13.5030 1.3377 -7.4381 0.1788 0 1
-13.6108 0.7983 -7.4738 0.1780 0 1
-13.6630 0.2518 -7.4909 0.1776 0 1
-13.6586 -0.2969 -7.4890 0.1776 0 1
-13.5978 -0.8427 -7.4682 0.1775 0 1
-13.4340 -1.3758 -7.4026 0.1791 0 24
-13.3148 -1.9065 -7.3732 0.1798 0 1
-13.0926 -2.4146 -7.2980 0.1818 0 1
-12.8226 -2.9016 -7.2067 0.1841 0 1
-12.5095 -3.3640 -7.1009 0.1868 0 1
-12.1592 -3.7994 -6.9831 0.1921 0 1
-11.7750 -4.2053 -6.8540 0.1964 0 1
-11.3603 -4.5794 -6.7143 0.2005 0 1
-10.9212 -4.9210 -6.5663 0.2043 0 1
-10.4602 -5.2282 -6.4103 0.2092 0 1
-9.9876 -5.5039 -6.2512 0.2210 0 1
-9.5158 -5.7536 -6.0957 0.2267 0 1
-9.0375 -5.9727 -5.9382 0.2327 0 1
-8.5563 -6.1621 -5.7800 0.2388 0 1
-8.0751 -6.3230 -5.6221 0.2455 0 1
-7.5943 -6.4548 -5.4635 0.2498 0 1
-7.1171 -6.5592 -5.3055 0.2591 0 1
-6.6483 -6.6402 -5.1508 0.2669 0 1
-6.1887 -6.6987 -4.9993 0.2750 0 1
-5.7202 -6.7134 -4.8347 0.2825 0 24
-5.3010 -6.7529 -4.7060 0.2901 0 1
-4.8743 -6.7507 -4.5643 0.2991 0 1
-4.4621 -6.7339 -4.4282 0.3109 0 1
-4.0641 -6.7030 -4.2970 0.3204 0 1
-3.6802 -6.6590 -4.1706 0.3301 0 1
-3.3103 -6.6028 -4.0489 0.3376 0 1
-2.9530 -6.5323 -3.9297 0.3478 0 1
-2.6106 -6.4535 -3.8161 0.3612 0 1
-2.2828 -6.3674 -3.7079 0.3717 0 1
-1.9621 -6.2525 -3.5922 0.3814 0 24
-1.6683 -6.1737 -3.5056 0.3932 0 1
-1.3808 -6.0676 -3.4111 0.4041 0 1
-1.1060 -5.9564 -3.3209 0.4150 0 1
-0.8432 -5.8384 -3.2336 0.4235 0 1
-0.5925 -5.7163 -3.1503 0.4347 0 1
-0.3526 -5.5791 -3.0644 0.4488 0 24
-0.1254 -5.4628 -2.9953 0.4571 0 1
0.0918 -5.3323 -2.9234 0.4684 0 1
0.2986 -5.1997 -2.8550 0.4796 0 1
0.4956 -5.0654 -2.7900 0.4910 0 1
0.6831 -4.9297 -2.7281 0.5021 0 1
0.8615 -4.7929 -2.6694 0.5132 0 1
1.0312 -4.6550 -2.6136 0.5241 0 1
1.1925 -4.5160 -2.5604 0.5352 0 1
1.3455 -4.3756 -2.5094 0.5461 0 1
1.4908 -4.2349 -2.4611 0.5568 0 1
1.6262 -4.0875 -2.4114 0.5482 0 1
1.7528 -3.9376 -2.3626 0.5596 0 1
1.8707 -3.7856 -2.3147 0.5885 0 24
1.9860 -3.6428 -2.2743 0.5999 0 24
2.0992 -3.5075 -2.2408 0.6143 0 1
2.2025 -3.3658 -2.2049 0.6243 0 1
2.3001 -3.2245 -2.1712 0.6340 0 1
2.3922 -3.0838 -2.1394 0.6434 0 1
2.4791 -2.9436 -2.1096 0.6525 0 1
2.5608 -2.8039 -2.0816 0.6575 0 1
2.6373 -2.6646 -2.0551 0.6660 0 1
2.7091 -2.5257 -2.0303 0.6741 0 1
2.7764 -2.3874 -2.0072 0.6818 0 1
2.8392 -2.2496 -1.9857 0.6892 0 1
2.8979 -2.1124 -1.9658 0.7009 0 1
2.9538 -1.9766 -1.9483 0.7072 0 1
3.0057 -1.8411 -1.9322 0.7131 0 1
3.0538 -1.7058 -1.9174 0.7186 0 1
3.0980 -1.5708 -1.9041 0.7237 0 1
3.1386 -1.4360 -1.8920 0.7283 0 1
3.1756 -1.3014 -1.8812 0.7324 0 1
3.2090 -1.1669 -1.8718 0.7362 0 1
3.2389 -1.0325 -1.8635 0.7394 0 1
3.2654 -0.8983 -1.8565 0.7422 0 1
3.2886 -0.7641 -1.8507 0.7445 0 1
3.3083 -0.6298 -1.8461 0.7464 0 1
3.3248 -0.4956 -1.8427 0.7478 0 1
3.3380 -0.3613 -1.8405 0.7487 0 1
3.3479 -0.2268 -1.8394 0.7491 0 1
3.3546 -0.0922 -1.8396 0.7490 0 1
3.3574 0.0426 -1.8406 0.7412 0 1
3.3567 0.1775 -1.8426 0.7404 0 1
3.3526 0.3127 -1.8458 0.7391 0 1
3.3452 0.4481 -1.8501 0.7374 0 1
3.3345 0.5838 -1.8557 0.7352 0 1
3.3203 0.7198 -1.8624 0.7326 0 1
3.3027 0.8561 -1.8703 0.7295 0 1
3.2816 0.9929 -1.8794 0.7259 0 1
3.2569 1.1300 -1.8897 0.7219 0 1
3.2286 1.2676 -1.9014 0.7175 0 1
3.1967 1.4057 -1.9143 0.7127 0 1
3.1610 1.5443 -1.9285 0.7074 0 1
3.1214 1.6834 -1.9440 0.7018 0 1
3.0779 1.8231 -1.9610 0.6957 0 1
3.0296 1.9630 -1.9789 0.6893 0 1
2.9759 2.1025 -1.9974 0.6829 0 1
2.9187 2.2431 -2.0179 0.6694 0 1
2.8581 2.3850 -2.0405 0.6620 0 1
2.7928 2.5274 -2.0647 0.6542 0 1
2.7227 2.6705 -2.0906 0.6461 0 1
2.6477 2.8143 -2.1181 0.6377 0 1
2.5675 2.9586 -2.1474 0.6290 0 1
2.4821 3.1036 -2.1784 0.6201 0 1
2.3911 3.2491 -2.2114 0.6108 0 1
2.2943 3.3952 -2.2462 0.6013 0 1
2.1898 3.5390 -2.2813 0.5968 0 1
2.0789 3.6824 -2.3181 0.5873 0 1
1.9498 3.8029 -2.3426 0.5794 0 24
1.8274 3.9468 -2.3842 0.5693 0 24
1.7073 4.1129 -2.4411 0.5577 0 1
1.5695 4.2561 -2.4866 0.5475 0 1
1.4243 4.3989 -2.5346 0.5372 0 1
1.2661 4.5223 -2.5743 0.5273 0 24
1.1103 4.6824 -2.6379 0.5171 0 1
0.9409 4.8235 -2.6939 0.5066 0 1
0.7629 4.9641 -2.7531 0.4957 0 1
0.5757 5.1036 -2.8154 0.4847 0 1
0.3790 5.2415 -2.8807 0.4737 0 1
0.1722 5.3777 -2.9494 0.4627 0 1
-0.0449 5.5118 -3.0215 0.4516 0 1
-0.2728 5.6431 -3.0970 0.4415 0 1
-0.5119 5.7712 -3.1760 0.4305 0 1
-0.7626 5.8958 -3.2588 0.4195 0 1
-1.0223 5.9993 -3.3360 0.4112 0 24
-1.3002 6.1317 -3.4360 0.3991 0 1
-1.5874 6.2399 -3.5295 0.3886 0 1
-1.8871 6.3408 -3.6265 0.3806 0 1
-2.1997 6.4339 -3.7273 0.3703 0 1
-2.5255 6.5192 -3.8324 0.3601 0 1
-2.8647 6.5956 -3.9418 0.3501 0 1
-3.2175 6.6622 -4.0556 0.3403 0 1
-3.5840 6.7180 -4.1739 0.3320 0 1
-3.9635 6.7610 -4.2961 0.3225 0 1
-4.3564 6.7906 -4.4225 0.3133 0 1
-4.7621 6.8055 -4.5532 0.3043 0 1
-5.1804 6.8043 -4.6879 0.2956 0 1
-5.6104 6.7856 -4.8264 0.2871 0 1
-6.0506 6.7470 -4.9679 0.2825 0 1
-6.5002 6.6874 -5.1122 0.2745 0 1
-6.9581 6.6059 -5.2594 0.2668 0 1
-7.4228 6.5008 -5.4088 0.2594 0 1
-7.8924 6.3707 -5.5599 0.2524 0 1
-8.3786 6.2246 -5.7217 0.2375 0 1
-8.8672 6.0507 -5.8845 0.2310 0 1
-9.3537 5.8465 -6.0466 0.2254 0 1
-9.8316 5.6093 -6.2048 0.2197 0 1
-10.3037 5.3421 -6.3622 0.2100 0 1
-10.7685 5.0453 -6.5187 0.2054 0 1
-11.2133 4.7144 -6.6679 0.2008 0 1
-11.5862 4.3324 -6.7807 0.1946 0 24
-12.0348 3.9571 -6.9445 0.1948 0 1
-12.3961 3.5311 -7.0655 0.1872 0 1
-12.7273 3.0788 -7.1779 0.1842 0 1
-13.0145 2.6001 -7.2751 0.1830 0 1
-13.2513 2.0981 -7.3544 0.1809 0 1
-13.3877 1.5717 -7.3891 0.1794 0 24
-13.5690 1.0428 -7.4600 0.1783 0 1
-13.6464 0.4989 -7.4855 0.1777 0 1
-13.6677 -0.0494 -7.4922 0.1776 0 1
-13.6321 -0.5972 -7.4799 0.1779 0 1
-13.5416 -1.1393 -7.4493 0.1779 0 1
-13.3481 -1.6650 -7.3737 0.1795 0 24
-13.1991 -2.1878 -7.3341 0.1809 0 1
-12.9500 -2.6847 -7.2497 0.1830 0 1
-12.6558 -3.1586 -7.1503 0.1855 0 1
-3.3893 -6.4041 -4.0769 0.3445 0 1
-3.0402 -6.3486 -3.9606 0.3520 0 1
-2.7047 -6.2839 -3.8494 0.3653 0 1
-2.3824 -6.2109 -3.7429 0.3757 0 1
-2.0730 -6.1297 -3.6409 0.3862 0 1
-1.7762 -6.0412 -3.5431 0.3969 0 1
-1.4918 -5.9463 -3.4495 0.4076 0 1
-1.2192 -5.8452 -3.3597 0.4163 0 1
-0.9583 -5.7381 -3.2734 0.4267 0 1
-0.7087 -5.6256 -3.1904 0.4379 0 1
-0.4692 -5.4970 -3.1042 0.4525 0 24
-0.2427 -5.3895 -3.0356 0.4602 0 1
-0.0254 -5.2580 -2.9586 0.4738 0 24
0.1817 -5.1418 -2.8950 0.4825 0 1
0.3793 -5.0147 -2.8296 0.4939 0 1
0.5675 -4.8857 -2.7675 0.5050 0 1
0.7469 -4.7551 -2.7084 0.5160 0 1
0.9178 -4.6233 -2.6521 0.5269 0 1
1.0804 -4.4903 -2.5987 0.5378 0 1
1.2350 -4.3557 -2.5474 0.5488 0 1
1.3819 -4.2200 -2.4985 0.5595 0 1
1.5200 -4.0802 -2.4499 0.5505 0 1
1.6486 -3.9348 -2.4005 0.5618 0 1
1.7684 -3.7863 -2.3514 0.5910 0 24
1.8894 -3.6552 -2.3152 0.6066 0 1
1.9964 -3.5091 -2.2716 0.6138 0 24
2.1059 -3.3783 -2.2399 0.6269 0 1
2.2053 -3.2404 -2.2055 0.6367 0 1
2.2993 -3.1029 -2.1730 0.6462 0 1
2.3880 -2.9658 -2.1424 0.6555 0 1
2.4714 -2.8288 -2.1136 0.6606 0 1
2.5498 -2.6923 -2.0864 0.6692 0 1
2.6234 -2.5562 -2.0610 0.6774 0 1
2.6925 -2.4205 -2.0372 0.6854 0 1
2.7571 -2.2853 -2.0150 0.6929 0 1
2.8175 -2.1505 -1.9943 0.7001 0 1
2.8748 -2.0168 -1.9759 0.7114 0 1
2.9284 -1.8837 -1.9591 0.7175 0 1
2.9781 -1.7507 -1.9438 0.7232 0 1
3.0240 -1.6180 -1.9298 0.7284 0 1
3.0662 -1.4854 -1.9171 0.7332 0 1
3.1048 -1.3531 -1.9057 0.7376 0 1
3.1399 -1.2208 -1.8956 0.7416 0 1
3.1715 -1.0886 -1.8867 0.7451 0 1
3.1996 -0.9565 -1.8791 0.7481 0 1
3.2244 -0.8245 -1.8726 0.7506 0 1
3.2458 -0.6924 -1.8674 0.7527 0 1
3.2639 -0.5603 -1.8634 0.7544 0 1
3.2787 -0.4281 -1.8605 0.7555 0 1
3.2903 -0.2959 -1.8588 0.7562 0 1
3.2986 -0.1635 -1.8583 0.7564 0 1
3.3029 -0.0309 -1.8585 0.7491 0 1
3.3039 0.1018 -1.8599 0.7483 0 1
3.3017 0.2347 -1.8624 0.7473 0 1
3.2961 0.3678 -1.8661 0.7458 0 1
3.2872 0.5011 -1.8710 0.7439 0 1
3.2749 0.6347 -1.8770 0.7415 0 1
3.2592 0.7686 -1.8842 0.7387 0 1
3.2401 0.9029 -1.8926 0.7354 0 1
3.2175 1.0375 -1.9022 0.7317 0 1
3.1914 1.1725 -1.9130 0.7275 0 1
3.1616 1.3079 -1.9251 0.7229 0 1
3.1281 1.4437 -1.9385 0.7180 0 1
3.0909 1.5801 -1.9532 0.7125 0 1
3.0498 1.7169 -1.9693 0.7067 0 1
3.0048 1.8542 -1.9867 0.7005 0 1
2.9541 1.9910 -2.0044 0.6942 0 1
2.8989 2.1279 -2.0234 0.6877 0 1
2.8405 2.2660 -2.0445 0.6740 0 1
2.7783 2.4052 -2.0677 0.6664 0 1
2.7115 2.5448 -2.0924 0.6586 0 1
2.6400 2.6849 -2.1187 0.6504 0 1
2.5634 2.8256 -2.1467 0.6419 0 1
2.4818 2.9667 -2.1764 0.6331 0 1
2.3949 3.1083 -2.2079 0.6241 0 1
2.3024 3.2504 -2.2412 0.6148 0 1
2.2038 3.3921 -2.2761 0.6102 0 1
2.0977 3.5316 -2.3113 0.6009 0 1
1.9735 3.6486 -2.3340 0.5932 0 24
1.8673 3.8104 -2.3876 0.5817 0 1
1.7330 3.9279 -2.4157 0.5732 0 24
1.6108 4.0882 -2.4724 0.5618 0 1
1.4722 4.2264 -2.5182 0.5516 0 1
1.3262 4.3641 -2.5664 0.5412 0 1
1.1680 4.4834 -2.6069 0.5312 0 24
1.0111 4.6366 -2.6702 0.5214 0 1
0.8415 4.7722 -2.7266 0.5106 0 1
0.6633 4.9065 -2.7858 0.4997 0 1
0.4762 5.0392 -2.8480 0.4888 0 1
0.2797 5.1701 -2.9133 0.4779 0 1
0.0736 5.2987 -2.9817 0.4669 0 1
-0.1423 5.4172 -3.0491 0.4540 0 24
-0.3691 5.5478 -3.1285 0.4458 0 1
-0.6063 5.6670 -3.2069 0.4349 0 1
-0.8547 5.7824 -3.2889 0.4241 0 1
-1.1145 5.8932 -3.3747 0.4133 0 1
-1.3808 5.9761 -3.4512 0.4054 0 24
-1.6686 6.0947 -3.5555 0.3935 0 1
-1.9633 6.1846 -3.6510 0.3856 0 1
-2.2699 6.2661 -3.7499 0.3754 0 1
-2.5888 6.3391 -3.8528 0.3654 0 1
-2.9200 6.4028 -3.9596 0.3556 0 1
-3.2636 6.4562 -4.0704 0.3459 0 1
-3.6196 6.4986 -4.1855 0.3359 0 1
-3.9875 6.5279 -4.3041 0.3284 0 1
-4.3669 6.5431 -4.4263 0.3194 0 1
-4.7576 6.5434 -4.5521 0.3105 0 1
-5.1589 6.5273 -4.6813 0.3020 0 1
-5.5701 6.4936 -4.8138 0.2936 0 1
-5.9917 6.4425 -4.9504 0.2840 0 1
-6.4190 6.3689 -5.0879 0.2814 0 1
-6.8521 6.2732 -5.2272 0.2739 0 1
-7.2897 6.1544 -5.3680 0.2667 0 1
-7.6858 5.9772 -5.4784 0.2523 0 24
-8.1781 5.8488 -5.6573 0.2451 0 1
-8.6308 5.6629 -5.8083 0.2387 0 1
-9.0781 5.4480 -5.9572 0.2334 0 1
-9.5155 5.2027 -6.1021 0.2279 0 1
-9.9418 4.9280 -6.2435 0.2227 0 1
-10.3572 4.6256 -6.3824 0.2140 0 1
-10.7564 4.2946 -6.5169 0.2104 0 1
-11.1341 3.9349 -6.6445 0.2063 0 1
-11.4843 3.5469 -6.7630 0.2041 0 1
-11.7972 3.1306 -6.8677 0.2010 0 1
-12.0746 2.6903 -6.9606 0.1983 0 1
-12.3126 2.2287 -7.0405 0.1957 0 1
-12.5042 1.7482 -7.1041 0.1910 0 1
-12.6500 1.2532 -7.1526 0.1897 0 1
-12.7473 0.7477 -7.1848 0.1889 0 1
-12.7944 0.2358 -7.2002 0.1885 0 1
-12.7904 -0.2781 -7.1985 0.1885 0 1
-12.7356 -0.7893 -7.1797 0.1890 0 1
-12.6310 -1.2936 -7.1442 0.1900 0 1
-12.4781 -1.7867 -7.0926 0.1913 0 1
-12.2786 -2.2645 -7.0253 0.1948 0 1
-12.0372 -2.7239 -6.9442 0.1970 0 1
-11.7566 -3.1615 -6.8501 0.1997 0 1
-11.3834 -3.5570 -6.7105 0.1989 0 24
-11.0932 -3.9618 -6.6279 0.2064 0 1
-10.7155 -4.3195 -6.5007 0.2112 0 1
-10.3125 -4.6467 -6.3644 0.2150 0 1
-9.8949 -4.9457 -6.2243 0.2265 0 1
-9.4698 -5.2185 -6.0839 0.2317 0 1
-9.0341 -5.4624 -5.9402 0.2373 0 1
-8.5912 -5.6778 -5.7943 0.2433 0 1
-8.1443 -5.8654 -5.6473 0.2496 0 1
-7.6696 -6.0055 -5.4810 0.2563 0 24
-7.2458 -6.1586 -5.3506 0.2621 0 1
-6.8002 -6.2671 -5.2033 0.2696 0 1
-6.3605 -6.3527 -5.0582 0.2773 0 1
-5.9284 -6.4169 -4.9156 0.2853 0 1
-5.5047 -6.4605 -4.7757 0.2916 0 1
-5.0893 -6.4832 -4.6376 0.3003 0 1
-4.6863 -6.4904 -4.5044 0.3118 0 1
-4.2953 -6.4822 -4.3754 0.3210 0 1
-3.9046 -6.4400 -4.2376 0.3300 0 24
-3.5503 -6.4241 -4.1299 0.3400 0 1
-3.1961 -6.3752 -4.0127 0.3475 0 1
-2.8543 -6.3140 -3.8988 0.3606 0 1
-2.5262 -6.2449 -3.7904 0.3710 0 1
-2.2110 -6.1672 -3.6864 0.3814 0 1
-1.9020 -6.0608 -3.5742 0.3912 0 24
-1.6186 -5.9899 -3.4912 0.4028 0 1
-1.3407 -5.8916 -3.3997 0.4114 0 1
-1.0747 -5.7875 -3.3121 0.4218 0 1
-0.8199 -5.6769 -3.2273 0.4328 0 1
-0.5751 -5.5485 -3.1387 0.4473 0 24
-0.3440 -5.4439 -3.0692 0.4551 0 1
-0.1222 -5.3226 -2.9956 0.4663 0 1
0.0895 -5.1986 -2.9255 0.4775 0 1
0.2913 -5.0723 -2.8587 0.4888 0 1
0.4837 -4.9441 -2.7952 0.5000 0 1
0.6671 -4.8142 -2.7347 0.5110 0 1
0.8417 -4.6829 -2.6771 0.5220 0 1
1.0081 -4.5504 -2.6224 0.5329 0 1
1.1663 -4.4168 -2.5704 0.5439 0 1
1.3165 -4.2813 -2.5203 0.5547 0 1
1.4593 -4.1453 -2.4727 0.5654 0 1
1.5915 -4.0003 -2.4224 0.5567 0 1
1.7169 -3.8568 -2.3754 0.5912 0 1
1.8335 -3.7102 -2.3286 0.5974 0 24
1.9471 -3.5716 -2.2889 0.6081 0 24
2.0591 -3.4406 -2.2561 0.6224 0 1
2.1612 -3.3025 -2.2207 0.6323 0 1
2.2576 -3.1648 -2.1874 0.6420 0 1
2.3486 -3.0276 -2.1560 0.6513 0 1
2.4344 -2.8906 -2.1264 0.6566 0 1
2.5150 -2.7538 -2.0984 0.6653 0 1
2.5908 -2.6175 -2.0722 0.6738 0 1
2.6619 -2.4817 -2.0477 0.6818 0 1
2.7285 -2.3463 -2.0248 0.6895 0 1
2.7908 -2.2112 -2.0034 0.6969 0 1
2.8493 -2.0770 -1.9839 0.7085 0 1
2.9047 -1.9437 -1.9665 0.7148 0 1
2.9561 -1.8107 -1.9505 0.7207 0 1
3.0038 -1.6779 -1.9359 0.7261 0 1
3.0476 -1.5452 -1.9226 0.7311 0 1
3.0879 -1.4128 -1.9107 0.7357 0 1
3.1245 -1.2804 -1.9000 0.7398 0 1
3.1577 -1.1482 -1.8905 0.7435 0 1
3.1873 -1.0161 -1.8823 0.7468 0 1
3.2136 -0.8840 -1.8754 0.7495 0 1
3.2365 -0.7520 -1.8696 0.7519 0 1
3.2562 -0.6199 -1.8650 0.7537 0 1
3.2725 -0.4878 -1.8617 0.7551 0 1
3.2855 -0.3556 -1.8594 0.7560 0 1
3.2953 -0.2233 -1.8584 0.7564 0 1
3.3018 -0.0908 -1.8585 0.7563 0 1
3.3039 0.0419 -1.8591 0.7486 0 1
3.3031 0.1747 -1.8611 0.7478 0 1
3.2990 0.3077 -1.8643 0.7465 0 1
3.2916 0.4409 -1.8686 0.7448 0 1
3.2809 0.5744 -1.8741 0.7426 0 1
3.2667 0.7082 -1.8808 0.7400 0 1
3.2492 0.8423 -1.8886 0.7369 0 1
3.2282 0.9767 -1.8977 0.7334 0 1
3.2036 1.1115 -1.9080 0.7294 0 1
3.1755 1.2467 -1.9195 0.7251 0 1
3.1437 1.3824 -1.9323 0.7203 0 1
3.1082 1.5185 -1.9464 0.7150 0 1
3.0689 1.6551 -1.9619 0.7094 0 1
3.0256 1.7922 -1.9787 0.7034 0 1
2.9775 1.9293 -1.9963 0.6970 0 1
2.9243 2.0661 -2.0147 0.6907 0 1
2.8671 2.2034 -2.0346 0.6773 0 1
2.8070 2.3423 -2.0571 0.6699 0 1
2.7423 2.4817 -2.0810 0.6621 0 1
2.6728 2.6217 -2.1066 0.6541 0 1
2.5986 2.7621 -2.1338 0.6458 0 1
2.5193 2.9030 -2.1627 0.6371 0 1
2.4347 3.0444 -2.1934 0.6282 0 1
2.3448 3.1862 -2.2259 0.6190 0 1
2.2492 3.3285 -2.2604 0.6096 0 1
2.1463 3.4687 -2.2951 0.6052 0 1
2.0370 3.6082 -2.3314 0.5958 0 1
1.9101 3.7253 -2.3556 0.5878 0 24
1.7895 3.8650 -2.3965 0.5778 0 24
1.6711 4.0256 -2.4525 0.5663 0 1
1.5356 4.1641 -2.4973 0.5562 0 1
1.3930 4.3021 -2.5444 0.5459 0 1
1.2378 4.4212 -2.5833 0.5360 0 24
1.0849 4.5755 -2.6458 0.5259 0 1
0.9190 4.7112 -2.7008 0.5155 0 1
0.7448 4.8461 -2.7587 0.5046 0 1
0.5617 4.9795 -2.8196 0.4937 0 1
0.3695 5.1113 -2.8835 0.4828 0 1
0.1678 5.2410 -2.9504 0.4718 0 1
-0.0437 5.3683 -3.0207 0.4609 0 1
-0.2655 5.4928 -3.0943 0.4508 0 1
-0.4979 5.6137 -3.1711 0.4398 0 1
-0.7412 5.7309 -3.2514 0.4290 0 1
-0.9958 5.8438 -3.3355 0.4182 0 1
-1.2577 5.9312 -3.4115 0.4097 0 24
-1.5395 6.0515 -3.5135 0.3982 0 1
-1.8290 6.1453 -3.6077 0.3878 0 1
-2.1301 6.2303 -3.7048 0.3800 0 1
-2.4434 6.3073 -3.8059 0.3699 0 1
-2.7690 6.3753 -3.9109 0.3600 0 1
-3.1070 6.4335 -4.0199 0.3502 0 1
-3.4574 6.4808 -4.1330 0.3402 0 1
-3.8202 6.5165 -4.2502 0.3326 0 1
-4.1943 6.5380 -4.3707 0.3234 0 1
-4.5800 6.5452 -4.4949 0.3145 0 1
-4.9766 6.5367 -4.6226 0.3058 0 1
-5.3835 6.5111 -4.7537 0.2974 0 1
-5.8002 6.4678 -4.8883 0.2876 0 1
-6.2256 6.4049 -5.0257 0.2848 0 1
-6.6560 6.3191 -5.1641 0.2772 0 1
-7.0918 6.2109 -5.3043 0.2699 0 1
-7.5311 6.0791 -5.4457 0.2629 0 1
-7.9343 5.8945 -5.5616 0.2482 0 24
-8.4269 5.7502 -5.7402 0.2415 0 1
-8.8778 5.5490 -5.8908 0.2354 0 1
-9.3193 5.3170 -6.0371 0.2303 0 1
-9.7511 5.0556 -6.1802 0.2250 0 1
-10.1704 4.7651 -6.3195 0.2156 0 1
-10.5339 4.4287 -6.4296 0.2161 0 24
-10.9668 4.1008 -6.5880 0.2081 0 1
-11.3302 3.7254 -6.7109 0.2043 0 1
-11.6602 3.3215 -6.8218 0.2023 0 1
-11.9541 2.8918 -6.9202 0.1994 0 1
-12.1661 2.4306 -6.9808 0.1939 0 24
-12.4231 1.9669 -7.0771 0.1917 0 1
-12.5901 1.4781 -7.1327 0.1902 0 1
-12.7095 0.9768 -7.1723 0.1892 0 1
-12.7794 0.4672 -7.1954 0.1886 0 1
-12.7985 -0.0463 -7.2014 0.1885 0 1
-12.7666 -0.5592 -7.1902 0.1887 0 1
-12.6843 -1.0672 -7.1622 0.1895 0 1
-12.5084 -1.5603 -7.0926 0.1906 0 24
-12.3744 -2.0511 -7.0577 0.1917 0 1
-12.1512 -2.5191 -6.9825 0.1960 0 1
-11.8878 -2.9669 -6.8941 0.1985 0 1
-3.2734 -6.1852 -4.0403 0.3519 0 1
-2.9394 -6.1381 -3.9292 0.3649 0 1
-2.6177 -6.0818 -3.8228 0.3750 0 1
-2.3079 -6.0164 -3.7204 0.3854 0 1
-2.0028 -5.9219 -3.6093 0.3950 0 24
-1.7234 -5.8615 -3.5274 0.4043 0 1
-1.4484 -5.7735 -3.4367 0.4150 0 1
-1.1847 -5.6798 -3.3498 0.4266 0 1
-0.9290 -5.5627 -3.2561 0.4389 0 24
-0.6896 -5.4740 -3.1854 0.4471 0 1
-0.4579 -5.3643 -3.1084 0.4582 0 1
-0.2364 -5.2512 -3.0348 0.4693 0 1
-0.0248 -5.1268 -2.9600 0.4822 0 24
0.1773 -5.0158 -2.8977 0.4915 0 1
0.3702 -4.8945 -2.8339 0.5028 0 1
0.5542 -4.7711 -2.7731 0.5138 0 1
0.7298 -4.6459 -2.7152 0.5248 0 1
0.8971 -4.5193 -2.6601 0.5356 0 1
1.0566 -4.3913 -2.6077 0.5464 0 1
1.2084 -4.2617 -2.5575 0.5573 0 1
1.3526 -4.1306 -2.5094 0.5680 0 1
1.4875 -3.9929 -2.4601 0.5590 0 1
1.6148 -3.8541 -2.4126 0.5935 0 1
1.7369 -3.7191 -2.3698 0.6042 0 1
1.8486 -3.5761 -2.3242 0.6103 0 24
1.9580 -3.4416 -2.2860 0.6213 0 24
2.0662 -3.3147 -2.2551 0.6349 0 1
2.1645 -3.1803 -2.2211 0.6447 0 1
2.2573 -3.0462 -2.1889 0.6504 0 1
2.3447 -2.9120 -2.1585 0.6595 0 1
2.4271 -2.7782 -2.1299 0.6684 0 1
2.5047 -2.6447 -2.1030 0.6769 0 1
2.5776 -2.5116 -2.0778 0.6851 0 1
2.6460 -2.3787 -2.0542 0.6930 0 1
2.7100 -2.2463 -2.0322 0.7005 0 1
2.7699 -2.1141 -2.0118 0.7124 0 1
2.8269 -1.9833 -1.9937 0.7189 0 1
2.8800 -1.8526 -1.9771 0.7249 0 1
2.9293 -1.7221 -1.9618 0.7306 0 1
2.9748 -1.5917 -1.9479 0.7358 0 1
3.0167 -1.4615 -1.9353 0.7406 0 1
3.0550 -1.3313 -1.9240 0.7449 0 1
3.0897 -1.2013 -1.9139 0.7489 0 1
3.1210 -1.0713 -1.9051 0.7523 0 1
3.1489 -0.9414 -1.8975 0.7553 0 1
3.1735 -0.8114 -1.8912 0.7579 0 1
3.1947 -0.6815 -1.8860 0.7600 0 1
3.2126 -0.5515 -1.8820 0.7616 0 1
3.2273 -0.4214 -1.8791 0.7627 0 1
3.2388 -0.2913 -1.8774 0.7634 0 1
3.2470 -0.1609 -1.8769 0.7636 0 1
3.2505 -0.0304 -1.8767 0.7564 0 1
3.2514 0.1002 -1.8781 0.7556 0 1
3.2491 0.2309 -1.8806 0.7546 0 1
3.2435 0.3619 -1.8843 0.7531 0 1
3.2346 0.4931 -1.8891 0.7512 0 1
3.2224 0.6245 -1.8951 0.7488 0 1
3.2068 0.7562 -1.9022 0.7460 0 1
3.1877 0.8883 -1.9105 0.7428 0 1
3.1652 1.0206 -1.9201 0.7391 0 1
3.1392 1.1533 -1.9309 0.7350 0 1
3.1096 1.2864 -1.9429 0.7304 0 1
3.0763 1.4198 -1.9562 0.7254 0 1
3.0394 1.5537 -1.9708 0.7201 0 1
2.9986 1.6880 -1.9867 0.7143 0 1
2.9538 1.8228 -2.0040 0.7081 0 1
2.9033 1.9568 -2.0214 0.7019 0 1
2.8487 2.0911 -2.0402 0.6954 0 1
2.7903 2.2260 -2.0608 0.6818 0 1
2.7287 2.3622 -2.0837 0.6743 0 1
2.6625 2.4988 -2.1082 0.6665 0 1
2.5916 2.6358 -2.1342 0.6583 0 1
2.5159 2.7732 -2.1618 0.6499 0 1
2.4352 2.9110 -2.1912 0.6412 0 1
2.3492 3.0491 -2.2223 0.6322 0 1
2.2579 3.1875 -2.2552 0.6230 0 1
2.1607 3.3258 -2.2898 0.6185 0 1
2.0561 3.4616 -2.3245 0.6093 0 1
1.9340 3.5755 -2.3469 0.6015 0 24
1.8187 3.7111 -2.3861 0.5917 0 24
1.7062 3.8672 -2.4404 0.5803 0 1
1.5767 4.0015 -2.4832 0.5703 0 1
1.4404 4.1352 -2.5282 0.5602 0 1
1.2970 4.2681 -2.5755 0.5499 0 1
1.1463 4.4001 -2.6252 0.5395 0 1
0.9846 4.5155 -2.6683 0.5291 0 24
0.8219 4.6613 -2.7327 0.5194 0 1
0.6476 4.7900 -2.7907 0.5086 0 1
0.4646 4.9170 -2.8515 0.4978 0 1
0.2728 5.0419 -2.9152 0.4869 0 1
0.0718 5.1644 -2.9819 0.4760 0 1
-0.1386 5.2761 -3.0472 0.4632 0 24
