ply
format ascii 1.0
element vertex 1396
property float32 x
property float32 y
property float32 z
property float32 CosAngle
property uint32 ObjIdx
property uint32 ObjTag
end_header
11.3869 -29.6156 1.6717 0.9345 0 3
11.8912 -27.5687 1.5818 0.8923 0 3
12.7457 -26.5632 1.5523 0.8742 0 3
12.6182 -23.7976 1.4191 0.0988 0 2
12.1893 -20.9142 1.2754 0.1100 0 2
11.8467 -18.5702 1.1605 0.1208 0 2
11.5674 -16.6207 1.0669 0.1314 0 2
11.9736 -15.8105 1.0449 0.1553 0 2
11.6425 -14.1545 0.9656 0.1422 0 1
11.5098 -12.9005 0.9109 0.1657 0 1
11.3791 -11.7669 0.8624 0.1592 0 1
11.2229 -10.7094 0.8173 0.1664 0 1
11.0801 -9.7541 0.7777 0.1665 0 1
10.9107 -8.8533 0.7403 0.1783 0 1
10.7704 -8.0445 0.7083 0.1864 0 1
6.1635 -4.2290 0.3938 0.9768 14 6
10.5991 -6.6629 0.6596 0.2124 0 1
10.5415 -6.0503 0.6404 0.2188 0 1
10.2208 -5.3325 0.6074 0.2315 0 25
8.8554 -4.1768 0.5158 0.8140 0 9
9.0231 -3.8209 0.5163 0.5453 0 9
10.1063 -3.8088 0.5690 0.2471 0 25
10.0776 -3.3424 0.5594 0.2514 0 25
10.0530 -2.8918 0.5511 0.2552 0 25
10.0321 -2.4543 0.5441 0.2584 0 25
10.3912 -2.1040 0.5586 0.2608 0 1
10.3527 -1.6667 0.5525 0.2651 0 24
4.3524 -0.5224 0.2310 0.2016 25 14
4.2711 -0.3394 0.2257 0.2062 25 14
4.2387 -0.1660 0.2235 0.3276 25 14
4.2251 0.0043 0.2226 0.3289 25 14
4.2573 0.1754 0.2245 0.3261 25 14
4.3325 0.3531 0.2290 0.2033 25 14
4.4568 0.5441 0.2366 0.2696 25 14
6.0944 0.9938 0.3253 0.9595 25 14
10.7341 2.1961 0.5772 0.2466 0 1
10.8101 2.6679 0.5866 0.2427 0 1
10.8923 3.1572 0.5975 0.2383 0 1
10.9847 3.6680 0.6101 0.2313 0 1
11.0805 4.2016 0.6243 0.2403 0 1
11.1015 4.7277 0.6357 0.2360 0 1
11.1254 5.2751 0.6487 0.2353 0 1
10.9401 5.7361 0.6508 0.4210 0 14
10.2011 5.8824 0.6204 0.8135 0 14
10.0646 6.3554 0.6271 0.4689 0 14
10.8964 7.5090 0.6972 0.2586 0 1
11.0018 8.2522 0.7246 0.2140 0 2
10.5171 8.5694 0.7147 0.1962 0 2
10.3987 9.1917 0.7312 0.7337 0 20
10.7178 10.2691 0.7820 0.1793 0 2
10.8411 11.2561 0.8234 0.1703 0 2
10.9838 12.3614 0.8712 0.1610 0 2
11.1504 13.6124 0.9271 0.1513 0 2
11.0751 14.6859 0.9691 0.7933 0 3
6.3320 9.1376 0.5857 0.9913 22 6
8.7418 13.7646 0.8591 0.8478 0 21
8.5151 14.6784 0.8940 0.8605 0 3
8.0030 15.1678 0.9035 0.4645 0 3
7.9684 16.6935 0.9746 0.4306 0 3
7.9272 18.4815 1.0595 0.3961 0 3
8.6105 22.5311 1.2708 0.9132 0 3
8.1188 24.1050 1.3401 0.9442 0 3
7.7035 26.3216 1.4449 0.9565 0 3
2.4776 14.9494 0.7984 0.6238 0 9
1.8476 14.8132 0.7865 0.1865 0 9
2.3449 27.8749 1.4738 0.2627 0 9
1.1695 26.7040 1.4083 0.2541 0 9
0.0621 17.2046 0.9064 0.2246 0 9
-30.8020 38.1618 2.5838 0.5727 0 3
-31.1925 35.6192 2.4945 0.2590 0 3
-31.3231 32.9958 2.3970 0.6279 0 3
-31.5096 30.6298 2.3152 0.2775 0 3
-31.8993 28.6095 2.2575 0.2862 0 3
-32.3240 24.6120 2.1405 0.7325 0 3
-32.2648 22.5797 2.0748 0.5786 0 3
-32.2528 20.6935 2.0189 0.7765 0 3
-32.2230 18.8926 1.9680 0.7966 0 3
-32.6125 17.4007 1.9475 0.5715 0 3
-35.7257 -33.6019 2.5840 0.7911 0 20
5.1362 -47.5425 2.5194 0.9938 0 3
9.0970 -47.8342 2.5653 0.8844 0 3
9.8321 -42.3559 2.2909 0.9741 0 3
8.0377 -29.2414 1.5977 0.8892 0 20
9.4557 -29.6813 1.6412 0.9535 0 3
10.7832 -29.6728 1.6634 0.9408 0 3
11.8999 -29.0550 1.6542 0.0704 0 3
12.3777 -27.0687 1.5682 0.8827 0 3
12.8539 -25.3649 1.4982 0.0936 0 2
10.2823 -18.4169 1.1113 0.9297 0 9
10.1431 -16.5676 1.0235 0.8534 0 20
11.5336 -17.2438 1.0930 0.5333 0 20
11.7611 -16.1416 1.0522 0.8239 0 2
11.7322 -14.8137 0.9956 0.1501 0 1
11.5612 -13.4509 0.9345 0.1615 0 1
11.4430 -12.2796 0.8843 0.1622 0 1
11.2924 -11.1821 0.8373 0.1640 0 1
11.1447 -10.1828 0.7953 0.1710 0 1
10.9851 -9.2559 0.7568 0.1711 0 1
10.8329 -8.4077 0.7225 0.1827 0 1
10.7045 -7.6397 0.6929 0.1979 0 1
10.6282 -6.9587 0.6693 0.2093 0 1
10.5671 -6.3276 0.6489 0.2159 0 1
10.2425 -5.5873 0.6147 0.2289 0 2
10.1967 -5.0421 0.5993 0.2346 0 25
8.8935 -3.9616 0.5129 0.9596 0 9
10.1210 -4.0296 0.5739 0.2450 0 25
10.0903 -3.5551 0.5636 0.2495 0 25
10.0638 -3.0976 0.5548 0.2535 0 25
10.0413 -2.6543 0.5472 0.2570 0 25
10.0340 -2.2256 0.5415 0.3431 0 2
10.3915 -1.8707 0.5563 0.2623 0 1
6.1490 -0.8537 0.3271 0.8537 25 14
4.3079 -0.4227 0.2281 0.2041 25 14
4.2453 -0.2450 0.2240 0.3268 25 14
4.2312 -0.0740 0.2230 0.3284 25 14
4.2400 0.0962 0.2234 0.3276 25 14
4.2780 0.2692 0.2258 0.3242 25 14
4.3997 0.4547 0.2330 0.1998 25 14
6.6513 0.9587 0.3540 0.1181 25 14
10.7002 1.9837 0.5733 0.2478 0 1
10.7743 2.4486 0.5821 0.2446 0 1
10.8536 2.9295 0.5923 0.2404 0 1
10.9405 3.4297 0.6041 0.2336 0 1
11.0386 3.9538 0.6178 0.2285 0 1
11.0913 4.4828 0.6303 0.2380 0 1
11.1148 5.0204 0.6426 0.2335 0 1
11.1369 5.5792 0.6563 0.2326 0 1
11.1513 6.1584 0.6711 0.2551 0 1
10.0714 6.1021 0.6204 0.3699 0 14
10.0351 6.6451 0.6341 0.5302 0 14
10.9871 7.9278 0.7138 0.2173 0 2
8.0185 17.6301 0.8053 0.4115 0 3
7.8229 19.2116 0.8625 0.3767 0 3
8.7057 24.1081 1.0658 0.9375 0 3
7.7185 24.3994 1.0641 0.3053 0 3
7.8036 28.6165 1.2333 0.2689 0 3
8.3318 36.2263 1.5456 0.8924 0 6
2.5807 13.7215 0.5805 0.6181 0 9
1.9968 13.6031 0.5717 0.2961 0 9
1.4398 13.5855 0.5680 0.1265 0 9
0.8769 13.3833 0.5577 0.4006 0 9
-32.3550 35.5961 2.0001 0.6190 0 3
-32.1255 32.6113 1.9034 0.9357 0 3
-32.2625 30.2214 1.8381 0.6736 0 3
-32.2230 27.8418 1.7707 0.6992 0 3
-32.1872 25.6279 1.7107 0.7237 0 3
-31.8092 23.3033 1.6396 0.3085 0 3
-32.1221 21.6059 1.6096 0.7691 0 3
-32.0948 19.7638 1.5672 0.7899 0 3
-32.0697 18.0141 1.5294 0.8094 0 3
-33.9119 17.2959 1.5828 0.3223 0 3
-37.0439 -33.3594 2.0728 0.7702 0 20
-35.0444 -34.2045 2.0361 0.6724 0 20
5.4134 -42.6969 1.7895 0.9927 0 3
5.1655 -24.6667 1.0479 0.7590 0 6
8.6322 -34.2942 1.4704 0.5301 0 3
8.2780 -28.0731 1.2170 0.9526 0 3
10.0630 -29.6781 1.3030 0.9483 0 3
10.6443 -27.6842 1.2332 0.0746 0 3
11.5156 -26.6977 1.2089 0.0864 0 3
11.7553 -24.4990 1.1298 0.0980 0 2
11.4045 -21.5086 1.0123 0.1094 0 2
10.6371 -18.2510 0.8783 0.3015 0 9
10.8983 -17.0834 0.8426 0.1314 0 2
11.2309 -16.1371 0.8175 0.8374 0 2
11.0206 -14.5521 0.7590 0.1429 0 1
10.8359 -13.1739 0.7093 0.1620 0 24
10.7923 -12.0963 0.6740 0.1680 0 1
10.6697 -11.0333 0.6382 0.1683 0 1
10.5531 -10.0703 0.6065 0.1771 0 1
10.4223 -9.1750 0.5773 0.1805 0 1
10.3011 -8.3587 0.5516 0.1890 0 1
10.1976 -7.6167 0.5292 0.2046 0 1
6.1841 -4.2431 0.3118 0.8867 14 6
10.0979 -6.3478 0.4959 0.2231 0 1
9.8121 -5.6316 0.4704 0.2362 0 2
9.7767 -5.1009 0.4585 0.2422 0 25
8.9169 -4.2058 0.4099 0.7450 0 9
9.1003 -3.8536 0.4109 0.4671 0 9
9.3495 -3.5236 0.4154 0.2560 0 9
9.6730 -3.2082 0.4237 0.2620 0 25
9.6551 -2.7773 0.4177 0.2658 0 25
9.6399 -2.3584 0.4126 0.2691 0 2
9.9881 -2.0224 0.4237 0.2714 0 1
9.9942 -1.6089 0.4209 0.2738 0 1
4.1379 -0.4967 0.1733 0.3336 25 14
4.1234 -0.3277 0.1720 0.3361 25 14
4.1051 -0.1608 0.1708 0.2624 25 14
4.0935 0.0042 0.1702 0.3120 25 14
4.1277 0.1700 0.1718 0.3365 25 14
4.1640 0.3394 0.1737 0.3328 25 14
4.2317 0.5166 0.1773 0.2074 25 14
10.2332 1.6687 0.4311 0.2666 0 1
10.2942 2.1061 0.4369 0.2573 0 1
10.3601 2.5569 0.4437 0.2534 0 1
10.4309 3.0234 0.4516 0.2490 0 1
10.5071 3.5086 0.4606 0.2441 0 1
10.5922 4.0165 0.4710 0.2366 0 1
10.6264 4.5253 0.4802 0.2467 0 1
10.6416 5.0457 0.4897 0.2419 0 1
10.6596 5.5890 0.5004 0.2408 0 1
10.6648 6.1498 0.5119 0.2641 0 1
10.5670 6.6726 0.5196 0.2602 0 1
10.4687 7.2142 0.5286 0.2557 0 1
10.4867 7.8658 0.5451 0.2247 0 2
10.1542 8.2737 0.5446 0.6512 0 2
10.0484 8.8821 0.5576 0.1986 0 2
10.1240 9.7002 0.5830 0.1899 0 2
10.2106 10.6015 0.6120 0.1809 0 2
10.3102 11.6033 0.6454 0.1716 0 2
10.4256 12.7276 0.6841 0.1619 0 2
10.5604 14.0033 0.7293 0.1518 0 2
6.3519 9.1663 0.4637 0.9184 22 6
8.7240 13.7365 0.6766 0.8500 0 21
8.5149 14.6780 0.7056 0.8609 0 3
8.0642 15.2838 0.7185 0.4612 0 3
8.0310 16.8247 0.7752 0.4273 0 3
7.9984 18.6475 0.8437 0.3928 0 3
8.6339 22.5924 1.0056 0.9112 0 3
8.1186 24.1043 1.0576 0.9447 0 3
7.8409 26.7909 1.1607 0.2857 0 3
1.6857 13.5151 0.5663 0.2952 0 9
1.1575 13.7593 0.5741 0.3823 0 9
0.7657 17.4839 0.7277 0.4140 0 9
0.0632 17.5115 0.7281 0.4361 0 9
-0.9644 26.3749 1.0974 0.8770 0 9
-32.3793 36.9744 2.0435 0.6058 0 3
-32.3280 34.0544 1.9524 0.6341 0 3
-32.2821 31.3807 1.8719 0.6614 0 3
-32.2407 28.9157 1.8007 0.6875 0 3
-32.2033 26.6286 1.7375 0.7126 0 3
-32.1692 24.4941 1.6812 0.7364 0 3
-32.1355 22.4892 1.6309 0.7591 0 3
-32.1071 20.6000 1.5861 0.7805 0 3
-32.0810 18.8094 1.5463 0.8006 0 3
-33.3155 17.7758 1.5701 0.4759 0 3
-33.9662 16.4065 1.5684 0.3254 0 3
-35.4693 -33.3607 2.0246 0.6848 0 20
8.5713 -36.9243 1.5761 0.9788 0 3
8.0373 -29.2397 1.2609 0.9652 0 20
9.4559 -29.6820 1.2953 0.9540 0 3
10.7788 -29.6605 1.3122 0.6504 0 3
11.0872 -27.0706 1.2163 0.7134 0 3
11.9487 -26.1305 1.1947 0.0927 0 2
11.5557 -22.8030 1.0629 0.1042 0 2
10.3060 -18.4594 0.8790 0.8633 0 9
10.1463 -16.5729 0.8080 0.9199 0 20
10.8126 -16.1658 0.8087 0.6503 0 2
11.0932 -15.2251 0.7833 0.1507 0 1
10.9300 -13.8009 0.7320 0.1628 0 1
10.8370 -12.6083 0.6913 0.1639 0 1
10.7281 -11.5124 0.6543 0.1657 0 1
10.6049 -10.5013 0.6206 0.1731 0 1
10.4853 -9.5804 0.5906 0.1731 0 1
10.3551 -8.7250 0.5630 0.1851 0 1
10.2414 -7.9486 0.5390 0.1934 0 1
10.1678 -7.2566 0.5194 0.2130 0 1
10.1185 -6.6250 0.5029 0.2200 0 1
10.0753 -6.0331 0.4883 0.2281 0 1
9.7925 -5.3418 0.4638 0.2394 0 25
9.7593 -4.8258 0.4527 0.2453 0 25
8.9189 -3.9730 0.4060 0.9915 0 9
9.3670 -3.7294 0.4192 0.3703 0 9
9.6822 -3.4113 0.4268 0.2601 0 25
9.6630 -2.9742 0.4204 0.2641 0 25
9.6466 -2.5500 0.4149 0.2676 0 25
9.9512 -2.2073 0.4238 0.2708 0 2
9.9907 -1.7986 0.4221 0.2730 0 1
4.3740 -0.6073 0.1836 0.0915 25 14
4.1300 -0.4052 0.1725 0.3350 25 14
4.1136 -0.2374 0.1713 0.2616 25 14
4.0966 -0.0716 0.1704 0.3117 25 14
4.1069 0.0931 0.1708 0.2624 25 14
4.1471 0.2609 0.1728 0.3346 25 14
4.1842 0.4325 0.1749 0.3305 25 14
4.3457 0.6264 0.1826 0.0921 25 14
10.2637 1.9028 0.4340 0.2585 0 1
10.3292 2.3474 0.4404 0.2552 0 1
10.3977 2.8064 0.4478 0.2510 0 1
10.4713 3.2826 0.4563 0.2464 0 1
10.5515 3.7793 0.4660 0.2391 0 1
10.6204 4.2925 0.4763 0.2487 0 1
10.6342 4.8033 0.4852 0.2442 0 1
10.6512 5.3359 0.4953 0.2391 0 1
10.6671 5.8910 0.5067 0.2378 0 1
10.6121 6.4297 0.5159 0.2620 0 1
10.5141 6.9623 0.5243 0.2578 0 1
10.4081 7.5101 0.5337 0.2668 0 1
8.0877 17.7823 0.5955 0.4082 0 3
7.8968 19.3930 0.6383 0.3733 0 3
8.7054 24.1075 0.7813 0.9379 0 3
7.8061 24.6764 0.7890 0.3019 0 3
7.9072 28.9965 0.9162 0.2655 0 3
3.3965 14.7677 0.4619 0.2144 0 9
1.6678 15.7362 0.4824 0.3782 0 9
0.8796 13.4244 0.4101 0.3292 0 9
0.5965 23.5974 0.7196 0.1080 0 9
-32.1718 35.3946 1.4581 0.6228 0 3
-32.1312 32.6171 1.3957 0.6506 0 3
-32.0946 30.0641 1.3405 0.6773 0 3
-32.0614 27.7022 1.2916 0.7030 0 3
-32.0312 25.5037 1.2481 0.7275 0 3
-32.0036 23.4457 1.2094 0.7508 0 3
-31.9756 21.5074 1.1747 0.7729 0 3
-31.9523 19.6761 1.1439 0.7937 0 3
-31.9307 17.9360 1.1164 0.8133 0 3
-34.8322 17.7653 1.1919 0.4597 0 3
-34.9311 16.0826 1.1723 0.4176 0 3
-37.0613 -33.3751 1.5203 0.6589 0 20
-34.8764 -34.0406 1.4856 0.2563 0 20
6.0271 -47.5376 1.4607 0.9922 0 3
5.1662 -24.6699 0.7683 0.9473 0 6
9.0396 -35.9126 1.1289 0.2287 0 3
8.2925 -28.1221 0.8938 0.8511 0 3
9.9376 -29.3084 0.9434 0.2189 0 3
10.4876 -27.2768 0.8908 0.3435 0 3
10.8838 -25.2330 0.8377 0.0969 0 2
10.6165 -22.1258 0.7481 0.1086 0 2
10.0348 -18.9253 0.6530 0.1232 0 9
10.2329 -17.5574 0.6195 0.1311 0 2
10.3086 -16.1591 0.5843 0.8592 0 2
10.4080 -14.9547 0.5554 0.1432 0 1
10.2852 -13.5811 0.5193 0.1600 0 1
10.2149 -12.4188 0.4902 0.1695 0 1
10.1317 -11.3559 0.4639 0.1698 0 1
10.0414 -10.3836 0.4403 0.1861 0 1
9.9525 -9.4972 0.4194 0.1882 0 1
9.8537 -8.6744 0.4002 0.1972 0 1
9.7668 -7.9251 0.3834 0.2204 0 1
9.7248 -7.2635 0.3700 0.2315 0 1
6.2083 -4.2597 0.2295 0.8836 14 6
9.6744 -6.0816 0.3483 0.2682 0 1
9.3939 -5.3916 0.3302 0.2467 0 25
9.3700 -4.8887 0.3222 0.2528 0 25
8.9093 -4.2022 0.3003 0.4820 0 9
8.9743 -3.8003 0.2971 0.6242 0 9
9.1697 -3.4558 0.2987 0.4666 0 9
9.3000 -3.0845 0.2987 0.2727 0 25
9.2878 -2.6717 0.2946 0.2764 0 25
9.2770 -2.2696 0.2911 0.2802 0 2
9.6153 -1.9469 0.2991 0.2824 0 1
9.6249 -1.5495 0.2972 0.2849 0 1
3.9826 -0.4780 0.1223 0.3185 25 14
3.9750 -0.3159 0.1216 0.3204 25 14
3.9681 -0.1554 0.1211 0.3217 25 14
3.9617 0.0040 0.1208 0.3225 25 14
3.9880 0.1643 0.1217 0.3201 25 14
4.0182 0.3275 0.1229 0.3169 25 14
4.0617 0.4959 0.1247 0.2636 25 14
9.8451 1.6054 0.3041 0.2777 0 1
9.8926 2.0239 0.3078 0.2744 0 1
9.9480 2.4552 0.3123 0.2696 0 1
10.0075 2.9007 0.3176 0.2652 0 1
10.0723 3.3634 0.3237 0.2547 0 1
10.1418 3.8457 0.3306 0.2494 0 1
10.1906 4.3397 0.3376 0.2573 0 1
10.1970 4.8349 0.3440 0.2526 0 1
10.2055 5.3510 0.3513 0.2473 0 1
10.2165 5.8913 0.3595 0.2417 0 1
10.1566 6.4135 0.3662 0.2708 0 1
10.0553 6.9294 0.3723 0.2664 0 1
9.9523 7.4649 0.3792 0.2621 0 1
10.0199 8.1643 0.3940 0.2280 0 2
9.5432 8.4355 0.3883 0.2092 0 2
9.5931 9.1915 0.4050 0.2005 0 2
9.6500 10.0194 0.4240 0.1915 0 2
9.7150 10.9334 0.4459 0.1821 0 2
9.7898 11.9514 0.4709 0.1724 0 2
9.8766 13.0966 0.5000 0.1624 0 2
6.3840 9.2126 0.3417 0.3848 22 6
8.6958 13.6921 0.4944 0.8521 0 21
8.5147 14.6776 0.5173 0.8613 0 3
8.1263 15.4015 0.5308 0.4579 0 3
8.1010 16.9713 0.5733 0.4240 0 3
8.0708 18.8162 0.6241 0.3894 0 3
8.6574 22.6539 0.7393 0.9090 0 3
8.1184 24.1037 0.7753 0.9451 0 3
7.9388 27.1254 0.8616 0.2823 0 3
2.3389 14.1121 0.4361 0.1955 0 9
1.6904 13.5534 0.4164 0.0955 0 9
0.9858 22.5079 0.6868 0.9629 0 6
0.0986 27.3150 0.8327 0.1588 0 9
-32.1921 36.7606 1.4895 0.6096 0 3
-32.1494 33.8662 1.4234 0.6379 0 3
-32.1110 31.2144 1.3651 0.6652 0 3
-32.0763 28.7682 1.3134 0.6913 0 3
-32.0448 26.4975 1.2675 0.7164 0 3
-30.1000 22.9185 1.1533 0.9189 0 3
-31.9870 22.3853 1.1901 0.7629 0 3
-31.9628 20.5074 1.1576 0.7843 0 3
-31.9404 18.7270 1.1287 0.8044 0 3
-33.3139 17.7749 1.1510 0.4761 0 3
-34.9119 16.8633 1.1819 0.5174 0 3
-35.4766 -33.3675 1.4846 0.6849 0 20
-34.8084 -35.4784 1.5151 0.7697 0 20
6.3552 -42.6921 1.3157 0.9891 0 3
9.8320 -42.3554 1.3255 0.9720 0 3
8.0374 -29.2404 0.9244 0.9655 0 20
8.7949 -27.6071 0.8832 0.9544 0 3
10.3190 -28.3952 0.9210 0.2242 0 3
10.8885 -26.5855 0.8758 0.8973 0 3
10.7316 -23.4688 0.7867 0.1032 0 2
10.4965 -20.7129 0.7078 0.1147 0 2
10.0362 -17.9761 0.6276 0.2445 0 9
10.1532 -16.5842 0.5928 0.1370 0 2
10.5882 -15.8303 0.5806 0.1619 0 2
10.3274 -14.1739 0.5346 0.1488 0 1
10.2459 -12.9370 0.5031 0.1651 0 1
10.1783 -11.8420 0.4760 0.1670 0 1
10.0806 -10.8176 0.4507 0.1748 0 1
9.9984 -9.9007 0.4289 0.1911 0 1
9.8978 -9.0436 0.4087 0.1931 0 1
9.8050 -8.2615 0.3908 0.2020 0 1
9.7418 -7.5609 0.3759 0.2279 0 1
9.7060 -6.9271 0.3635 0.2356 0 1
9.6742 -6.3341 0.3525 0.2430 0 1
9.4059 -5.6323 0.3342 0.2438 0 2
9.3807 -5.1171 0.3257 0.2500 0 25
9.0519 -4.4760 0.3078 0.1157 0 9
8.9192 -3.9731 0.2976 0.4336 0 9
8.9896 -3.5792 0.2950 0.2601 0 9
9.3062 -3.2788 0.3008 0.2708 0 25
9.2932 -2.8604 0.2964 0.2748 0 25
9.2820 -2.4536 0.2927 0.2783 0 25
9.6130 -2.1322 0.3002 0.2806 0 1
9.5873 -1.7259 0.2970 0.2849 0 24
4.1236 -0.5725 0.1269 0.2618 25 14
3.9784 -0.3903 0.1219 0.3196 25 14
3.9712 -0.2292 0.1213 0.3212 25 14
3.9646 -0.0693 0.1209 0.3222 25 14
3.9744 0.0901 0.1212 0.3214 25 14
4.0041 0.2519 0.1223 0.3185 25 14
4.0396 0.4175 0.1238 0.2656 25 14
4.1384 0.5965 0.1275 0.0968 25 14
9.8704 1.8299 0.3060 0.2760 0 1
9.9218 2.2549 0.3102 0.2715 0 1
9.9796 2.6936 0.3151 0.2673 0 1
10.0419 3.1480 0.3208 0.2570 0 1
10.1092 3.6209 0.3273 0.2519 0 1
10.1822 4.1154 0.3348 0.2441 0 1
10.1938 4.6044 0.3410 0.2548 0 1
10.2013 5.1105 0.3478 0.2498 0 1
10.2111 5.6392 0.3556 0.2443 0 1
10.2028 6.1817 0.3636 0.2727 0 1
10.1022 6.6895 0.3693 0.2684 0 1
10.0000 7.2156 0.3759 0.2638 0 1
8.1582 17.9372 0.3822 0.4047 0 3
7.9720 19.5777 0.4100 0.3699 0 3
8.7052 24.1069 0.4971 0.9381 0 3
8.0653 25.4957 0.5186 0.2985 0 3
11.4336 41.9284 0.8429 0.0660 0 1
2.8658 27.0404 0.5274 0.3191 0 9
1.5843 24.1792 0.4700 0.8834 0 9
0.6985 27.6356 0.5362 0.7322 0 9
-0.2191 14.7181 0.2855 0.5118 0 9
-32.0272 38.2115 0.9670 0.5976 0 3
-31.9581 32.4414 0.8832 0.6543 0 3
-34.8647 32.6590 0.9265 0.6881 0 3
-31.9015 27.5640 0.8177 0.7067 0 3
-34.7420 27.6620 0.8613 0.6277 0 3
-31.8542 23.3362 0.7659 0.7546 0 3
-33.7018 22.6684 0.7877 0.5632 0 3
-35.9565 22.1418 0.8190 0.2890 0 3
-31.7930 17.8587 0.7072 0.8170 0 3
-34.8304 17.7644 0.7583 0.4599 0 3
-36.3307 16.7271 0.7757 0.3071 0 3
-37.0607 -33.3745 0.9673 0.6690 0 20
-34.8920 -34.0557 0.9456 0.7904 0 20
1.7807 -38.8564 0.7544 0.7785 0 6
6.0272 -47.5386 0.9294 0.9925 0 3
5.1890 -24.7788 0.4910 0.9560 0 6
9.1294 -36.2692 0.7254 0.0592 0 3
8.6213 -29.2374 0.5912 0.9610 0 20
9.4877 -27.9816 0.5730 0.2293 0 3
9.9966 -25.9997 0.5403 0.0957 0 2
9.8194 -22.7653 0.4809 0.1075 0 2
9.6795 -20.1730 0.4340 0.1191 0 2
9.5665 -18.0422 0.3961 0.1305 0 2
9.4830 -16.2706 0.3653 0.1108 0 2
9.8068 -15.3724 0.3537 0.1367 0 1
9.6942 -13.9292 0.3291 0.1609 0 1
9.6526 -12.7456 0.3101 0.1719 0 1
9.6181 -11.6932 0.2937 0.1795 0 1
9.5607 -10.7159 0.2785 0.1873 0 1
9.5044 -9.8283 0.2652 0.1967 0 1
9.4259 -8.9946 0.2527 0.1988 0 1
9.3594 -8.2392 0.2418 0.2224 0 1
9.3256 -7.5672 0.2329 0.2340 0 1
9.3035 -6.9488 0.2252 0.2420 0 1
6.2337 -4.2772 0.1466 0.6576 14 6
9.2760 -5.8311 0.2125 0.2610 0 1
9.0100 -5.1713 0.2015 0.2572 0 25
8.9961 -4.6936 0.1968 0.2634 0 25
8.7091 -4.1078 0.1868 0.5208 0 9
8.6979 -3.6832 0.1832 0.9458 0 9
8.9632 -3.3780 0.1858 0.2790 0 25
8.9548 -2.9700 0.1830 0.2833 0 25
8.9477 -2.5738 0.1806 0.2870 0 25
9.0901 -2.2239 0.1815 0.2951 0 2
9.2703 -1.8770 0.1834 0.2932 0 1
9.2821 -1.4943 0.1823 0.2950 0 1
3.9707 -0.4766 0.0776 0.9633 25 14
3.9457 -0.3136 0.0768 0.9661 25 14
3.9196 -0.1535 0.0761 0.9748 25 14
3.8939 0.0039 0.0755 0.9820 25 14
3.9151 0.1613 0.0760 0.9759 25 14
3.9406 0.3212 0.0767 0.9672 25 14
3.9666 0.4843 0.0775 0.9569 25 14
9.4860 1.5469 0.1864 0.2883 0 1
9.5275 1.9492 0.1886 0.2849 0 1
9.5747 2.3630 0.1913 0.2802 0 1
9.6259 2.7901 0.1944 0.2757 0 1
9.6799 3.2323 0.1979 0.2708 0 1
9.7372 3.6922 0.2020 0.2654 0 1
9.7926 4.1702 0.2064 0.2714 0 1
9.7913 4.6426 0.2102 0.2665 0 1
9.7912 5.1337 0.2144 0.2612 0 1
9.7922 5.6466 0.2192 0.2555 0 1
9.7777 6.1742 0.2243 0.2821 0 1
9.6744 6.6669 0.2279 0.2776 0 1
9.5687 7.1772 0.2320 0.2727 0 1
9.5784 7.8046 0.2396 0.2385 0 2
9.3447 8.2600 0.2419 0.6844 0 2
9.1154 8.7338 0.2448 0.2111 0 2
9.1480 9.4982 0.2558 0.2021 0 2
9.1851 10.3370 0.2682 0.1927 0 2
9.2275 11.2649 0.2824 0.1830 0 2
9.2764 12.3007 0.2988 0.1730 0 2
9.3330 13.4684 0.3178 0.1626 0 2
8.9090 14.0278 0.3223 0.8045 0 21
8.5144 14.6772 0.3291 0.8616 0 3
8.1893 15.5209 0.3404 0.4545 0 3
8.1688 17.1134 0.3678 0.4206 0 3
8.1445 18.9880 0.4007 0.3860 0 3
8.6841 22.7236 0.4718 0.4107 0 3
8.1182 24.1031 0.4933 0.9454 0 3
8.0391 27.4681 0.5551 0.2789 0 3
11.6496 46.6818 0.9332 0.0696 0 1
1.9548 15.6730 0.3063 0.6102 0 9
1.0454 23.8693 0.4634 0.2455 0 9
0.0852 23.5939 0.4576 0.5018 0 9
-32.1040 36.6601 0.9451 0.7563 0 3
-30.9649 32.6186 0.8723 0.9387 0 3
-33.6053 32.6670 0.9090 0.7014 0 3
-31.9137 28.6224 0.8314 0.6950 0 3
-33.4629 27.6702 0.8422 0.6420 0 3
-35.7965 27.2559 0.8726 0.2712 0 3
-31.8400 22.2824 0.7537 0.7666 0 3
-35.3150 22.6582 0.8138 0.5452 0 3
-31.8012 18.6453 0.7150 0.8082 0 3
-33.3122 17.7740 0.7323 0.4762 0 3
-36.2769 17.5226 0.7814 0.4406 0 3
-35.1530 -33.0632 0.9360 0.5559 0 20
-34.6507 -35.3177 0.9596 0.7789 0 20
6.3553 -42.6930 0.8372 0.9894 0 3
7.6126 -40.0292 0.7903 0.9374 0 3
9.3605 -40.3243 0.8029 0.0535 0 3
8.0376 -29.2411 0.5882 0.9658 0 20
8.7951 -27.6078 0.5620 0.9546 0 3
9.8624 -27.1389 0.5600 0.2346 0 3
9.8955 -24.1611 0.5064 0.1021 0 2
9.7401 -21.3005 0.4543 0.1138 0 2
9.6157 -18.9749 0.4126 0.1253 0 2
9.5142 -17.0411 0.3785 0.1365 0 2
9.8877 -16.1505 0.3673 0.8699 0 2
9.7401 -14.5624 0.3398 0.1485 0 1
9.6252 -13.2103 0.3170 0.1672 0 24
9.6344 -12.1650 0.3010 0.1771 0 1
9.5891 -11.1564 0.2853 0.1828 0 1
9.5294 -10.2261 0.2711 0.1924 0 1
9.4613 -9.3688 0.2582 0.1945 0 1
9.3867 -8.5766 0.2466 0.2037 0 1
9.3395 -7.8693 0.2369 0.2270 0 1
9.3134 -7.2284 0.2287 0.2384 0 1
9.2926 -6.6321 0.2214 0.2462 0 1
9.3052 -6.0924 0.2157 0.2757 0 1
9.0171 -5.3995 0.2038 0.2543 0 25
9.0023 -4.9107 0.1989 0.2606 0 25
8.6655 -4.2849 0.1875 0.2744 0 9
8.6581 -3.8568 0.1838 0.2760 0 9
8.8923 -3.5404 0.1856 0.7764 0 9
8.9585 -3.1563 0.1842 0.2814 0 25
8.9508 -2.7550 0.1816 0.2854 0 25
8.9484 -2.3654 0.1795 0.2892 0 2
9.2657 -2.0552 0.1841 0.2912 0 1
9.2459 -1.6645 0.1822 0.2948 0 24
4.0461 -0.5618 0.0792 0.2669 25 14
3.9578 -0.3883 0.0771 0.9616 25 14
3.9315 -0.2269 0.0764 0.9710 25 14
3.9057 -0.0683 0.0758 0.9789 25 14
3.9035 0.0885 0.0757 0.9794 25 14
3.9288 0.2472 0.0764 0.9714 25 14
3.9546 0.4087 0.0771 0.9619 25 14
4.0513 0.5839 0.0794 0.2664 25 14
9.4729 1.7562 0.1869 0.2876 0 24
9.5520 2.1708 0.1900 0.2821 0 1
9.6020 2.5916 0.1929 0.2779 0 1
9.6547 3.0266 0.1962 0.2731 0 1
9.7104 3.4780 0.2000 0.2679 0 1
9.7691 3.9484 0.2044 0.2602 0 1
9.7918 4.4228 0.2084 0.2688 0 1
9.7911 4.9050 0.2124 0.2637 0 1
9.7916 5.4075 0.2169 0.2582 0 1
9.7932 5.9335 0.2221 0.2518 0 1
9.7223 6.4379 0.2262 0.2797 0 1
9.6177 6.9398 0.2300 0.2750 0 1
8.2298 18.0946 0.1652 0.4013 0 3
8.0486 19.7660 0.1774 0.3664 0 3
8.7050 24.1063 0.2130 0.9383 0 3
8.1616 25.8001 0.2249 0.2950 0 3
9.2574 33.9481 0.2925 0.0757 0 2
9.9829 43.4050 0.3702 0.0681 0 24
2.4876 23.4716 0.1962 0.1567 0 9
0.6069 24.0122 0.1996 0.5456 0 9
-0.3616 24.2860 0.2019 0.1347 0 9
-31.8395 37.9876 0.4120 0.6012 0 3
-29.9136 32.9102 0.3696 0.8529 0 3
-30.0768 30.5317 0.3562 0.2309 0 3
-30.1663 28.2578 0.3435 0.2439 0 3
-31.7433 27.4273 0.3487 0.7103 0 3
-34.7407 27.6610 0.3691 0.6278 0 3
-30.0208 21.9931 0.3093 0.2643 0 3
-30.2360 20.3372 0.3029 0.2716 0 3
-29.8513 18.3823 0.2914 0.5114 0 3
-29.8307 16.7564 0.2844 0.7493 0 3
-34.8286 17.7635 0.3249 0.4600 0 3
-37.1252 -33.4326 0.4152 0.5268 0 20
-34.8708 -34.0351 0.4050 0.8760 0 20
-34.0839 -36.0503 0.4123 0.8604 0 20
6.0274 -47.5395 0.3983 0.9926 0 3
3.8950 -18.5998 0.1579 0.9647 0 6
8.3158 -33.0371 0.2831 0.2333 0 3
8.6215 -29.2381 0.2534 0.9609 0 20
9.0866 -26.7986 0.2352 0.0942 0 2
9.0073 -23.4267 0.2086 0.1062 0 2
8.9450 -20.7381 0.1877 0.1180 0 2
8.8948 -18.5375 0.1709 0.1296 0 2
8.8536 -16.6977 0.1571 0.1410 0 2
9.3080 -15.9704 0.1536 0.1669 0 2
9.1259 -14.3052 0.1410 0.1533 0 1
9.0987 -13.0734 0.1324 0.1715 0 1
9.0947 -12.0091 0.1252 0.1824 0 1
9.0844 -11.0445 0.1189 0.1900 0 1
9.0524 -10.1462 0.1130 0.1978 0 1
9.0053 -9.3122 0.1077 0.2000 0 1
8.9596 -8.5497 0.1029 0.2239 0 1
8.9381 -7.8684 0.0990 0.2329 0 1
8.9259 -7.2428 0.0955 0.2445 0 1
8.9296 -6.6696 0.0926 0.2751 0 1
6.2276 -4.2730 0.0628 0.9106 14 6
8.6627 -5.4456 0.0850 0.2612 0 25
8.6565 -4.9684 0.0830 0.2678 0 25
8.6509 -4.5135 0.0811 0.2739 0 25
8.6460 -4.0781 0.0795 0.2796 0 25
8.6417 -3.6594 0.0780 0.2848 0 25
8.6379 -3.2554 0.0767 0.2895 0 25
8.6346 -2.8638 0.0756 0.2938 0 25
8.6317 -2.4830 0.0746 0.2976 0 25
8.9380 -2.1867 0.0765 0.3004 0 1
8.9494 -1.8121 0.0759 0.3038 0 1
4.8508 -0.7809 0.0408 0.0108 25 14
3.9621 -0.4756 0.0332 0.9655 25 14
3.9419 -0.3133 0.0329 0.9672 25 14
3.9159 -0.1534 0.0326 0.9759 25 14
3.8903 0.0039 0.0323 0.9831 25 14
3.9118 0.1611 0.0325 0.9769 25 14
3.9373 0.3209 0.0328 0.9682 25 14
3.9621 0.4837 0.0332 0.9653 25 14
4.4723 0.7293 0.0377 0.0893 25 14
9.1885 1.8799 0.0780 0.2955 0 1
9.2285 2.2776 0.0790 0.2908 0 1
9.2724 2.6877 0.0802 0.2863 0 1
9.3182 3.1116 0.0817 0.2813 0 1
9.3661 3.5515 0.0833 0.2738 0 1
9.4095 4.0071 0.0850 0.2682 0 1
9.4192 4.4661 0.0866 0.2771 0 1
9.4118 4.9348 0.0883 0.2718 0 1
9.4046 5.4231 0.0902 0.2661 0 1
9.3946 5.9323 0.0923 0.2596 0 1
9.3217 6.4238 0.0941 0.2882 0 1
9.2137 6.9109 0.0957 0.2832 0 1
9.1150 7.4269 0.0977 0.2756 0 1
9.1510 8.0888 0.1015 0.2413 0 2
8.6841 8.3205 0.1000 0.2209 0 2
8.6958 9.0288 0.1042 0.2126 0 2
8.7102 9.8026 0.1090 0.2032 0 2
8.7265 10.6533 0.1145 0.1935 0 2
8.7451 11.5963 0.1207 0.1835 0 2
6.4428 9.2976 0.0940 0.9763 22 6
8.7916 13.8430 0.1363 0.1625 0 2
8.5142 14.6768 0.1410 0.8617 0 3
8.2533 15.6421 0.1470 0.4510 0 3
8.2378 17.2580 0.1589 0.4171 0 3
8.1948 19.1053 0.1728 0.9164 0 3
9.0106 23.5779 0.2098 0.1056 0 2
8.1180 24.1025 0.2114 0.9456 0 3
8.1419 27.8195 0.2409 0.2754 0 3
9.9120 39.7186 0.3402 0.0649 0 1
2.9686 14.3204 0.1216 0.1317 0 9
1.9508 15.6410 0.1310 0.9880 0 9
2.0160 23.9653 0.1999 0.5833 0 9
0.0874 24.2011 0.2011 0.5344 0 9
-30.0829 31.6894 0.3632 0.2179 0 3
-30.1141 29.2733 0.3491 0.2423 0 3
-30.7855 27.6105 0.3437 0.5232 0 3
-33.4616 27.6691 0.3609 0.6421 0 3
-29.7842 22.6781 0.3111 0.8099 0 3
-30.2337 21.1583 0.3067 0.2629 0 3
-30.2484 19.4074 0.2987 0.2754 0 3
-29.8382 17.4944 0.2875 0.5183 0 3
-30.3466 16.1917 0.2859 0.3778 0 3
-36.7502 17.7513 0.3392 0.4406 0 3
-36.7935 15.9836 0.3334 0.7688 0 3
-35.2243 -33.1302 0.4019 0.8827 0 20
-34.4499 -35.1130 0.4088 0.8677 0 20
8.5206 -44.8034 0.3790 0.9842 0 3
8.3222 -35.8514 0.3059 0.1163 0 3
8.1086 -29.4993 0.2543 0.2474 0 20
8.8421 -27.7552 0.2421 0.2840 0 3
9.0413 -24.8795 0.2200 0.1007 0 2
8.9719 -21.9060 0.1967 0.1126 0 2
8.9166 -19.4997 0.1782 0.1243 0 2
8.8716 -17.5065 0.1631 0.1358 0 2
9.0290 -16.1721 0.1539 0.8896 0 2
9.1609 -14.9633 0.1458 0.1421 0 1
9.1060 -13.6143 0.1361 0.1668 0 1
9.0963 -12.4844 0.1284 0.1779 0 1
9.0893 -11.4766 0.1217 0.1856 0 1
9.0675 -10.5496 0.1156 0.1934 0 1
8.9936 -9.6511 0.1096 0.1989 0 24
8.9761 -8.8884 0.1050 0.2051 0 1
8.9477 -8.1755 0.1007 0.2288 0 1
8.9302 -7.5244 0.0971 0.2407 0 1
8.9212 -6.9240 0.0939 0.2489 0 1
8.9426 -6.3823 0.0913 0.2791 0 1
6.3241 -4.1406 0.0628 0.7432 14 6
8.6593 -5.1852 0.0839 0.2648 0 25
8.6534 -4.7204 0.0819 0.2712 0 25
8.6482 -4.2764 0.0802 0.2770 0 25
8.6436 -3.8503 0.0786 0.2825 0 25
8.6396 -3.4398 0.0773 0.2874 0 25
8.6360 -3.0427 0.0761 0.2919 0 25
8.6330 -2.6572 0.0751 0.2959 0 25
8.6322 -2.2819 0.0742 0.2954 0 2
8.9436 -1.9838 0.0761 0.3026 0 1
8.9565 -1.6124 0.0756 0.3048 0 1
3.9796 -0.5525 0.0334 0.3100 25 14
3.9541 -0.3879 0.0330 0.9626 25 14
3.9278 -0.2267 0.0327 0.9721 25 14
3.9020 -0.0682 0.0324 0.9800 25 14
3.9002 0.0885 0.0324 0.9804 25 14
3.9255 0.2470 0.0327 0.9724 25 14
3.9512 0.4084 0.0330 0.9628 25 14
3.9872 0.5747 0.0335 0.3093 25 14
9.1717 1.7003 0.0775 0.2971 0 1
9.2089 2.0928 0.0785 0.2927 0 1
9.2520 2.4972 0.0796 0.2884 0 1
9.2969 2.9145 0.0810 0.2837 0 1
9.3438 3.3468 0.0825 0.2785 0 1
9.3892 3.7949 0.0842 0.2708 0 1
9.4227 4.2561 0.0859 0.2794 0 1
9.4152 4.7167 0.0875 0.2743 0 1
9.4079 5.1956 0.0893 0.2688 0 1
9.3999 5.6952 0.0913 0.2624 0 1
9.3703 6.2049 0.0934 0.2903 0 1
9.2639 6.6844 0.0949 0.2856 0 1
8.2210 18.0753 -0.0550 0.1342 0 2
8.2053 20.1506 -0.0603 0.1225 0 2
8.1856 22.6680 -0.0668 0.1106 0 2
8.1612 25.7988 -0.0750 0.0985 0 2
8.1294 29.8116 -0.0856 0.0863 0 2
8.0869 35.1614 -0.1000 0.0739 0 2
8.4704 45.0374 -0.1270 0.0689 0 1
1.6404 25.0354 -0.0695 0.6166 0 9
0.6170 24.4109 -0.0676 0.9147 0 9
-0.3580 24.0455 -0.0666 0.1107 0 9
-31.5195 37.6058 -0.1359 0.3047 0 3
-31.4097 31.8847 -0.1240 0.6615 0 3
-31.3937 29.4076 -0.1192 0.6882 0 3
-31.5867 27.2920 -0.1156 0.7139 0 3
-34.7393 27.6599 -0.1230 0.6279 0 3
-31.5595 23.1204 -0.1084 0.7617 0 3
-31.2517 21.0204 -0.1043 0.2611 0 3
-31.3045 19.2772 -0.1018 0.8047 0 3
-31.2932 17.5779 -0.0994 0.8242 0 3
-36.5823 18.6579 -0.1138 0.8424 0 3
-38.5285 17.7389 -0.1175 0.4240 0 3
-38.9269 16.0612 -0.1167 0.3873 0 3
-34.7437 -33.9110 -0.1345 0.8833 0 20
-33.7627 -35.7106 -0.1361 0.9294 0 20
7.9863 -47.5882 -0.1337 0.0552 0 2
3.9052 -18.6482 -0.0528 0.6022 0 6
8.1105 -32.2214 -0.0920 0.0802 0 2
8.1470 -27.6289 -0.0798 0.0925 0 2
8.1747 -24.1091 -0.0705 0.1047 0 2
8.1963 -21.3175 -0.0633 0.1167 0 2
8.2137 -19.0426 -0.0575 0.1285 0 2
8.2279 -17.1476 -0.0527 0.1401 0 2
8.5820 -16.1854 -0.0508 0.9167 0 2
8.5679 -14.7006 -0.0471 0.1465 0 1
8.5561 -13.4120 -0.0441 0.1717 0 1
8.5747 -12.3206 -0.0416 0.1831 0 1
8.5932 -11.3468 -0.0394 0.1909 0 1
8.6052 -10.4619 -0.0375 0.1986 0 1
8.5895 -9.6273 -0.0357 0.2008 0 1
8.5652 -8.8571 -0.0341 0.2251 0 1
8.5590 -8.1675 -0.0328 0.2344 0 1
8.5558 -7.5318 -0.0316 0.2466 0 1
8.5706 -6.9545 -0.0306 0.2778 0 1
8.6036 -6.4261 -0.0297 0.2856 0 1
6.2174 -4.2660 -0.0209 0.8049 14 6
6.5151 -4.0955 -0.0213 0.5684 14 6
8.3297 -4.7808 -0.0266 0.2783 0 25
8.3314 -4.3468 -0.0260 0.2844 0 25
8.3329 -3.9304 -0.0255 0.2901 0 25
8.3342 -3.5292 -0.0251 0.2953 0 25
8.3354 -3.1414 -0.0247 0.3001 0 25
8.3365 -2.7649 -0.0243 0.3043 0 25
8.3371 -2.3982 -0.0240 0.4196 0 2
8.6359 -2.1128 -0.0246 0.3118 0 1
8.6214 -1.7456 -0.0244 0.3140 0 24
4.1909 -0.6747 -0.0118 0.0278 25 14
3.9535 -0.4746 -0.0110 0.9676 25 14
3.9382 -0.3130 -0.0109 0.9681 25 14
3.9122 -0.1532 -0.0108 0.9769 25 14
3.8867 0.0039 -0.0108 0.9840 25 14
3.9085 0.1610 -0.0108 0.9777 25 14
3.9339 0.3207 -0.0109 0.9690 25 14
3.9536 0.4827 -0.0110 0.9674 25 14
4.1640 0.6790 -0.0117 0.0281 25 14
8.8400 1.8086 -0.0250 0.3055 0 24
8.9066 2.1981 -0.0254 0.3013 0 1
8.9441 2.5925 -0.0258 0.2968 0 1
8.9827 2.9995 -0.0262 0.2919 0 1
9.0193 3.4200 -0.0267 0.2843 0 1
9.0540 3.8557 -0.0273 0.2787 0 1
9.0744 4.3026 -0.0278 0.2876 0 1
9.0608 4.7508 -0.0283 0.2824 0 1
9.0466 5.2167 -0.0289 0.2766 0 1
9.0281 5.7009 -0.0296 0.2701 0 1
8.9938 6.1978 -0.0303 0.2987 0 1
8.8842 6.6638 -0.0308 0.2938 0 1
8.7810 7.1548 -0.0314 0.2861 0 1
8.6159 8.2552 -0.0331 0.7383 0 2
8.2863 8.6036 -0.0331 0.2231 0 2
8.2820 9.3207 -0.0345 0.2138 0 2
8.2771 10.1047 -0.0362 0.2040 0 2
8.2715 10.9683 -0.0381 0.1940 0 2
6.4248 9.2716 -0.0313 0.5639 22 6
8.2578 13.0024 -0.0427 0.1730 0 2
8.2492 14.2200 -0.0455 0.1621 0 2
8.2392 15.6153 -0.0489 0.1510 0 2
8.2272 17.2358 -0.0529 0.1396 0 2
8.1946 19.1048 -0.0576 0.9165 0 3
8.1951 21.4440 -0.0636 0.1161 0 2
8.1178 24.1019 -0.0705 0.9456 0 3
8.1452 27.8306 -0.0803 0.0919 0 2
8.1083 32.4912 -0.0928 0.0796 0 2
8.5202 41.1018 -0.1163 0.0653 0 24
1.9475 15.6144 -0.0436 0.8642 0 9
1.2045 27.5013 -0.0763 0.4789 0 9
0.0532 14.7479 -0.0409 0.5786 0 9
-31.6256 33.3145 -0.1273 0.6488 0 3
-31.4009 30.5242 -0.1213 0.6760 0 3
-31.3856 28.1487 -0.1168 0.7022 0 3
-33.4604 27.6681 -0.1203 0.6422 0 3
-36.3139 27.6499 -0.1264 0.6109 0 3
-31.3219 21.9198 -0.1059 0.7738 0 3
-31.3098 20.0885 -0.1031 0.7952 0 3
-31.2984 18.3505 -0.1005 0.8154 0 3
-30.5382 16.2940 -0.0959 0.6300 0 3
-36.7483 17.7503 -0.1131 0.4407 0 3
-35.0978 -33.0113 -0.1335 0.8900 0 20
-34.2550 -34.9144 -0.1355 0.9338 0 20
8.0136 -42.1377 -0.1188 0.1677 0 3
7.9407 -34.2080 -0.0973 0.1895 0 3
8.1315 -29.5827 -0.0850 0.0869 0 2
8.1628 -25.6231 -0.0745 0.0991 0 2
8.1870 -22.5286 -0.0664 0.1112 0 2
8.2061 -20.0362 -0.0600 0.1231 0 2
8.2217 -17.9799 -0.0548 0.1348 0 2
8.2345 -16.2493 -0.0505 0.1463 0 2
8.6028 -15.4087 -0.0489 0.1413 0 1
8.5480 -13.9622 -0.0454 0.1668 0 1
8.5650 -12.8055 -0.0427 0.1773 0 1
8.5863 -11.7844 -0.0404 0.1864 0 1
8.6008 -10.8598 -0.0384 0.1962 0 1
8.5999 -10.0055 -0.0366 0.2039 0 1
8.5708 -9.1973 -0.0348 0.2061 0 1
8.5618 -8.4782 -0.0334 0.2301 0 1
8.5558 -7.8174 -0.0321 0.2393 0 1
8.5576 -7.2105 -0.0310 0.2512 0 1
8.5886 -6.6659 -0.0301 0.2821 0 1
8.6206 -6.1525 -0.0293 0.2895 0 1
6.2731 -4.1072 -0.0208 0.5833 14 6
8.3288 -4.9873 -0.0269 0.2753 0 25
8.3306 -4.5443 -0.0263 0.2817 0 25
8.3322 -4.1201 -0.0258 0.2876 0 25
8.3336 -3.7122 -0.0253 0.2930 0 25
8.3349 -3.3185 -0.0249 0.2979 0 25
8.3360 -2.9370 -0.0245 0.3024 0 25
8.3369 -2.5661 -0.0242 0.3064 0 25
8.4443 -2.2322 -0.0242 0.3104 0 2
8.6433 -1.9171 -0.0245 0.3133 0 1
8.6579 -1.5586 -0.0244 0.3153 0 1
3.9576 -0.5495 -0.0111 0.9643 25 14
3.9487 -0.3874 -0.0110 0.9711 25 14
3.9241 -0.2264 -0.0109 0.9730 25 14
3.8984 -0.0682 -0.0108 0.9809 25 14
3.8969 0.0884 -0.0108 0.9812 25 14
3.9221 0.2468 -0.0109 0.9732 25 14
3.9478 0.4080 -0.0110 0.9637 25 14
3.9587 0.5706 -0.0111 0.9634 25 14
8.8583 1.6422 -0.0250 0.3076 0 1
8.8902 2.0204 -0.0253 0.3040 0 1
8.9267 2.4094 -0.0256 0.2989 0 1
8.9647 2.8103 -0.0260 0.2942 0 1
9.0037 3.2249 -0.0265 0.2868 0 1
9.0379 3.6529 -0.0270 0.2813 0 1
9.0733 4.0983 -0.0276 0.2755 0 1
9.0672 4.5423 -0.0281 0.2848 0 1
9.0533 4.9997 -0.0287 0.2793 0 1
9.0370 5.4754 -0.0293 0.2730 0 1
9.0174 5.9712 -0.0300 0.2667 0 1
8.9352 6.4473 -0.0305 0.2961 0 1
7.6241 16.7630 -0.2551 0.1447 0 2
7.5571 18.5587 -0.2776 0.1330 0 2
7.4753 20.7010 -0.3049 0.1211 0 2
7.3745 23.3119 -0.3387 0.1090 0 2
7.2466 26.5742 -0.3816 0.0967 0 2
7.0799 30.7829 -0.4376 0.0844 0 2
2.6960 14.3346 -0.2021 0.0604 0 9
6.8003 46.3278 -0.6486 0.0682 0 24
0.9734 14.8563 -0.2062 0.7429 0 9
-31.4708 37.5476 -0.6787 0.6082 0 3
-31.4503 31.9259 -0.6208 0.6649 0 3
-34.8611 32.6556 -0.6617 0.6882 0 3
-31.4316 27.1580 -0.5754 0.7173 0 3
-34.7380 27.6589 -0.6151 0.6278 0 3
-31.2620 22.9025 -0.5368 0.4354 0 3
-33.6975 22.6655 -0.5626 0.5634 0 3
-36.4485 22.4448 -0.5930 0.8081 0 3
-31.6564 17.7820 -0.5030 0.4953 0 3
-32.5630 16.6080 -0.5064 0.2802 0 3
-36.5134 16.8112 -0.5568 0.8318 0 3
-40.4410 16.6859 -0.6060 0.2807 0 3
-34.7130 -33.8811 -0.6720 0.9446 0 20
-33.6517 -35.5931 -0.6785 0.9324 0 20
-16.9335 -27.2160 -0.4440 0.8252 0 6
6.7099 -39.9821 -0.5616 0.0657 0 2
6.9783 -33.3229 -0.4716 0.0783 0 2
7.1711 -28.4895 -0.4070 0.0907 0 2
7.3162 -24.8113 -0.3583 0.1030 0 2
7.4291 -21.9102 -0.3205 0.1152 0 2
7.5193 -19.5566 -0.2902 0.1272 0 2
7.5929 -17.6034 -0.2656 0.1390 0 2
7.8130 -16.2829 -0.2502 0.9575 0 2
8.0227 -15.1307 -0.2372 0.1455 0 1
8.0138 -13.7499 -0.2205 0.1716 0 1
8.0615 -12.6367 -0.2076 0.1822 0 1
8.1056 -11.6466 -0.1966 0.1915 0 1
8.1435 -10.7531 -0.1869 0.2015 0 1
8.1724 -9.9357 -0.1782 0.2091 0 1
8.1740 -9.1616 -0.1701 0.2258 0 1
8.1841 -8.4630 -0.1631 0.2355 0 1
8.1927 -7.8179 -0.1569 0.2449 0 1
8.2178 -7.2343 -0.1517 0.2801 0 1
8.2606 -6.7030 -0.1474 0.2882 0 1
8.3005 -6.1997 -0.1435 0.2960 0 1
6.2338 -4.2772 -0.1047 0.8027 14 6
6.4997 -4.0859 -0.1064 0.5697 14 6
8.0266 -4.6069 -0.1282 0.2888 0 25
8.0346 -4.1919 -0.1255 0.2949 0 25
8.0416 -3.7930 -0.1232 0.3006 0 25
8.0479 -3.4080 -0.1211 0.3058 0 25
8.0534 -3.0351 -0.1192 0.3105 0 25
8.0582 -2.6727 -0.1176 0.3148 0 25
8.0623 -2.3192 -0.1162 0.3186 0 2
8.3542 -2.0438 -0.1191 0.3223 0 1
8.3421 -1.6891 -0.1179 0.3246 0 24
4.0858 -0.6578 -0.0573 0.3010 25 14
3.9450 -0.4735 -0.0550 0.9696 25 14
3.9344 -0.3127 -0.0547 0.9689 25 14
3.9085 -0.1531 -0.0542 0.9777 25 14
3.8831 0.0039 -0.0538 0.9849 25 14
3.9052 0.1609 -0.0541 0.9785 25 14
3.9305 0.3204 -0.0546 0.9698 25 14
3.9452 0.4817 -0.0551 0.9694 25 14
4.0780 0.6650 -0.0572 0.2640 25 14
8.5460 1.7484 -0.1208 0.3160 0 24
8.6063 2.1240 -0.1228 0.3118 0 1
8.6382 2.5038 -0.1246 0.3073 0 1
8.6704 2.8952 -0.1266 0.3024 0 1
8.6973 3.2979 -0.1289 0.2948 0 1
8.7244 3.7154 -0.1314 0.2892 0 1
8.7521 4.1498 -0.1342 0.2831 0 1
8.7351 4.5800 -0.1366 0.2929 0 1
8.7146 5.0253 -0.1394 0.2867 0 1
8.6892 5.4868 -0.1424 0.2806 0 1
8.6618 5.9691 -0.1457 0.2742 0 1
8.5774 6.4337 -0.1485 0.3042 0 1
8.4705 6.9018 -0.1514 0.2966 0 1
8.3697 7.3982 -0.1547 0.2901 0 1
8.3731 8.0226 -0.1606 0.2546 0 2
8.0011 8.3075 -0.1598 0.8069 0 2
7.8940 8.8840 -0.1646 0.2242 0 2
7.8718 9.6098 -0.1721 0.2145 0 2
6.7888 9.0022 -0.1562 0.8143 22 6
6.4491 9.3067 -0.1569 0.5618 22 6
7.7850 12.2580 -0.2012 0.1835 0 2
7.7471 13.3545 -0.2139 0.1726 0 2
7.7030 14.5991 -0.2287 0.1615 0 2
7.6511 16.0289 -0.2460 0.1500 0 2
7.5895 17.6941 -0.2667 0.1384 0 2
7.5152 19.6649 -0.2916 0.1266 0 2
7.4237 22.0414 -0.3222 0.1146 0 2
7.3095 24.9753 -0.3605 0.1024 0 2
7.1625 28.7010 -0.4098 0.0901 0 2
6.9668 33.6081 -0.4755 0.0776 0 2
7.0680 42.6464 -0.5988 0.0671 0 24
1.9536 15.6635 -0.2187 0.7742 0 9
2.1301 25.3211 -0.3520 0.7899 0 9
1.1216 25.6096 -0.3551 0.1159 0 9
-31.4548 33.1345 -0.6329 0.6522 0 3
-16.9223 16.4498 -0.3269 0.2856 0 6
-31.4358 28.1938 -0.5850 0.7057 0 3
-33.4592 27.6671 -0.6014 0.6421 0 3
-36.3125 27.6488 -0.6322 0.6108 0 3
-31.4071 21.9794 -0.5310 0.7773 0 3
-35.3104 22.6552 -0.5812 0.5453 0 3
-31.3908 18.4047 -0.5041 0.8188 0 3
-31.5659 16.8423 -0.4956 0.9611 0 3
-36.7463 17.7494 -0.5653 0.4407 0 3
-36.7575 15.9680 -0.5552 0.9490 0 3
-35.1953 -33.1030 -0.6693 0.9483 0 20
-34.1431 -34.8004 -0.6754 0.9398 0 20
5.7621 -38.7080 -0.5421 0.9439 0 6
6.8664 -36.1053 -0.5091 0.0725 0 2
7.0895 -30.5410 -0.4343 0.0850 0 2
7.2541 -26.3907 -0.3791 0.0974 0 2
7.3804 -23.1670 -0.3368 0.1096 0 2
7.4801 -20.5834 -0.3034 0.1217 0 2
7.5608 -18.4605 -0.2763 0.1336 0 2
7.6272 -16.6799 -0.2541 0.1453 0 2
8.1105 -16.0045 -0.2485 0.1727 0 2
8.0070 -14.3416 -0.2275 0.1517 0 1
8.0404 -13.1331 -0.2133 0.1774 0 1
8.0853 -12.0883 -0.2015 0.1890 0 1
8.1267 -11.1535 -0.1912 0.1969 0 1
8.1622 -10.3060 -0.1821 0.2067 0 1
8.1688 -9.5040 -0.1736 0.2213 0 1
8.1796 -8.7776 -0.1662 0.2311 0 1
8.1889 -8.1089 -0.1596 0.2406 0 1
8.1999 -7.4922 -0.1539 0.2531 0 1
8.2413 -6.9440 -0.1493 0.2845 0 1
8.2825 -6.4283 -0.1452 0.2925 0 1
8.2898 -5.9163 -0.1411 0.2523 0 1
6.2662 -4.1027 -0.1038 0.7707 14 6
8.0226 -4.8040 -0.1295 0.2858 0 25
8.0310 -4.3809 -0.1267 0.2921 0 25
8.0385 -3.9749 -0.1242 0.2980 0 25
8.0451 -3.5837 -0.1220 0.3035 0 25
8.0510 -3.2054 -0.1200 0.3084 0 25
8.0561 -2.8384 -0.1183 0.3129 0 25
8.0605 -2.4810 -0.1168 0.3169 0 25
8.3470 -2.2065 -0.1196 0.3201 0 1
8.3626 -1.8549 -0.1187 0.3238 0 1
8.3785 -1.5083 -0.1179 0.3258 0 1
3.9491 -0.5483 -0.0552 0.9663 25 14
3.9403 -0.3866 -0.0548 0.9731 25 14
3.9204 -0.2262 -0.0544 0.9739 25 14
3.8947 -0.0681 -0.0540 0.9818 25 14
3.8937 0.0883 -0.0540 0.9819 25 14
3.9188 0.2466 -0.0544 0.9740 25 14
3.9410 0.4073 -0.0549 0.9724 25 14
3.9502 0.5694 -0.0553 0.9653 25 14
8.5656 1.5880 -0.1207 0.3181 0 1
8.5930 1.9529 -0.1221 0.3145 0 1
8.6235 2.3275 -0.1237 0.3094 0 1
8.6555 2.7134 -0.1257 0.3047 0 1
8.6849 3.1107 -0.1278 0.2973 0 1
8.7119 3.5211 -0.1302 0.2918 0 1
8.7393 3.9474 -0.1328 0.2860 0 1
8.7439 4.3804 -0.1355 0.2954 0 1
8.7243 4.8181 -0.1381 0.2898 0 1
8.7011 5.2719 -0.1409 0.2835 0 1
8.6747 5.7442 -0.1441 0.2772 0 1
8.6290 6.2263 -0.1474 0.3066 0 1
7.1079 15.6280 -0.4282 0.1552 0 2
7.0036 17.1995 -0.4631 0.1435 0 2
6.8785 19.0483 -0.5051 0.1316 0 2
6.7261 21.2624 -0.5561 0.1195 0 2
6.5368 23.9711 -0.6196 0.1072 0 2
6.2957 27.3731 -0.7005 0.0949 0 2
5.9788 31.7895 -0.8067 0.0824 0 2
5.8681 39.9768 -1.0076 0.0709 0 1
1.6652 15.7122 -0.3940 0.4670 0 9
0.9988 15.2436 -0.3810 0.2508 0 9
0.4309 17.0478 -0.4253 0.7872 0 9
-31.2895 37.3314 -1.2148 0.6116 0 3
-31.5284 34.6868 -1.1690 0.6405 0 3
-31.2845 31.7576 -1.1117 0.6683 0 3
-17.6432 16.5270 -0.6029 0.3511 0 6
-31.2780 27.0253 -1.0309 0.7207 0 3
-34.7367 27.6579 -1.1073 0.6277 0 3
-31.2703 22.9085 -0.9667 0.7685 0 3
-33.6961 22.6646 -1.0127 0.5633 0 3
-36.2903 22.3474 -1.0629 0.8115 0 3
-31.6549 17.7811 -0.9054 0.4952 0 3
-31.4341 16.0322 -0.8800 0.4505 0 3
-38.5242 17.7370 -1.0577 0.4239 0 3
-41.4167 17.0885 -1.1173 0.8872 0 3
-34.6670 -33.8361 -1.2081 0.9742 0 20
-33.3641 -35.2890 -1.2111 0.9718 0 20
5.2689 -41.5574 -1.0447 0.0636 0 2
5.7850 -34.4710 -0.8717 0.0762 0 2
6.1522 -29.3784 -0.7485 0.0888 0 2
6.4266 -25.5315 -0.6566 0.1012 0 2
6.6389 -22.5146 -0.5854 0.1135 0 2
6.8079 -20.0783 -0.5287 0.1257 0 2
6.9454 -18.0640 -0.4826 0.1377 0 2
7.0956 -16.4504 -0.4468 0.9951 0 2
7.4647 -15.5571 -0.4303 0.1358 0 1
7.4721 -14.0922 -0.3978 0.1510 0 1
7.5065 -12.8795 -0.3718 0.1859 0 24
7.5913 -11.8995 -0.3520 0.1933 0 24
7.6591 -11.0050 -0.3344 0.2038 0 24
7.7163 -10.1889 -0.3187 0.2117 0 24
7.7546 -9.4277 -0.3044 0.2222 0 24
7.7808 -8.7209 -0.2915 0.2337 0 24
7.8050 -8.0710 -0.2800 0.2489 0 24
7.8312 -7.4730 -0.2700 0.2632 0 24
7.9228 -6.9746 -0.2632 0.2904 0 1
7.9722 -6.4689 -0.2560 0.2986 0 1
8.0003 -5.9754 -0.2490 0.2572 0 1
6.2504 -4.2886 -0.1890 0.8004 14 6
6.4844 -4.0763 -0.1910 0.5709 14 6
7.7448 -4.4451 -0.2227 0.2992 0 25
7.7581 -4.0477 -0.2182 0.3054 0 25
7.7700 -3.6648 -0.2142 0.3110 0 25
7.7805 -3.2948 -0.2107 0.3162 0 25
7.7898 -2.9357 -0.2076 0.3210 0 25
7.7979 -2.5863 -0.2049 0.3252 0 25
7.8146 -2.2479 -0.2028 0.4325 0 2
8.0902 -1.9792 -0.2077 0.3327 0 1
8.1075 -1.6416 -0.2063 0.3352 0 1
4.0228 -0.6476 -0.1016 0.3056 25 14
3.9365 -0.4725 -0.0989 0.9715 25 14
3.9278 -0.3121 -0.0983 0.9776 25 14
3.9049 -0.1529 -0.0975 0.9784 25 14
3.8794 0.0039 -0.0967 0.9856 25 14
3.9019 0.1607 -0.0974 0.9791 25 14
3.9272 0.3201 -0.0983 0.9704 25 14
3.9368 0.4807 -0.0989 0.9712 25 14
4.0198 0.6555 -0.1016 0.3058 25 14
8.3024 1.6986 -0.2113 0.3270 0 1
8.3257 2.0548 -0.2139 0.3231 0 1
8.3524 2.4210 -0.2169 0.3177 0 1
8.3764 2.7971 -0.2202 0.3105 0 1
8.3973 3.1842 -0.2240 0.3053 0 1
8.4179 3.5848 -0.2282 0.2997 0 1
8.4382 4.0010 -0.2329 0.2936 0 1
8.4318 4.4210 -0.2374 0.3033 0 1
8.4056 4.8471 -0.2420 0.2972 0 1
8.3746 5.2882 -0.2470 0.2911 0 1
8.3412 5.7481 -0.2526 0.2846 0 1
8.2910 6.2189 -0.2585 0.3147 0 1
8.1812 6.6661 -0.2632 0.3070 0 1
8.0777 7.1401 -0.2689 0.3005 0 1
7.9684 7.6348 -0.2752 0.2936 0 1
7.9839 8.2895 -0.2870 0.2572 0 2
7.5414 8.4873 -0.2831 0.2423 0 2
7.5041 9.1611 -0.2953 0.2250 0 2
6.7773 8.9868 -0.2807 0.8156 22 6
6.4736 9.3420 -0.2834 0.5595 22 6
7.3634 11.5941 -0.3425 0.1940 0 2
7.3025 12.5881 -0.3629 0.1831 0 2
7.2322 13.7069 -0.3865 0.1719 0 2
7.1503 14.9797 -0.4139 0.1605 0 2
7.0539 16.4455 -0.4463 0.1489 0 2
6.9391 18.1575 -0.4848 0.1371 0 2
6.8002 20.1902 -0.5313 0.1251 0 2
6.6294 22.6514 -0.5886 0.1129 0 2
6.4144 25.7034 -0.6607 0.1006 0 2
6.1362 29.6014 -0.7539 0.0881 0 2
2.3626 14.2554 -0.3604 0.1852 0 9
1.9671 15.7714 -0.3964 0.8715 0 9
2.1253 25.2639 -0.6323 0.9839 0 9
0.7456 17.0231 -0.4249 0.4570 0 9
0.0524 14.5256 -0.3622 0.4004 0 9
-31.2904 38.7669 -1.2424 0.5980 0 3
-31.5295 36.0041 -1.1935 0.6273 0 3
-31.2858 32.9565 -1.1332 0.6556 0 3
-33.6008 32.6626 -1.1686 0.7014 0 3
-31.1126 27.9039 -1.0422 0.9529 0 3
-33.4579 27.6661 -1.0827 0.6420 0 3
-31.2722 23.8110 -0.9802 0.7580 0 3
-31.2654 21.8802 -0.9517 0.7806 0 3
-35.3088 22.6542 -1.0462 0.5453 0 3
-31.2563 18.3258 -0.9036 0.8222 0 3
-36.2816 19.3584 -1.0255 0.8410 0 3
-33.8185 16.3352 -0.9366 0.2625 0 3
-40.7960 17.7223 -1.1092 0.4042 0 3
-41.9174 16.2417 -1.1211 0.8190 0 3
-35.0863 -33.0005 -1.2012 0.9510 0 20
-33.9651 -34.6189 -1.2095 0.9731 0 20
4.9540 -45.8561 -1.1502 0.0578 0 2
5.5706 -37.4218 -0.9435 0.0704 0 2
5.9972 -31.5348 -0.8005 0.0830 0 2
5.7256 -24.6655 -0.6315 0.8232 0 6
6.5474 -23.8197 -0.6161 0.1079 0 2
6.7346 -21.1400 -0.5533 0.1201 0 2
6.8854 -18.9470 -0.5027 0.1322 0 2
7.0093 -17.1141 -0.4612 0.1441 0 2
7.4744 -16.3456 -0.4482 0.9813 0 2
7.4676 -14.7360 -0.4120 0.1458 0 1
7.4664 -13.3732 -0.3820 0.1744 0 24
7.5549 -12.3401 -0.3608 0.1914 0 24
7.6288 -11.4058 -0.3422 0.1989 0 24
7.6924 -10.5576 -0.3258 0.2089 0 24
7.7390 -9.7717 -0.3109 0.2175 0 24
7.7697 -9.0397 -0.2973 0.2281 0 24
7.7936 -8.3633 -0.2851 0.2423 0 24
7.8188 -7.7424 -0.2744 0.2555 0 24
7.8468 -7.1696 -0.2651 0.2695 0 24
7.9499 -6.6985 -0.2593 0.2949 0 1
7.9973 -6.2069 -0.2525 0.3028 0 1
7.7049 -5.4989 -0.2361 0.2823 0 25
6.2679 -4.1038 -0.1868 0.9784 14 6
7.7381 -4.6336 -0.2249 0.2963 0 25
7.7521 -4.2288 -0.2202 0.3026 0 25
7.7647 -3.8395 -0.2160 0.3085 0 25
7.7758 -3.4637 -0.2123 0.3139 0 25
7.7857 -3.0998 -0.2090 0.3189 0 25
7.7943 -2.7462 -0.2061 0.3233 0 25
7.8036 -2.4019 -0.2036 0.4538 0 2
8.0821 -2.1365 -0.2085 0.3315 0 1
8.0995 -1.7965 -0.2069 0.3343 0 1
8.1165 -1.4612 -0.2057 0.3363 0 1
3.9405 -0.5471 -0.0992 0.9682 25 14
3.9318 -0.3858 -0.0985 0.9750 25 14
3.9167 -0.2260 -0.0978 0.9746 25 14
3.8911 -0.0680 -0.0971 0.9825 25 14
3.8904 0.0882 -0.0970 0.9826 25 14
3.9155 0.2464 -0.0978 0.9746 25 14
3.9326 0.4065 -0.0986 0.9743 25 14
3.9418 0.5682 -0.0993 0.9672 25 14
8.2916 1.5372 -0.2103 0.3296 0 1
8.3150 1.8897 -0.2127 0.3249 0 1
8.3401 2.2510 -0.2154 0.3199 0 1
8.3667 2.6228 -0.2187 0.3127 0 1
8.3877 3.0043 -0.2222 0.3077 0 1
8.4085 3.3985 -0.2262 0.3023 0 1
8.4289 3.8073 -0.2307 0.2964 0 1
8.4428 4.2295 -0.2355 0.3058 0 1
8.4184 4.6491 -0.2398 0.3003 0 1
8.3892 5.0829 -0.2446 0.2939 0 1
8.3569 5.5338 -0.2500 0.2877 0 1
8.3220 6.0048 -0.2559 0.2810 0 1
6.6570 14.6365 -0.5793 0.1657 0 2
6.5254 16.0253 -0.6234 0.1539 0 2
6.3695 17.6388 -0.6757 0.1420 0 2
6.1821 19.5427 -0.7385 0.1299 0 2
5.9531 21.8308 -0.8153 0.1177 0 2
5.6675 24.6421 -0.9110 0.1053 0 2
5.3021 28.1913 -1.0336 0.0929 0 2
2.2996 15.6661 -0.5705 0.8438 0 9
1.6998 16.0385 -0.5811 0.6627 0 9
1.1102 16.9441 -0.6118 0.2974 0 9
-0.2154 14.4702 -0.5214 0.7788 0 9
-29.2629 37.9063 -1.7254 0.6656 0 3
-31.1102 37.1175 -1.7450 0.6149 0 3
-31.1160 34.2330 -1.6668 0.6438 0 3
-31.1204 31.5910 -1.5978 0.6716 0 3
-34.8587 32.6534 -1.7209 0.6879 0 3
-31.1258 26.8938 -1.4821 0.7240 0 3
-34.7354 27.6568 -1.5998 0.6275 0 3
-30.9442 22.6696 -1.3821 0.8732 0 3
-33.6947 22.6636 -1.4631 0.5631 0 3
-36.1334 22.2508 -1.5289 0.8147 0 3
-31.6534 17.7803 -1.3081 0.4951 0 3
-35.1744 17.9399 -1.4227 0.8524 0 3
-35.2209 16.2161 -1.3971 0.2439 0 3
-42.9173 17.7076 -1.6728 0.3871 0 3
-34.5716 -33.7430 -1.7406 0.9782 0 20
-33.0741 -34.9822 -1.7346 0.9811 0 20
1.8699 -40.8026 -1.4717 0.7970 0 20
3.7236 -43.2130 -1.5627 0.0614 0 2
4.5215 -35.6627 -1.2952 0.0741 0 2
5.0838 -30.2930 -1.1067 0.0867 0 2
5.5007 -26.2674 -0.9670 0.0992 0 2
5.8218 -23.1288 -0.8593 0.1117 0 2
6.0762 -20.6060 -0.7740 0.1240 0 2
6.2824 -18.5283 -0.7049 0.1361 0 2
6.4527 -16.7824 -0.6478 0.1481 0 2
6.9663 -16.1507 -0.6337 0.1766 0 2
6.9373 -14.4580 -0.5778 0.1501 0 1
6.9879 -13.1790 -0.5375 0.1855 0 24
7.1385 -12.2481 -0.5108 0.1929 0 1
7.2316 -11.3358 -0.4845 0.2051 0 1
7.3099 -10.5032 -0.4611 0.2155 0 1
7.3776 -9.7416 -0.4403 0.2195 0 1
7.4246 -9.0266 -0.4211 0.2295 0 1
7.4661 -8.3682 -0.4041 0.2392 0 1
7.5112 -7.7672 -0.3893 0.2633 0 1
7.5320 -7.1874 -0.3751 0.2749 0 24
7.5730 -6.6666 -0.3635 0.2859 0 24
7.6115 -6.1762 -0.3532 0.2945 0 24
7.4159 -5.5390 -0.3335 0.2897 0 2
6.2670 -4.3000 -0.2738 0.7980 14 6
6.4692 -4.0667 -0.2753 0.5721 14 6
7.4819 -4.2942 -0.3108 0.3096 0 25
7.4999 -3.9130 -0.3048 0.3158 0 25
7.5159 -3.5450 -0.2994 0.3214 0 25
7.5302 -3.1887 -0.2946 0.3266 0 25
7.5427 -2.8426 -0.2904 0.3314 0 25
7.5537 -2.5053 -0.2867 0.3356 0 25
7.7612 -2.2326 -0.2910 0.3418 0 2
7.8422 -1.9186 -0.2909 0.3432 0 1
7.8608 -1.5916 -0.2890 0.3456 0 1
3.9617 -0.6378 -0.1446 0.3102 25 14
3.9280 -0.4715 -0.1425 0.9733 25 14
3.9194 -0.3115 -0.1417 0.9793 25 14
3.9012 -0.1528 -0.1407 0.9790 25 14
3.8758 0.0039 -0.1396 0.9862 25 14
3.8986 0.1606 -0.1406 0.9796 25 14
3.9195 0.3195 -0.1417 0.9792 25 14
3.9285 0.4796 -0.1426 0.9729 25 14
3.9647 0.6465 -0.1447 0.3100 25 14
8.0441 1.6457 -0.2958 0.3384 0 1
8.0632 1.9900 -0.2992 0.3335 0 1
8.0848 2.3434 -0.3033 0.3282 0 1
8.1015 2.7053 -0.3077 0.3209 0 1
8.1172 3.0780 -0.3128 0.3157 0 1
8.1320 3.4631 -0.3185 0.3101 0 1
8.1459 3.8624 -0.3248 0.3040 0 1
8.1488 4.2725 -0.3315 0.3138 0 1
8.1176 4.6810 -0.3376 0.3076 0 1
8.0819 5.1034 -0.3444 0.3016 0 1
8.0432 5.5428 -0.3519 0.2951 0 1
8.0012 6.0015 -0.3604 0.2882 0 1
7.9109 6.4458 -0.3677 0.3174 0 1
7.8052 6.8992 -0.3753 0.3109 0 1
7.6934 7.3714 -0.3839 0.3040 0 1
7.6710 7.9647 -0.3984 0.2682 0 2
7.4469 8.3809 -0.4040 0.8646 0 2
7.1691 8.7521 -0.4076 0.2354 0 2
6.7327 8.9277 -0.4029 0.8249 22 6
6.5066 9.3896 -0.4116 0.2151 22 6
6.9848 10.9981 -0.4694 0.2044 0 2
6.9059 11.9045 -0.4959 0.1935 0 2
6.8154 12.9170 -0.5262 0.1824 0 2
6.7108 14.0589 -0.5613 0.1710 0 2
6.5887 15.3609 -0.6022 0.1594 0 2
6.4448 16.8640 -0.6505 0.1475 0 2
6.2729 18.6245 -0.7081 0.1355 0 2
6.0646 20.7217 -0.7779 0.1234 0 2
5.8073 23.2708 -0.8642 0.1111 0 2
5.4823 26.4467 -0.9731 0.0986 0 2
2.2750 13.7266 -0.5013 0.8409 0 9
4.0867 32.7658 -1.1897 0.7976 0 19
2.1284 25.3013 -0.9148 0.9825 0 9
0.6783 15.4879 -0.5586 0.8138 0 9
-31.1071 38.5398 -1.7845 0.6013 0 3
-31.1135 35.5290 -1.7016 0.6306 0 3
-30.9527 32.6056 -1.6198 0.9724 0 3
-31.1225 30.2535 -1.5638 0.6352 0 3
-31.1249 27.9149 -1.5064 0.7123 0 3
-33.4567 27.6650 -1.5642 0.6418 0 3
-30.1420 22.9505 -1.3650 0.2938 0 3
-31.1249 21.7819 -1.3688 0.7839 0 3
-35.3073 22.6532 -1.5115 0.5451 0 3
-31.1229 18.2476 -1.2999 0.8254 0 3
-36.1302 19.2776 -1.4755 0.8442 0 3
-35.3846 17.0916 -1.4159 0.2519 0 3
-40.7937 17.7213 -1.6025 0.4041 0 3
-43.5511 16.8748 -1.6828 0.2662 0 3
-35.1683 -33.0776 -1.7395 0.9788 0 20
-33.8715 -34.5236 -1.7426 0.9771 0 20
2.6195 -38.7719 -1.4002 0.4826 0 6
4.1913 -38.7956 -1.4060 0.0683 0 2
4.8470 -32.5609 -1.1861 0.0809 0 2
5.3230 -27.9896 -1.0265 0.0935 0 2
4.3158 -18.5919 -0.6877 0.7021 0 6
5.9659 -21.7041 -0.8110 0.1183 0 2
6.1925 -19.4382 -0.7350 0.1306 0 2
6.3781 -17.5509 -0.6728 0.1426 0 2
6.7749 -16.5417 -0.6441 0.9970 0 2
6.9138 -15.1197 -0.5990 0.1409 0 1
6.9833 -13.7803 -0.5566 0.1781 0 1
7.0937 -12.7057 -0.5243 0.1879 0 1
7.1894 -11.7431 -0.4961 0.2013 0 1
7.2750 -10.8768 -0.4715 0.2107 0 1
7.3483 -10.0853 -0.4496 0.2210 0 1
7.4037 -9.3483 -0.4297 0.2250 0 1
7.4477 -8.6650 -0.4117 0.2348 0 1
