ply
format ascii 1.0
element vertex 1565
property float32 x
property float32 y
property float32 z
property float32 I
end_header
3.8870 0.3396 -1.2154 0.9838
3.8912 0.4982 -1.2220 0.9837
3.9253 0.8274 -1.2496 0.9833
4.5358 1.3443 -1.4736 0.9804
4.5108 1.5366 -1.4844 0.9802
4.4818 1.7307 -1.4965 0.9801
4.4108 2.1248 -1.5250 0.9797
4.3222 2.5284 -1.5598 0.9792
4.2706 2.7343 -1.5796 0.9790
4.2139 2.9433 -1.6011 0.9787
4.1523 3.1559 -1.6246 0.9784
4.0851 3.3722 -1.6500 0.9781
3.8465 4.0460 -1.7390 0.9769
3.5359 4.7537 -1.8455 0.9755
3.4161 5.0004 -1.8864 0.9749
3.2873 5.2533 -1.9304 0.9744
2.6627 6.3268 -2.1382 0.9717
1.8111 7.4794 -2.3971 0.9683
1.0053 8.5544 -2.6830 0.9646
0.6871 8.9301 -2.7899 0.9632
0.3403 9.2953 -2.8974 0.9618
-0.0348 9.6710 -3.0125 0.9603
-0.4412 10.0680 -3.1391 0.9587
-2.4876 11.9893 -3.8142 0.9500
-3.1335 12.5447 -4.0277 0.9473
-3.8355 13.0930 -4.2498 0.9444
-5.5325 14.4627 -4.8234 0.9372
-6.5076 15.1565 -5.1380 0.9332
-11.9859 18.8511 -6.9585 0.9107
-24.7762 25.6885 -11.1172 0.8611
-22.5458 19.8975 -9.3668 0.8816
-32.5245 22.3706 -12.2963 0.8476
-33.9231 17.7430 -11.9250 0.8518
-37.4694 17.7183 -12.9107 0.8406
-32.3499 13.7352 -10.9475 0.8631
-24.2035 -25.1392 -10.8702 0.8640
-17.9653 -21.9434 -8.8339 0.8880
-9.9407 -17.1518 -6.1752 0.9203
-7.3224 -15.3592 -5.3002 0.9312
-4.4652 -13.2833 -4.3652 0.9430
-2.3971 -11.6051 -3.6912 0.9516
-1.8411 -11.1598 -3.5232 0.9537
-0.8524 -10.2326 -3.1985 0.9579
-0.4208 -9.8001 -3.0555 0.9597
-0.0254 -9.3604 -2.9158 0.9615
0.3374 -8.9987 -2.8050 0.9630
0.9791 -8.2677 -2.5934 0.9657
1.2630 -7.9235 -2.4993 0.9669
1.5211 -7.5713 -2.4055 0.9682
1.7696 -7.2800 -2.3337 0.9691
2.7504 -5.8507 -2.0138 0.9733
3.0539 -5.3358 -1.9151 0.9746
3.2963 -4.8159 -1.8179 0.9758
3.5990 -4.0968 -1.6986 0.9774
3.6865 -3.8709 -1.6651 0.9779
3.8569 -3.4475 -1.6114 0.9786
4.0040 -3.0376 -1.5655 0.9792
4.0696 -2.8372 -1.5453 0.9794
4.1876 -2.4447 -1.5105 0.9799
4.2879 -2.0609 -1.4819 0.9803
4.3714 -1.6836 -1.4592 0.9806
4.4071 -1.4969 -1.4498 0.9807
3.9183 -0.6591 -1.2377 0.9835
3.8844 -0.1791 -1.2113 0.9838
3.8743 -0.0228 -1.2068 0.9839
3.8789 0.1332 -1.2090 0.9839
3.9038 0.7715 -1.2395 0.9835
4.2794 1.0259 -1.3708 0.9817
4.5428 1.2842 -1.4705 0.9804
4.5191 1.4760 -1.4809 0.9803
4.4914 1.6695 -1.4926 0.9801
4.3374 2.4643 -1.5539 0.9793
4.2323 2.8773 -1.5942 0.9788
4.1722 3.0886 -1.6170 0.9785
3.9582 3.7459 -1.6976 0.9774
3.7834 4.2059 -1.7622 0.9766
3.6830 4.4410 -1.7972 0.9761
3.5717 4.6773 -1.8332 0.9756
3.4547 4.9222 -1.8732 0.9751
3.3288 5.1731 -1.9162 0.9746
3.0462 5.6920 -2.0110 0.9733
2.8884 5.9613 -2.0634 0.9726
2.5360 6.5230 -2.1800 0.9711
2.3357 6.8058 -2.2413 0.9703
2.1193 7.0913 -2.3054 0.9695
1.8874 7.3852 -2.3744 0.9686
1.6434 7.7096 -2.4555 0.9675
1.3827 8.0637 -2.5485 0.9663
1.0994 8.4342 -2.6495 0.9650
0.4523 9.1803 -2.8631 0.9622
0.0863 9.5513 -2.9753 0.9608
-0.3098 9.9376 -3.0970 0.9592
-0.7415 10.3740 -3.2397 0.9574
-1.2144 10.8414 -3.3982 0.9553
-1.7240 11.2738 -3.5526 0.9533
-2.2974 11.8217 -3.7513 0.9508
-2.9109 12.3133 -3.9413 0.9484
-3.6026 12.8998 -4.1720 0.9454
-4.3847 13.5697 -4.4421 0.9420
-6.1906 14.9358 -5.0362 0.9345
-8.4113 16.4238 -5.7479 0.9256
-9.7811 17.3431 -6.2022 0.9200
-11.4053 18.4487 -6.7562 0.9131
-15.4015 20.9427 -8.0977 0.8968
-23.5331 25.0249 -10.7005 0.8660
-22.5520 20.4156 -9.4758 0.8803
-22.6880 17.4390 -8.9137 0.8870
-32.9169 17.7501 -11.6492 0.8550
-31.2058 13.7173 -10.6181 0.8669
-42.6726 16.7456 -14.2792 0.8253
-33.9834 -24.8267 -13.1096 0.8383
-28.1889 -26.3412 -12.0177 0.8508
-24.9419 -25.2594 -11.0576 0.8618
-22.0850 -24.2416 -10.2150 0.8716
-18.8616 -22.4533 -9.1344 0.8844
-17.0390 -22.0233 -8.6737 0.8899
-12.1021 -18.5487 -6.8989 0.9114
-10.4222 -17.4699 -6.3366 0.9183
-6.5747 -14.8295 -5.0530 0.9343
-5.5927 -14.1205 -4.7309 0.9384
-3.9387 -12.8820 -4.1961 0.9451
-3.2336 -12.3277 -3.9699 0.9480
3.8757 -3.1122 -1.6089 0.9793
3.9445 -2.9147 -1.5876 0.9796
4.1230 -2.3377 -1.5342 0.9803
4.1738 -2.1496 -1.5197 0.9805
4.2202 -1.9631 -1.5066 0.9806
4.2625 -1.7781 -1.4950 0.9808
4.3008 -1.5943 -1.4847 0.9809
4.3351 -1.4117 -1.4758 0.9810
3.9013 -0.1305 -1.2636 0.9837
3.8955 0.0263 -1.2610 0.9838
3.9010 0.1833 -1.2641 0.9837
3.9213 0.6632 -1.2873 0.9834
4.4695 1.1314 -1.4924 0.9808
4.4484 1.3184 -1.5018 0.9807
4.3940 1.6968 -1.5247 0.9804
4.3606 1.8886 -1.5382 0.9802
4.2808 2.2784 -1.5697 0.9798
4.1257 2.8817 -1.6290 0.9791
3.9971 3.2995 -1.6777 0.9784
3.8450 3.7320 -1.7345 0.9777
3.5652 4.4112 -1.8359 0.9764
3.4530 4.6423 -1.8728 0.9760
3.3343 4.8807 -1.9133 0.9755
3.2064 5.1241 -1.9566 0.9749
3.0683 5.3720 -2.0026 0.9743
2.9201 5.6261 -2.0518 0.9737
2.7609 5.8867 -2.1047 0.9730
2.2075 6.7069 -2.2855 0.9708
1.9907 6.9816 -2.3500 0.9699
1.7589 7.2638 -2.4192 0.9691
1.2542 7.9132 -2.5935 0.9669
-0.4247 9.6904 -3.1398 0.9600
-0.8498 10.0932 -3.2787 0.9583
-1.3138 10.5243 -3.4331 0.9564
-1.8116 10.9211 -3.5834 0.9545
-2.3688 11.4169 -3.7743 0.9522
-3.6310 12.3948 -4.1807 0.9471
-5.2004 13.5943 -4.7114 0.9406
-6.1015 14.2106 -5.0060 0.9370
-7.0896 14.8371 -5.3228 0.9332
-8.1799 15.4864 -5.6692 0.9290
-9.4317 16.2404 -6.0792 0.9241
-14.5798 19.3093 -7.8319 0.9033
-24.9366 23.8572 -11.1710 0.8649
-22.4612 19.8228 -9.6971 0.8817
-27.8239 19.1374 -10.9312 0.8676
-28.2181 17.7819 -10.7964 0.8692
-37.4209 19.5725 -13.6698 0.8373
-37.4672 17.7172 -13.4155 0.8401
-41.1800 13.6980 -14.0479 0.8332
-24.9600 -17.2002 -9.8120 0.8803
-37.6198 -28.2192 -15.2225 0.8206
-24.8529 -23.8192 -11.1429 0.8653
-18.4698 -20.7953 -9.0030 0.8896
-13.9709 -18.5370 -7.5137 0.9070
-12.1607 -17.5614 -6.9144 0.9141
-10.5619 -16.6439 -6.3808 0.9205
-9.1668 -15.8165 -5.9174 0.9260
-6.8389 -14.3451 -5.1441 0.9354
-5.8710 -13.7072 -4.8268 0.9392
-3.5221 -12.0627 -4.0677 0.9485
-2.8700 -11.5332 -3.8471 0.9513
-2.2964 -11.1171 -3.6745 0.9534
-1.7592 -10.6637 -3.4984 0.9556
-1.2681 -10.2324 -3.3375 0.9576
-0.4045 -9.4209 -3.0523 0.9611
0.3254 -8.6780 -2.8110 0.9641
1.2233 -7.6745 -2.5156 0.9679
1.4797 -7.3651 -2.4317 0.9689
1.7177 -7.0663 -2.3539 0.9699
2.8352 -5.4508 -1.9888 0.9745
2.9782 -5.2036 -1.9407 0.9751
3.1028 -4.9487 -1.8907 0.9757
3.3246 -4.4614 -1.8010 0.9769
3.5174 -4.0039 -1.7251 0.9778
3.7770 -3.3760 -1.6398 0.9789
3.8529 -3.1748 -1.6160 0.9792
3.9887 -2.7807 -1.5739 0.9798
4.0495 -2.5877 -1.5556 0.9800
4.1583 -2.2085 -1.5241 0.9804
4.2497 -1.8361 -1.4985 0.9807
4.2892 -1.6520 -1.4878 0.9809
4.3247 -1.4690 -1.4784 0.9810
4.4318 -0.7455 -1.4547 0.9813
4.4497 -0.5657 -1.4519 0.9813
3.9159 -0.3387 -1.2723 0.9836
3.8992 0.1339 -1.2629 0.9837
3.9053 0.2915 -1.2677 0.9837
3.9124 0.4508 -1.2748 0.9836
4.4316 1.4474 -1.5091 0.9806
4.4037 1.6369 -1.5207 0.9804
4.3716 1.8281 -1.5338 0.9803
4.3352 2.0212 -1.5483 0.9801
4.2945 2.2165 -1.5643 0.9799
4.2492 2.4142 -1.5819 0.9797
4.1992 2.6144 -1.6012 0.9794
4.1441 2.8173 -1.6221 0.9792
4.0841 3.0234 -1.6448 0.9789
4.0188 3.2330 -1.6695 0.9785
3.7869 3.8839 -1.7559 0.9775
3.6965 4.1093 -1.7891 0.9770
3.5987 4.3394 -1.8248 0.9766
3.3725 4.8052 -1.9003 0.9756
3.2478 5.0473 -1.9428 0.9751
3.1128 5.2935 -1.9878 0.9745
2.8122 5.8040 -2.0876 0.9732
2.4655 6.3415 -2.2024 0.9718
2.2725 6.6215 -2.2661 0.9710
2.0604 6.8945 -2.3292 0.9702
1.8335 7.1742 -2.3969 0.9693
1.5926 7.4714 -2.4728 0.9684
1.3384 7.8054 -2.5634 0.9673
1.0629 8.1537 -2.6616 0.9660
0.4366 8.8608 -2.8717 0.9634
0.0833 9.2158 -2.9832 0.9620
-0.2985 9.5748 -3.1008 0.9605
-0.7120 9.9608 -3.2325 0.9589
-1.6491 10.7837 -3.5312 0.9552
-2.1897 11.2674 -3.7154 0.9529
-3.4267 12.2700 -4.1237 0.9478
-4.1422 12.8194 -4.3608 0.9449
-4.9340 13.4031 -4.6232 0.9417
-6.7678 14.6362 -5.2197 0.9345
-7.8240 15.2770 -5.5559 0.9304
-9.0184 15.9907 -5.9425 0.9257
-10.3950 16.8144 -6.3989 0.9202
-17.7054 20.4129 -8.7468 0.8926
-20.4800 21.7782 -9.6769 0.8819
-23.7729 23.3262 -10.7809 0.8693
-22.4487 20.3221 -9.8018 0.8805
-27.8662 19.6898 -11.0447 0.8664
-32.6678 17.6157 -12.0138 0.8555
-31.1993 13.7145 -11.0317 0.8665
-24.2481 -17.7146 -9.7204 0.8814
-29.2646 -25.2216 -12.5055 0.8501
-26.0819 -24.3723 -11.5550 0.8606
-19.3336 -21.2215 -9.2926 0.8863
-11.0399 -16.9207 -6.5398 0.9186
-8.3060 -15.2873 -5.6317 0.9295
-7.1686 -14.5600 -5.2533 0.9340
-6.1612 -13.8970 -4.9207 0.9381
-5.2689 -13.3029 -4.6315 0.9416
3.7979 -3.0497 -1.6365 0.9797
4.1829 -1.7449 -1.5228 0.9811
4.2210 -1.5647 -1.5125 0.9812
4.2864 -1.2076 -1.4962 0.9814
4.4060 0.0298 -1.4804 0.9816
4.4147 0.3857 -1.4889 0.9815
4.4138 0.5652 -1.4951 0.9814
4.4094 0.7458 -1.5025 0.9813
4.4012 0.9277 -1.5112 0.9812
4.3849 1.1100 -1.5197 0.9811
4.3636 1.2933 -1.5291 0.9810
4.3384 1.4779 -1.5399 0.9808
4.3091 1.6640 -1.5520 0.9807
4.2377 2.0414 -1.5804 0.9803
4.1955 2.2331 -1.5969 0.9801
4.1488 2.4270 -1.6149 0.9799
3.9122 3.2295 -1.7044 0.9788
3.8395 3.4380 -1.7316 0.9785
3.4837 4.3104 -1.8621 0.9769
3.3734 4.5352 -1.8991 0.9764
3.2558 4.7657 -1.9392 0.9759
2.9920 5.2385 -2.0269 0.9749
2.6889 5.7331 -2.1276 0.9736
2.1465 6.5216 -2.3068 0.9714
1.7093 7.0588 -2.4402 0.9698
1.4686 7.3438 -2.5162 0.9689
1.2145 7.6631 -2.6068 0.9678
0.3169 8.6573 -2.9106 0.9641
-0.4094 9.3426 -3.1420 0.9613
-0.8165 9.6985 -3.2701 0.9598
-1.2605 10.0973 -3.4188 0.9580
-2.2609 10.8970 -3.7392 0.9541
-2.8224 11.2994 -3.9130 0.9520
-4.1472 12.3014 -4.3616 0.9467
-5.7392 13.3668 -4.8875 0.9405
-6.6454 13.9075 -5.1787 0.9370
-7.6114 14.4101 -5.4754 0.9335
-8.7443 15.0568 -5.8500 0.9292
-9.9966 15.7224 -6.2598 0.9244
-11.4545 16.5104 -6.7515 0.9187
-16.7525 18.8282 -8.4675 0.8991
-18.9004 19.5964 -9.1474 0.8915
-22.4353 18.2500 -9.7168 0.8851
-22.5431 16.8788 -9.4619 0.8880
-28.0079 17.6494 -11.1227 0.8696
-42.1014 15.9106 -15.1217 0.8270
-41.3231 13.7456 -14.6318 0.8321
-24.9926 -17.2226 -10.1978 0.8798
-21.6025 -20.7040 -10.0532 0.8814
-16.9159 -19.0458 -8.5586 0.8981
-12.7043 -16.8564 -7.0918 0.9148
-11.1309 -16.0742 -6.5691 0.9208
-7.4028 -14.0453 -5.3343 0.9352
-6.4157 -13.4574 -5.0090 0.9390
-4.7376 -12.4176 -4.4654 0.9455
-4.0127 -11.9372 -4.2312 0.9482
-2.1932 -10.6177 -3.6427 0.9553
-0.7859 -9.4340 -3.1807 0.9608
0.3141 -8.3774 -2.8166 0.9652
0.9165 -7.7395 -2.6185 0.9676
1.1858 -7.4394 -2.5311 0.9687
1.4358 -7.1468 -2.4492 0.9697
1.6684 -6.8633 -2.3731 0.9706
1.8791 -6.5680 -2.2953 0.9716
2.4496 -5.8061 -2.1173 0.9738
2.6132 -5.5588 -2.0637 0.9744
3.0285 -4.8303 -1.9155 0.9762
3.2488 -4.3596 -1.8267 0.9773
3.6998 -3.3070 -1.6673 0.9793
4.0273 -2.3511 -1.5668 0.9805
4.1267 -1.9834 -1.5383 0.9809
4.2094 -1.6213 -1.5156 0.9811
4.2770 -1.2635 -1.4984 0.9814
4.3943 -0.2026 -1.4780 0.9816
4.4033 -0.0259 -1.4795 0.9816
4.4143 0.3295 -1.4873 0.9815
4.4112 0.6888 -1.5000 0.9813
4.3707 1.2355 -1.5260 0.9810
4.2866 1.7926 -1.5611 0.9806
4.2093 2.1726 -1.5915 0.9802
4.1140 2.5613 -1.6282 0.9798
4.0589 2.7594 -1.6490 0.9795
3.9990 2.9604 -1.6717 0.9792
3.7861 3.5830 -1.7514 0.9782
3.6129 4.0164 -1.8151 0.9775
3.4089 4.4641 -1.8871 0.9766
3.2937 4.6928 -1.9263 0.9761
2.7394 5.6538 -2.1108 0.9738
2.5749 5.9082 -2.1654 0.9732
2.2088 6.4360 -2.2862 0.9717
0.7368 8.2169 -2.7718 0.9658
0.4213 8.5511 -2.8765 0.9645
-0.2879 9.2352 -3.1044 0.9618
-0.6848 9.5809 -3.2272 0.9603
-1.5844 10.3609 -3.5215 0.9567
-2.0860 10.7338 -3.6738 0.9549
-2.6382 11.1599 -3.8529 0.9528
-3.9098 12.1000 -4.2723 0.9478
-4.6409 12.6070 -4.5136 0.9449
-7.3192 14.2912 -5.3947 0.9345
-8.3846 14.8669 -5.7347 0.9305
-10.9704 16.2470 -6.5866 0.9206
-12.5841 17.1116 -7.1365 0.9143
-14.4074 18.0258 -7.7531 0.9072
-16.6948 19.2478 -8.5606 0.8981
-18.1131 19.2614 -8.8834 0.8944
-23.8313 21.5737 -10.8004 0.8732
-27.8229 18.0279 -11.1388 0.8694
-30.0376 17.7913 -11.7295 0.8630
-36.3628 17.7607 -13.5967 0.8430
-31.1938 13.7121 -11.4484 0.8661
-24.1772 -17.6628 -10.0599 0.8813
-29.9734 -23.8019 -12.8595 0.8509
-22.5616 -21.0828 -10.3748 0.8778
-19.6664 -19.9168 -9.4042 0.8886
-17.8872 -19.6339 -8.9237 0.8940
-15.2123 -18.1090 -7.9462 0.9050
-13.2374 -17.1097 -7.2682 0.9128
-11.6057 -16.3154 -6.7271 0.9190
-10.1564 -15.5666 -6.2449 0.9246
-5.7866 -13.0520 -4.7969 0.9415
3.6493 -3.1799 -1.6862 0.9797
3.8539 -2.6150 -1.6224 0.9805
3.9128 -2.4313 -1.6048 0.9807
4.0638 -1.8903 -1.5613 0.9812
4.1057 -1.7127 -1.5497 0.9813
4.1435 -1.5360 -1.5394 0.9815
4.1782 -1.3606 -1.5307 0.9816
4.2363 -1.0116 -1.5173 0.9817
4.2963 -0.4912 -1.5064 0.9819
4.3092 -0.3179 -1.5052 0.9819
4.3186 -0.1444 -1.5053 0.9819
4.3272 0.0293 -1.5075 0.9818
4.3294 0.7322 -1.5296 0.9816
4.3203 0.9106 -1.5381 0.9815
4.2561 1.4499 -1.5663 0.9811
4.1932 1.8161 -1.5919 0.9808
4.1553 2.0017 -1.6068 0.9807
4.1131 2.1892 -1.6231 0.9805
4.0148 2.5705 -1.6607 0.9800
3.7578 3.3649 -1.7572 0.9789
3.5945 3.7809 -1.8173 0.9781
3.5029 3.9944 -1.8508 0.9777
3.4041 4.2119 -1.8866 0.9773
3.1796 4.6542 -1.9636 0.9764
3.0537 4.8801 -2.0054 0.9759
2.9189 5.1105 -2.0502 0.9754
2.7746 5.3458 -2.0982 0.9748
2.4545 5.8322 -2.2043 0.9736
1.4250 7.1258 -2.5315 0.9697
1.1770 7.4266 -2.6194 0.9687
0.3060 8.3594 -2.9140 0.9652
-0.3951 9.0144 -3.1433 0.9625
-1.2107 9.6987 -3.4049 0.9594
-3.2910 11.2341 -4.0780 0.9516
-4.6211 12.0800 -4.5056 0.9467
-7.1624 13.5601 -5.3423 0.9371
-13.6140 16.5986 -7.4785 0.9131
-15.4603 17.3759 -8.1022 0.9062
-16.8771 17.4985 -8.4691 0.9021
-21.7277 19.1755 -10.0952 0.8845
-22.3603 18.1889 -10.0412 0.8851
-25.3863 15.9974 -10.4530 0.8806
-30.8703 17.7615 -12.4070 0.8600
-28.9823 13.7050 -11.1682 0.8730
-32.1862 13.6657 -12.1812 0.8623
-41.1876 13.7006 -15.1211 0.8321
-29.5849 -17.0568 -11.8964 0.8653
-24.9938 -17.2235 -10.5740 0.8794
-24.6287 -20.0704 -11.0678 0.8741
-21.6668 -19.1559 -10.0748 0.8847
-19.6862 -18.8674 -9.4990 0.8909
-17.1414 -17.8041 -8.6096 0.9006
-13.1848 -16.1043 -7.2505 0.9156
-11.6454 -15.4515 -6.7403 0.9213
-7.9380 -13.6964 -5.5147 0.9351
-6.9394 -13.1660 -5.1846 0.9389
-5.2349 -12.2221 -4.6318 0.9452
-4.4941 -11.7792 -4.3919 0.9480
-3.1946 -10.9408 -3.9705 0.9529
-1.6150 -9.7896 -3.4564 0.9588
-0.7561 -9.0763 -3.1728 0.9622
-0.3752 -8.7374 -3.0466 0.9636
0.3035 -8.0948 -2.8219 0.9663
1.1503 -7.2167 -2.5458 0.9695
1.8276 -6.3879 -2.3146 0.9722
2.2155 -5.9030 -2.1964 0.9736
2.5489 -5.4220 -2.0871 0.9749
2.8349 -4.9533 -1.9882 0.9761
3.1757 -4.2616 -1.8515 0.9777
3.2731 -4.0425 -1.8120 0.9782
3.4581 -3.6310 -1.7468 0.9790
3.5446 -3.4343 -1.7193 0.9793
3.6252 -3.2403 -1.6938 0.9796
3.7002 -3.0490 -1.6702 0.9799
3.7699 -2.8600 -1.6484 0.9802
3.8345 -2.6733 -1.6284 0.9804
3.8947 -2.4888 -1.6101 0.9806
4.0929 -1.7684 -1.5532 0.9813
4.1321 -1.5915 -1.5425 0.9814
4.1677 -1.4156 -1.5333 0.9815
4.2281 -1.0663 -1.5190 0.9817
4.2529 -0.8925 -1.5138 0.9818
4.2740 -0.7190 -1.5098 0.9818
4.2915 -0.5456 -1.5070 0.9818
4.3055 -0.3723 -1.5055 0.9819
4.3247 -0.0254 -1.5066 0.9818
4.3350 0.3236 -1.5144 0.9818
4.3350 0.4995 -1.5201 0.9817
4.3087 1.0330 -1.5435 0.9814
4.2886 1.2123 -1.5525 0.9813
4.1677 1.9432 -1.6019 0.9807
4.1268 2.1300 -1.6178 0.9805
3.7047 3.5059 -1.7769 0.9786
3.6218 3.7146 -1.8073 0.9783
3.5324 3.9269 -1.8400 0.9779
3.3321 4.3635 -1.9126 0.9770
2.5078 5.7543 -2.1867 0.9738
2.3342 6.0039 -2.2440 0.9731
1.7334 6.7825 -2.4387 0.9708
1.5012 7.0427 -2.5085 0.9700
1.2570 7.3305 -2.5909 0.9690
0.9959 7.6399 -2.6840 0.9679
0.4069 8.2588 -2.8806 0.9656
-0.2777 8.9086 -3.1049 0.9630
-0.6603 9.2377 -3.2263 0.9615
-1.0733 9.5815 -3.3587 0.9600
-1.5204 9.9423 -3.5038 0.9583
-2.0025 10.3044 -3.6568 0.9565
-3.1004 11.1016 -4.0153 0.9523
-3.7123 11.4888 -4.2060 0.9501
-5.9636 12.8970 -4.9499 0.9416
-6.8659 13.4063 -5.2471 0.9382
-8.9109 14.4138 -5.9033 0.9307
-10.1068 14.9681 -6.2917 0.9264
-13.0624 16.3430 -7.2883 0.9152
-14.8753 17.1500 -7.9086 0.9083
-22.3239 18.6330 -10.1297 0.8841
-22.4240 17.2361 -9.8526 0.8871
-27.6183 19.5147 -11.7805 0.8665
-27.7016 17.9493 -11.4989 0.8695
-29.9976 17.7676 -12.1455 0.8627
-31.0807 16.7599 -12.3012 0.8611
-32.6939 15.9686 -12.6752 0.8572
-24.0081 -17.5392 -10.3576 0.8817
-25.6501 -20.3688 -11.4102 0.8705
-18.0667 -18.2967 -8.9575 0.8968
-15.5395 -17.0570 -8.0381 0.9069
-7.2416 -13.3283 -5.2841 0.9378
-6.3184 -12.8333 -4.9831 0.9412
-4.0228 -11.4848 -4.2392 0.9498
-3.3836 -11.0666 -4.0314 0.9522
-2.7994 -10.6724 -3.8436 0.9543
3.6498 -2.9308 -1.6890 0.9803
3.7175 -2.7469 -1.6679 0.9805
3.7802 -2.5650 -1.6484 0.9808
3.8932 -2.2073 -1.6149 0.9811
3.9432 -2.0308 -1.6005 0.9813
3.9890 -1.8555 -1.5875 0.9815
4.0306 -1.6814 -1.5759 0.9816
4.1339 -1.1646 -1.5497 0.9819
4.2041 -0.6527 -1.5352 0.9821
4.2204 -0.4825 -1.5328 0.9821
4.2331 -0.3123 -1.5316 0.9821
4.2583 0.3721 -1.5424 0.9820
4.2231 1.0691 -1.5719 0.9816
4.2017 1.2453 -1.5813 0.9815
4.1133 1.7815 -1.6175 0.9811
3.9865 2.3320 -1.6665 0.9806
3.9350 2.5195 -1.6860 0.9803
3.8786 2.7091 -1.7071 0.9801
3.8176 2.9015 -1.7302 0.9798
3.6789 3.2942 -1.7819 0.9792
3.6008 3.4950 -1.8107 0.9789
3.5165 3.6989 -1.8416 0.9785
3.2225 4.3325 -1.9483 0.9773
2.5541 5.4457 -2.1704 0.9747
2.0304 6.1688 -2.3434 0.9728
1.8308 6.4206 -2.4091 0.9720
1.6170 6.6777 -2.4792 0.9712
1.3853 6.9272 -2.5491 0.9704
1.1415 7.2025 -2.6314 0.9695
0.8805 7.4925 -2.7222 0.9684
0.5987 7.7808 -2.8159 0.9674
0.2957 8.0774 -2.9166 0.9662
-0.3808 8.6894 -3.1385 0.9637
-1.1643 9.3269 -3.3916 0.9608
-1.6018 9.6565 -3.5320 0.9592
-2.0728 9.9904 -3.6817 0.9575
-3.1383 10.7131 -4.0281 0.9536
-3.7275 11.0565 -4.2102 0.9516
-5.1140 11.9107 -4.6772 0.9464
-6.7336 12.7482 -5.2023 0.9405
-7.6261 13.1313 -5.4794 0.9375
-9.7511 14.0551 -6.1726 0.9298
-12.3775 15.0911 -7.0427 0.9204
-14.0055 15.7409 -7.6027 0.9143
-16.1225 16.7162 -8.3801 0.9060
-24.1327 16.5986 -10.5689 0.8829
-28.2140 17.7792 -12.0334 0.8678
-27.8378 16.0167 -11.5888 0.8723
-27.7434 14.5108 -11.2974 0.8753
-28.9855 13.7065 -11.5694 0.8725
-29.3739 -16.9351 -12.2345 0.8657
-30.7235 -19.3986 -13.1110 0.8568
-23.7375 -17.8059 -10.7073 0.8815
-21.5854 -17.5903 -10.0475 0.8883
-20.0866 -17.7588 -9.6745 0.8922
-17.3134 -16.5933 -8.6532 0.9030
-12.0978 -14.7766 -6.8910 0.9220
-10.7390 -14.2488 -6.4382 0.9269
-9.5261 -13.7567 -6.0379 0.9313
-8.4373 -13.2959 -5.6821 0.9352
-7.4381 -12.8338 -5.3525 0.9389
-5.6959 -11.9474 -4.7759 0.9453
-3.6357 -10.8158 -4.1173 0.9526
-3.0513 -10.4502 -3.9283 0.9548
-1.5508 -9.4001 -3.4377 0.9603
-0.3619 -8.4282 -3.0440 0.9648
-0.0220 -8.0965 -2.9215 0.9662
0.5856 -7.5235 -2.7230 0.9684
0.8612 -7.2727 -2.6426 0.9693
1.1166 -7.0051 -2.5596 0.9703
1.5768 -6.4865 -2.4087 0.9720
2.6356 -5.0671 -2.0609 0.9760
2.8887 -4.6073 -1.9622 0.9771
3.3871 -3.5565 -1.7722 0.9793
3.5529 -3.1757 -1.7195 0.9799
3.6967 -2.8045 -1.6743 0.9805
3.7610 -2.6220 -1.6544 0.9807
3.8208 -2.4416 -1.6361 0.9809
3.8765 -2.2631 -1.6197 0.9811
3.9750 -1.9105 -1.5914 0.9814
4.0928 -1.3902 -1.5597 0.9818
4.1529 -1.0474 -1.5454 0.9820
4.1774 -0.8767 -1.5402 0.9820
4.2295 -0.3658 -1.5319 0.9821
4.2399 -0.1955 -1.5315 0.9821
4.2482 -0.0250 -1.5329 0.9821
4.2549 0.1461 -1.5362 0.9821
4.1566 1.5451 -1.6001 0.9813
4.0469 2.0888 -1.6433 0.9808
3.9517 2.4603 -1.6797 0.9804
3.8969 2.6492 -1.7003 0.9802
3.8373 2.8407 -1.7228 0.9799
3.7022 3.2318 -1.7733 0.9793
3.6261 3.4315 -1.8014 0.9790
3.3591 4.0505 -1.8988 0.9779
3.1437 4.4792 -1.9746 0.9770
2.7522 5.1427 -2.1047 0.9755
2.6031 5.3725 -2.1542 0.9749
1.8950 6.3408 -2.3880 0.9722
1.6859 6.5967 -2.4568 0.9715
1.4597 6.8482 -2.5266 0.9707
1.2194 7.1117 -2.6036 0.9698
0.9651 7.4035 -2.6940 0.9687
0.6895 7.6893 -2.7857 0.9677
0.3933 7.9832 -2.8841 0.9666
0.0748 8.2845 -2.9895 0.9654
-0.2678 8.5912 -3.1015 0.9641
-0.6366 8.9068 -3.2221 0.9627
-4.8647 11.7370 -4.5845 0.9474
-5.6239 12.1623 -4.8351 0.9446
-8.3322 13.4778 -5.7176 0.9348
-10.5785 14.3845 -6.4429 0.9269
-15.3421 16.3147 -8.0810 0.9092
-18.5571 16.7992 -9.0323 0.8990
-20.8592 17.4104 -9.8041 0.8909
-23.4516 18.0260 -10.6732 0.8818
-26.7908 17.3592 -11.5190 0.8731
-32.9097 17.7462 -13.4915 0.8530
-40.4433 -20.5518 -16.3695 0.8246
-31.8890 -19.5754 -13.5018 0.8529
-23.8841 -17.4486 -10.6731 0.8818
-22.3950 -17.7839 -10.3189 0.8855
-20.8237 -17.9468 -9.9195 0.8897
-12.5528 -14.9431 -7.0420 0.9204
-11.1510 -14.4129 -6.5755 0.9254
-9.8892 -13.9025 -6.1562 0.9300
-8.7705 -13.4425 -5.7916 0.9340
-7.7438 -12.9804 -5.4540 0.9377
-4.4836 -11.3202 -4.3935 0.9495
-3.8161 -10.8946 -4.1653 0.9521
-3.2296 -10.5628 -3.9856 0.9541
3.5068 -3.0557 -1.7369 0.9803
3.5792 -2.8741 -1.7141 0.9806
3.6464 -2.6944 -1.6930 0.9808
3.9579 -1.6510 -1.6014 0.9819
3.9960 -1.4814 -1.5914 0.9820
4.0303 -1.3124 -1.5827 0.9821
4.0608 -1.1441 -1.5754 0.9821
4.0877 -0.9762 -1.5693 0.9822
4.1305 -0.6413 -1.5609 0.9823
4.1466 -0.4740 -1.5585 0.9823
4.1592 -0.3068 -1.5573 0.9824
4.1682 -0.1394 -1.5573 0.9824
4.1815 0.1965 -1.5631 0.9823
4.1762 0.7063 -1.5816 0.9821
4.1634 0.8776 -1.5888 0.9820
4.1458 1.0495 -1.5969 0.9819
4.1243 1.2224 -1.6063 0.9818
3.9980 1.9259 -1.6571 0.9812
3.9557 2.1054 -1.6733 0.9810
3.9091 2.2868 -1.6911 0.9808
3.8016 2.6553 -1.7315 0.9804
3.7407 2.8431 -1.7545 0.9801
3.6745 3.0333 -1.7792 0.9799
3.6027 3.2260 -1.8058 0.9796
3.4412 3.6198 -1.8650 0.9789
3.3509 3.8212 -1.8978 0.9785
3.2540 4.0262 -1.9331 0.9781
3.1505 4.2356 -1.9712 0.9777
2.7814 4.8698 -2.0942 0.9763
2.6410 5.0884 -2.1407 0.9758
2.4909 5.3110 -2.1905 0.9753
1.9654 5.9713 -2.3474 0.9735
1.7807 6.2449 -2.4249 0.9727
1.3475 6.7379 -2.5658 0.9711
0.5796 7.5334 -2.8214 0.9683
0.2860 7.8117 -2.9189 0.9672
-0.7308 8.6801 -3.2527 0.9635
-1.1214 8.9830 -3.3804 0.9621
-1.5403 9.2856 -3.5147 0.9606
-1.9900 9.5911 -3.6577 0.9590
-2.9982 10.2346 -3.9823 0.9555
-3.5664 10.5786 -4.1686 0.9535
-7.1909 12.3820 -5.3467 0.9407
-8.1053 12.7478 -5.6409 0.9375
-9.1094 13.1302 -5.9674 0.9340
-10.1868 13.4913 -6.3126 0.9304
-11.3893 13.8862 -6.7063 0.9262
-16.3619 15.6536 -8.4555 0.9078
-25.8648 16.2989 -11.4159 0.8776
-22.7157 -4.6383 -8.6573 0.9057
-39.8277 -16.9517 -16.1632 0.8313
-32.5534 -17.0634 -13.7245 0.8548
-26.4426 -16.6957 -11.6774 0.8750
-15.5864 -14.9381 -8.0616 0.9119
-12.4922 -14.0651 -7.0245 0.9228
-11.1610 -13.6324 -6.5789 0.9275
-8.8890 -12.8367 -5.8304 0.9355
-7.9068 -12.4599 -5.5104 0.9389
-5.4186 -11.3658 -4.7018 0.9477
-4.7172 -11.0134 -4.4739 0.9501
-4.0689 -10.6648 -4.2624 0.9524
-2.4058 -9.6677 -3.7201 0.9584
-1.9232 -9.3107 -3.5501 0.9602
-0.7022 -8.4295 -3.1586 0.9645
-0.3494 -8.1378 -3.0415 0.9658
0.5695 -7.3167 -2.7404 0.9692
0.8357 -7.0572 -2.6537 0.9701
1.0845 -6.8039 -2.5727 0.9710
1.3169 -6.5550 -2.4966 0.9719
1.5342 -6.3112 -2.4253 0.9726
1.9199 -5.8159 -2.2870 0.9742
2.2718 -5.3847 -2.1823 0.9754
2.4279 -5.1648 -2.1311 0.9759
2.5740 -4.9487 -2.0829 0.9765
2.7029 -4.7226 -2.0319 0.9770
2.9341 -4.2867 -1.9398 0.9781
3.0376 -4.0762 -1.8982 0.9785
3.3196 -3.4856 -1.7974 0.9797
3.4035 -3.2976 -1.7696 0.9800
3.4830 -3.1132 -1.7444 0.9803
3.6897 -2.5723 -1.6796 0.9810
3.9024 -1.8756 -1.6168 0.9817
3.9845 -1.5346 -1.5944 0.9819
4.0517 -1.1969 -1.5776 0.9821
4.0796 -1.0289 -1.5711 0.9822
4.1419 -0.5266 -1.5591 0.9823
4.1658 -0.1921 -1.5572 0.9824
4.1315 1.1679 -1.6032 0.9818
4.0791 1.5163 -1.6250 0.9816
4.0103 1.8698 -1.6523 0.9813
3.9695 2.0488 -1.6680 0.9811
3.8744 2.4122 -1.7042 0.9807
3.8198 2.5968 -1.7247 0.9805
3.6959 2.9732 -1.7712 0.9800
3.4683 3.5571 -1.8551 0.9790
3.3800 3.7575 -1.8872 0.9787
3.0728 4.3782 -1.9973 0.9774
2.9524 4.5883 -2.0374 0.9770
2.6862 5.0193 -2.1258 0.9760
2.3822 5.4661 -2.2265 0.9749
2.0351 5.9299 -2.3411 0.9736
1.6389 6.4127 -2.4715 0.9721
1.1838 6.9040 -2.6157 0.9705
0.6678 7.4473 -2.7921 0.9686
0.3805 7.7234 -2.8875 0.9675
-0.9955 8.8870 -3.3393 0.9625
-1.4055 9.1909 -3.4719 0.9611
-1.8451 9.4943 -3.6116 0.9595
-2.3178 9.8044 -3.7620 0.9579
-3.9671 10.7766 -4.2881 0.9522
-5.3381 11.5443 -4.7493 0.9471
-6.9193 12.2688 -5.2597 0.9416
-7.7826 12.5888 -5.5266 0.9388
-8.7509 12.9601 -5.8393 0.9354
-12.2872 14.1661 -7.0024 0.9231
-16.8191 15.2258 -8.4716 0.9077
-20.7112 15.9195 -9.7544 0.8945
-24.9594 16.1725 -11.1056 0.8807
-27.3461 14.7461 -11.6014 0.8758
-34.9959 17.0930 -14.5433 0.8468
-31.1700 13.7016 -12.7141 0.8647
-41.0723 -16.8717 -16.5804 0.8273
-37.2057 -17.0615 -15.2841 0.8397
-23.0966 -16.8733 -10.6809 0.8850
-20.5919 -16.3521 -9.8188 0.8938
-16.1384 -15.0806 -8.2479 0.9100
-12.9363 -14.1996 -7.1728 0.9213
-11.5657 -13.7681 -6.7144 0.9261
-10.3241 -13.3442 -6.3001 0.9305
-9.2158 -12.9557 -5.9369 0.9344
-7.2820 -12.2062 -5.3074 0.9411
-3.0868 -10.0958 -3.9422 0.9559
-2.5624 -9.7688 -3.7712 0.9578
3.5107 -2.8191 -1.7384 0.9809
3.5775 -2.6435 -1.7174 0.9811
3.8004 -1.9573 -1.6505 0.9818
3.8457 -1.7889 -1.6376 0.9820
3.9253 -1.4552 -1.6163 0.9822
3.9594 -1.2893 -1.6077 0.9823
3.9897 -1.1240 -1.6004 0.9824
4.0164 -0.9591 -1.5943 0.9825
4.0394 -0.7945 -1.5894 0.9825
4.0960 -0.1370 -1.5823 0.9826
4.1087 0.1931 -1.5881 0.9825
4.1022 0.6938 -1.6063 0.9823
4.0883 0.8617 -1.6131 0.9822
4.0706 1.0304 -1.6212 0.9822
4.0491 1.2001 -1.6305 0.9821
3.9942 1.5424 -1.6531 0.9818
3.9606 1.7154 -1.6664 0.9817
3.8806 2.0654 -1.6973 0.9813
3.8340 2.2429 -1.7150 0.9811
3.7829 2.4220 -1.7342 0.9809
3.7269 2.6032 -1.7552 0.9807
3.6663 2.7865 -1.7780 0.9804
3.4518 3.3503 -1.8572 0.9796
3.2790 3.7392 -1.9201 0.9789
3.1835 3.9390 -1.9554 0.9785
3.0810 4.1421 -1.9931 0.9781
2.9679 4.3444 -2.0314 0.9777
2.7167 4.7564 -2.1148 0.9768
1.9141 5.8154 -2.3638 0.9741
1.5283 6.3114 -2.5072 0.9725
1.0758 6.7880 -2.6535 0.9710
0.5616 7.2993 -2.8265 0.9691
0.2768 7.5609 -2.9212 0.9681
-0.0282 7.8282 -3.0224 0.9670
-0.3549 8.0984 -3.1297 0.9658
-0.7049 8.3729 -3.2441 0.9646
-1.9129 9.2196 -3.6354 0.9604
-2.3740 9.5041 -3.7822 0.9589
-2.8690 9.7936 -3.9401 0.9572
-8.4984 12.2495 -5.7562 0.9381
-9.4773 12.5517 -6.0724 0.9348
-13.0422 13.5225 -7.2536 0.9226
-14.4110 13.7871 -7.7002 0.9180
-19.1134 14.3108 -9.2188 0.9027
-21.0799 14.4989 -9.8780 0.8961
-23.2112 14.6267 -10.5926 0.8890
-27.9802 14.6347 -12.1913 0.8734
-36.2744 13.7085 -14.9719 0.8468
-39.2366 13.0516 -15.9650 0.8375
-42.2100 12.1801 -16.9618 0.8283
-22.6169 -4.6181 -8.9124 0.9058
-44.3239 -12.8326 -17.8158 0.8205
-41.0277 -13.6877 -16.6987 0.8307
-37.9287 -14.3720 -15.6600 0.8404
-34.8560 -14.8356 -14.6258 0.8501
-32.0246 -15.1783 -13.6828 0.8590
-23.9440 -15.1181 -10.9331 0.8857
-15.7989 -13.9680 -8.1419 0.9135
-14.2445 -13.6520 -7.6177 0.9189
-9.3001 -12.3397 -5.9658 0.9359
-7.4491 -11.7387 -5.3677 0.9421
-4.4910 -10.4853 -4.4040 0.9523
-3.3186 -9.8725 -4.0213 0.9563
-2.7849 -9.5378 -3.8362 0.9583
-2.3090 -9.2788 -3.6917 0.9598
-0.6777 -8.1360 -3.1521 0.9656
-0.3378 -7.8659 -3.0398 0.9668
-0.0206 -7.5829 -2.9277 0.9680
0.2755 -7.3483 -2.8391 0.9690
0.5524 -7.0978 -2.7487 0.9699
1.6923 -5.9152 -2.3754 0.9740
2.0534 -5.4712 -2.2563 0.9753
2.3710 -5.0437 -2.1518 0.9764
2.6407 -4.6138 -2.0525 0.9775
2.8695 -4.1924 -1.9615 0.9785
3.0707 -3.7925 -1.8841 0.9793
3.1657 -3.6035 -1.8519 0.9796
3.2544 -3.4172 -1.8219 0.9800
3.4886 -2.8746 -1.7453 0.9808
3.6205 -2.5240 -1.7040 0.9813
3.6795 -2.3512 -1.6859 0.9815
3.7346 -2.1802 -1.6696 0.9816
3.7853 -2.0104 -1.6548 0.9818
3.8747 -1.6741 -1.6297 0.9821
3.9806 -1.1759 -1.6025 0.9824
4.0084 -1.0109 -1.5961 0.9824
4.0836 -0.3532 -1.5825 0.9826
4.0936 -0.1887 -1.5822 0.9826
4.1075 0.1410 -1.5868 0.9825
4.1101 0.3068 -1.5913 0.9825
4.1093 0.4735 -1.5970 0.9824
4.1048 0.6410 -1.6040 0.9823
4.0931 0.8089 -1.6109 0.9823
4.0766 0.9773 -1.6185 0.9822
4.0563 1.1466 -1.6275 0.9821
4.0321 1.3169 -1.6377 0.9820
3.8491 2.1869 -1.7092 0.9812
3.6859 2.7287 -1.7706 0.9805
3.6217 2.9135 -1.7946 0.9803
3.5521 3.1007 -1.8204 0.9800
3.3954 3.4824 -1.8778 0.9794
3.3078 3.6772 -1.9096 0.9790
3.2143 3.8758 -1.9441 0.9786
3.1140 4.0779 -1.9810 0.9782
3.0044 4.2807 -2.0192 0.9778
2.7584 4.6908 -2.1010 0.9769
2.6227 4.9006 -2.1460 0.9764
2.4778 5.1140 -2.1940 0.9759
2.1584 5.5517 -2.2998 0.9748
1.5940 6.2373 -2.4856 0.9728
1.1514 6.7150 -2.6304 0.9712
0.9078 6.9640 -2.7115 0.9703
0.6472 7.2183 -2.7981 0.9694
-0.5923 8.2860 -3.2073 0.9650
-0.9594 8.5643 -3.3273 0.9637
-1.3529 8.8471 -3.4555 0.9624
-1.7745 9.1310 -3.5913 0.9609
-3.2331 10.0058 -4.0598 0.9559
-3.7970 10.3146 -4.2436 0.9540
-4.4039 10.6251 -4.4407 0.9519
-6.5240 11.5678 -5.1276 0.9446
-7.3475 11.8850 -5.3948 0.9418
-8.2332 12.1933 -5.6804 0.9389
-10.2334 12.8035 -6.3283 0.9321
-11.3784 13.1183 -6.7046 0.9282
-12.6166 13.4163 -7.1105 0.9241
-14.0306 13.7669 -7.5893 0.9192
-15.9448 14.4344 -8.3040 0.9119
-16.9961 14.1860 -8.5474 0.9094
-18.5281 14.2415 -9.0225 0.9047
-20.4442 14.4456 -9.6649 0.8982
-27.1862 14.6599 -11.9252 0.8760
-29.7667 14.5389 -12.7903 0.8676
-38.3009 13.2801 -15.6513 0.8405
-41.2785 12.4784 -16.6495 0.8312
-42.1583 -13.4753 -17.0882 0.8271
-35.7991 -14.7055 -14.9424 0.8471
-32.9008 -15.0874 -13.9746 0.8562
-29.9942 -15.2420 -12.9899 0.8657
-24.7209 -15.1751 -11.1993 0.8830
-19.9357 -14.5641 -9.5322 0.8995
-14.7206 -13.7557 -7.7787 0.9172
-10.7138 -12.7540 -6.4311 0.9311
-7.7233 -11.8375 -5.4571 0.9412
-6.0900 -11.2087 -4.9251 0.9468
-5.3645 -10.8958 -4.6890 0.9493
-4.6921 -10.5834 -4.4697 0.9516
-3.4915 -9.9679 -4.0778 0.9557
-2.4580 -9.3706 -3.7403 0.9593
3.5721 -2.4238 -1.7219 0.9816
3.9205 -1.1045 -1.6247 0.9826
3.9890 -0.6193 -1.6102 0.9828
4.0047 -0.4578 -1.6078 0.9828
4.0257 -0.1347 -1.6067 0.9828
4.0331 0.0273 -1.6087 0.9828
4.0379 0.1897 -1.6124 0.9827
4.0391 0.3529 -1.6173 0.9827
4.0292 0.6814 -1.6300 0.9826
4.0152 0.8463 -1.6368 0.9825
3.9210 1.5142 -1.6766 0.9821
3.8875 1.6837 -1.6898 0.9819
3.8077 2.0266 -1.7205 0.9816
3.5942 2.7317 -1.8007 0.9807
3.5286 2.9128 -1.8251 0.9805
3.3810 3.2816 -1.8794 0.9799
3.2983 3.4694 -1.9095 0.9796
3.2102 3.6607 -1.9421 0.9793
3.1155 3.8548 -1.9770 0.9789
3.0139 4.0519 -2.0143 0.9785
2.9024 4.2484 -2.0523 0.9781
2.7824 4.4465 -2.0922 0.9777
2.6543 4.6472 -2.1347 0.9772
2.5177 4.8509 -2.1800 0.9767
2.3721 5.0577 -2.2283 0.9762
2.2169 5.2676 -2.2796 0.9757
1.4869 6.1405 -2.5201 0.9732
1.0459 6.5990 -2.6651 0.9716
0.8034 6.8359 -2.7455 0.9708
-0.3431 7.8287 -3.1257 0.9668
-1.4275 8.6053 -3.4794 0.9631
-2.2813 9.1328 -3.7548 0.9603
-2.7522 9.3950 -3.9050 0.9587
-3.8032 9.9419 -4.2459 0.9552
-4.3867 10.2167 -4.4350 0.9532
-5.0166 10.4987 -4.6412 0.9511
-9.8422 11.9999 -6.1906 0.9353
-12.0605 12.5046 -6.9297 0.9279
-13.2905 12.7151 -7.3367 0.9238
-14.5628 12.8522 -7.7474 0.9198
-16.2726 13.2369 -8.3671 0.9136
-17.3689 13.0047 -8.6549 0.9108
-18.8822 12.9873 -9.1413 0.9060
-20.6356 13.0037 -9.7291 0.9003
-24.4657 12.7965 -11.0131 0.8879
-26.5242 12.5426 -11.7032 0.8813
-25.7600 8.5687 -10.8287 0.8897
-16.9394 3.4433 -6.8949 0.9283
-17.0341 2.7549 -6.8829 0.9284
-45.2217 -3.6634 -18.0971 0.8225
-42.8460 -6.9684 -17.3149 0.8295
-22.5265 -4.5997 -9.1707 0.9057
-36.8898 -10.6803 -15.3189 0.8476
-29.7264 -12.6523 -12.8866 0.8701
-27.2273 -12.9045 -12.0185 0.8783
-17.4997 -13.1268 -8.7258 0.9101
-15.9318 -12.9831 -8.1978 0.9153
-13.0983 -12.5535 -7.2367 0.9248
-10.7160 -12.0652 -6.4367 0.9329
-9.6801 -11.8236 -6.0952 0.9363
-6.2724 -10.8225 -4.9895 0.9476
-4.8997 -10.2773 -4.5415 0.9522
-4.2840 -10.0021 -4.3402 0.9542
-3.1782 -9.4546 -3.9786 0.9580
-2.6816 -9.1841 -3.8163 0.9596
-2.2185 -8.9151 -3.6645 0.9612
-1.7857 -8.6449 -3.5211 0.9627
-1.3823 -8.3792 -3.3875 0.9641
-1.0061 -8.1178 -3.2628 0.9654
-0.6549 -7.8616 -3.1467 0.9666
0.7884 -6.6579 -2.6742 0.9715
1.2467 -6.2053 -2.5246 0.9731
1.4545 -5.9835 -2.4562 0.9738
1.9940 -5.3130 -2.2636 0.9759
2.3162 -4.9271 -2.1717 0.9768
2.6980 -4.3031 -2.0259 0.9784
3.0091 -3.7164 -1.9074 0.9796
3.1032 -3.5324 -1.8755 0.9800
3.1912 -3.3508 -1.8457 0.9803
3.2734 -3.1716 -1.8180 0.9806
3.3502 -2.9945 -1.7923 0.9808
3.4223 -2.8200 -1.7688 0.9811
3.4902 -2.6478 -1.7475 0.9813
3.5533 -2.4772 -1.7278 0.9815
3.6118 -2.3080 -1.7097 0.9817
3.6666 -2.1405 -1.6935 0.9819
3.7635 -1.8088 -1.6656 0.9822
3.9833 -0.6701 -1.6112 0.9828
4.0002 -0.5086 -1.6084 0.9828
4.0135 -0.3471 -1.6069 0.9828
4.0234 -0.1855 -1.6065 0.9828
4.0309 -0.0237 -1.6079 0.9828
4.0328 0.6298 -1.6281 0.9826
3.9589 1.2930 -1.6612 0.9822
3.9307 1.4611 -1.6727 0.9821
3.8985 1.6303 -1.6855 0.9820
3.8621 1.8007 -1.6997 0.9818
3.8214 1.9724 -1.7153 0.9817
3.7763 2.1455 -1.7324 0.9815
3.7268 2.3203 -1.7511 0.9813
3.6725 2.4967 -1.7713 0.9811
3.6137 2.6752 -1.7934 0.9808
3.5498 2.8557 -1.8173 0.9806
3.4806 3.0382 -1.8429 0.9803
3.4057 3.2230 -1.8703 0.9800
3.0466 3.9896 -2.0023 0.9786
2.9385 4.1867 -2.0403 0.9782
2.8210 4.3840 -2.0794 0.9778
1.9209 5.5972 -2.3604 0.9748
1.5512 6.0699 -2.4990 0.9734
0.6278 7.0011 -2.8038 0.9702
0.3570 7.2459 -2.8937 0.9692
0.0677 7.4952 -2.9898 0.9682
-0.2415 7.7490 -3.0924 0.9672
-0.5721 8.0034 -3.2006 0.9660
-0.9255 8.2618 -3.3161 0.9648
-1.3034 8.5234 -3.4393 0.9635
-2.1394 9.0496 -3.7092 0.9607
-4.1988 10.1303 -4.3741 0.9539
-6.1820 10.9614 -5.0197 0.9472
-6.9342 11.2165 -5.2600 0.9448
-7.7122 11.4217 -5.4972 0.9424
-10.5393 12.1509 -6.4159 0.9331
-14.2208 12.8737 -7.6514 0.9207
-17.2443 13.2548 -8.6756 0.9106
-20.0724 13.0060 -9.5403 0.9021
-23.8368 12.8537 -10.8023 0.8899
-27.9795 12.2991 -12.1911 0.8767
-36.6083 9.4791 -15.0839 0.8497
-16.9788 2.9666 -6.8751 0.9285
-43.7047 5.8375 -17.5877 0.8271
-45.5201 -3.1092 -18.1993 0.8216
-44.5036 -4.8429 -17.8564 0.8247
-39.8889 -9.2968 -16.3373 0.8383
-37.6291 -10.3808 -15.5702 0.8453
-35.3325 -11.2935 -14.7958 0.8524
-33.0820 -12.0597 -14.0452 0.8593
-30.5509 -12.5497 -13.1742 0.8674
-28.0058 -12.8427 -12.2895 0.8757
-25.6202 -13.0192 -11.4632 0.8836
-19.7276 -13.2300 -9.4746 0.9028
-18.0076 -13.1555 -8.8955 0.9084
-14.9125 -12.8523 -7.8526 0.9187
-13.5159 -12.6300 -7.3787 0.9234
-11.0631 -12.1434 -6.5525 0.9317
-7.2899 -11.1731 -5.3214 0.9442
-3.8739 -9.7809 -4.1963 0.9557
-3.3303 -9.5077 -4.0183 0.9575
-2.8339 -9.2688 -3.8661 0.9591
-2.3609 -9.0005 -3.7116 0.9607
3.3799 -2.7141 -1.7850 0.9814
3.4455 -2.5460 -1.7641 0.9816
3.5636 -2.2143 -1.7276 0.9820
3.6657 -1.8879 -1.6979 0.9823
3.7109 -1.7262 -1.6853 0.9825
3.7895 -1.4048 -1.6642 0.9827
3.8231 -1.2449 -1.6557 0.9828
3.8530 -1.0855 -1.6483 0.9828
3.9018 -0.7675 -1.6375 0.9829
3.9688 0.1865 -1.6361 0.9830
3.9699 0.3469 -1.6409 0.9829
3.9263 0.9939 -1.6678 0.9826
3.9048 1.1573 -1.6770 0.9825
3.8793 1.3215 -1.6876 0.9824
3.8499 1.4867 -1.6994 0.9823
3.8164 1.6529 -1.7126 0.9822
3.7788 1.8203 -1.7272 0.9820
3.7369 1.9889 -1.7431 0.9819
3.6905 2.1589 -1.7606 0.9817
3.6397 2.3304 -1.7796 0.9815
3.5843 2.5035 -1.8003 0.9813
3.5243 2.6786 -1.8228 0.9810
3.4591 2.8554 -1.8470 0.9808
3.3885 3.0342 -1.8730 0.9805
3.2309 3.3986 -1.9310 0.9799
2.7206 4.3478 -2.1120 0.9781
2.5943 4.5421 -2.1539 0.9776
2.4596 4.7389 -2.1986 0.9772
2.3161 4.9383 -2.2461 0.9767
1.9890 5.3138 -2.3364 0.9758
1.8179 5.5235 -2.3945 0.9752
1.4416 5.9533 -2.5223 0.9739
1.0165 6.4137 -2.6740 0.9723
0.5284 6.8671 -2.8361 0.9706
0.2599 7.0991 -2.9252 0.9697
-0.0264 7.3346 -3.0203 0.9688
-1.0053 8.0535 -3.3420 0.9655
-1.3761 8.2956 -3.4626 0.9643
-2.1930 8.7796 -3.7264 0.9616
-2.6433 9.0231 -3.8717 0.9601
-3.1231 9.2636 -4.0255 0.9586
-4.7758 9.9948 -4.5614 0.9532
-6.7871 10.6746 -5.2089 0.9467
-7.5168 10.8345 -5.4300 0.9446
-8.3733 11.0895 -5.7220 0.9417
-11.2167 11.6297 -6.6534 0.9325
-12.3022 11.7696 -7.0108 0.9290
-13.4113 11.8359 -7.3656 0.9255
-14.6730 11.9357 -7.7886 0.9214
-16.2358 12.1563 -8.3519 0.9160
-17.6973 12.1723 -8.8448 0.9113
-20.1038 11.5669 -9.5508 0.9045
-21.7140 11.3573 -10.0906 0.8994
-31.9948 7.8545 -13.5661 0.8672
-16.7889 3.4127 -7.0547 0.9286
-16.8533 2.7257 -7.0301 0.9288
-38.7049 1.5395 -15.9505 0.8457
-36.1980 -2.9324 -14.9545 0.8546
-33.1837 -8.1775 -14.0732 0.8626
-31.3591 -9.0790 -13.4434 0.8683
-29.5638 -9.8631 -12.8334 0.8739
-27.5809 -10.4510 -12.1453 0.8802
-22.0301 -11.5474 -10.2422 0.8980
-20.4091 -11.7666 -9.7008 0.9031
-18.9151 -11.9429 -9.2115 0.9078
-17.4131 -11.9995 -8.7080 0.9126
-15.9730 -11.9816 -8.2222 0.9172
-14.6032 -11.9004 -7.7571 0.9217
-10.0135 -11.2743 -6.2093 0.9369
-9.0958 -11.1099 -5.9125 0.9398
-6.6656 -10.5040 -5.1227 0.9476
-5.9559 -10.2764 -4.8910 0.9499
-5.2925 -10.0414 -4.6741 0.9521
-4.0801 -9.5260 -4.2673 0.9562
-2.5761 -8.8227 -3.7847 0.9610
-1.7199 -8.3262 -3.5009 0.9639
-1.3332 -8.0816 -3.3728 0.9652
0.7664 -6.4723 -2.6838 0.9722
1.2139 -6.0421 -2.5377 0.9737
1.4171 -5.8298 -2.4705 0.9744
1.9465 -5.1862 -2.2810 0.9763
2.1145 -5.0118 -2.2399 0.9767
2.2635 -4.8149 -2.1908 0.9772
2.5229 -4.4081 -2.0915 0.9783
2.6389 -4.2089 -2.0456 0.9787
2.7470 -4.0134 -2.0027 0.9792
2.8499 -3.8243 -1.9640 0.9796
2.9494 -3.6427 -1.9300 0.9799
3.2114 -3.1115 -1.8413 0.9808
3.2876 -2.9386 -1.8158 0.9811
3.4253 -2.5986 -1.7704 0.9816
3.5460 -2.2660 -1.7329 0.9820
3.7782 -1.4552 -1.6672 0.9826
3.8130 -1.2951 -1.6582 0.9827
3.8714 -0.9764 -1.6441 0.9829
3.9452 -0.3412 -1.6306 0.9830
3.9621 -0.0233 -1.6316 0.9830
3.9699 0.2964 -1.6393 0.9829
3.9686 0.4572 -1.6450 0.9829
3.9323 0.9427 -1.6651 0.9827
3.9120 1.1058 -1.6740 0.9826
3.8877 1.2698 -1.6841 0.9825
3.8596 1.4347 -1.6956 0.9823
3.7505 1.9358 -1.7380 0.9819
3.6022 2.4489 -1.7936 0.9813
3.5437 2.6234 -1.8156 0.9811
3.4801 2.7996 -1.8392 0.9809
3.4113 2.9778 -1.8646 0.9806
3.0799 3.7138 -1.9868 0.9793
2.9815 3.9044 -2.0229 0.9790
2.7587 4.2872 -2.0993 0.9782
2.3622 4.8753 -2.2308 0.9768
1.5103 5.9098 -2.5118 0.9740
1.3057 6.1255 -2.5790 0.9733
1.0879 6.3443 -2.6506 0.9725
0.6093 6.7949 -2.8092 0.9709
0.3462 7.0258 -2.8966 0.9700
-0.2337 7.4980 -3.0890 0.9681
-0.5530 7.7373 -3.1942 0.9670
-2.9691 9.1887 -3.9763 0.9591
-4.0108 9.6768 -4.3134 0.9557
-5.2054 10.1640 -4.7023 0.9518
-6.5540 10.6015 -5.1324 0.9475
-9.8625 11.3706 -6.1981 0.9370
-10.8401 11.5273 -6.5159 0.9338
-11.9543 11.7297 -6.8965 0.9301
-13.0961 11.8555 -7.2742 0.9264
-15.7135 12.0781 -8.1611 0.9178
-18.0877 11.7200 -8.8751 0.9110
-19.6105 11.6153 -9.3854 0.9061
-29.6093 8.9508 -12.7375 0.8748
-16.7975 3.6360 -7.0771 0.9283
-16.8315 2.9409 -7.0359 0.9288
-38.7211 -1.0845 -15.9509 0.8457
-35.7003 -3.8849 -14.7875 0.8561
-30.1662 -9.6422 -13.0410 0.8720
-28.2064 -10.2823 -12.3625 0.8782
-26.2356 -10.7771 -11.6793 0.8845
-24.3446 -11.1638 -11.0284 0.8906
-20.8963 -11.6982 -9.8613 0.9016
-19.3793 -11.8962 -9.3636 0.9063
-17.8758 -11.9881 -8.8629 0.9111
-15.0239 -11.9305 -7.8999 0.9204
-11.3642 -11.5088 -6.6601 0.9324
-10.3242 -11.3324 -6.3127 0.9358
-9.3779 -11.1637 -6.0037 0.9389
-8.5001 -10.9866 -5.7200 0.9417
-6.8990 -10.5740 -5.1990 0.9468
-6.1738 -10.3486 -4.9621 0.9492
-5.4965 -10.1164 -4.7409 0.9514
-4.2571 -9.6021 -4.3251 0.9556
3.3826 -2.4995 -1.7867 0.9819
3.4995 -2.1744 -1.7502 0.9823
3.5523 -2.0141 -1.7347 0.9824
3.6012 -1.8547 -1.7208 0.9825
3.6871 -1.5381 -1.6971 0.9828
3.7242 -1.3806 -1.6873 0.9829
3.7872 -1.0670 -1.6714 0.9830
3.8546 -0.5984 -1.6570 0.9832
3.8819 -0.2863 -1.6535 0.9832
3.8904 -0.1301 -1.6536 0.9832
3.8972 0.0263 -1.6556 0.9832
3.9015 0.1833 -1.6592 0.9832
3.9023 0.3410 -1.6640 0.9831
3.8888 0.6577 -1.6754 0.9830
3.8570 0.9764 -1.6902 0.9829
3.8101 1.2979 -1.7099 0.9827
3.7807 1.4600 -1.7216 0.9825
3.7473 1.6230 -1.7348 0.9824
3.7098 1.7871 -1.7492 0.9823
3.6680 1.9523 -1.7651 0.9821
3.6218 2.1187 -1.7825 0.9819
3.5712 2.2865 -1.8014 0.9817
3.4564 2.6270 -1.8442 0.9813
3.3916 2.7997 -1.8682 0.9811
3.3215 2.9742 -1.8940 0.9808
3.2464 3.1510 -1.9219 0.9805
3.0791 3.5112 -1.9839 0.9799
2.9861 3.6947 -2.0180 0.9796
2.7780 4.0664 -2.0920 0.9788
2.4035 4.6309 -2.2164 0.9776
2.1120 5.0183 -2.3129 0.9766
1.9408 5.1852 -2.3519 0.9762
1.7729 5.3864 -2.4089 0.9757
1.6016 5.6168 -2.4811 0.9749
0.5130 6.6671 -2.8406 0.9714
0.2521 6.8859 -2.9271 0.9705
-0.0256 7.1074 -3.0193 0.9696
-0.6362 7.5562 -3.2212 0.9676
-1.3278 8.0048 -3.4469 0.9654
-1.7070 8.2271 -3.5693 0.9641
-2.1105 8.4494 -3.6996 0.9629
-2.5401 8.6710 -3.8382 0.9615
-3.4846 9.1091 -4.1430 0.9585
-4.0044 9.3264 -4.3116 0.9568
-6.4418 10.1315 -5.1002 0.9492
-7.8913 10.4512 -5.5631 0.9447
-9.5286 10.7093 -6.0894 0.9396
-10.4388 10.8231 -6.3877 0.9367
-11.4056 10.9118 -6.7053 0.9337
-16.1153 11.0842 -8.3088 0.9185
-17.4774 11.0135 -8.7756 0.9141
-20.8760 9.8717 -9.8097 0.9045
-22.2644 9.4530 -10.2751 0.9002
-25.0005 8.3161 -11.1924 0.8918
-27.3314 7.8867 -12.0841 0.8837
-28.6484 7.0330 -12.5313 0.8797
-16.6868 2.6988 -7.1807 0.9292
-32.9441 2.6395 -14.0396 0.8662
-33.3888 -0.0148 -14.1836 0.8649
-32.4156 -2.6260 -13.8153 0.8682
-30.4158 -3.6993 -13.0159 0.8753
-28.4803 -7.0184 -12.4604 0.8803
-27.1471 -7.8596 -12.0057 0.8844
-25.6922 -8.5714 -11.5055 0.8890
-21.3192 -10.1044 -10.0222 0.9025
-19.9405 -10.4521 -9.5639 0.9068
-18.5907 -10.7182 -9.1159 0.9110
-15.9251 -10.9742 -8.2157 0.9194
-14.6613 -10.9977 -7.7856 0.9234
-13.4591 -10.9680 -7.3755 0.9273
-9.4114 -10.5964 -6.0205 0.9403
-7.7836 -10.3275 -5.4936 0.9453
-7.0326 -10.1558 -5.2476 0.9477
-6.3279 -9.9719 -5.0170 0.9500
-5.0290 -9.5415 -4.5818 0.9542
-4.4638 -9.3631 -4.4063 0.9559
-3.4063 -8.9282 -4.0594 0.9593
-2.9270 -8.7074 -3.9023 0.9609
-2.4767 -8.4821 -3.7537 0.9623
-2.0541 -8.2544 -3.6134 0.9637
-1.2874 -7.8035 -3.3598 0.9662
-0.9366 -7.5576 -3.2351 0.9674
-0.6133 -7.3627 -3.1385 0.9684
-0.0188 -6.9102 -2.9355 0.9704
0.2518 -6.7149 -2.8545 0.9712
0.7455 -6.2952 -2.6929 0.9728
1.1825 -5.8858 -2.5502 0.9742
1.5628 -5.4625 -2.4136 0.9756
1.9100 -5.0892 -2.3091 0.9767
2.2126 -4.7067 -2.2093 0.9777
2.3444 -4.5072 -2.1582 0.9782
2.4672 -4.3107 -2.1099 0.9786
2.5818 -4.1179 -2.0647 0.9791
2.8915 -3.5712 -1.9520 0.9802
2.9838 -3.3965 -1.9205 0.9805
3.2268 -2.8843 -1.8385 0.9814
3.2973 -2.7170 -1.8150 0.9816
3.4820 -2.2251 -1.7554 0.9822
3.5360 -2.0643 -1.7394 0.9824
3.5863 -1.9047 -1.7250 0.9825
3.6746 -1.5877 -1.7005 0.9828
3.7130 -1.4300 -1.6902 0.9829
3.7783 -1.1162 -1.6736 0.9830
3.8054 -0.9597 -1.6672 0.9831
3.8290 -0.8035 -1.6620 0.9831
3.8490 -0.6475 -1.6580 0.9832
3.8655 -0.4915 -1.6553 0.9832
3.8785 -0.3354 -1.6538 0.9832
3.9024 0.2913 -1.6624 0.9831
3.8630 0.9261 -1.6875 0.9829
3.8427 1.0863 -1.6963 0.9828
3.8185 1.2472 -1.7064 0.9827
3.7904 1.4089 -1.7178 0.9826
3.6816 1.9002 -1.7600 0.9822
3.5339 2.4025 -1.8153 0.9816
3.4757 2.5730 -1.8370 0.9814
3.3441 2.9191 -1.8857 0.9809
3.2705 3.0951 -1.9128 0.9806
3.1917 3.2735 -1.9422 0.9803
3.0160 3.6368 -2.0071 0.9797
2.9185 3.8219 -2.0428 0.9793
2.6986 4.1937 -2.1185 0.9786
2.1602 4.9568 -2.2969 0.9768
1.9915 5.1225 -2.3347 0.9764
1.8268 5.3229 -2.3906 0.9758
1.4712 5.7566 -2.5240 0.9745
1.0581 6.1710 -2.6597 0.9732
0.8321 6.3836 -2.7347 0.9724
0.5917 6.5990 -2.8145 0.9716
0.0636 7.0375 -2.9897 0.9699
-0.2263 7.2607 -3.0858 0.9689
-0.8636 7.7097 -3.2956 0.9668
-1.2134 7.9348 -3.4099 0.9657
-1.9809 8.3796 -3.6578 0.9633
-2.4022 8.6014 -3.7937 0.9619
-2.8506 8.8222 -3.9385 0.9605
-5.5783 9.8910 -4.8238 0.9518
-6.2296 10.0767 -5.0326 0.9498
-6.9188 10.2467 -5.2522 0.9477
-7.6519 10.4049 -5.4866 0.9454
-8.4381 10.5573 -5.7413 0.9430
-9.2784 10.6973 -6.0154 0.9403
-10.1804 10.8258 -6.3128 0.9375
-11.1368 10.9275 -6.6280 0.9344
-12.1514 11.0003 -6.9629 0.9312
-13.2353 11.0470 -7.3235 0.9278
-14.3252 11.0110 -7.6753 0.9245
-21.8276 9.5949 -10.1287 0.9016
-23.2142 9.1097 -10.5935 0.8973
-26.1748 7.9126 -11.6161 0.8880
-16.6238 3.5984 -7.2254 0.9287
-32.7826 3.0439 -13.9860 0.8667
-33.2217 1.7421 -14.1320 0.8654
-33.2874 -0.9323 -14.1461 0.8653
-32.8749 -2.2455 -13.9979 0.8666
-29.8988 -4.4756 -12.8426 0.8769
-28.9915 -5.5391 -12.5384 0.8796
-21.7715 -9.9838 -10.1746 0.9011
-20.3696 -10.3511 -9.7062 0.9055
-16.3366 -10.9558 -8.3559 0.9181
-15.0511 -10.9956 -7.9182 0.9222
-10.6097 -10.7448 -6.4146 0.9365
-9.6852 -10.6309 -6.1092 0.9394
-8.8316 -10.5134 -5.8328 0.9421
-7.2636 -10.2113 -5.3233 0.9470
-5.8702 -9.8398 -4.8673 0.9514
-4.0858 -9.2157 -4.2823 0.9571
-3.0744 -8.7770 -3.9506 0.9604
-2.6153 -8.5538 -3.7997 0.9619
-2.1839 -8.3259 -3.6565 0.9633
3.1902 -2.7798 -1.8531 0.9817
3.2586 -2.6167 -1.8303 0.9819
3.3223 -2.4549 -1.8091 0.9821
3.3814 -2.2944 -1.7896 0.9823
3.4898 -1.9787 -1.7569 0.9826
3.5384 -1.8224 -1.7431 0.9828
3.6605 -1.3570 -1.7097 0.9831
3.7230 -1.0489 -1.6940 0.9833
3.7488 -0.8952 -1.6880 0.9833
3.7711 -0.7418 -1.6832 0.9834
3.8050 -0.4350 -1.6773 0.9834
3.8168 -0.2815 -1.6761 0.9834
3.8317 0.0259 -1.6781 0.9834
3.8214 0.6463 -1.6973 0.9832
3.8073 0.8025 -1.7040 0.9832
3.7895 0.9593 -1.7120 0.9831
3.7680 1.1168 -1.7211 0.9830
3.6800 1.5939 -1.7563 0.9826
3.6426 1.7547 -1.7707 0.9825
3.5550 2.0796 -1.8037 0.9822
3.5046 2.2439 -1.8225 0.9820
3.3261 2.7456 -1.8888 0.9813
3.1826 3.0890 -1.9424 0.9808
3.0167 3.4400 -2.0038 0.9802
2.9245 3.6185 -2.0376 0.9799
2.7189 3.9799 -2.1109 0.9792
2.3495 4.5268 -2.2336 0.9780
2.2104 4.7128 -2.2797 0.9775
2.0625 4.9007 -2.3286 0.9770
1.5614 5.4759 -2.4938 0.9754
1.3733 5.6715 -2.5556 0.9748
0.9618 6.0687 -2.6909 0.9735
0.7371 6.2721 -2.7657 0.9728
0.4984 6.4770 -2.8450 0.9720
-0.3113 7.1021 -3.1133 0.9694
-2.4438 8.3423 -3.8070 0.9628
-2.8797 8.5417 -3.9477 0.9614
-3.8340 8.9296 -4.2559 0.9585
-4.3575 9.1192 -4.4262 0.9568
-5.5016 9.4733 -4.7977 0.9533
-6.7751 9.7655 -5.2052 0.9494
-8.1972 9.9943 -5.6608 0.9451
-8.9813 10.0941 -5.9172 0.9427
-10.6996 10.2364 -6.4849 0.9374
-11.6286 10.2627 -6.7923 0.9345
-14.7322 10.1329 -7.8307 0.9249
-15.9393 10.0443 -8.2509 0.9210
-20.7743 8.8204 -9.8841 0.9061
-21.9465 8.2938 -10.2748 0.9026
-23.4852 7.8121 -10.8393 0.8976
-24.2402 6.9948 -11.0490 0.8957
-28.3618 2.2723 -12.4607 0.8832
-28.6764 1.1406 -12.5686 0.8822
-28.7706 -0.0127 -12.5999 0.8819
-26.6139 -3.2369 -11.7413 0.8895
-24.3469 -5.9998 -10.9816 0.8963
-22.8853 -7.6350 -10.5656 0.9000
-21.7292 -8.2337 -10.1765 0.9035
-18.1776 -9.5281 -8.9881 0.9143
-14.6429 -10.0906 -7.7880 0.9253
-13.5319 -10.1505 -7.4082 0.9288
-11.4246 -10.1006 -6.6784 0.9356
-9.6839 -10.0583 -6.1147 0.9409
-8.1041 -9.8986 -5.6026 0.9457
-7.3708 -9.7797 -5.3632 0.9479
-6.6569 -9.6133 -5.1210 0.9502
-6.0198 -9.4862 -4.9203 0.9521
-4.8191 -9.1432 -4.5264 0.9559
-4.2708 -8.9582 -4.3462 0.9576
-3.7549 -8.7668 -4.1767 0.9592
-3.2700 -8.5709 -4.0175 0.9607
-2.8137 -8.3704 -3.8673 0.9622
-2.3836 -8.1634 -3.7244 0.9635
-1.9729 -7.9284 -3.5781 0.9650
-1.2403 -7.5184 -3.3372 0.9673
-0.9095 -7.3389 -3.2386 0.9682
-0.5942 -7.1332 -3.1348 0.9692
0.4922 -6.3241 -2.7780 0.9727
0.7254 -6.1261 -2.7016 0.9734
0.9452 -5.9300 -2.6298 0.9741
1.1523 -5.7357 -2.5621 0.9748
1.3425 -5.5228 -2.4891 0.9755
1.5303 -5.3490 -2.4366 0.9760
1.7031 -5.1590 -2.3793 0.9766
2.0072 -4.7576 -2.2614 0.9777
2.2921 -4.4067 -2.1753 0.9785
2.4134 -4.2167 -2.1278 0.9790
2.5267 -4.0299 -2.0831 0.9794
2.7378 -3.6739 -2.0066 0.9802
2.8353 -3.5018 -1.9732 0.9805
3.0125 -3.1632 -1.9130 0.9811
3.1677 -2.8314 -1.8607 0.9816
3.2377 -2.6678 -1.8373 0.9818
3.3028 -2.5056 -1.8156 0.9821
3.3633 -2.3448 -1.7956 0.9823
3.4197 -2.1853 -1.7773 0.9824
3.6836 -1.2512 -1.7037 0.9832
3.7411 -0.9435 -1.6897 0.9833
3.7645 -0.7900 -1.6845 0.9833
3.8135 -0.3298 -1.6763 0.9834
3.8229 -0.1763 -1.6760 0.9834
3.8297 -0.0225 -1.6772 0.9834
3.8349 0.1317 -1.6804 0.9834
3.8366 0.2864 -1.6849 0.9833
3.8343 0.4418 -1.6903 0.9833
3.8121 0.7533 -1.7018 0.9832
3.6548 1.7040 -1.7660 0.9825
3.6145 1.8656 -1.7814 0.9824
3.5209 2.1921 -1.8164 0.9821
3.4675 2.3573 -1.8363 0.9819
3.3469 2.6924 -1.8812 0.9814
3.2792 2.8625 -1.9063 0.9812
3.2066 3.0345 -1.9334 0.9809
3.1284 3.2085 -1.9625 0.9806
2.9542 3.5622 -2.0267 0.9800
2.7538 3.9235 -2.0993 0.9793
2.6405 4.1035 -2.1370 0.9789
2.1099 4.8414 -2.3129 0.9772
1.7825 5.1938 -2.4048 0.9763
1.2377 5.8066 -2.6001 0.9744
1.0269 5.9887 -2.6610 0.9738
0.5750 6.4125 -2.8196 0.9723
0.3261 6.6184 -2.9020 0.9715
0.0617 6.8262 -2.9896 0.9706
-0.2193 7.0359 -3.0828 0.9697
-0.5180 7.2469 -3.1818 0.9688
-0.8353 7.4571 -3.2862 0.9678
-1.5298 7.8720 -3.5120 0.9656
-1.9093 8.0763 -3.6345 0.9644
-2.7399 8.4794 -3.9026 0.9618
-3.6760 8.8690 -4.2045 0.9589
-5.3121 9.4190 -4.7358 0.9539
-5.9247 9.5835 -4.9343 0.9520
-6.5661 9.7244 -5.1387 0.9501
-11.3292 10.2560 -6.6926 0.9354
-12.2978 10.2645 -7.0153 0.9324
-14.3766 10.1583 -7.7093 0.9260
-15.5664 10.0863 -8.1232 0.9222
-16.7584 9.9260 -8.5300 0.9185
-21.5401 8.4528 -10.1337 0.9039
-23.8846 7.2203 -10.9277 0.8968
-16.4477 3.5603 -7.3700 0.9291
-28.5988 1.4997 -12.5419 0.8824
-28.7697 0.3508 -12.6005 0.8819
-26.7762 -2.9138 -11.7957 0.8890
-25.4845 -4.8691 -11.3627 0.8929
-24.6347 -5.7416 -11.0778 0.8954
-24.3134 -6.7074 -11.0457 0.8957
-22.1036 -8.0576 -10.3033 0.9024
-20.9123 -8.5904 -9.9011 0.9060
-19.7387 -9.0516 -9.5101 0.9095
-17.3163 -9.6941 -8.6911 0.9170
-16.1679 -9.9248 -8.3083 0.9205
-15.0005 -10.0598 -7.9099 0.9242
-9.9474 -10.0740 -6.2002 0.9400
-7.5979 -9.8204 -5.4377 0.9472
-6.2218 -9.5360 -4.9865 0.9515
-5.5922 -9.3738 -4.7802 0.9535
-4.9984 -9.1996 -4.5852 0.9553
-3.4192 -8.6329 -4.0665 0.9603
3.1325 -2.7295 -1.8747 0.9819
3.2004 -2.5699 -1.8520 0.9821
3.2636 -2.4115 -1.8310 0.9824
3.3223 -2.2543 -1.8116 0.9825
