ply
format ascii 1.0
element vertex 1406
property float32 x
property float32 y
property float32 z
property float32 CosAngle
property uint32 ObjIdx
property uint32 ObjTag
end_header
10.7211 14.6975 3.2078 0.7915 0 3
9.8366 14.6916 3.1176 0.8144 0 3
8.9991 14.6861 3.0371 0.8360 0 3
8.2026 14.6809 2.9653 0.8563 0 3
7.4370 14.6668 2.8996 0.8751 0 3
7.2681 15.8875 3.0806 0.4497 0 3
7.1711 17.5047 3.3355 0.4153 0 3
6.9430 19.1046 3.5842 0.9230 0 3
6.3428 19.9143 3.6852 0.9361 0 3
6.6214 24.1020 4.4073 0.9476 0 3
2.9440 12.6947 2.2978 0.3524 0 9
2.8184 14.8432 2.6640 0.5492 0 9
1.0709 15.9743 2.8230 0.9163 0 9
0.3987 14.9258 2.6328 0.1370 0 9
-0.1894 14.0003 2.4689 0.2207 0 9
-0.9721 18.0633 3.1897 0.4416 0 9
-1.4421 15.2968 2.7092 0.8683 0 9
-2.0633 15.2791 2.7186 0.2675 0 9
1.8557 -17.7866 2.9493 0.6612 0 22
6.8865 -47.4290 7.9042 0.8207 0 3
3.5775 -19.1777 3.2174 0.5609 0 22
7.1695 -31.3745 5.3077 0.2536 0 3
7.4889 -27.6072 4.7176 0.9542 0 3
8.8673 -28.1535 4.8680 0.9425 0 3
9.4290 -26.2078 4.5935 0.3622 0 3
7.2123 -17.7680 3.1626 0.6052 0 9
12.5073 -27.5746 4.9936 0.9015 0 3
14.4075 -28.6419 5.2877 0.8846 0 3
15.8768 -28.6323 5.3995 0.8663 0 3
17.4121 -28.6222 5.5253 0.8465 0 3
19.6812 -29.6010 5.8625 0.8255 0 3
20.1063 -27.7509 5.6518 0.5422 0 3
22.4842 -28.5418 5.9923 0.6238 0 3
24.4363 -28.5759 6.2010 0.7543 0 3
25.4415 -27.4357 6.1708 0.6995 0 3
26.6010 -26.4663 6.1886 0.6782 0 3
25.2387 -23.1670 5.6501 0.0768 0 2
21.6899 -18.3580 4.6864 0.9559 0 9
22.2867 -17.3740 4.6605 0.0931 0 2
5.8964 -4.2266 1.1965 0.9944 14 6
21.6340 -14.2262 4.2702 0.1286 0 1
21.1493 -12.7194 4.0702 0.1267 0 1
20.6161 -11.2953 3.8769 0.1196 0 1
8.5392 -4.2412 1.5724 0.3591 0 9
8.6516 -3.8714 1.5632 0.6743 0 9
18.7955 -7.5184 3.3386 0.1277 0 1
18.3842 -6.5090 3.2164 0.1326 0 1
17.3364 -5.3637 2.9929 0.1453 0 25
17.1272 -4.5528 2.9228 0.1488 0 25
16.9552 -3.7840 2.8651 0.1518 0 25
16.8167 -3.0488 2.8187 0.1543 0 25
16.7091 -2.3395 2.7826 0.1563 0 25
17.3573 -1.7218 2.8767 0.1554 0 1
17.3589 -1.0191 2.8678 0.1570 0 1
17.3914 -0.3202 2.8687 0.1570 0 1
17.5276 0.3826 2.8914 0.1559 0 1
17.7466 1.1028 2.9325 0.1537 0 1
17.9907 1.8468 2.9827 0.1530 0 1
18.2564 2.6198 3.0417 0.1506 0 1
18.5434 3.4273 3.1100 0.1492 0 1
18.8691 4.2789 3.1910 0.1562 0 1
18.9535 5.1077 3.2374 0.1556 0 1
19.0699 5.9715 3.2957 0.1538 0 1
18.9687 6.7890 3.3227 0.1744 0 1
18.7860 7.5892 3.3415 0.1698 0 1
12.7079 5.7387 2.2996 0.7577 0 14
11.7245 5.8733 2.1627 0.3782 0 14
10.9711 6.0598 2.0670 0.4234 0 14
10.8670 6.5862 2.0957 0.3649 0 14
20.4566 13.5523 4.0470 0.1072 0 2
20.5902 14.8662 4.1884 0.8141 0 3
18.7801 14.7438 3.9377 0.6040 0 3
17.0983 14.5723 3.7051 0.6348 0 3
15.9219 14.7155 3.5756 0.6593 0 0
14.6724 14.6983 3.4252 0.6882 0 0
13.5221 14.6824 3.2919 0.7161 0 0
12.3464 14.5383 3.1456 0.7476 0 3
11.5006 14.7022 3.0784 0.7729 0 3
10.5713 14.6960 2.9856 0.7969 0 3
6.0150 9.1142 1.8010 0.6922 22 6
8.8648 14.6848 2.8289 0.8411 0 3
8.0745 14.6796 2.7631 0.8611 0 3
7.3926 14.8223 2.7317 0.4752 0 3
7.3120 16.2681 2.9415 0.4413 0 3
7.2163 17.9538 3.1912 0.4068 0 3
6.9617 19.5595 3.4240 0.3717 0 3
6.8860 22.1267 3.8218 0.0611 0 3
5.3271 19.9072 3.3987 0.9511 0 3
2.9265 13.0113 2.1995 0.2538 0 9
3.1040 16.9611 2.8437 0.1869 0 9
2.3562 16.6273 2.7696 0.6677 0 9
1.4449 14.3235 2.3743 0.3998 0 9
1.5138 25.0743 4.1428 0.6640 0 9
0.4728 23.5569 3.8858 0.5891 0 9
-0.3024 14.9913 2.4729 0.8395 0 9
-0.9141 15.1156 2.4975 0.1500 0 9
-1.5741 15.5889 2.5840 0.1349 0 9
3.7701 -38.6180 6.3993 0.1376 0 6
2.5389 -18.3410 3.0537 0.6415 0 22
3.4208 -19.0382 3.1901 0.6358 0 22
7.7704 -35.0745 5.9248 0.9608 0 3
7.3353 -27.7693 4.7369 0.2842 0 3
8.6626 -28.1547 4.8582 0.9451 0 3
9.0181 -25.5979 4.4760 0.9330 0 3
7.0508 -17.7066 3.1432 0.5842 0 9
12.2879 -27.5760 4.9790 0.9041 0 3
14.1708 -28.6434 5.2705 0.8875 0 3
15.6301 -28.6339 5.3801 0.8694 0 3
9.8811 -16.4881 3.1702 0.6715 0 9
11.3942 -17.3864 3.4283 0.2053 0 9
21.1417 -29.5914 5.9979 0.8068 0 3
22.4715 -28.9186 6.0400 0.6204 0 3
24.1116 -28.5781 6.1666 0.7585 0 3
25.2697 -27.6158 6.1735 0.7844 0 3
26.2562 -26.4723 6.1491 0.2870 0 3
25.5548 -23.7716 5.7561 0.0753 0 2
23.8314 -20.4436 5.1784 0.0838 0 2
22.4814 -17.7670 4.7258 0.0918 0 2
5.8807 -4.2747 1.1990 0.6748 14 6
21.6986 -14.4758 4.3019 0.1277 0 1
21.2282 -12.9595 4.1019 0.1257 0 1
20.7234 -11.5336 3.9114 0.1185 0 1
20.1263 -10.1634 3.7185 0.1239 0 1
8.5848 -3.9101 1.5558 0.9285 0 9
18.8840 -7.6996 3.3633 0.1210 0 1
18.4476 -6.6696 3.2352 0.1319 0 1
17.3746 -5.5021 3.0057 0.1447 0 2
17.1591 -4.6834 2.9334 0.1483 0 25
16.9812 -3.9083 2.8738 0.1513 0 25
16.8374 -3.1681 2.8256 0.1539 0 25
16.7248 -2.4550 2.7879 0.1560 0 25
17.3605 -1.8386 2.8792 0.1545 0 1
17.3562 -1.1346 2.8685 0.1570 0 1
17.3841 -0.4355 2.8679 0.1570 0 1
17.4947 0.2657 2.8856 0.1562 0 1
17.7081 0.9824 2.9250 0.1541 0 1
17.9480 1.7221 2.9736 0.1534 0 1
18.2115 2.4901 3.0314 0.1511 0 1
18.4935 3.2913 3.0979 0.1498 0 1
18.8155 4.1356 3.1772 0.1461 0 1
18.9375 4.9688 3.2289 0.1560 0 1
19.0483 5.8262 3.2852 0.1542 0 1
19.0007 6.6585 3.3205 0.1745 0 1
18.8144 7.4558 3.3377 0.1700 0 1
12.6768 5.6236 2.2872 0.7619 0 14
11.9121 5.8687 2.1901 0.4279 0 14
11.0077 5.9850 2.0664 0.5148 0 14
10.8696 6.4895 2.0878 0.3731 0 14
10.9675 7.1616 2.1603 0.6179 0 14
20.7296 14.7584 4.1967 0.5668 0 3
19.0412 14.7456 3.9719 0.5988 0 3
17.3319 14.5739 3.7347 0.6298 0 3
16.1388 14.7185 3.6023 0.6544 0 0
14.8713 14.7010 3.4487 0.6835 0 0
13.7057 14.6849 3.3128 0.7116 0 0
12.5166 14.5419 3.1643 0.7433 0 3
11.6595 14.7032 3.0948 0.7688 0 3
10.7208 14.6970 3.0002 0.7931 0 3
9.8363 14.6912 2.9158 0.8160 0 3
8.9988 14.6857 2.8405 0.8376 0 3
8.2023 14.6805 2.7734 0.8579 0 3
7.4414 14.6755 2.7137 0.8768 0 3
7.3262 16.0147 2.9044 0.4469 0 3
7.2333 17.6564 3.1468 0.4125 0 3
6.9819 19.2115 3.3712 0.3775 0 3
7.3928 23.2111 4.0175 0.3420 0 3
3.5219 12.8197 2.1926 0.2506 0 9
6.5724 28.3409 4.7981 0.2695 0 3
2.6449 13.9296 2.3383 0.1103 0 9
2.1666 14.5913 2.4328 0.3341 0 9
1.7335 16.1126 2.6727 0.0940 0 9
1.0824 16.1456 2.6688 0.9097 0 9
0.3886 14.5489 2.4003 0.1559 0 9
-0.2104 15.5478 2.5644 0.3850 0 9
-0.8166 15.1749 2.5063 0.6343 0 9
-1.4017 14.8683 2.4630 0.8565 0 9
2.6723 -18.4047 2.8559 0.6398 0 22
3.5660 -19.1163 2.9861 0.6410 0 22
7.1209 -31.1617 4.9086 0.9653 0 3
7.4891 -27.6079 4.3927 0.9559 0 3
8.0645 -25.6048 4.1223 0.9450 0 3
10.6735 -29.6667 4.8415 0.9325 0 3
7.4894 -18.4507 3.0578 0.6700 0 9
12.5077 -27.5753 4.6497 0.9031 0 3
14.4079 -28.6426 4.9235 0.8861 0 3
15.8772 -28.6330 5.0276 0.8678 0 3
9.8162 -16.1359 2.9003 0.3390 0 9
19.6818 -29.6019 5.4587 0.8269 0 3
20.2435 -27.9401 5.2983 0.7578 0 3
22.6139 -28.7065 5.6117 0.6213 0 3
23.5956 -27.5928 5.5751 0.0641 0 3
24.5492 -26.4735 5.5442 0.7061 0 3
23.6961 -23.5761 5.1330 0.0788 0 2
22.1688 -20.3490 4.6210 0.0875 0 2
20.9674 -17.7465 4.2182 0.0959 0 2
20.5916 -16.0525 4.0094 0.6238 0 2
5.9149 -4.2399 1.1175 0.9040 14 6
19.9010 -13.0865 3.6575 0.1307 0 1
19.4857 -11.7189 3.4917 0.1238 0 1
18.9267 -10.3697 3.3140 0.1239 0 1
8.5934 -4.2681 1.4734 0.4089 0 9
8.6481 -3.8698 1.4549 0.8376 0 9
17.3491 -6.9398 2.8694 0.1386 0 1
17.0183 -6.0254 2.7723 0.1435 0 1
16.1547 -4.9981 2.5967 0.1562 0 25
15.9854 -4.2493 2.5400 0.1597 0 25
15.8457 -3.5364 2.4931 0.1627 0 25
15.7329 -2.8523 2.4553 0.1652 0 25
15.6452 -2.1906 2.4259 0.1672 0 2
16.1711 -1.6042 2.4954 0.1641 0 24
16.2585 -0.9545 2.5010 0.1683 0 1
16.2895 -0.2999 2.5018 0.1692 0 1
16.4106 0.3582 2.5206 0.1677 0 1
16.5997 1.0315 2.5540 0.1655 0 1
16.8185 1.7265 2.5962 0.1619 0 1
17.0533 2.4472 2.6455 0.1615 0 1
17.3052 3.1985 2.7024 0.1581 0 1
17.5889 3.9886 2.7695 0.1563 0 1
17.7369 4.7798 2.8208 0.1648 0 1
17.8312 5.5836 2.8693 0.1637 0 1
17.8690 6.3954 2.9144 0.1840 0 1
17.6836 7.1438 2.9287 0.1807 0 1
12.7210 5.7446 2.1434 0.3462 0 14
11.6341 5.8280 1.9982 0.4383 0 14
10.7522 5.9389 1.8862 0.5495 0 14
10.6319 6.4437 1.9091 0.4473 0 14
10.6877 7.0805 1.9687 0.3333 0 14
19.2742 13.9160 3.6506 0.1108 0 2
18.7815 14.7449 3.6667 0.6051 0 3
17.1125 14.5844 3.4527 0.7658 0 3
15.9207 14.7144 3.3290 0.6605 0 0
14.6714 14.6972 3.1889 0.6895 0 0
13.5212 14.6813 3.0649 0.7174 0 0
12.3460 14.5378 2.9288 0.7490 0 3
11.5002 14.7017 2.8663 0.7743 0 3
10.5386 14.6506 2.7713 0.6009 0 3
6.0153 9.1145 1.6770 0.9166 22 6
8.8645 14.6844 2.6340 0.8426 0 3
8.0742 14.6792 2.5726 0.8627 0 3
7.4484 14.9343 2.5627 0.4725 0 3
7.3715 16.4006 2.7612 0.4385 0 3
7.2801 18.1124 2.9976 0.4039 0 3
7.0291 19.7488 3.2190 0.3687 0 3
7.5021 24.1064 3.8769 0.9415 0 3
5.9406 22.1997 3.5289 0.9528 0 3
2.8669 12.7462 2.0062 0.3212 0 9
3.9240 21.4416 3.3473 0.8784 0 3
2.1221 14.9755 2.3226 0.2085 0 9
1.4496 14.3704 2.2179 0.0317 0 9
0.9215 15.2633 2.3481 0.1803 0 9
0.2919 14.5451 2.2340 0.5530 0 9
-0.3041 15.0786 2.3159 0.1089 0 9
-0.9209 15.2275 2.3426 0.3269 0 9
-1.6346 16.1874 2.4984 0.6556 0 9
-2.1746 15.3350 2.3784 0.6334 0 9
2.5319 -18.2907 2.8355 0.7318 0 22
3.4147 -19.0039 2.9650 0.6442 0 22
6.9039 -31.1631 4.9014 0.9667 0 3
7.4195 -28.0879 4.4611 0.2811 0 3
7.8784 -25.6060 4.1140 0.9469 0 3
10.4310 -29.6083 4.8206 0.9347 0 3
7.6710 -19.2642 3.1841 0.6607 0 9
8.1557 -18.3027 3.0770 0.6648 0 9
9.8614 -19.9327 3.4150 0.4121 0 9
9.2465 -16.9394 2.9635 0.6360 0 9
9.7525 -16.2736 2.9134 0.4561 0 9
19.4008 -29.6037 5.4352 0.8305 0 3
21.1424 -29.5923 5.5848 0.8082 0 3
20.3746 -26.2201 5.0991 0.9022 0 3
24.0261 -28.4767 5.7214 0.7598 0 3
24.6028 -26.8870 5.5964 0.0680 0 3
23.9883 -24.1858 5.2310 0.0773 0 2
22.3953 -20.8326 4.6969 0.0861 0 2
21.1474 -18.1412 4.2786 0.0945 0 2
20.3280 -16.0651 3.9787 0.6286 0 2
5.9112 -4.2969 1.1222 0.6725 14 6
19.9691 -13.3220 3.6862 0.1297 0 1
19.5753 -11.9504 3.5219 0.1366 0 1
19.0160 -10.5834 3.3419 0.1229 0 1
18.4551 -9.3194 3.1748 0.1196 0 1
8.5912 -3.9130 1.4497 0.8556 0 9
17.4087 -7.0981 2.8870 0.1377 0 1
17.0041 -6.1477 2.7766 0.1414 0 24
16.1857 -5.1256 2.6071 0.1556 0 25
16.0112 -4.3701 2.5486 0.1592 0 25
15.8668 -3.6519 2.5002 0.1623 0 25
15.7498 -2.9634 2.4610 0.1648 0 25
15.6580 -2.2984 2.4302 0.1669 0 2
16.2519 -1.7212 2.5096 0.1677 0 1
16.2557 -1.0627 2.5016 0.1682 0 1
16.2823 -0.4079 2.5011 0.1692 0 1
16.3822 0.2488 2.5159 0.1683 0 1
16.5665 0.9191 2.5479 0.1659 0 1
16.7801 1.6100 2.5886 0.1624 0 1
17.0151 2.3265 2.6372 0.1620 0 1
17.2612 3.0720 2.6923 0.1587 0 1
17.5404 3.8554 2.7578 0.1570 0 1
17.7235 4.6503 2.8138 0.1652 0 1
17.8146 5.4489 2.8607 0.1642 0 1
17.9018 6.2734 2.9129 0.1841 0 1
17.7117 7.0188 2.9256 0.1833 0 1
12.9327 5.7371 2.1726 0.3692 0 14
11.8129 5.8199 2.0222 0.4566 0 14
10.8272 5.8868 1.8925 0.5906 0 14
10.6415 6.3533 1.9032 0.4638 0 14
10.6531 6.9562 1.9538 0.3650 0 14
19.1561 13.6382 3.6110 0.1120 0 2
19.0426 14.7466 3.6985 0.5999 0 3
17.3312 14.5733 3.4772 0.6310 0 3
16.1375 14.7174 3.3539 0.6556 0 0
14.8702 14.6999 3.2109 0.6848 0 0
13.7048 14.6839 3.0844 0.7129 0 0
12.5162 14.5414 2.9462 0.7447 0 3
11.6592 14.7027 2.8815 0.7702 0 3
10.7204 14.6966 2.7934 0.7945 0 3
9.8360 14.6908 2.7149 0.8175 0 3
8.9986 14.6853 2.6448 0.8391 0 3
8.2021 14.6800 2.5823 0.8594 0 3
7.4600 14.7121 2.5330 0.4780 0 3
7.3851 16.1434 2.7261 0.4441 0 3
7.2963 17.8103 2.9556 0.4097 0 3
7.0484 19.3946 3.1688 0.3746 0 3
7.6784 24.1076 3.8852 0.9395 0 3
6.2614 22.7916 3.6296 0.9511 0 3
3.3130 14.2860 2.2520 0.9747 0 9
2.6316 13.8597 2.1663 0.6671 0 9
2.1785 14.6715 2.2777 0.1671 0 9
2.5195 23.4180 3.6168 0.1328 0 9
0.9784 14.5937 2.2460 0.8357 0 9
0.3895 14.5817 2.2400 0.8190 0 9
-0.2039 15.0696 2.3143 0.6771 0 9
-0.8427 15.6601 2.4082 0.2763 0 9
-1.5213 16.1373 2.4890 0.5933 0 9
4.0284 -38.6115 5.5218 0.8032 0 6
2.6641 -18.3486 2.6372 0.6666 0 22
3.5555 -19.0598 2.7578 0.6412 0 22
7.1200 -31.1576 4.5460 0.9842 0 3
7.5488 -27.8282 4.1012 0.2841 0 3
9.3217 -29.5962 4.4135 0.9465 0 3
10.6737 -29.6674 4.4846 0.9340 0 3
12.0388 -29.6586 4.5528 0.9200 0 3
12.5080 -27.5761 4.3069 0.9045 0 3
14.4083 -28.6434 4.5605 0.8876 0 3
15.8777 -28.6338 4.6570 0.8692 0 3
17.4131 -28.6238 4.7655 0.8494 0 3
19.6823 -29.6027 5.0563 0.8282 0 3
21.4397 -29.5912 5.1976 0.8057 0 3
22.1567 -28.1261 5.0928 0.0612 0 3
22.7802 -26.6393 4.9856 0.0707 0 3
22.2989 -24.0467 4.6646 0.0805 0 2
20.8840 -20.7782 4.1902 0.0896 0 2
19.7719 -18.1490 3.8174 0.0983 0 2
18.9981 -16.0797 3.5402 0.6554 0 2
19.0872 -14.8797 3.4424 0.1367 0 1
5.9378 -4.2563 1.0391 0.9020 14 6
18.3940 -12.0956 3.1313 0.1391 0 1
17.8902 -10.7593 2.9694 0.1286 0 1
17.4070 -9.5371 2.8232 0.1247 0 1
8.6260 -4.2844 1.3699 0.3309 0 9
8.6870 -3.8872 1.3537 0.7673 0 9
16.1001 -6.4402 2.4664 0.1509 0 1
15.2913 -5.4139 2.3073 0.1631 0 25
15.1272 -4.6802 2.2523 0.1671 0 25
14.9894 -3.9845 2.2061 0.1706 0 25
14.8755 -3.3199 2.1679 0.1736 0 25
14.7834 -2.6801 2.1370 0.1761 0 25
15.3068 -2.1432 2.1984 0.1762 0 1
15.2839 -1.5162 2.1846 0.1787 0 1
15.2959 -0.8980 2.1794 0.1802 0 1
15.3277 -0.2822 2.1805 0.1801 0 1
15.4357 0.3370 2.1960 0.1789 0 1
15.5998 0.9694 2.2231 0.1767 0 1
15.7892 1.6208 2.2576 0.1737 0 1
15.9970 2.2956 2.2987 0.1716 0 1
16.2111 2.9962 2.3449 0.1672 0 1
16.4593 3.7325 2.4006 0.1634 0 1
16.6630 4.4904 2.4546 0.1738 0 1
16.7378 5.2413 2.4947 0.1710 0 1
16.8360 6.0257 2.5434 0.1696 0 1
16.7180 6.7538 2.5646 0.1910 0 1
12.7170 5.7428 1.9847 0.3916 0 14
11.4733 5.7475 1.8252 0.3682 0 14
10.6112 5.8610 1.7242 0.5803 0 14
10.4396 6.3272 1.7363 0.5038 0 14
10.4333 6.9120 1.7801 0.4083 0 14
17.5897 12.6998 3.0859 0.1216 0 2
18.2046 14.2920 3.2920 0.1140 0 2
17.1237 14.5940 3.2002 0.6371 0 3
15.9195 14.7133 3.0833 0.6616 0 0
14.6703 14.6961 2.9536 0.6907 0 0
13.5202 14.6803 2.8387 0.7186 0 0
12.3456 14.5374 2.7128 0.7502 0 3
11.4999 14.7012 2.6548 0.7756 0 3
10.5707 14.6951 2.5748 0.7997 0 3
5.9770 9.0566 1.5434 0.5674 0 8
8.8643 14.6840 2.4396 0.8440 0 3
8.0740 14.6788 2.3829 0.8641 0 3
7.5050 15.0476 2.3918 0.4697 0 3
7.4318 16.5347 2.5785 0.4357 0 3
7.3448 18.2734 2.8012 0.4010 0 3
8.3374 23.4246 3.5366 0.3658 0 3
7.5019 24.1058 3.5909 0.9431 0 3
3.5570 13.2922 1.9572 0.2956 0 9
4.8588 21.6024 3.1494 0.9642 0 3
2.7746 15.1612 2.1923 0.1928 0 9
1.6468 16.3251 2.3338 0.0516 0 9
1.4604 24.1895 3.4469 0.6554 0 9
0.4627 23.0526 3.2796 0.1050 0 9
-0.4860 24.0957 3.4280 0.7674 0 9
-1.0346 17.1080 2.4378 0.8238 0 9
-1.5920 15.7663 2.2539 0.1564 0 9
3.7789 -38.7082 5.5319 0.8024 0 6
2.5265 -18.2521 2.6209 0.7204 0 22
3.4039 -18.9439 2.7377 0.6459 0 22
6.9865 -31.5359 4.5943 0.2416 0 3
7.5146 -28.4479 4.1851 0.2780 0 3
9.1127 -29.6176 4.4076 0.9484 0 3
10.4523 -29.6689 4.4742 0.9362 0 3
11.8107 -29.6601 4.5409 0.9224 0 3
12.4755 -27.9969 4.3596 0.4207 0 3
14.1716 -28.6450 4.5457 0.8905 0 3
15.5480 -28.4836 4.6157 0.9829 0 3
17.1548 -28.6255 4.7467 0.8527 0 3
19.4014 -29.6046 5.0345 0.8318 0 3
21.1430 -29.5932 5.1731 0.8095 0 3
20.5451 -26.4395 4.7626 0.7650 0 3
22.7802 -27.0001 5.0247 0.7373 0 3
22.5698 -24.6652 4.7554 0.0789 0 2
21.0937 -21.2674 4.2606 0.0881 0 2
19.9386 -18.5473 3.8733 0.0969 0 2
19.0134 -16.3104 3.5631 0.1053 0 2
19.1426 -15.1283 3.4704 0.1356 0 1
5.9495 -4.3247 1.0462 0.3389 14 6
18.4471 -12.3067 3.1541 0.1381 0 1
17.9740 -10.9728 2.9953 0.1274 0 1
17.5024 -9.7409 2.8491 0.1338 0 1
16.9486 -8.5587 2.7006 0.1304 0 1
8.6364 -3.9336 1.3498 0.9138 0 9
16.1480 -6.5841 2.4804 0.1456 0 1
15.3210 -5.5392 2.3173 0.1625 0 2
15.1524 -4.7984 2.2607 0.1665 0 25
15.0105 -4.0970 2.2131 0.1701 0 25
14.8928 -3.4277 2.1737 0.1732 0 25
14.7972 -2.7842 2.1416 0.1757 0 25
14.7980 -2.1722 2.1274 0.1829 0 2
15.2056 -1.6104 2.1749 0.1791 0 24
15.2924 -0.9997 2.1798 0.1802 0 1
15.3212 -0.3838 2.1799 0.1801 0 1
15.4108 0.2341 2.1922 0.1792 0 1
15.5711 0.8639 2.2182 0.1771 0 1
15.7561 1.5118 2.2514 0.1742 0 1
15.9647 2.1829 2.2919 0.1721 0 1
16.1732 2.8783 2.3366 0.1678 0 1
16.4161 3.6082 2.3907 0.1640 0 1
16.6529 4.3693 2.4488 0.1742 0 1
16.7239 5.1152 2.4875 0.1715 0 1
16.8181 5.8937 2.5348 0.1702 0 1
16.7469 6.6365 2.5622 0.1942 0 1
12.9288 5.7354 2.0118 0.5215 0 14
11.6202 5.7249 1.8425 0.3647 0 14
10.7106 5.8235 1.7341 0.5720 0 14
10.4560 6.2426 1.7321 0.5237 0 14
10.4205 6.8044 1.7702 0.4353 0 14
17.4985 12.4581 3.0553 0.1228 0 2
18.0952 14.0130 3.2553 0.1153 0 2
17.3305 14.5728 3.2207 0.6320 0 3
10.0511 9.1666 1.9349 0.6346 0 20
14.8691 14.6989 2.9739 0.6860 0 0
13.7038 14.6828 2.8567 0.7141 0 0
12.5161 14.5414 2.7290 0.5805 0 3
11.6588 14.7023 2.6689 0.7715 0 3
10.7201 14.6961 2.5874 0.7958 0 3
6.1032 9.1156 1.5603 0.6914 22 6
8.9983 14.6848 2.4497 0.8405 0 3
8.2019 14.6796 2.3918 0.8609 0 3
7.5159 14.8224 2.3638 0.4752 0 3
7.4447 16.2737 2.5454 0.4413 0 3
7.3602 17.9663 2.7616 0.4068 0 3
7.1160 19.5806 2.9633 0.3716 0 3
7.6782 24.1070 3.5986 0.9411 0 3
3.6929 13.4421 1.9828 0.0706 0 9
5.1471 22.1947 3.2407 0.8277 0 3
2.8362 14.9372 2.1626 0.0101 0 9
1.9943 13.4308 1.9313 0.3199 0 9
1.6756 15.5742 2.2280 0.3378 0 9
1.0534 15.7127 2.2399 0.9127 0 9
-0.2054 15.1790 2.1592 0.1756 0 9
-1.3548 25.1759 3.5861 0.8057 0 9
-1.4156 15.0158 2.1453 0.4364 0 9
2.6546 -18.2829 2.4192 0.6415 0 22
3.5441 -18.9989 2.5308 0.6300 0 22
7.1214 -31.1640 4.1861 0.8094 0 3
7.6444 -28.1805 3.8235 0.2809 0 3
9.3470 -29.6768 4.0743 0.9479 0 3
10.6740 -29.6682 4.1288 0.9354 0 3
7.9955 -19.6975 2.7837 0.0431 0 9
8.9723 -19.7810 2.8443 0.4972 0 9
9.9999 -19.8797 2.9140 0.2105 0 9
15.8781 -28.6346 4.2875 0.8705 0 3
17.4136 -28.6246 4.3874 0.8506 0 3
19.6829 -29.6036 4.6552 0.8294 0 3
20.8388 -28.7618 4.6510 0.0618 0 3
21.2899 -27.0258 4.5052 0.7827 0 3
21.0154 -24.5755 4.2343 0.0817 0 2
19.7040 -21.2485 3.7947 0.0912 0 2
18.6747 -18.5801 3.4496 0.1003 0 2
17.8483 -16.3832 3.1725 0.1091 0 2
17.9752 -15.2139 3.0837 0.1363 0 1
17.6685 -13.7738 2.9336 0.1369 0 1
5.9608 -4.2728 0.9604 0.8998 14 6
16.9565 -11.1503 2.6575 0.1324 0 1
16.5086 -9.9284 2.5226 0.1346 0 1
16.0241 -8.7794 2.3926 0.1326 0 1
15.5780 -7.7372 2.2777 0.1393 0 1
8.7125 -3.8986 1.2499 0.9084 0 9
15.0422 -6.0171 2.1215 0.1618 0 1
14.3586 -5.0837 1.9946 0.1740 0 25
14.2252 -4.4011 1.9499 0.1780 0 25
14.1129 -3.7515 1.9122 0.1815 0 25
14.0199 -3.1289 1.8810 0.1845 0 25
13.9445 -2.5280 1.8558 0.1870 0 25
14.4389 -2.0217 1.9092 0.1894 0 1
14.4321 -1.4317 1.8991 0.1919 0 1
14.4465 -0.8482 1.8950 0.1923 0 1
14.4759 -0.2665 1.8959 0.1922 0 1
14.5729 0.3181 1.9087 0.1898 0 1
14.7176 0.9146 1.9310 0.1876 0 1
14.8820 1.5277 1.9590 0.1849 0 1
15.0668 2.1621 1.9932 0.1825 0 1
15.2488 2.8184 2.0306 0.1791 0 1
15.4565 3.5051 2.0754 0.1742 0 1
15.6951 4.2296 2.1286 0.1825 0 1
15.7590 4.9348 2.1624 0.1797 0 1
15.8361 5.6678 2.2025 0.1786 0 1
15.8426 6.4001 2.2374 0.2019 0 1
12.7346 5.7507 1.8297 0.3772 0 14
11.3816 5.7016 1.6669 0.3968 0 14
10.4842 5.7908 1.5684 0.4384 0 14
10.2635 6.2204 1.5716 0.3989 0 14
10.2257 6.7744 1.6062 0.3830 0 14
16.1801 11.6821 2.6133 0.1324 0 2
16.6565 13.0767 2.7730 0.1248 0 2
17.1231 14.5934 2.9461 0.6381 0 3
9.9847 9.2282 1.7804 0.7412 0 20
14.6692 14.6951 2.7190 0.6918 0 0
13.5193 14.6793 2.6132 0.7198 0 0
12.3453 14.5369 2.4974 0.7514 0 3
11.4922 14.6914 2.4425 0.7768 0 3
10.5638 14.6856 2.3689 0.8009 0 3
6.0147 9.1136 1.4299 0.5647 0 8
8.8640 14.6835 2.2460 0.8453 0 3
8.0738 14.6784 2.1937 0.8654 0 3
7.5622 15.1623 2.2187 0.4668 0 3
7.4929 16.6706 2.3934 0.4328 0 3
7.4104 18.4367 2.6020 0.3981 0 3
8.4191 23.6543 3.2878 0.3628 0 3
7.5017 24.1052 3.3059 0.9446 0 3
6.5578 24.5062 3.3219 0.9559 0 3
4.0330 22.0376 2.9337 0.2171 0 3
2.3796 23.5891 3.1046 0.9806 0 9
1.3679 22.6574 2.9723 0.1966 0 9
0.3054 15.2182 1.9932 0.5319 0 9
-0.3140 15.5658 2.0387 0.0949 0 9
-1.0161 16.8029 2.2043 0.4388 0 9
-1.6955 16.7908 2.2099 0.2262 0 9
2.5195 -18.2013 2.4062 0.7529 0 22
3.3923 -18.8798 2.5119 0.6347 0 22
7.0448 -31.7990 4.2650 0.2381 0 3
7.6210 -28.8509 3.9076 0.2749 0 3
9.1314 -29.6782 4.0661 0.9498 0 3
10.4339 -29.6165 4.1119 0.9376 0 3
7.8102 -19.6136 2.7645 0.0603 0 9
12.5817 -28.2353 4.0478 0.4178 0 3
9.7632 -19.7344 2.8831 0.6199 0 9
15.6314 -28.6362 4.2721 0.8736 0 3
9.7036 -16.1919 2.4719 0.3293 0 9
19.4019 -29.6054 4.6351 0.8330 0 3
21.1296 -29.5744 4.7596 0.8107 0 3
20.5354 -26.4271 4.3825 0.6010 0 3
21.2668 -25.2063 4.3186 0.0801 0 2
19.8983 -21.7457 3.8598 0.0897 0 2
18.8289 -18.9839 3.5013 0.0988 0 2
17.9731 -16.7190 3.2144 0.1077 0 2
18.2568 -15.6615 3.1498 0.1272 0 2
17.7240 -14.0072 2.9582 0.1431 0 1
17.4030 -12.6504 2.8173 0.1426 0 1
17.0344 -11.3642 2.6815 0.1313 0 1
16.5774 -10.1202 2.5433 0.1303 0 1
16.1044 -8.9629 2.4134 0.1314 0 1
15.6471 -7.9015 2.2954 0.1382 0 1
8.6706 -3.9491 1.2476 0.8683 0 9
15.0085 -6.1195 2.1224 0.1645 0 24
14.3828 -5.2000 2.0027 0.1733 0 25
14.2457 -4.5113 1.9568 0.1774 0 25
14.1301 -3.8567 1.9180 0.1809 0 25
14.0340 -3.2300 1.8858 0.1840 0 25
13.9558 -2.6259 1.8595 0.1866 0 25
14.4459 -2.1205 1.9119 0.1892 0 1
14.4312 -1.5284 1.9003 0.1918 0 1
14.4431 -0.9442 1.8953 0.1923 0 1
14.4700 -0.3625 1.8954 0.1923 0 1
14.5508 0.2210 1.9056 0.1901 0 1
14.6924 0.8151 1.9269 0.1880 0 1
14.8534 1.4252 1.9540 0.1854 0 1
15.0365 2.0560 1.9873 0.1819 0 1
15.2171 2.7082 2.0240 0.1797 0 1
15.4197 3.3893 2.0674 0.1749 0 1
15.6548 4.1075 2.1194 0.1706 0 1
15.7471 4.8165 2.1564 0.1802 0 1
15.8222 5.5447 2.1954 0.1791 0 1
15.8709 6.2893 2.2355 0.2021 0 1
12.9382 5.7395 1.8535 0.5219 0 14
11.5958 5.7129 1.6927 0.3907 0 14
10.5990 5.7628 1.5798 0.3152 0 14
10.2855 6.1407 1.5686 0.4752 0 14
10.2236 6.6758 1.5989 0.3847 0 14
16.1090 11.4688 2.5894 0.1336 0 2
16.5721 12.8335 2.7447 0.1261 0 2
17.1241 14.3992 2.9298 0.1181 0 2
10.0146 9.1333 1.7749 0.6016 0 20
14.8681 14.6978 2.7377 0.6870 0 0
13.7029 14.6818 2.6298 0.7152 0 0
12.5132 14.5380 2.5118 0.7471 0 3
11.6585 14.7018 2.4570 0.7727 0 3
10.6833 14.6456 2.3738 0.7970 0 3
6.0278 9.0029 1.4188 0.8201 0 8
8.9981 14.6844 2.2552 0.8418 0 3
8.2016 14.6792 2.2019 0.8622 0 3
7.5725 14.9340 2.1926 0.4724 0 3
7.5051 16.4058 2.3624 0.4384 0 3
7.4251 18.1246 2.5648 0.4038 0 3
7.1847 19.7696 2.7544 0.3686 0 3
7.6780 24.1064 3.3129 0.9426 0 3
7.0665 25.7221 3.4930 0.2967 0 3
3.0050 12.9579 1.7418 0.6679 0 9
2.9739 15.6625 2.0876 0.7566 0 9
1.6788 15.6045 2.0552 0.9124 0 9
1.5020 22.4044 2.9404 0.6497 0 9
0.4122 15.4322 2.0215 0.2433 0 9
-0.2257 16.6830 2.1848 0.2338 0 9
-0.8285 15.3958 2.0190 0.3979 0 9
4.0382 -38.7060 4.6580 0.9969 0 6
2.6436 -18.2072 2.2021 0.6438 0 22
3.5317 -18.9324 2.3052 0.6331 0 22
7.4515 -32.6084 4.0036 0.9691 0 3
7.7422 -28.5409 3.5396 0.2778 0 3
9.3473 -29.6775 3.7242 0.9492 0 3
10.6743 -29.6690 3.7740 0.9367 0 3
12.0166 -29.6038 3.8241 0.9226 0 3
12.7031 -28.0062 3.6808 0.4206 0 3
14.2337 -28.2964 3.7912 0.8452 0 3
15.8785 -28.6354 3.9191 0.8717 0 3
17.4141 -28.6254 4.0104 0.8518 0 3
19.6123 -29.4975 4.2398 0.0621 0 3
19.5740 -27.0161 3.9932 0.7765 0 3
19.8205 -25.1605 3.8337 0.0826 0 2
18.6064 -21.7584 3.4267 0.0924 0 2
17.6554 -19.0393 3.1079 0.1019 0 2
16.8929 -16.8073 2.8522 0.1111 0 2
17.1838 -15.7732 2.7919 0.1313 0 2
16.6726 -14.1114 2.6144 0.1403 0 1
16.3870 -12.7748 2.4870 0.1438 0 1
5.9911 -4.2945 0.8823 0.6698 14 6
15.6406 -10.2850 2.2405 0.1387 0 1
15.2362 -9.1631 2.1280 0.1355 0 1
14.8323 -8.1264 2.0243 0.1424 0 1
14.5252 -7.2143 1.9412 0.1633 0 1
8.7053 -3.8954 1.1415 0.8871 0 9
13.6627 -5.4652 1.7613 0.1804 0 25
13.5354 -4.7923 1.7186 0.1848 0 25
13.4269 -4.1541 1.6823 0.1888 0 25
13.3354 -3.5448 1.6516 0.1923 0 25
13.2594 -2.9592 1.6261 0.1953 0 25
13.1977 -2.3927 1.6054 0.1979 0 25
13.6750 -1.9147 1.6528 0.2003 0 1
5.6973 -0.5652 0.6853 0.1735 25 14
5.6068 -0.3292 0.6722 0.1769 25 14
5.5079 -0.1014 0.6594 0.1560 25 14
5.5041 0.1202 0.6590 0.1561 25 14
5.6709 0.3524 0.6801 0.1748 25 14
5.8290 0.5984 0.7014 0.0942 25 14
14.2275 2.0417 1.7204 0.1852 0 1
14.3929 2.6602 1.7519 0.1823 0 1
14.5757 3.3053 1.7889 0.1861 0 1
14.7758 3.9819 1.8316 0.1807 0 1
14.8818 4.6601 1.8665 0.1905 0 1
14.9454 5.3490 1.9000 0.1872 0 1
15.0227 6.0689 1.9393 0.1856 0 1
12.7533 5.7592 1.6749 0.4843 0 14
11.3832 5.7024 1.5239 0.3997 0 14
10.3400 5.7112 1.4139 0.5366 0 14
9.8591 5.9753 1.3799 0.2383 0 14
9.7582 6.4647 1.4010 0.8877 0 14
9.7830 7.0633 1.4443 0.4925 0 14
15.3546 12.0545 2.3365 0.1356 0 2
15.7940 13.4607 2.4838 0.1275 0 2
15.7796 14.5841 2.5718 0.6690 0 3
14.6682 14.6940 2.4851 0.6928 0 0
13.5184 14.6783 2.3884 0.7208 0 0
12.3449 14.5364 2.2827 0.7525 0 3
11.4921 14.6913 2.2325 0.7779 0 3
10.5635 14.6852 2.1652 0.8021 0 3
6.0527 9.1713 1.3152 0.5619 0 8
8.8638 14.6831 2.0529 0.8465 0 3
8.0736 14.6780 2.0051 0.8667 0 3
7.6201 15.2784 2.0435 0.4639 0 3
7.5519 16.8018 2.2048 0.4298 0 3
7.4771 18.6025 2.3997 0.3951 0 3
7.6641 21.5330 2.7357 0.7441 0 3
7.5015 24.1046 3.0216 0.9459 0 3
7.1251 26.6261 3.2991 0.2876 0 3
3.1039 13.7999 1.6930 0.6499 0 9
1.3964 13.8425 1.6653 0.5495 0 9
0.8909 14.7554 1.7693 0.1840 0 9
0.3100 15.4462 1.8492 0.8354 0 9
-0.2945 14.6017 1.7481 0.4260 0 9
-1.4422 23.8482 2.8597 0.4394 0 9
2.4982 -18.0471 2.1807 0.5041 0 22
4.4311 -24.6610 2.9990 0.9466 0 6
4.3321 -19.5543 2.3973 0.5304 0 22
7.7206 -29.2281 3.6184 0.2717 0 3
9.1316 -29.6789 3.7167 0.9511 0 3
10.4247 -29.5906 3.7551 0.9388 0 3
11.7889 -29.6053 3.8141 0.9250 0 3
12.6894 -28.4771 3.7316 0.4148 0 3
13.9303 -28.1572 3.7601 0.6437 0 3
10.0783 -18.4631 2.5177 0.6357 0 9
17.1558 -28.6271 3.9946 0.8552 0 3
19.3896 -29.5867 4.2340 0.8342 0 3
19.3047 -27.0202 3.9747 0.3722 0 3
20.0536 -25.8069 3.9118 0.0810 0 2
18.7860 -22.2660 3.4869 0.0908 0 2
17.7977 -19.4501 3.1556 0.1004 0 2
17.0080 -17.1480 2.8908 0.1096 0 2
17.2548 -16.0508 2.8207 0.1300 0 2
16.7183 -14.3416 2.6364 0.1391 0 1
16.4314 -12.9856 2.5067 0.1427 0 1
16.1292 -11.7245 2.3867 0.1271 0 1
15.7018 -10.4752 2.2592 0.1375 0 1
15.3088 -9.3458 2.1468 0.1343 0 1
14.8949 -8.2897 2.0403 0.1413 0 1
14.5641 -7.3546 1.9529 0.1609 0 1
8.6614 -3.9450 1.1392 0.9434 0 9
13.6855 -5.5800 1.7690 0.1796 0 2
13.5551 -4.9007 1.7252 0.1841 0 25
13.4436 -4.2573 1.6879 0.1882 0 25
13.3494 -3.6436 1.6563 0.1918 0 25
13.2709 -3.0544 1.6300 0.1949 0 25
13.2070 -2.4850 1.6085 0.1975 0 25
13.6806 -2.0082 1.6550 0.2000 0 1
13.6766 -1.4485 1.6461 0.2026 0 1
5.6211 -0.3675 0.6742 0.1764 25 14
5.5278 -0.1385 0.6618 0.1554 25 14
5.4735 0.0831 0.6552 0.1570 25 14
5.6464 0.3133 0.6769 0.1757 25 14
5.8011 0.5566 0.6975 0.1705 25 14
14.1983 1.9414 1.7152 0.1858 0 1
14.3644 2.5564 1.7463 0.1829 0 1
14.5450 3.1970 1.7825 0.1868 0 1
14.7411 3.8677 1.8241 0.1825 0 1
14.8729 4.5491 1.8616 0.1910 0 1
14.9337 5.2333 1.8940 0.1878 0 1
15.0094 5.9480 1.9324 0.1863 0 1
12.9756 5.7562 1.6990 0.3418 0 14
11.5962 5.7131 1.5473 0.3937 0 14
10.4847 5.7006 1.4284 0.5311 0 14
9.9011 5.9113 1.3802 0.3045 0 14
9.7679 6.3782 1.3963 0.7908 0 14
9.7599 6.9486 1.4340 0.5533 0 14
15.2890 11.8398 2.3145 0.1369 0 2
15.7162 13.2153 2.4578 0.1289 0 2
10.0587 9.1735 1.6294 0.8319 0 20
14.8235 14.6538 2.4949 0.1118 0 3
13.7019 14.6808 2.4036 0.7163 0 0
12.5128 14.5375 2.2958 0.7481 0 3
11.6581 14.7014 2.2458 0.7738 0 3
10.7195 14.6952 2.1771 0.7982 0 3
6.0576 9.0475 1.3032 0.5671 0 8
8.9978 14.6840 2.0613 0.8430 0 3
8.2014 14.6788 2.0126 0.8634 0 3
7.6298 15.0470 2.0193 0.4695 0 3
7.5664 16.5396 2.1770 0.4355 0 3
7.4909 18.2852 2.3651 0.4008 0 3
7.7687 21.3766 2.7223 0.8255 0 3
7.6778 24.1058 3.0281 0.9439 0 3
3.9670 14.4399 1.7924 0.1455 0 9
2.1411 14.4198 1.7449 0.1471 0 9
1.1566 17.2529 2.0697 0.3022 0 9
0.3914 14.6512 1.7543 0.4589 0 9
-0.2223 16.4298 1.9667 0.3143 0 9
-0.8557 15.9014 1.9060 0.5684 0 9
2.6307 -18.1183 1.9858 0.6462 0 22
4.6014 -24.6666 2.7217 0.7585 0 6
8.5919 -37.5990 4.1834 0.9708 0 3
7.8422 -28.9096 3.2491 0.2746 0 3
9.3475 -29.6783 3.3750 0.9504 0 3
10.6554 -29.6166 3.4140 0.9378 0 3
12.0169 -29.6046 3.4656 0.9238 0 3
12.8110 -28.2441 3.3640 0.4175 0 3
14.1142 -28.0587 3.4068 0.6213 0 3
15.8790 -28.6362 3.5516 0.8727 0 3
17.4146 -28.6262 3.6344 0.8529 0 3
17.9645 -27.0191 3.5193 0.8347 0 3
18.6934 -25.8007 3.4558 0.0832 0 2
17.5728 -22.3072 3.0802 0.0933 0 2
16.6974 -19.5260 2.7867 0.1031 0 2
15.9967 -17.2505 2.5518 0.1126 0 2
16.1696 -16.0877 2.4741 0.7182 0 2
15.7197 -14.4294 2.3145 0.1438 0 1
15.4546 -13.0805 2.1961 0.1438 0 24
15.2128 -11.8593 2.0922 0.1316 0 1
6.0275 -4.3206 0.8044 0.3375 14 6
14.5081 -9.5403 1.8834 0.1427 0 1
14.1417 -8.5049 1.7899 0.1501 0 1
13.8321 -7.5784 1.7108 0.1676 0 1
13.6415 -6.7754 1.6521 0.1741 0 1
8.7464 -3.9138 1.0393 0.9089 0 9
12.9064 -5.1627 1.5078 0.1912 0 25
12.8034 -4.5331 1.4732 0.1956 0 25
12.7153 -3.9340 1.4437 0.1996 0 25
12.6408 -3.3602 1.4187 0.2032 0 25
12.5789 -2.8073 1.3980 0.2062 0 25
12.5286 -2.2713 1.3811 0.2087 0 2
12.9946 -1.8194 1.4232 0.2126 0 1
5.3686 -0.5326 0.5852 0.1844 25 14
5.2644 -0.3091 0.5720 0.1631 25 14
5.1671 -0.0951 0.5605 0.2403 25 14
5.1648 0.1127 0.5603 0.2404 25 14
5.3254 0.3309 0.5787 0.1612 25 14
5.4860 0.5632 0.5982 0.1804 25 14
13.4581 1.9313 1.4747 0.1961 0 1
13.6042 2.5144 1.5006 0.1940 0 1
13.7614 3.1206 1.5305 0.1894 0 1
13.9396 3.7565 1.5659 0.1851 0 1
14.0891 4.4118 1.6014 0.1934 0 1
14.1408 5.0611 1.6291 0.1955 0 1
14.2023 5.7375 1.6614 0.1917 0 1
12.7748 5.7689 1.5204 0.3459 0 14
11.3863 5.7039 1.3813 0.4001 0 14
10.3293 5.7053 1.2799 0.5869 0 14
9.9106 6.0065 1.2570 0.9420 0 14
9.8078 6.4976 1.2761 0.8646 0 14
9.8563 7.1163 1.3186 0.5819 0 14
14.2441 11.1827 1.9643 0.1463 0 2
14.5853 12.4306 2.0786 0.1383 0 2
14.9883 13.8527 2.2137 0.1298 0 2
14.5499 14.5755 2.2338 0.6989 0 3
13.5174 14.6773 2.1643 0.7218 0 0
12.3445 14.5360 2.0685 0.7534 0 3
11.4988 14.6999 2.0243 0.7789 0 3
10.5632 14.6848 1.9621 0.8031 0 3
6.0911 9.2294 1.1994 0.5591 0 8
8.8635 14.6827 1.8603 0.8476 0 3
8.0734 14.6776 1.8170 0.8678 0 3
7.6787 15.3960 1.8661 0.4610 0 3
7.6146 16.9415 2.0147 0.4268 0 3
7.5447 18.7708 2.1943 0.3920 0 3
8.0552 22.6319 2.6057 0.9128 0 3
7.5014 24.1040 2.7382 0.9471 0 3
3.9055 14.5945 1.6387 0.5077 0 9
1.4270 14.1461 1.5422 0.2163 0 9
0.9018 14.9364 1.6230 0.3063 0 9
0.3036 15.1293 1.6414 0.1711 0 9
-0.2950 14.6250 1.5866 0.9380 0 9
-0.9485 15.6846 1.7044 0.1017 0 9
-1.6754 16.5919 1.8088 0.2151 0 9
0.6540 -38.8123 4.2104 0.9629 0 22
2.4933 -18.0116 1.9723 0.7442 0 22
4.4524 -24.7794 2.7308 0.8594 0 6
8.4764 -38.2612 4.2507 0.0339 0 3
7.8226 -29.6142 3.3223 0.2685 0 3
9.1318 -29.6797 3.3682 0.9523 0 3
10.4475 -29.6551 3.4104 0.3412 0 3
11.7892 -29.6060 3.4565 0.9262 0 3
12.7987 -28.7224 3.4107 0.4118 0 3
13.7852 -27.8640 3.3720 0.5735 0 3
10.0460 -18.4040 2.2743 0.9937 0 9
17.0949 -28.5255 3.6071 0.8562 0 3
11.2576 -17.1780 2.2277 0.3033 0 20
18.9088 -26.4661 3.5281 0.0815 0 2
17.7384 -22.8276 3.1357 0.0917 0 2
16.8283 -19.9456 2.8306 0.1015 0 2
16.1024 -17.5974 2.5872 0.1111 0 2
15.9675 -16.0989 2.4594 0.7225 0 2
15.7596 -14.6599 2.3346 0.1426 0 1
15.5167 -13.3109 2.2175 0.1464 0 1
15.2597 -12.0596 2.1096 0.1465 0 1
14.8972 -10.8290 1.9977 0.1411 0 1
14.5739 -9.7228 1.9003 0.1414 0 1
14.1986 -8.6680 1.8044 0.1489 0 1
13.8735 -7.7213 1.7222 0.1560 0 1
13.6729 -6.9045 1.6614 0.1732 0 1
8.7048 -3.9647 1.0375 0.9529 0 9
12.9250 -5.2700 1.5140 0.1904 0 25
12.8193 -4.6347 1.4786 0.1949 0 25
12.7289 -4.0309 1.4482 0.1990 0 25
12.6522 -3.4533 1.4225 0.2026 0 25
12.5883 -2.8973 1.4011 0.2057 0 25
12.5361 -2.3588 1.3836 0.2083 0 25
12.9946 -1.9075 1.4246 0.2124 0 1
12.9987 -1.3767 1.4178 0.2135 0 1
5.2835 -0.3454 0.5743 0.1625 25 14
5.1797 -0.1298 0.5620 0.2397 25 14
5.1458 0.0782 0.5582 0.2413 25 14
5.2958 0.2938 0.5753 0.1622 25 14
5.4623 0.5241 0.5952 0.1813 25 14
13.4326 1.8367 1.4706 0.1966 0 1
13.5802 2.4169 1.4961 0.1946 0 1
13.7339 3.0187 1.5252 0.1900 0 1
13.9087 3.6493 1.5597 0.1858 0 1
14.0797 4.3065 1.5970 0.1939 0 1
14.1320 4.9523 1.6242 0.1961 0 1
14.1912 5.6237 1.6557 0.1923 0 1
13.0625 5.7947 1.5500 0.2545 0 14
11.6031 5.7165 1.4030 0.3844 0 14
10.4670 5.6910 1.2923 0.5580 0 14
9.9440 5.9369 1.2562 0.9423 0 14
9.8173 6.4105 1.2718 0.8773 0 14
9.8272 6.9965 1.3085 0.6783 0 14
14.1929 10.9910 1.9471 0.1476 0 2
14.5251 12.2137 2.0584 0.1396 0 2
14.9170 13.6043 2.1898 0.1312 0 2
14.7456 14.5768 2.2490 0.6942 0 3
13.7009 14.6798 2.1780 0.7172 0 0
12.5124 14.5371 2.0804 0.7491 0 3
11.6577 14.7009 2.0351 0.7748 0 3
10.7125 14.6857 1.9717 0.7992 0 3
6.0957 9.1043 1.1884 0.5643 0 8
8.9976 14.6836 1.8679 0.8441 0 3
8.2012 14.6784 1.8238 0.8645 0 3
7.6878 15.1615 1.8438 0.4665 0 3
7.6284 16.6753 1.9890 0.4325 0 3
7.5577 18.4483 2.1624 0.3978 0 3
8.1825 22.5152 2.5984 0.9153 0 3
7.6776 24.1051 2.7440 0.9451 0 3
7.2394 26.3512 2.9641 0.2904 0 3
1.4626 13.5948 1.4831 0.2033 0 9
0.3717 13.9146 1.5098 0.2117 0 9
-0.2033 15.0253 1.6299 0.1097 0 9
-0.8260 15.3497 1.6673 0.4336 0 9
-2.4229 25.7001 2.8000 0.0755 0 9
-2.2834 16.9083 1.8506 0.2334 0 9
-0.6518 -38.9131 3.7855 0.9952 0 22
4.6025 -24.6728 2.4413 0.8780 0 6
8.6231 -37.7353 3.7650 0.2365 0 3
7.9446 -29.2871 2.9516 0.2714 0 3
9.3477 -29.6790 3.0266 0.9514 0 3
10.6461 -29.5907 3.0588 0.9389 0 3
12.0172 -29.6053 3.1078 0.9248 0 3
12.9239 -28.4929 3.0432 0.4145 0 3
14.1702 -28.1701 3.0672 0.6344 0 3
10.2459 -18.4775 2.0551 0.5976 0 9
16.7611 -27.5521 3.1369 0.8536 0 3
17.6165 -26.4957 3.0948 0.0834 0 2
16.5879 -22.8946 2.7500 0.0938 0 2
15.7868 -20.0400 2.4814 0.1040 0 2
15.1470 -17.7130 2.2669 0.1138 0 2
14.9418 -16.1130 2.1374 0.7463 0 2
14.8738 -14.7985 2.0408 0.1429 0 1
14.6141 -13.4145 1.9295 0.1438 0 1
14.3972 -12.1856 1.8346 0.1562 0 1
14.0924 -10.9860 1.7380 0.1443 0 1
13.8086 -9.8982 1.6526 0.1530 0 1
13.5034 -8.8796 1.5720 0.1524 0 1
13.2108 -7.9451 1.4995 0.1609 0 1
13.0107 -7.1284 1.4430 0.1784 0 1
12.8610 -6.3878 1.3968 0.1849 0 1
8.7757 -3.9269 0.9352 0.8660 0 9
12.2310 -4.8926 1.2813 0.2019 0 25
12.1479 -4.3010 1.2535 0.2064 0 25
12.0768 -3.7364 1.2296 0.2104 0 25
12.0165 -3.1942 1.2094 0.2140 0 25
11.9662 -2.6706 1.1926 0.2170 0 25
12.1044 -2.1944 1.1966 0.2235 0 2
12.3310 -1.7265 1.2111 0.2218 0 24
5.1025 -0.5062 0.4987 0.2425 25 14
5.0248 -0.2950 0.4896 0.2470 25 14
4.9499 -0.0911 0.4815 0.2437 25 14
4.9474 0.1080 0.4813 0.2438 25 14
5.0617 0.3145 0.4933 0.2452 25 14
5.1804 0.5318 0.5065 0.2387 25 14
12.7693 1.8324 1.2548 0.2069 0 1
12.9006 2.3844 1.2761 0.2048 0 1
13.0350 2.9559 1.3001 0.2010 0 1
13.1856 3.5533 1.3283 0.1959 0 1
13.3558 4.1822 1.3613 0.1911 0 1
13.4066 4.7983 1.3850 0.2007 0 1
13.4597 5.4375 1.4120 0.2025 0 1
13.5163 6.1037 1.4425 0.1982 0 1
11.4037 5.7126 1.2406 0.3890 0 14
10.3264 5.7037 1.1475 0.6088 0 14
9.9336 6.0205 1.1298 0.8789 0 14
9.8426 6.5206 1.1484 0.8769 0 14
9.8695 7.1258 1.1841 0.6561 0 14
13.2856 10.4302 1.6429 0.1571 0 2
13.5507 11.5489 1.7318 0.1490 0 2
13.8613 12.8111 1.8359 0.1405 0 2
14.2282 14.2533 1.9589 0.1317 0 2
13.4164 14.5676 1.9263 0.7276 0 3
12.3732 14.5698 1.8592 0.6467 0 3
11.4984 14.6994 1.8153 0.7798 0 3
10.5629 14.6843 1.7595 0.8040 0 3
6.1299 9.2882 1.0825 0.5562 0 8
8.8633 14.6823 1.6682 0.8486 0 3
8.0731 14.6772 1.6293 0.8688 0 3
7.7381 15.5151 1.6864 0.4579 0 3
7.6813 17.0898 1.8225 0.4237 0 3
7.6134 18.9418 1.9857 0.3889 0 3
8.0750 22.6876 2.3424 0.9113 0 3
7.5012 24.1034 2.4554 0.9482 0 3
7.3049 27.2978 2.7486 0.2812 0 3
1.5837 15.6998 1.5348 0.6485 0 9
0.9892 16.3847 1.5966 0.0677 0 9
0.4518 22.5103 2.1900 0.9718 0 6
-1.0165 16.8083 1.6379 0.1580 0 9
-2.6445 26.1897 2.5604 0.2325 0 9
2.2223 -38.8896 3.7889 0.9893 0 22
2.4824 -17.9333 1.7610 0.6269 0 22
3.3435 -18.6078 1.8389 0.9581 0 6
9.3831 -42.3540 4.2196 0.9733 0 3
7.9271 -30.0096 3.0191 0.2653 0 3
9.1147 -29.6240 3.0148 0.9533 0 3
10.4534 -29.6719 3.0600 0.9410 0 3
11.7895 -29.6068 3.0997 0.9272 0 3
12.9130 -28.9788 3.0859 0.4087 0 3
13.7449 -27.7825 3.0150 0.5978 0 3
10.0531 -18.4170 2.0409 0.8447 0 9
16.5035 -27.5387 3.1228 0.8232 0 3
11.2671 -17.1925 1.9994 0.7803 0 20
16.7397 -23.4300 2.8009 0.0921 0 2
15.9064 -20.4700 2.5215 0.1023 0 2
15.2435 -18.0672 2.2993 0.1122 0 2
14.7539 -16.1237 2.1258 0.7504 0 2
14.9230 -15.0458 2.0612 0.1415 0 1
14.6547 -13.6321 1.9468 0.1425 0 1
14.4305 -12.3791 1.8493 0.1550 0 1
14.1441 -11.1780 1.7535 0.1430 0 1
13.8520 -10.0692 1.6657 0.1518 0 1
13.5523 -9.0412 1.5846 0.1512 0 1
13.2569 -8.0931 1.5108 0.1597 0 1
13.0372 -7.2558 1.4513 0.1773 0 1
12.8856 -6.5069 1.4041 0.1833 0 1
8.7360 -3.9789 0.9337 0.9962 0 9
12.2460 -4.9931 1.2863 0.2012 0 25
12.1608 -4.3966 1.2578 0.2057 0 25
12.0877 -3.8279 1.2333 0.2098 0 25
12.0257 -3.2823 1.2125 0.2134 0 25
11.9739 -2.7559 1.1951 0.2165 0 25
11.9315 -2.2450 1.1809 0.2191 0 2
12.3795 -1.8172 1.2170 0.2233 0 1
5.1159 -0.5418 0.5004 0.2417 25 14
5.0372 -0.3293 0.4910 0.2463 25 14
4.9630 -0.1243 0.4829 0.2430 25 14
4.9283 0.0749 0.4794 0.2448 25 14
5.0430 0.2798 0.4913 0.2462 25 14
5.1601 0.4951 0.5042 0.2398 25 14
12.7470 1.7429 1.2514 0.2074 0 1
12.8798 2.2922 1.2725 0.2054 0 1
13.0118 2.8600 1.2958 0.2017 0 1
13.1593 3.4527 1.3233 0.1966 0 1
13.3264 4.0761 1.3555 0.1920 0 1
13.3977 4.6950 1.3809 0.2013 0 1
13.4515 5.3306 1.4074 0.2031 0 1
13.5061 5.9915 1.4372 0.1989 0 1
11.6234 5.7265 1.2603 0.3830 0 14
10.4560 5.6850 1.1576 0.5597 0 14
9.9674 5.9509 1.1292 0.8794 0 14
9.8523 6.4334 1.1445 0.8799 0 14
9.8660 7.0241 1.1780 0.6544 0 14
13.2457 10.2575 1.6295 0.1583 0 2
13.5041 11.3552 1.7162 0.1503 0 2
13.8065 12.5915 1.8175 0.1420 0 2
14.1632 14.0010 1.9371 0.1332 0 2
13.5974 14.5688 1.9384 0.7231 0 3
12.5120 14.5366 1.8656 0.7500 0 3
11.6574 14.7005 1.8249 0.7757 0 3
10.7122 14.6853 1.7681 0.8001 0 3
6.1342 9.1618 1.0724 0.5614 0 8
8.9973 14.6832 1.6750 0.8451 0 3
8.2010 14.6780 1.6354 0.8656 0 3
7.7466 15.2773 1.6661 0.4635 0 3
7.6883 16.8062 1.7976 0.4294 0 3
7.6255 18.6139 1.9566 0.3947 0 3
8.2047 22.5765 2.3365 0.9139 0 3
7.6774 24.1045 2.4606 0.9462 0 3
7.3287 26.6763 2.6909 0.2872 0 3
2.6443 24.5785 2.4045 0.5254 0 9
1.7132 25.5551 2.4913 0.1486 0 9
0.6835 25.5883 2.4898 0.2837 0 9
-0.1977 14.6118 1.4214 0.5735 0 9
-1.4024 26.0607 2.5385 0.7565 0 9
-36.4025 -33.8691 4.2807 0.9135 0 20
0.9130 -38.8686 3.3472 0.7850 0 6
4.6227 -24.7808 2.1703 0.9568 0 6
9.6781 -42.3524 3.7402 0.9728 0 3
8.0495 -29.6736 2.6470 0.2681 0 3
9.3480 -29.6798 2.6790 0.9524 0 3
10.6751 -29.6712 2.7148 0.9398 0 3
12.0404 -29.6624 2.7561 0.9257 0 3
13.0351 -28.7381 2.7168 0.4114 0 3
14.1225 -28.0752 2.7057 0.6510 0 3
10.2031 -18.4002 1.8114 0.9501 0 9
10.0926 -16.5903 1.6718 0.6274 0 20
15.6385 -23.5207 2.4317 0.0940 0 2
14.9119 -20.5815 2.1881 0.1045 0 2
14.3332 -18.1948 1.9941 0.1146 0 2
13.8627 -16.2110 1.8364 0.1245 0 2
14.0871 -15.1913 1.7836 0.1447 0 1
13.8291 -13.7591 1.6795 0.1512 0 1
13.6345 -12.5153 1.5934 0.1504 0 1
13.3875 -11.3310 1.5100 0.1472 0 1
13.1330 -10.2380 1.4336 0.1562 0 1
12.8776 -9.2309 1.3641 0.1556 0 1
12.6263 -8.3028 1.3010 0.1632 0 1
12.4178 -7.4682 1.2475 0.1828 0 1
12.2829 -6.7296 1.2058 0.1891 0 1
12.1637 -6.0414 1.1693 0.1954 0 1
8.7931 -3.9347 0.8294 0.8966 0 9
11.6240 -4.6497 1.0778 0.2127 0 25
11.5575 -4.0920 1.0555 0.2172 0 25
11.5005 -3.5581 1.0364 0.2212 0 25
11.4520 -3.0442 1.0202 0.2247 0 25
11.4116 -2.5468 1.0066 0.2278 0 25
11.8217 -2.1432 1.0344 0.2287 0 1
11.7698 -1.6479 1.0232 0.2314 0 24
4.8927 -0.4854 0.4233 0.2531 25 14
4.8218 -0.2831 0.4158 0.2577 25 14
4.7470 -0.0874 0.4088 0.2544 25 14
4.7460 0.1036 0.4087 0.2544 25 14
4.8568 0.3018 0.4189 0.2482 25 14
4.9655 0.5097 0.4297 0.2493 25 14
12.1615 1.7452 1.0577 0.2190 0 1
12.2675 2.2674 1.0740 0.2156 0 1
12.3839 2.8083 1.0932 0.2118 0 1
12.5126 3.3720 1.1157 0.2076 0 1
12.6557 3.9630 1.1417 0.2019 0 1
12.7353 4.5581 1.1645 0.2115 0 1
12.7805 5.1631 1.1867 0.2076 0 1
12.8322 5.7948 1.2122 0.2090 0 1
11.4418 5.7317 1.1017 0.3904 0 14
10.3308 5.7061 1.0161 0.6434 0 14
9.8968 5.9982 0.9963 0.9611 0 14
9.7959 6.4897 1.0116 0.7708 0 14
9.8233 7.0925 1.0431 0.6983 0 14
12.4497 9.7740 1.3627 0.1678 0 2
12.6550 10.7855 1.4315 0.1597 0 2
12.8938 11.9169 1.5116 0.1512 0 2
13.1735 13.1967 1.6053 0.1424 0 2
13.4160 14.5671 1.7050 0.7284 0 3
12.4412 14.6499 1.6547 0.6438 0 3
11.4981 14.6990 1.6067 0.7806 0 3
10.5691 14.6930 1.5582 0.8049 0 3
6.1691 9.3477 0.9642 0.5532 0 8
8.8630 14.6819 1.4765 0.8495 0 3
8.0729 14.6768 1.4421 0.8697 0 3
7.7983 15.6358 1.5043 0.4549 0 3
7.7459 17.2336 1.6267 0.4206 0 3
7.6792 19.1055 1.7727 0.9219 0 3
8.0923 22.7360 2.0777 0.9098 0 3
7.5010 24.1028 2.1732 0.9492 0 3
7.3979 27.6454 2.4638 0.2779 0 3
3.2125 14.2829 1.2604 0.8357 0 9
1.4553 14.4262 1.2483 0.0297 0 9
1.4048 23.2676 2.0068 0.7463 0 9
0.3173 15.8116 1.3615 0.8639 0 9
-0.3331 16.5144 1.4221 0.1878 0 9
-1.0190 16.8504 1.4534 0.1675 0 9
2.2229 -38.8990 3.3544 0.9925 0 22
3.3508 -18.6486 1.6312 0.2124 0 6
9.3883 -42.3773 3.7368 0.2560 0 3
8.0342 -30.4149 2.7083 0.2620 0 3
9.1150 -29.6248 2.6685 0.9543 0 3
10.4536 -29.6726 2.7085 0.9420 0 3
11.8122 -29.6639 2.7489 0.9281 0 3
13.0257 -29.2317 2.7552 0.4056 0 3
13.7451 -27.7829 2.6686 0.6614 0 3
10.0727 -18.4529 1.8099 0.9586 0 9
9.9272 -16.5651 1.6626 0.8923 0 20
15.7764 -24.0732 2.4779 0.0923 0 2
15.0203 -21.0234 2.2245 0.1028 0 2
14.4203 -18.5576 2.0233 0.1130 0 2
13.9341 -16.5153 1.8603 0.1229 0 2
13.8647 -13.9788 1.6950 0.1396 0 1
13.6705 -12.7166 1.6074 0.1491 0 1
13.4341 -11.5243 1.5238 0.1458 0 1
13.1721 -10.4099 1.4454 0.1550 0 1
12.9226 -9.3936 1.3754 0.1543 0 1
12.6654 -8.4495 1.3108 0.1619 0 1
12.4419 -7.5956 1.2550 0.1817 0 1
12.3039 -6.8477 1.2123 0.1881 0 1
12.1358 -6.1283 1.1705 0.1964 0 24
8.7639 -3.9916 0.8291 0.7065 0 9
11.6360 -4.7444 1.0818 0.2119 0 25
11.5678 -4.1823 1.0590 0.2165 0 25
11.5093 -3.6447 1.0394 0.2206 0 25
11.4595 -3.1278 1.0227 0.2242 0 25
11.4178 -2.6279 1.0087 0.2273 0 25
11.6619 -2.1943 1.0216 0.2319 0 2
11.7707 -1.7278 1.0242 0.2311 0 24
4.9049 -0.5195 0.4246 0.2523 25 14
4.8332 -0.3160 0.4170 0.2569 25 14
4.7590 -0.1192 0.4098 0.2537 25 14
4.7284 0.0718 0.4071 0.2554 25 14
4.8380 0.2684 0.4172 0.2492 25 14
4.9470 0.4747 0.4279 0.2504 25 14
12.1449 1.6606 1.0553 0.2195 0 1
12.2493 2.1800 1.0712 0.2148 0 1
12.3639 2.7176 1.0899 0.2125 0 1
12.4905 3.2772 1.1117 0.2083 0 1
12.6307 3.8633 1.1371 0.2027 0 1
12.7288 4.4606 1.1612 0.2121 0 1
12.7724 5.0615 1.1828 0.2083 0 1
12.8250 5.6893 1.2079 0.2097 0 1
11.6630 5.7460 1.1193 0.3712 0 14
10.4509 5.6822 1.0241 0.6384 0 14
9.9279 5.9273 0.9955 0.9518 0 14
9.8049 6.4024 1.0082 0.7734 0 14
9.8081 6.9829 1.0366 0.7027 0 14
12.4186 9.6170 1.3523 0.1691 0 2
12.6190 10.6110 1.4194 0.1611 0 2
12.8518 11.7209 1.4975 0.1527 0 2
13.1242 12.9739 1.5888 0.1439 0 2
13.4455 14.4061 1.6965 0.1348 0 2
12.5116 14.5361 1.6512 0.7508 0 3
11.6570 14.7000 1.6152 0.7765 0 3
10.7119 14.6849 1.5649 0.8010 0 3
6.1730 9.2199 0.9553 0.5584 0 8
8.9971 14.6828 1.4825 0.8460 0 3
8.2007 14.6776 1.4475 0.8665 0 3
7.8061 15.3948 1.4860 0.4604 0 3
7.7552 16.9524 1.6050 0.4263 0 3
7.6944 18.7821 1.7474 0.3916 0 3
8.2271 22.6380 2.0737 0.9123 0 3
7.6772 24.1039 2.1779 0.9472 0 3
7.4200 27.0087 2.4114 0.2840 0 3
2.9309 15.4359 1.3527 0.2995 0 9
1.5361 14.2781 1.2363 0.1940 0 9
0.9725 14.5061 1.2517 0.4475 0 9
0.6711 25.1220 2.1636 0.1839 0 9
-0.2152 15.9065 1.3696 0.7848 0 9
-0.8624 16.0252 1.3817 0.4232 0 9
-36.2585 -33.7351 3.7114 0.8598 0 20
2.4805 -38.8753 2.9192 0.9793 0 22
3.4706 -18.6050 1.4183 0.9659 0 6
9.6782 -42.3527 3.2557 0.9737 0 3
8.1569 -30.0698 2.3349 0.2648 0 3
9.3482 -29.6805 2.3320 0.9532 0 3
10.6754 -29.6720 2.3631 0.9406 0 3
12.0407 -29.6632 2.3991 0.9265 0 3
13.1480 -28.9870 2.3853 0.4082 0 3
13.8644 -27.5621 2.3121 0.4043 0 3
10.2104 -18.4135 1.5779 0.9043 0 9
10.0814 -16.5719 1.4536 0.7598 0 20
14.0625 -21.1504 1.9034 0.1046 0 2
13.5459 -18.6961 1.7302 0.1151 0 2
13.1268 -16.6634 1.5897 0.1253 0 2
13.5006 -15.7877 1.5567 0.1481 0 2
13.0932 -14.1195 1.4430 0.1429 0 1
12.9086 -12.8432 1.3646 0.1530 0 1
12.7200 -11.6759 1.2939 0.1496 0 1
12.4946 -10.5752 1.2267 0.1591 0 1
12.2867 -9.5783 1.1675 0.1575 0 1
12.0566 -8.6423 1.1117 0.1654 0 1
11.8586 -7.7980 1.0636 0.1763 0 1
11.7287 -7.0537 1.0256 0.1899 0 1
11.6229 -6.3680 0.9932 0.2004 0 1
11.2057 -5.5656 0.9376 0.2132 0 2
8.8071 -3.9409 0.7231 0.9780 0 9
11.0754 -4.4303 0.8939 0.2234 0 25
11.0228 -3.9027 0.8763 0.2279 0 25
10.9776 -3.3963 0.8611 0.2320 0 25
10.9392 -2.9079 0.8482 0.2355 0 25
10.9071 -2.4342 0.8375 0.2385 0 25
11.3009 -2.0488 0.8607 0.2404 0 1
6.0946 -0.8533 0.4612 0.9614 25 14
4.6999 -0.4662 0.3539 0.2637 25 14
4.6292 -0.2718 0.3475 0.2607 25 14
4.5604 -0.0840 0.3418 0.2650 25 14
4.5607 0.0996 0.3419 0.2650 25 14
4.6626 0.2897 0.3501 0.2588 25 14
4.7680 0.4895 0.3592 0.2599 25 14
11.6021 1.6649 0.8784 0.2298 0 1
11.6946 2.1615 0.8912 0.2269 0 1
11.7926 2.6742 0.9062 0.2212 0 1
11.9043 3.2080 0.9239 0.2170 0 1
12.0272 3.7662 0.9445 0.2122 0 1
12.1308 4.3417 0.9655 0.2245 0 1
12.1624 4.9134 0.9830 0.2205 0 1
12.2017 5.5101 1.0033 0.2161 0 1
12.2462 6.1347 1.0264 0.2495 0 1
10.3510 5.7173 0.8862 0.5684 0 14
9.9328 6.0200 0.8704 0.9585 0 14
9.8574 6.5305 0.8861 0.8709 0 14
9.8862 7.1379 0.9138 0.6349 0 14
11.7140 9.1964 1.1161 0.1785 0 2
11.8718 10.1180 1.1689 0.1704 0 2
12.0541 11.1408 1.2301 0.1619 0 2
12.2660 12.2876 1.3011 0.1531 0 2
12.5143 13.5881 1.3843 0.1439 0 2
12.4454 14.6549 1.4408 0.7558 0 3
11.4977 14.6985 1.3985 0.7813 0 3
10.5688 14.6925 1.3563 0.8056 0 3
6.2088 9.4077 0.8447 0.5501 0 8
8.8628 14.6815 1.2852 0.8502 0 3
8.0727 14.6764 1.2552 0.8705 0 3
7.8593 15.7582 1.3196 0.4517 0 3
7.8115 17.3795 1.4279 0.4175 0 3
7.6790 19.1050 1.5430 0.9227 0 3
8.5810 24.1091 1.9178 0.9372 0 3
7.5008 24.1022 1.8917 0.9501 0 3
7.4931 28.0013 2.1722 0.2746 0 3
2.7962 15.2790 1.1640 0.7683 0 9
1.5747 15.6102 1.1758 0.8426 0 9
1.3757 22.7856 1.7107 0.4233 0 9
0.3204 15.9624 1.1965 0.1141 0 9
-1.6113 15.9572 1.2019 0.1515 0 9
-30.6472 18.5702 2.6854 0.7814 0 3
-30.6159 16.9064 2.6209 0.8697 0 3
-36.6442 -33.6429 3.7279 0.9229 0 20
0.6555 -38.9062 2.9160 0.9973 0 22
2.2227 -38.8955 2.9196 0.9624 0 22
9.3834 -42.3551 3.2510 0.9750 0 3
8.1439 -30.8305 2.3897 0.2587 0 3
9.1152 -29.6255 2.3228 0.9551 0 3
10.0751 -28.5982 2.2722 0.2798 0 3
11.8125 -29.6646 2.3928 0.9289 0 3
13.1401 -29.4884 2.4193 0.4024 0 3
13.7034 -27.6985 2.3159 0.6131 0 3
10.0991 -18.5012 1.5796 0.6412 0 9
9.9311 -16.5717 1.4478 0.9280 0 20
14.1594 -21.6058 1.9359 0.1029 0 2
13.6236 -19.0685 1.7562 0.1134 0 2
13.1904 -16.9747 1.6110 0.1236 0 2
13.5355 -16.0429 1.5730 0.1465 0 2
13.1368 -14.3565 1.4583 0.1414 0 1
12.9394 -13.0460 1.3770 0.1516 0 1
12.7615 -11.8710 1.3061 0.1482 0 1
12.5294 -10.7483 1.2371 0.1577 0 1
12.3277 -9.7425 1.1775 0.1570 0 1
12.0924 -8.7901 1.1203 0.1641 0 1
6.2406 -4.1633 0.5622 0.5589 14 7
11.7479 -7.1719 1.0315 0.1889 0 1
11.6377 -6.4770 0.9981 0.1994 0 1
11.5540 -5.8345 0.9700 0.2056 0 1
8.7829 -4.0003 0.7232 0.9893 0 9
11.0849 -4.5197 0.8971 0.2227 0 25
11.0310 -3.9882 0.8790 0.2272 0 25
10.9846 -3.4786 0.8635 0.2313 0 25
10.9451 -2.9874 0.8502 0.2349 0 25
10.9119 -2.5115 0.8391 0.2380 0 25
11.3029 -2.1267 0.8619 0.2391 0 1
6.0833 -0.8930 0.4608 0.9622 25 14
4.7110 -0.4989 0.3550 0.2629 25 14
4.6410 -0.3034 0.3485 0.2599 25 14
4.5715 -0.1145 0.3427 0.2643 25 14
4.5445 0.0690 0.3406 0.2660 25 14
4.6453 0.2577 0.3487 0.2598 25 14
4.7511 0.4559 0.3577 0.2610 25 14
11.5875 1.5844 0.8764 0.2303 0 1
11.6794 2.0786 0.8890 0.2270 0 1
11.7752 2.5882 0.9035 0.2219 0 1
11.8852 3.1184 0.9208 0.2177 0 1
12.0061 3.6723 0.9409 0.2131 0 1
12.1255 4.2492 0.9629 0.2213 0 1
12.1566 4.8174 0.9799 0.2212 0 1
12.1946 5.4097 0.9997 0.2168 0 1
12.2409 6.0307 1.0226 0.2120 0 1
10.4870 5.7018 0.8945 0.5631 0 14
9.9715 5.9533 0.8703 0.9485 0 14
9.8649 6.4416 0.8829 0.8826 0 14
9.8612 7.0207 0.9072 0.6396 0 14
11.6901 9.0528 1.1080 0.1798 0 2
11.8442 9.9594 1.1597 0.1717 0 2
12.0221 10.9642 1.2193 0.1633 0 2
12.2288 12.0887 1.2886 0.1546 0 2
12.4705 13.3614 1.3697 0.1454 0 2
12.5147 14.5398 1.4376 0.6456 0 3
11.6567 14.6996 1.4059 0.7772 0 3
10.7182 14.6935 1.3630 0.8017 0 3
9.8340 14.6878 1.3246 0.8249 0 3
8.4665 13.8169 1.2144 0.8509 0 21
8.2005 14.6772 1.2599 0.8673 0 3
7.8665 15.5138 1.3035 0.4573 0 3
7.8200 17.0940 1.4087 0.4232 0 3
7.7645 18.9531 1.5349 0.3884 0 3
8.2443 22.6853 1.8088 0.6678 0 3
7.6770 24.1033 1.8957 0.9481 0 3
7.5134 27.3489 2.1255 0.2807 0 3
3.3777 14.5649 1.1205 0.3202 0 9
1.5353 22.9018 1.7201 0.5054 0 9
0.3899 14.5943 1.0941 0.1497 0 9
-0.3440 25.4259 1.9056 0.3848 0 9
-1.3802 25.6479 1.9248 0.1492 0 9
-36.2093 -33.6894 3.1556 0.8706 0 20
4.9602 -47.5430 3.0499 0.9936 0 3
8.9177 -47.8051 3.1028 0.1891 0 3
9.6788 -42.3551 2.7721 0.9743 0 3
8.0261 -29.5877 1.9561 0.2614 0 20
9.3484 -29.6812 1.9855 0.9539 0 3
10.6756 -29.6727 2.0121 0.9413 0 3
12.0194 -29.6108 2.0390 0.9272 0 3
12.9170 -28.4777 1.9952 0.0707 0 3
13.6215 -27.0793 1.9341 0.8957 0 3
10.2175 -18.4263 1.3443 0.9067 0 9
10.0782 -16.5667 1.2373 0.8544 0 20
11.4572 -17.2320 1.3203 0.5343 0 20
