ply
format ascii 1.0
element vertex 1388
property float32 x
property float32 y
property float32 z
property float32 CosAngle
property uint32 ObjIdx
property uint32 ObjTag
end_header
3.7844 0.9990 -1.7141 0.6531 0 1
3.7618 1.1568 -1.7236 0.6495 0 1
3.7355 1.3154 -1.7344 0.6454 0 1
3.7051 1.4748 -1.7465 0.6410 0 1
3.6707 1.6352 -1.7599 0.6361 0 1
3.6322 1.7965 -1.7746 0.6308 0 1
3.5894 1.9589 -1.7908 0.6251 0 1
3.5422 2.1224 -1.8084 0.6190 0 1
3.4906 2.2872 -1.8276 0.6121 0 1
3.4346 2.4536 -1.8486 0.6052 0 1
3.3738 2.6214 -1.8711 0.5979 0 1
3.3080 2.7908 -1.8954 0.5903 0 1
3.2375 2.9624 -1.9218 0.5866 0 1
3.1616 3.1357 -1.9501 0.5780 0 1
3.0799 3.3110 -1.9804 0.5692 0 1
2.9922 3.4882 -2.0127 0.5601 0 1
2.8982 3.6675 -2.0472 0.5507 0 1
2.7976 3.8490 -2.0839 0.5409 0 1
2.6878 4.0293 -2.1212 0.5357 0 1
2.5701 4.2106 -2.1604 0.5260 0 1
2.4448 4.3936 -2.2020 0.5160 0 1
2.3115 4.5785 -2.2462 0.5064 0 1
2.1698 4.7652 -2.2930 0.4960 0 1
2.0069 4.9238 -2.3286 0.4864 0 24
1.8592 5.1446 -2.3957 0.4748 0 1
1.6893 5.3371 -2.4516 0.4643 0 1
1.5088 5.5315 -2.5110 0.4534 0 1
1.3173 5.7278 -2.5739 0.4423 0 1
1.1139 5.9260 -2.6407 0.4311 0 1
0.8982 6.1272 -2.7121 0.4199 0 1
0.6692 6.3315 -2.7883 0.4084 0 1
0.4259 6.5370 -2.8689 0.3977 0 1
0.1674 6.7442 -2.9545 0.3854 0 1
-0.1073 6.9535 -3.0456 0.3738 0 1
-0.3993 7.1643 -3.1424 0.3623 0 1
-0.7097 7.3758 -3.2451 0.3537 0 1
-1.0393 7.5849 -3.3528 0.3423 0 1
-1.3892 7.7926 -3.4665 0.3320 0 1
-1.7605 7.9977 -3.5864 0.3209 0 1
-2.1547 8.2014 -3.7136 0.3099 0 1
-2.5732 8.4030 -3.8487 0.2990 0 1
-3.0176 8.6016 -3.9921 0.2883 0 1
-3.4895 8.7964 -4.1444 0.2779 0 1
-3.9913 8.9883 -4.3070 0.2646 0 1
-4.5250 9.1758 -4.4805 0.2571 0 1
-5.0907 9.3541 -4.6640 0.2470 0 1
-5.6932 9.5270 -4.8605 0.2380 0 1
-6.3223 9.6733 -5.0609 0.2286 0 1
-6.9869 9.8047 -5.2726 0.2194 0 1
-7.6893 9.9201 -5.4968 0.2093 0 1
-8.4396 10.0274 -5.7399 0.1965 0 1
-9.2418 10.1240 -6.0033 0.1879 0 1
-10.0947 10.2018 -6.2854 0.1794 0 1
-10.9900 10.2470 -6.5806 0.1721 0 1
-11.9389 10.2656 -6.8957 0.1638 0 1
-12.9377 10.2486 -7.2283 0.1565 0 1
-13.9850 10.1899 -7.5780 0.1489 0 1
-15.1236 10.1138 -7.9679 0.1301 0 1
-16.3267 9.9919 -8.3830 0.1265 0 1
-17.5284 9.7804 -8.7906 0.1222 0 1
-18.7488 9.4931 -9.2035 0.1210 0 1
-20.1536 9.2051 -9.7033 0.8105 0 2
-21.1298 8.6412 -9.9976 0.7256 0 2
-22.4494 8.1428 -10.4584 0.5501 0 2
-23.4784 7.4616 -10.7890 0.1017 0 1
-24.6108 6.7441 -11.1755 0.0982 0 1
-16.4531 3.8042 -7.3957 0.9541 26 14
-16.4482 3.1117 -7.3312 0.9875 26 14
-16.6200 2.4562 -7.3577 0.4659 26 14
-28.0431 2.9973 -12.3513 0.0800 0 1
-28.4901 1.8897 -12.5045 0.0790 0 1
-28.7355 0.7468 -12.5888 0.0786 0 1
-28.7454 -0.4100 -12.5902 0.0801 0 1
-28.5001 -1.5551 -12.5000 0.0807 0 1
-27.2585 -2.5906 -11.9915 0.0924 0 2
-26.4153 -3.5880 -11.6747 0.0918 0 25
-25.0445 -4.4345 -11.1387 0.5908 0 20
-24.9323 -5.4576 -11.1775 0.0959 0 25
-24.6559 -6.4468 -11.1610 0.0978 0 1
-23.5970 -7.1959 -10.8040 0.1008 0 1
-22.4870 -7.8594 -10.4322 0.1069 0 1
-21.3027 -8.4218 -10.0320 0.1132 0 1
-20.1238 -8.9079 -9.6380 0.1218 0 1
-18.9548 -9.3199 -9.2504 0.1275 0 1
-17.7455 -9.6305 -8.8423 0.1274 0 1
-16.5556 -9.8671 -8.4405 0.1305 0 1
-15.3736 -10.0222 -8.0371 0.1367 0 1
-14.2346 -10.1185 -7.6485 0.1431 0 1
-13.1396 -10.1601 -7.2740 0.1504 0 1
-12.1030 -10.1623 -6.9211 0.1630 0 1
-11.1385 -10.1440 -6.5978 0.1710 0 1
-10.2235 -10.0925 -6.2915 0.1793 0 1
-9.3795 -10.0360 -6.0159 0.1948 0 1
-8.5832 -9.9587 -5.7577 0.2035 0 1
-7.8285 -9.8589 -5.5133 0.2125 0 1
-7.1065 -9.7292 -5.2765 0.2191 0 1
-6.4069 -9.5562 -5.0386 0.2286 0 24
-5.7651 -9.3954 -4.8276 0.2383 0 24
-5.1778 -9.2542 -4.6441 0.2478 0 1
-4.6079 -9.0741 -4.4570 0.2582 0 1
-4.0713 -8.8860 -4.2806 0.2679 0 1
-3.5668 -8.6925 -4.1149 0.2787 0 1
-3.0926 -8.4951 -3.9593 0.2898 0 1
-2.6457 -8.2911 -3.8114 0.2969 0 1
-2.2253 -8.0834 -3.6718 0.3082 0 1
-1.8307 -7.8759 -3.5412 0.3221 0 1
-1.4601 -7.6687 -3.4188 0.3336 0 1
-1.1122 -7.4649 -3.3053 0.3480 0 1
-0.7844 -7.2585 -3.1973 0.3588 0 1
-0.4761 -7.0529 -3.0958 0.3706 0 1
-0.1860 -6.8487 -3.0005 0.3823 0 1
0.0870 -6.6459 -2.9108 0.3940 0 1
0.3441 -6.4447 -2.8264 0.4058 0 1
0.5862 -6.2453 -2.7471 0.4175 0 1
0.8143 -6.0479 -2.6725 0.4291 0 1
1.0292 -5.8524 -2.6023 0.4407 0 1
1.2315 -5.6576 -2.5358 0.4510 0 1
1.4218 -5.4638 -2.4725 0.4625 0 1
1.6010 -5.2722 -2.4131 0.4739 0 1
1.7698 -5.0829 -2.3571 0.4852 0 1
1.9188 -4.8702 -2.2924 0.4938 0 24
2.0787 -4.7109 -2.2551 0.5071 0 1
2.2163 -4.5208 -2.2050 0.5004 0 1
2.3426 -4.3286 -2.1555 0.5119 0 1
2.4607 -4.1397 -2.1091 0.5231 0 1
2.5710 -3.9540 -2.0655 0.5342 0 1
2.6774 -3.7759 -2.0272 0.5667 0 1
2.7788 -3.6024 -1.9925 0.5766 0 1
2.8739 -3.4309 -1.9600 0.5861 0 1
2.9631 -3.2612 -1.9297 0.5953 0 1
3.0466 -3.0933 -1.9014 0.6042 0 1
3.1247 -2.9271 -1.8751 0.6127 0 1
3.1976 -2.7625 -1.8506 0.6208 0 1
3.2656 -2.5993 -1.8279 0.6285 0 1
3.3289 -2.4375 -1.8069 0.6358 0 1
3.3876 -2.2769 -1.7875 0.6427 0 1
3.4431 -2.1182 -1.7704 0.6425 0 1
3.4954 -1.9611 -1.7553 0.6481 0 1
3.5436 -1.8047 -1.7416 0.6532 0 1
3.5878 -1.6489 -1.7293 0.6578 0 1
3.6281 -1.4937 -1.7183 0.6620 0 1
3.6645 -1.3389 -1.7086 0.6657 0 1
3.6972 -1.1845 -1.7003 0.6690 0 1
3.7262 -1.0305 -1.6931 0.6718 0 1
3.7516 -0.8767 -1.6873 0.6742 0 1
3.7735 -0.7230 -1.6826 0.6760 0 1
3.7918 -0.5695 -1.6792 0.6774 0 1
3.8066 -0.4159 -1.6770 0.6783 0 1
3.8180 -0.2622 -1.6760 0.6787 0 1
3.8259 -0.1084 -1.6762 0.6786 0 1
3.8323 0.0457 -1.6785 0.6770 0 1
3.8360 0.2003 -1.6822 0.6755 0 1
3.8362 0.3555 -1.6872 0.6735 0 1
2.9214 3.4381 -2.0357 0.5677 0 1
2.8276 3.6128 -2.0701 0.5583 0 1
2.7273 3.7894 -2.1066 0.5486 0 1
2.6178 3.9646 -2.1437 0.5434 0 1
2.5008 4.1406 -2.1826 0.5337 0 1
2.3764 4.3181 -2.2240 0.5238 0 1
2.2441 4.4972 -2.2678 0.5142 0 1
2.1035 4.6778 -2.3143 0.5039 0 1
1.9428 4.8312 -2.3496 0.4943 0 24
1.7863 5.0164 -2.4027 0.4833 0 24
1.6282 5.2291 -2.4712 0.4723 0 1
1.4500 5.4157 -2.5297 0.4614 0 1
1.2611 5.6038 -2.5918 0.4503 0 1
1.0609 5.7934 -2.6575 0.4392 0 1
0.8467 5.9708 -2.7211 0.4268 0 24
0.6240 6.1801 -2.8028 0.4166 0 1
0.3854 6.3753 -2.8819 0.4059 0 1
0.1323 6.5712 -2.9657 0.3945 0 1
-0.1362 6.7682 -3.0545 0.3821 0 1
-0.4210 6.9661 -3.1490 0.3707 0 1
-0.7233 7.1643 -3.2491 0.3593 0 1
-1.0436 7.3599 -3.3541 0.3508 0 1
-1.3829 7.5523 -3.4644 0.3406 0 1
-1.7421 7.7412 -3.5803 0.3295 0 1
-2.1226 7.9277 -3.7031 0.3186 0 1
-2.5255 8.1111 -3.8332 0.3078 0 1
-2.9522 8.2904 -3.9709 0.2972 0 1
-3.4039 8.4646 -4.1166 0.2866 0 1
-3.8816 8.6320 -4.2706 0.2765 0 1
-4.3890 8.7959 -4.4355 0.2635 0 1
-4.9259 8.9512 -4.6101 0.2535 0 1
-5.4936 9.0958 -4.7947 0.2437 0 1
-6.0878 9.2198 -4.9852 0.2379 0 1
-6.7105 9.3241 -5.1835 0.2288 0 1
-7.3647 9.4100 -5.3918 0.2199 0 1
-8.0539 9.4786 -5.6124 0.2060 0 1
-8.7955 9.5448 -5.8565 0.1974 0 1
-9.5776 9.5889 -6.1153 0.1891 0 1
-10.3962 9.6026 -6.3858 0.1819 0 1
-11.2562 9.5871 -6.6715 0.1736 0 1
-12.1559 9.5369 -6.9715 0.1661 0 1
-13.0912 9.4451 -7.2839 0.1588 0 1
-14.0632 9.3096 -7.6100 0.1520 0 1
-15.0868 9.1361 -7.9583 0.1367 0 1
-16.1360 8.9046 -8.3159 0.1308 0 1
-17.1988 8.6073 -8.6780 0.1289 0 1
-18.2602 8.2371 -9.0388 0.1238 0 1
-19.3030 7.7887 -9.3922 0.1227 0 1
-20.3062 7.2579 -9.7302 0.1179 0 1
-21.2780 6.6527 -10.0593 0.1163 0 1
-22.1712 5.9640 -10.3596 0.1111 0 1
-16.3251 3.6940 -7.5524 0.9067 26 14
-16.3561 3.0149 -7.5045 0.9517 26 14
-16.4902 2.3581 -7.5164 0.7339 26 14
-24.6928 2.5222 -11.1998 0.0990 0 1
-24.9960 1.5403 -11.3000 0.0984 0 1
-25.1782 0.5363 -11.3634 0.0963 0 1
-25.2017 -0.4776 -11.3735 0.0962 0 1
-25.0174 -1.4827 -11.3081 0.0967 0 1
-24.6622 -2.4606 -11.1833 0.0990 0 1
-23.4123 -3.2919 -10.6679 0.1030 0 25
-22.8495 -4.1564 -10.4793 0.1049 0 25
-22.1739 -4.9628 -10.2528 0.1072 0 25
-21.9652 -5.8533 -10.2569 0.1188 0 2
-21.1215 -6.5493 -9.9781 0.1149 0 1
-20.2103 -7.1701 -9.6761 0.1215 0 1
-19.2558 -7.7171 -9.3603 0.1256 0 1
-18.2419 -8.1773 -9.0202 0.1280 0 1
-17.1619 -8.5384 -8.6492 0.1274 0 24
-16.1407 -8.8578 -8.3076 0.1359 0 1
-15.0902 -9.0898 -7.9488 0.1417 0 1
-14.0607 -9.2605 -7.5968 0.1479 0 1
-13.0604 -9.3763 -7.2545 0.1547 0 1
-12.1012 -9.4481 -6.9274 0.1670 0 1
-11.2004 -9.4943 -6.6252 0.1745 0 1
-10.3364 -9.5025 -6.3354 0.1825 0 1
-9.4989 -9.4655 -6.0508 0.1984 0 24
-8.7669 -9.4691 -5.8227 0.2063 0 1
-8.0389 -9.4160 -5.5864 0.2150 0 1
-7.3403 -9.3336 -5.3578 0.2212 0 1
-6.6751 -9.2291 -5.1394 0.2306 0 1
-6.0447 -9.1080 -4.9324 0.2398 0 1
-5.4480 -8.9728 -4.7365 0.2491 0 1
-4.8834 -8.8247 -4.5509 0.2593 0 1
-4.3497 -8.6660 -4.3752 0.2688 0 1
-3.8345 -8.4738 -4.1968 0.2787 0 24
-3.3711 -8.3266 -4.0534 0.2901 0 1
-2.9224 -8.1462 -3.9051 0.2971 0 1
-2.4989 -7.9599 -3.7645 0.3106 0 1
-2.1003 -7.7717 -3.6325 0.3219 0 1
-1.7193 -7.5571 -3.4970 0.3350 0 24
-1.3716 -7.3925 -3.3926 0.3476 0 1
-1.0386 -7.2028 -3.2837 0.3582 0 1
-0.7244 -7.0103 -3.1800 0.3699 0 1
-0.4282 -6.8179 -3.0824 0.3816 0 1
-0.1489 -6.6260 -2.9905 0.3932 0 1
0.1144 -6.4349 -2.9040 0.4049 0 1
0.3627 -6.2447 -2.8225 0.4166 0 1
0.5970 -6.0557 -2.7457 0.4282 0 1
0.8181 -5.8680 -2.6733 0.4398 0 1
1.0266 -5.6812 -2.6050 0.4499 0 1
1.2191 -5.4772 -2.5319 0.4623 0 24
1.4083 -5.3097 -2.4787 0.4730 0 1
1.5829 -5.1260 -2.4207 0.4844 0 1
1.7475 -4.9441 -2.3661 0.4955 0 1
1.9028 -4.7641 -2.3148 0.5065 0 1
2.0492 -4.5858 -2.2664 0.5173 0 1
2.1817 -4.3981 -2.2153 0.5106 0 1
2.3054 -4.2127 -2.1669 0.5220 0 1
2.4212 -4.0301 -2.1214 0.5332 0 1
2.5306 -3.8521 -2.0796 0.5663 0 1
2.6365 -3.6816 -2.0432 0.5764 0 1
2.7361 -3.5129 -2.0091 0.5862 0 1
2.8295 -3.3459 -1.9772 0.5957 0 1
2.9172 -3.1806 -1.9474 0.6048 0 1
2.9993 -3.0169 -1.9195 0.6136 0 1
3.0761 -2.8547 -1.8936 0.6220 0 1
3.1479 -2.6939 -1.8695 0.6300 0 1
3.2148 -2.5344 -1.8471 0.6376 0 1
3.2771 -2.3761 -1.8265 0.6448 0 1
3.3348 -2.2189 -1.8074 0.6479 0 1
3.3891 -2.0632 -1.7903 0.6585 0 1
3.4403 -1.9090 -1.7753 0.6569 0 1
3.4877 -1.7557 -1.7618 0.6619 0 1
3.5311 -1.6028 -1.7497 0.6665 0 1
3.5706 -1.4505 -1.7390 0.6706 0 1
3.6063 -1.2985 -1.7295 0.6743 0 1
3.6383 -1.1469 -1.7213 0.6775 0 1
3.6667 -0.9956 -1.7144 0.6803 0 1
3.6915 -0.8444 -1.7087 0.6825 0 1
3.7127 -0.6934 -1.7042 0.6843 0 1
3.7305 -0.5424 -1.7009 0.6856 0 1
3.7447 -0.3914 -1.6989 0.6865 0 1
3.7555 -0.2403 -1.6980 0.6868 0 1
3.7629 -0.0890 -1.6983 0.6867 0 1
3.7689 0.0626 -1.7008 0.6849 0 1
3.7720 0.2147 -1.7047 0.6834 0 1
3.7714 0.3674 -1.7098 0.6713 0 1
3.7637 0.5202 -1.7144 0.6695 0 1
3.7523 0.6735 -1.7202 0.6672 0 1
3.7373 0.8273 -1.7272 0.6645 0 1
3.7186 0.9816 -1.7354 0.6614 0 1
3.6961 1.1366 -1.7448 0.6578 0 1
3.6697 1.2923 -1.7555 0.6538 0 1
3.6395 1.4487 -1.7675 0.6493 0 1
3.6052 1.6060 -1.7808 0.6445 0 1
3.5668 1.7642 -1.7955 0.6392 0 1
3.5242 1.9233 -1.8116 0.6335 0 1
3.4773 2.0835 -1.8291 0.6275 0 1
3.4259 2.2448 -1.8481 0.6206 0 1
3.3703 2.4076 -1.8689 0.6137 0 1
3.3099 2.5718 -1.8913 0.6065 0 1
3.2451 2.7378 -1.9157 0.6033 0 1
3.1751 2.9053 -1.9419 0.5951 0 1
3.0998 3.0744 -1.9700 0.5867 0 1
3.0188 3.2453 -1.9999 0.5779 0 1
2.9319 3.4179 -2.0319 0.5688 0 1
2.8388 3.5924 -2.0660 0.5594 0 1
2.7393 3.7687 -2.1023 0.5498 0 1
2.6310 3.9442 -2.1393 0.5445 0 1
2.5148 4.1200 -2.1780 0.5349 0 1
2.3912 4.2974 -2.2190 0.5250 0 1
2.2599 4.4763 -2.2626 0.5154 0 1
2.1203 4.6567 -2.3087 0.5051 0 1
1.9604 4.8098 -2.3436 0.4955 0 24
1.8050 4.9947 -2.3964 0.4846 0 24
1.6482 5.2075 -2.4646 0.4736 0 1
1.4713 5.3939 -2.5227 0.4626 0 1
1.2837 5.5819 -2.5844 0.4516 0 1
1.0848 5.7713 -2.6497 0.4405 0 1
0.8719 5.9481 -2.7126 0.4274 0 24
0.6508 6.1574 -2.7938 0.4179 0 1
0.4139 6.3525 -2.8724 0.4073 0 1
0.1625 6.5484 -2.9557 0.3958 0 1
-0.1041 6.7452 -3.0439 0.3835 0 1
-0.3870 6.9430 -3.1377 0.3720 0 1
-0.6871 7.1412 -3.2371 0.3606 0 1
-1.0054 7.3372 -3.3416 0.3521 0 1
-1.3424 7.5301 -3.4513 0.3418 0 1
-1.6992 7.7193 -3.5665 0.3308 0 1
-2.0771 7.9062 -3.6885 0.3199 0 1
-2.4774 8.0900 -3.8176 0.3091 0 1
-2.9012 8.2697 -3.9544 0.2984 0 1
-3.3499 8.4446 -4.0992 0.2879 0 1
-3.8246 8.6129 -4.2522 0.2777 0 1
-4.3284 8.7772 -4.4158 0.2646 0 1
-4.8619 8.9336 -4.5893 0.2546 0 1
-5.4259 9.0796 -4.7727 0.2448 0 1
-6.0173 9.2066 -4.9628 0.2390 0 1
-6.6364 9.3129 -5.1599 0.2298 0 1
-7.2869 9.4011 -5.3670 0.2210 0 1
-7.9707 9.4703 -5.5852 0.2070 0 1
-8.7069 9.5380 -5.8272 0.1984 0 1
-9.4846 9.5852 -6.0845 0.1900 0 1
-10.2993 9.6030 -6.3539 0.1828 0 1
-11.1537 9.5904 -6.6374 0.1745 0 1
-12.0493 9.5448 -6.9360 0.1670 0 1
-12.9801 9.4577 -7.2467 0.1597 0 1
-13.9485 9.3280 -7.5715 0.1528 0 1
-14.9660 9.1591 -7.9171 0.1374 0 1
-16.0130 8.9348 -8.2740 0.1314 0 1
-17.0752 8.6457 -8.6360 0.1295 0 1
-18.1369 8.2840 -8.9969 0.1243 0 1
-19.1845 7.8457 -9.3523 0.1233 0 1
-20.1900 7.3232 -9.6908 0.1184 0 1
-21.1686 6.7275 -10.0224 0.1145 0 1
-22.0728 6.0486 -10.3268 0.1114 0 1
-16.3216 3.7737 -7.5589 0.9413 26 14
-16.3495 3.0930 -7.5080 0.9261 26 14
-16.4201 2.4267 -7.4895 0.7366 26 14
-24.6486 2.6345 -11.1852 0.0992 0 1
-24.9659 1.6560 -11.2898 0.0985 0 1
-25.1643 0.6540 -11.3584 0.0963 0 1
-25.2106 -0.3596 -11.3766 0.0962 0 1
-25.0472 -1.3667 -11.3185 0.0967 0 1
-24.7156 -2.3490 -11.2024 0.0988 0 1
-23.4698 -3.1879 -10.6872 0.1029 0 25
-22.9211 -4.0586 -10.5033 0.1047 0 25
-22.0016 -4.8160 -10.1625 0.8943 16 6
-21.6385 -5.6578 -10.0919 0.4247 0 2
-21.2265 -6.4730 -10.0132 0.1145 0 1
-20.3188 -7.1016 -9.7120 0.1211 0 1
-19.3688 -7.6573 -9.3977 0.1251 0 1
-18.3635 -8.1287 -9.0614 0.1275 0 1
-17.2863 -8.4995 -8.6917 0.1257 0 24
-16.2641 -8.8266 -8.3497 0.1352 0 1
-15.2118 -9.0662 -7.9904 0.1410 0 1
-14.1792 -9.2436 -7.6373 0.1471 0 1
-13.1753 -9.3655 -7.2938 0.1538 0 1
-12.2084 -9.4400 -6.9634 0.1662 0 1
-11.3035 -9.4911 -6.6599 0.1736 0 1
-10.4350 -9.5033 -6.3684 0.1816 0 1
-9.5896 -9.4668 -6.0802 0.1975 0 24
-8.8540 -9.4737 -5.8510 0.2053 0 1
-8.1219 -9.4234 -5.6134 0.2140 0 1
-7.4201 -9.3446 -5.3841 0.2201 0 1
-6.7507 -9.2422 -5.1642 0.2295 0 1
-6.1163 -9.1228 -4.9559 0.2387 0 1
-5.5159 -8.9893 -4.7588 0.2480 0 1
-4.9475 -8.8425 -4.5719 0.2581 0 1
-4.4102 -8.6849 -4.3951 0.2675 0 1
-3.8915 -8.4936 -4.2156 0.2774 0 24
-3.4250 -8.3470 -4.0711 0.2888 0 1
-2.9734 -8.1677 -3.9220 0.2958 0 1
-2.5469 -7.9816 -3.7803 0.3093 0 1
-2.1455 -7.7937 -3.6475 0.3206 0 1
-1.7617 -7.5791 -3.5110 0.3336 0 24
-1.4117 -7.4145 -3.4056 0.3463 0 1
-1.0764 -7.2253 -3.2961 0.3568 0 1
-0.7600 -7.0327 -3.1918 0.3685 0 1
-0.4618 -6.8403 -3.0935 0.3802 0 1
-0.1806 -6.6484 -3.0010 0.3918 0 1
0.0845 -6.4571 -2.9138 0.4035 0 1
0.3346 -6.2668 -2.8317 0.4152 0 1
0.5704 -6.0776 -2.7544 0.4269 0 1
0.7930 -5.8898 -2.6815 0.4385 0 1
1.0029 -5.7029 -2.6127 0.4484 0 1
1.1969 -5.4988 -2.5393 0.4609 0 24
1.3873 -5.3312 -2.4856 0.4717 0 1
1.5631 -5.1473 -2.4273 0.4831 0 1
1.7289 -4.9652 -2.3723 0.4942 0 1
1.8753 -4.7597 -2.3084 0.5030 0 24
2.0197 -4.5772 -2.2574 0.5133 0 24
2.1668 -4.4199 -2.2211 0.5093 0 1
2.2914 -4.2341 -2.1723 0.5207 0 1
2.4081 -4.0512 -2.1265 0.5319 0 1
2.5178 -3.8721 -2.0840 0.5651 0 1
2.6245 -3.7013 -2.0473 0.5753 0 1
2.7248 -3.5324 -2.0130 0.5851 0 1
2.8190 -3.3653 -1.9808 0.5946 0 1
2.9073 -3.1998 -1.9508 0.6038 0 1
2.9900 -3.0359 -1.9227 0.6126 0 1
3.0675 -2.8736 -1.8965 0.6210 0 1
3.1398 -2.7126 -1.8722 0.6291 0 1
3.2073 -2.5529 -1.8497 0.6368 0 1
3.2701 -2.3945 -1.8288 0.6440 0 1
3.3284 -2.2371 -1.8095 0.6509 0 1
3.3829 -2.0812 -1.7922 0.6579 0 1
3.4345 -1.9269 -1.7770 0.6563 0 1
3.4824 -1.7735 -1.7633 0.6614 0 1
3.5262 -1.6206 -1.7511 0.6660 0 1
3.5662 -1.4682 -1.7402 0.6702 0 1
3.6024 -1.3162 -1.7305 0.6739 0 1
3.6348 -1.1645 -1.7222 0.6772 0 1
3.6636 -1.0132 -1.7151 0.6800 0 1
3.6888 -0.8620 -1.7093 0.6823 0 1
3.7104 -0.7110 -1.7047 0.6841 0 1
3.7286 -0.5600 -1.7013 0.6855 0 1
3.7432 -0.4090 -1.6991 0.6864 0 1
3.7544 -0.2579 -1.6981 0.6868 0 1
3.7622 -0.1066 -1.6982 0.6867 0 1
3.7684 0.0449 -1.7005 0.6851 0 1
3.7718 0.1969 -1.7042 0.6836 0 1
3.7718 0.3496 -1.7092 0.6816 0 1
2.8630 3.3694 -2.0543 0.5764 0 1
2.7701 3.5394 -2.0883 0.5670 0 1
2.6709 3.7111 -2.1244 0.5574 0 1
2.5630 3.8816 -2.1612 0.5522 0 1
2.4475 4.0524 -2.1996 0.5426 0 1
2.3248 4.2244 -2.2404 0.5327 0 1
2.1945 4.3978 -2.2836 0.5226 0 1
2.0561 4.5724 -2.3293 0.5129 0 1
1.9094 4.7482 -2.3778 0.5025 0 1
1.7445 4.8989 -2.4161 0.4924 0 24
1.5891 5.1035 -2.4835 0.4815 0 1
1.4144 5.2827 -2.5409 0.4706 0 1
1.2294 5.4629 -2.6017 0.4596 0 1
1.0335 5.6441 -2.6660 0.4485 0 1
0.8264 5.8278 -2.7348 0.4374 0 1
0.6057 5.9998 -2.8018 0.4247 0 24
0.3747 6.1981 -2.8850 0.4154 0 1
0.1285 6.3834 -2.9665 0.4040 0 1
-0.1322 6.5690 -3.0527 0.3926 0 1
-0.4083 6.7546 -3.1441 0.3804 0 1
-0.7006 6.9401 -3.2409 0.3690 0 1
-1.0102 7.1240 -3.3431 0.3606 0 1
-1.3373 7.3029 -3.4495 0.3504 0 1
-1.6827 7.4773 -3.5610 0.3394 0 1
-2.0478 7.6486 -3.6789 0.3286 0 1
-2.4336 7.8158 -3.8034 0.3178 0 1
-2.8410 7.9782 -3.9348 0.3072 0 1
-3.2712 8.1346 -4.0736 0.2968 0 1
-3.7249 8.2835 -4.2199 0.2867 0 1
-4.2036 8.4242 -4.3743 0.2737 0 1
-4.7100 8.5588 -4.5390 0.2638 0 1
-5.2435 8.6818 -4.7124 0.2541 0 1
-5.8040 8.7901 -4.8941 0.2467 0 1
-6.3867 8.8742 -5.0799 0.2407 0 1
-6.9954 8.9381 -5.2735 0.2318 0 1
-7.6311 8.9810 -5.4757 0.2233 0 1
-8.3067 9.0145 -5.6954 0.2067 0 1
-9.0235 9.0341 -5.9326 0.1984 0 1
-9.7705 9.0248 -6.1798 0.1905 0 1
-10.5499 8.9856 -6.4387 0.1815 0 1
-11.3602 8.9126 -6.7088 0.1742 0 1
-12.1960 8.7992 -6.9874 0.1669 0 1
-13.0592 8.6450 -7.2766 0.1604 0 1
-13.9397 8.4415 -7.5717 0.1541 0 1
-14.8495 8.1946 -7.8802 0.1445 0 1
-15.7799 7.8971 -8.1986 0.1388 0 1
-16.6988 7.5328 -8.5115 0.1343 0 1
-17.6024 7.1025 -8.8191 0.1298 0 1
-18.4820 6.6059 -9.1192 0.1255 0 1
-19.3031 6.0352 -9.3968 0.1229 0 1
-20.0494 5.3933 -9.6466 0.1198 0 1
-16.2001 3.6657 -7.7172 0.9721 26 14
-16.2162 2.9892 -7.6614 0.9900 26 14
-16.3543 2.3387 -7.6759 0.8508 26 14
-22.1460 2.2621 -10.3431 0.1128 0 1
-22.3840 1.3794 -10.4198 0.1121 0 1
-22.5075 0.4794 -10.4598 0.1091 0 1
-22.5136 -0.4267 -10.4622 0.1091 0 1
-22.3674 -1.3256 -10.4106 0.1095 0 1
-22.0909 -2.2040 -10.3149 0.1105 0 1
-21.4689 -3.0186 -10.0731 0.7823 0 2
-21.0749 -3.8336 -9.9525 0.9962 0 2
-20.5985 -4.6102 -9.8073 0.1221 0 1
-19.9418 -5.3141 -9.5888 0.1248 0 1
-19.2159 -5.9584 -9.3475 0.1277 0 1
-18.4286 -6.5380 -9.0852 0.1286 0 1
-17.5881 -7.0488 -8.8036 0.1320 0 1
-16.7086 -7.4900 -8.5075 0.1366 0 1
-15.7988 -7.8603 -8.1988 0.1401 0 1
-14.8742 -8.1627 -7.8831 0.1467 0 1
-13.9502 -8.4031 -7.5666 0.1521 0 1
-13.0408 -8.5888 -7.2551 0.1586 0 1
-12.1556 -8.7268 -6.9525 0.1705 0 1
-11.3161 -8.8352 -6.6705 0.1777 0 1
-10.5033 -8.9034 -6.3975 0.1852 0 1
-9.7307 -8.9457 -6.1413 0.2004 0 1
-9.0012 -8.9695 -5.9041 0.2085 0 1
-8.2995 -8.9643 -5.6760 0.2168 0 1
-7.6059 -8.9089 -5.4426 0.2274 0 24
-6.9744 -8.8683 -5.2420 0.2312 0 1
-6.3548 -8.7863 -5.0381 0.2405 0 1
-5.7490 -8.6624 -4.8305 0.2495 0 24
-5.2057 -8.5736 -4.6603 0.2594 0 1
-4.6737 -8.4459 -4.4849 0.2686 0 1
-4.1698 -8.3076 -4.3188 0.2789 0 1
-3.6928 -8.1607 -4.1618 0.2895 0 1
-3.2412 -8.0057 -4.0129 0.2986 0 1
-2.8133 -7.8420 -3.8709 0.3095 0 1
-2.4091 -7.6737 -3.7369 0.3206 0 1
-2.0274 -7.5018 -3.6105 0.3318 0 1
-1.6672 -7.3279 -3.4917 0.3460 0 1
-1.3274 -7.1539 -3.3806 0.3574 0 1
-1.0061 -6.9773 -3.2753 0.3679 0 1
-0.7024 -6.7975 -3.1751 0.3795 0 1
-0.4155 -6.6171 -3.0805 0.3911 0 1
-0.1447 -6.4365 -2.9913 0.4027 0 1
0.1112 -6.2560 -2.9071 0.4144 0 1
0.3529 -6.0758 -2.8277 0.4260 0 1
0.5813 -5.8963 -2.7528 0.4376 0 1
0.7970 -5.7171 -2.6820 0.4475 0 1
0.9977 -5.5213 -2.6069 0.4608 0 24
1.1933 -5.3610 -2.5518 0.4707 0 1
1.3747 -5.1831 -2.4914 0.4821 0 1
1.5460 -5.0065 -2.4345 0.4934 0 1
1.7077 -4.8314 -2.3809 0.5045 0 1
1.8503 -4.6326 -2.3177 0.5124 0 24
1.9914 -4.4565 -2.2679 0.5247 0 24
2.1337 -4.3014 -2.2309 0.5195 0 1
2.2558 -4.1220 -2.1832 0.5308 0 1
2.3701 -3.9452 -2.1384 0.5419 0 1
2.4803 -3.7756 -2.0989 0.5749 0 1
2.5850 -3.6097 -2.0628 0.5849 0 1
2.6835 -3.4454 -2.0291 0.5947 0 1
2.7760 -3.2826 -1.9974 0.6041 0 1
2.8628 -3.1214 -1.9679 0.6132 0 1
2.9442 -2.9615 -1.9403 0.6219 0 1
3.0204 -2.8030 -1.9145 0.6303 0 1
3.0916 -2.6457 -1.8906 0.6382 0 1
3.1580 -2.4896 -1.8684 0.6458 0 1
3.2198 -2.3345 -1.8478 0.6530 0 1
3.2767 -2.1802 -1.8286 0.6561 0 1
3.3309 -2.0278 -1.8118 0.6666 0 1
3.3812 -1.8762 -1.7966 0.6723 0 1
3.4279 -1.7256 -1.7831 0.6701 0 1
3.4709 -1.5755 -1.7710 0.6746 0 1
3.5102 -1.4259 -1.7603 0.6787 0 1
3.5456 -1.2767 -1.7509 0.6824 0 1
3.5774 -1.1277 -1.7428 0.6856 0 1
3.6055 -0.9789 -1.7358 0.6883 0 1
3.6301 -0.8304 -1.7302 0.6906 0 1
3.6511 -0.6819 -1.7257 0.6923 0 1
3.6687 -0.5334 -1.7225 0.6937 0 1
3.6828 -0.3849 -1.7204 0.6945 0 1
3.6934 -0.2363 -1.7196 0.6948 0 1
3.7006 -0.0875 -1.7199 0.6947 0 1
3.7065 0.0616 -1.7223 0.6930 0 1
3.7093 0.2111 -1.7262 0.6914 0 1
3.7072 0.3611 -1.7306 0.6794 0 1
3.6995 0.5113 -1.7352 0.6776 0 1
3.6881 0.6620 -1.7410 0.6754 0 1
3.6731 0.8130 -1.7479 0.6727 0 1
3.6544 0.9647 -1.7561 0.6696 0 1
3.6319 1.1169 -1.7655 0.6660 0 1
3.6057 1.2697 -1.7761 0.6620 0 1
3.5755 1.4233 -1.7880 0.6576 0 1
3.5414 1.5776 -1.8013 0.6528 0 1
3.5032 1.7327 -1.8159 0.6475 0 1
3.4608 1.8887 -1.8318 0.6419 0 1
3.4141 2.0456 -1.8492 0.6359 0 1
3.3630 2.2036 -1.8681 0.6290 0 1
3.3078 2.3630 -1.8887 0.6269 0 1
3.2483 2.5239 -1.9113 0.6195 0 1
3.1840 2.6862 -1.9355 0.6117 0 1
3.1145 2.8498 -1.9615 0.6036 0 1
3.0398 3.0149 -1.9892 0.5952 0 1
2.9595 3.1815 -2.0189 0.5865 0 1
2.8734 3.3497 -2.0505 0.5774 0 1
2.7813 3.5195 -2.0842 0.5681 0 1
2.6828 3.6910 -2.1201 0.5585 0 1
2.5760 3.8618 -2.1569 0.5533 0 1
2.4613 4.0324 -2.1950 0.5437 0 1
2.3395 4.2043 -2.2355 0.5339 0 1
2.2101 4.3776 -2.2784 0.5238 0 1
2.0727 4.5520 -2.3239 0.5141 0 1
1.9156 4.6999 -2.3581 0.5045 0 24
1.7629 4.8780 -2.4099 0.4937 0 24
1.6088 5.0827 -2.4770 0.4827 0 1
1.4353 5.2618 -2.5340 0.4719 0 1
1.2515 5.4419 -2.5944 0.4609 0 1
1.0569 5.6229 -2.6583 0.4498 0 1
0.8512 5.8063 -2.7266 0.4387 0 1
0.6319 5.9780 -2.7930 0.4260 0 24
0.4024 6.1765 -2.8758 0.4167 0 1
0.1579 6.3618 -2.9568 0.4053 0 1
-0.1011 6.5474 -3.0424 0.3939 0 1
-0.3753 6.7330 -3.1332 0.3825 0 1
-0.6657 6.9186 -3.2294 0.3703 0 1
-0.9733 7.1029 -3.3310 0.3619 0 1
-1.2983 7.2824 -3.4369 0.3517 0 1
-1.6415 7.4572 -3.5477 0.3407 0 1
-2.0042 7.6288 -3.6648 0.3298 0 1
-2.3875 7.7966 -3.7885 0.3190 0 1
-2.7924 7.9596 -3.9192 0.3085 0 1
-3.2199 8.1167 -4.0571 0.2980 0 1
-3.6709 8.2666 -4.2025 0.2878 0 1
-4.1463 8.4079 -4.3557 0.2777 0 1
-4.6496 8.5437 -4.5193 0.2649 0 1
-5.1800 8.6682 -4.6917 0.2552 0 1
-5.7377 8.7789 -4.8728 0.2478 0 1
-6.3176 8.8655 -5.0579 0.2417 0 1
-6.9231 8.9317 -5.2505 0.2328 0 1
-7.5557 8.9772 -5.4517 0.2242 0 1
-8.2253 9.0105 -5.6685 0.2077 0 1
-8.9385 9.0333 -5.9045 0.1994 0 1
-9.6820 9.0275 -6.1505 0.1914 0 1
-10.4573 8.9916 -6.4078 0.1824 0 1
-11.2645 8.9231 -6.6769 0.1751 0 1
-12.0972 8.8144 -6.9544 0.1681 0 1
-12.9577 8.6654 -7.2426 0.1611 0 1
-13.8365 8.4678 -7.5371 0.1548 0 1
-14.7415 8.2254 -7.8433 0.1451 0 1
-15.6714 7.9349 -8.1614 0.1395 0 1
-16.5923 7.5785 -8.4752 0.1349 0 1
-17.4980 7.1560 -8.7836 0.1303 0 1
-18.3814 6.6672 -9.0848 0.1260 0 1
-19.2121 6.1057 -9.3663 0.1233 0 1
-19.9660 5.4713 -9.6187 0.1201 0 1
-16.1992 3.7454 -7.7251 0.9711 26 14
-16.2119 3.0670 -7.6660 0.9856 26 14
-16.3011 2.4091 -7.6561 0.8530 26 14
-22.1109 2.3632 -10.3317 0.1130 0 1
-22.3622 1.4833 -10.4128 0.1122 0 1
-22.4980 0.5847 -10.4566 0.1091 0 1
-22.5208 -0.3212 -10.4647 0.1091 0 1
-22.3913 -1.2218 -10.4190 0.1096 0 1
-22.1295 -2.1032 -10.3282 0.1104 0 1
-21.5633 -2.9289 -10.1108 0.7015 0 2
-21.0980 -3.7357 -9.9551 0.9959 0 2
-20.6698 -4.5245 -9.8310 0.1217 0 1
-20.0222 -5.2352 -9.6155 0.1245 0 1
-19.3032 -5.8865 -9.3764 0.1273 0 1
-18.5236 -6.4742 -9.1170 0.1282 0 1
-17.6888 -6.9931 -8.8376 0.1315 0 1
-16.8121 -7.4420 -8.5424 0.1361 0 1
-15.9065 -7.8211 -8.2356 0.1395 0 1
-14.9819 -8.1307 -7.9200 0.1460 0 1
-14.0573 -8.3781 -7.6033 0.1514 0 1
-13.1456 -8.5698 -7.2910 0.1579 0 1
-12.2550 -8.7114 -6.9859 0.1697 0 1
-11.4125 -8.8247 -6.7028 0.1768 0 1
-10.5966 -8.8975 -6.4288 0.1843 0 1
-9.8175 -8.9409 -6.1696 0.1995 0 1
-9.0847 -8.9683 -5.9312 0.2075 0 1
-8.3798 -8.9663 -5.7021 0.2158 0 1
-7.6823 -8.9134 -5.4673 0.2264 0 24
-7.0485 -8.8766 -5.2664 0.2305 0 1
-6.4254 -8.7967 -5.0614 0.2394 0 1
-5.8328 -8.6999 -4.8666 0.2490 0 1
-5.2694 -8.5877 -4.6813 0.2583 0 1
-4.7342 -8.4613 -4.5049 0.2674 0 1
-4.2270 -8.3242 -4.3377 0.2777 0 1
-3.7470 -8.1782 -4.1796 0.2882 0 1
-3.2926 -8.0244 -4.0300 0.2973 0 1
-2.8619 -7.8613 -3.8870 0.3082 0 1
-2.4550 -7.6935 -3.7521 0.3193 0 1
-2.0640 -7.4975 -3.6131 0.3318 0 24
-1.7080 -7.3480 -3.5051 0.3447 0 1
-1.3659 -7.1743 -3.3932 0.3561 0 1
-1.0426 -6.9982 -3.2874 0.3665 0 1
-0.7369 -6.8185 -3.1865 0.3781 0 1
-0.4481 -6.6381 -3.0912 0.3898 0 1
-0.1754 -6.4575 -3.0014 0.4014 0 1
0.0822 -6.2770 -2.9167 0.4130 0 1
0.3255 -6.0968 -2.8367 0.4246 0 1
0.5554 -5.9172 -2.7613 0.4362 0 1
0.7725 -5.7379 -2.6900 0.4462 0 1
0.9746 -5.5420 -2.6145 0.4594 0 24
1.1714 -5.3818 -2.5590 0.4694 0 1
1.3541 -5.2037 -2.4983 0.4808 0 1
1.5265 -5.0270 -2.4410 0.4921 0 1
1.6894 -4.8518 -2.3870 0.5032 0 1
1.8333 -4.6532 -2.3237 0.5111 0 24
1.9755 -4.4769 -2.2736 0.5222 0 24
2.1190 -4.3224 -2.2366 0.5181 0 1
2.2420 -4.1427 -2.1886 0.5295 0 1
2.3572 -3.9656 -2.1434 0.5407 0 1
2.4677 -3.7950 -2.1032 0.5737 0 1
2.5732 -3.6289 -2.0669 0.5838 0 1
2.6724 -3.4644 -2.0329 0.5936 0 1
2.7655 -3.3015 -2.0010 0.6030 0 1
2.8530 -3.1401 -1.9712 0.6121 0 1
2.9350 -2.9801 -1.9434 0.6209 0 1
3.0118 -2.8214 -1.9174 0.6293 0 1
3.0835 -2.6639 -1.8933 0.6373 0 1
3.1505 -2.5077 -1.8709 0.6450 0 1
3.2128 -2.3525 -1.8501 0.6522 0 1
3.2703 -2.1981 -1.8308 0.6553 0 1
3.3248 -2.0455 -1.8137 0.6660 0 1
3.3755 -1.8938 -1.7983 0.6717 0 1
3.4226 -1.7431 -1.7846 0.6695 0 1
3.4661 -1.5930 -1.7724 0.6741 0 1
3.5058 -1.4433 -1.7615 0.6783 0 1
3.5417 -1.2940 -1.7519 0.6820 0 1
3.5739 -1.1450 -1.7436 0.6852 0 1
3.6024 -0.9963 -1.7366 0.6880 0 1
3.6274 -0.8477 -1.7308 0.6903 0 1
3.6488 -0.6992 -1.7262 0.6922 0 1
3.6668 -0.5507 -1.7228 0.6935 0 1
3.6813 -0.4022 -1.7206 0.6944 0 1
3.6924 -0.2536 -1.7196 0.6948 0 1
3.7000 -0.1048 -1.7198 0.6947 0 1
3.7059 0.0442 -1.7220 0.6931 0 1
3.7092 0.1937 -1.7257 0.6916 0 1
3.7079 0.3436 -1.7302 0.6796 0 1
2.8063 3.3027 -2.0724 0.5849 0 1
2.7144 3.4682 -2.1059 0.5756 0 1
2.6163 3.6352 -2.1416 0.5660 0 1
2.5100 3.8012 -2.1781 0.5610 0 1
2.3960 3.9670 -2.2160 0.5514 0 1
2.2749 4.1338 -2.2562 0.5416 0 1
2.1465 4.3017 -2.2988 0.5315 0 1
1.9980 4.4430 -2.3294 0.5229 0 24
1.8661 4.6404 -2.3916 0.5115 0 1
1.7132 4.8111 -2.4420 0.5009 0 1
1.5514 4.9827 -2.4954 0.4906 0 1
1.3801 5.1547 -2.5516 0.4798 0 1
1.1989 5.3275 -2.6111 0.4688 0 1
1.0073 5.5009 -2.6741 0.4580 0 1
0.8050 5.6764 -2.7414 0.4467 0 1
0.5909 5.8524 -2.8127 0.4354 0 1
0.3638 6.0180 -2.8829 0.4229 0 24
0.1249 6.2043 -2.9673 0.4135 0 1
-0.1284 6.3795 -3.0511 0.4022 0 1
-0.3961 6.5540 -3.1396 0.3908 0 1
-0.6792 6.7275 -3.2332 0.3795 0 1
-0.9784 6.8998 -3.3323 0.3674 0 1
-1.2941 7.0671 -3.4354 0.3602 0 1
-1.6267 7.2284 -3.5428 0.3493 0 1
-1.9774 7.3858 -3.6560 0.3385 0 1
-2.3472 7.5385 -3.7754 0.3278 0 1
-2.7369 7.6857 -3.9011 0.3173 0 1
-3.1472 7.8263 -4.0335 0.3068 0 1
-3.5790 7.9589 -4.1728 0.2968 0 1
-4.0328 8.0821 -4.3190 0.2867 0 1
-4.5102 8.1957 -4.4731 0.2740 0 1
-5.0130 8.3001 -4.6365 0.2644 0 1
-5.5403 8.3907 -4.8079 0.2549 0 1
-6.0892 8.4609 -4.9845 0.2480 0 1
-6.6591 8.5085 -5.1664 0.2423 0 1
-7.2509 8.5336 -5.3546 0.2337 0 1
-7.8653 8.5354 -5.5499 0.2255 0 1
-8.5227 8.5327 -5.7667 0.2090 0 1
-9.2069 8.5042 -5.9931 0.2011 0 1
-9.9150 8.4449 -6.2276 0.1934 0 1
-10.6481 8.3539 -6.4715 0.1849 0 1
-11.4014 8.2260 -6.7226 0.1780 0 1
-12.1748 8.0595 -6.9816 0.1710 0 1
-12.9602 7.8483 -7.2449 0.1649 0 1
-13.7573 7.5919 -7.5135 0.1581 0 1
-14.5609 7.2871 -7.7858 0.1526 0 1
-15.3682 6.9326 -8.0616 0.1452 0 1
-16.1541 6.5182 -8.3295 0.1401 0 1
-16.9050 6.0422 -8.5842 0.1353 0 1
-17.6161 5.5078 -8.8255 0.1316 0 1
-18.2661 4.9136 -9.0447 0.1294 0 1
-16.1448 3.6532 -7.9151 0.9572 26 14
-16.1543 2.9777 -7.8546 0.9788 26 14
-16.3351 2.3359 -7.8904 0.5102 26 14
-20.0585 2.0489 -9.6412 0.1221 0 1
-20.2683 1.2490 -9.7100 0.1216 0 1
-20.3686 0.4339 -9.7418 0.1218 0 1
-20.3575 -0.3858 -9.7360 0.1219 0 1
-20.2429 -1.1997 -9.6965 0.1224 0 1
-20.0155 -1.9970 -9.6183 0.1245 0 1
-19.6882 -2.7683 -9.5069 0.1260 0 1
-19.2790 -3.5069 -9.3698 0.1295 0 1
-18.7897 -4.2053 -9.2069 0.1304 0 1
-18.2208 -4.8555 -9.0166 0.1331 0 1
-17.5862 -5.4531 -8.8041 0.1361 0 1
-16.8982 -5.9951 -8.5736 0.1398 0 1
-16.1620 -6.4772 -8.3256 0.1427 0 1
-15.3940 -6.9007 -8.0667 0.1458 0 1
-14.5879 -7.2578 -7.7910 0.1509 0 1
-13.7742 -7.5591 -7.5130 0.1560 0 1
-12.9569 -7.8048 -7.2327 0.1620 0 1
-12.1529 -8.0040 -6.9582 0.1733 0 1
-11.3783 -8.1687 -6.6976 0.1812 0 1
-10.6201 -8.2917 -6.4426 0.1884 0 1
-9.8878 -8.3817 -6.1981 0.2033 0 1
-9.1948 -8.4530 -5.9723 0.2110 0 1
-8.5236 -8.4936 -5.7538 0.2190 0 1
-7.8753 -8.5061 -5.5429 0.2273 0 1
-7.2447 -8.4857 -5.3352 0.2325 0 1
-6.6395 -8.4424 -5.1357 0.2416 0 1
-6.0610 -8.3800 -4.9452 0.2509 0 1
-5.5088 -8.3005 -4.7636 0.2598 0 1
-4.9813 -8.2040 -4.5894 0.2687 0 1
-4.4794 -8.0946 -4.4237 0.2788 0 1
-4.0022 -7.9738 -4.2661 0.2872 0 1
-3.5492 -7.8435 -4.1166 0.3001 0 1
-3.1195 -7.7052 -3.9749 0.3086 0 1
-2.7021 -7.5321 -3.8263 0.3203 0 24
-2.3246 -7.4047 -3.7111 0.3305 0 1
-1.9526 -7.2250 -3.5787 0.3432 0 24
-1.6129 -7.0892 -3.4764 0.3558 0 1
-1.2854 -6.9280 -3.3693 0.3671 0 1
-0.9753 -6.7633 -3.2674 0.3775 0 1
-0.6815 -6.5952 -3.1704 0.3891 0 1
-0.4035 -6.4259 -3.0787 0.4006 0 1
-0.1406 -6.2557 -2.9920 0.4122 0 1
0.1082 -6.0851 -2.9101 0.4238 0 1
0.3436 -5.9143 -2.8328 0.4354 0 1
0.5662 -5.7432 -2.7595 0.4453 0 1
0.7746 -5.5559 -2.6824 0.4586 0 24
0.9761 -5.4017 -2.6247 0.4684 0 1
1.1645 -5.2318 -2.5629 0.4798 0 1
1.3423 -5.0611 -2.5037 0.4912 0 1
1.5104 -4.8913 -2.4478 0.5024 0 1
1.6693 -4.7227 -2.3951 0.5135 0 1
1.8094 -4.5303 -2.3326 0.5216 0 24
1.9485 -4.3604 -2.2837 0.5335 0 24
2.0874 -4.2079 -2.2460 0.5282 0 1
2.2078 -4.0343 -2.1990 0.5395 0 1
2.3215 -3.8642 -2.1555 0.5731 0 1
2.4315 -3.7012 -2.1175 0.5834 0 1
2.5350 -3.5398 -2.0819 0.5934 0 1
2.6324 -3.3798 -2.0485 0.6031 0 1
2.7240 -3.2211 -2.0171 0.6124 0 1
2.8099 -3.0637 -1.9878 0.6215 0 1
2.8906 -2.9076 -1.9604 0.6301 0 1
2.9661 -2.7526 -1.9349 0.6385 0 1
3.0367 -2.5987 -1.9111 0.6464 0 1
3.1025 -2.4458 -1.8891 0.6539 0 1
3.1636 -2.2937 -1.8685 0.6573 0 1
3.2202 -2.1426 -1.8495 0.6686 0 1
3.2741 -1.9932 -1.8329 0.6747 0 1
3.3240 -1.8445 -1.8177 0.6803 0 1
3.3699 -1.6964 -1.8040 0.6855 0 1
3.4122 -1.5489 -1.7918 0.6827 0 1
3.4511 -1.4019 -1.7812 0.6867 0 1
3.4863 -1.2553 -1.7718 0.6904 0 1
3.5178 -1.1089 -1.7637 0.6936 0 1
3.5457 -0.9627 -1.7568 0.6963 0 1
3.5701 -0.8166 -1.7512 0.6985 0 1
3.5909 -0.6706 -1.7467 0.7003 0 1
3.6083 -0.5246 -1.7435 0.7016 0 1
3.6222 -0.3786 -1.7415 0.7024 0 1
3.6327 -0.2324 -1.7406 0.7028 0 1
3.6398 -0.0861 -1.7409 0.7026 0 1
3.6454 0.0605 -1.7433 0.7009 0 1
3.6481 0.2076 -1.7472 0.6994 0 1
3.6446 0.3550 -1.7510 0.6875 0 1
3.6368 0.5027 -1.7555 0.6857 0 1
3.6254 0.6507 -1.7613 0.6835 0 1
3.6104 0.7992 -1.7682 0.6808 0 1
3.5918 0.9481 -1.7763 0.6777 0 1
3.5694 1.0976 -1.7856 0.6742 0 1
3.5432 1.2477 -1.7962 0.6702 0 1
3.5132 1.3984 -1.8081 0.6658 0 1
3.4792 1.5498 -1.8212 0.6610 0 1
3.4411 1.7020 -1.8357 0.6558 0 1
3.3990 1.8549 -1.8515 0.6502 0 1
3.3525 2.0088 -1.8688 0.6442 0 1
3.3019 2.1636 -1.8876 0.6485 0 1
3.2475 2.3199 -1.9084 0.6352 0 1
3.1884 2.4774 -1.9307 0.6278 0 1
3.1245 2.6360 -1.9547 0.6201 0 1
3.0556 2.7959 -1.9804 0.6121 0 1
2.9815 2.9571 -2.0079 0.6037 0 1
2.9019 3.1196 -2.0373 0.5950 0 1
2.8166 3.2835 -2.0686 0.5860 0 1
2.7254 3.4489 -2.1019 0.5767 0 1
2.6280 3.6157 -2.1373 0.5672 0 1
2.5228 3.7820 -2.1739 0.5621 0 1
2.4096 3.9476 -2.2115 0.5525 0 1
2.2894 4.1143 -2.2514 0.5427 0 1
2.1619 4.2821 -2.2937 0.5327 0 1
2.0140 4.4232 -2.3240 0.5241 0 24
1.8833 4.6205 -2.3859 0.5127 0 1
1.7315 4.7911 -2.4360 0.5021 0 1
1.5708 4.9626 -2.4890 0.4914 0 1
1.4006 5.1347 -2.5449 0.4810 0 1
1.2206 5.3073 -2.6040 0.4701 0 1
1.0302 5.4806 -2.6665 0.4591 0 1
0.8291 5.6560 -2.7334 0.4480 0 1
0.6164 5.8319 -2.8042 0.4367 0 1
0.3907 5.9972 -2.8738 0.4240 0 24
0.1535 6.1838 -2.9578 0.4148 0 1
-0.0982 6.3591 -3.0411 0.4035 0 1
-0.3642 6.5337 -3.1291 0.3921 0 1
-0.6454 6.7074 -3.2220 0.3808 0 1
-0.9427 6.8798 -3.3204 0.3687 0 1
-1.2565 7.0481 -3.4233 0.3615 0 1
-1.5870 7.2098 -3.5300 0.3506 0 1
-1.9356 7.3677 -3.6425 0.3397 0 1
-2.3032 7.5210 -3.7611 0.3290 0 1
-2.6904 7.6689 -3.8861 0.3185 0 1
-3.0983 7.8103 -4.0177 0.3080 0 1
-3.5276 7.9439 -4.1562 0.2980 0 1
-3.9788 8.0683 -4.3016 0.2879 0 1
-4.4532 8.1828 -4.4546 0.2751 0 1
-4.9532 8.2886 -4.6171 0.2655 0 1
-5.4776 8.3809 -4.7875 0.2560 0 1
-6.0242 8.4538 -4.9637 0.2491 0 1
-6.5917 8.5042 -5.1449 0.2433 0 1
-7.1809 8.5318 -5.3323 0.2347 0 1
-7.7926 8.5365 -5.5268 0.2265 0 1
-8.4446 8.5341 -5.7408 0.2099 0 1
-9.1260 8.5090 -5.9663 0.2020 0 1
-9.8314 8.4534 -6.1999 0.1943 0 1
-10.5615 8.3662 -6.4427 0.1857 0 1
-11.3129 8.2429 -6.6931 0.1788 0 1
-12.0840 8.0811 -6.9511 0.1717 0 1
-12.8684 7.8754 -7.2141 0.1656 0 1
-13.6636 7.6240 -7.4817 0.1588 0 1
-14.4676 7.3254 -7.7541 0.1532 0 1
-15.2754 6.9770 -8.0300 0.1458 0 1
-16.0641 6.5695 -8.2988 0.1411 0 1
-16.8193 6.1006 -8.5551 0.1357 0 1
-17.5358 5.5730 -8.7983 0.1320 0 1
-18.1941 4.9857 -9.0205 0.1297 0 1
-16.1458 3.7331 -7.9241 0.9561 26 14
-16.1503 3.0553 -7.8595 0.9782 26 14
-16.2127 2.3960 -7.8366 0.9740 26 14
-20.0285 2.1407 -9.6315 0.1222 0 1
-20.2492 1.3431 -9.7037 0.1216 0 1
-20.3628 0.5292 -9.7401 0.1218 0 1
-20.3639 -0.2904 -9.7383 0.1218 0 1
-20.2619 -1.1056 -9.7030 0.1223 0 1
-20.0473 -1.9053 -9.6292 0.1244 0 1
-19.7311 -2.6801 -9.5214 0.1258 0 1
-19.3307 -3.4228 -9.3870 0.1292 0 1
-18.8508 -4.1264 -9.2273 0.1315 0 1
-18.2905 -4.7824 -9.0399 0.1328 0 1
-17.6632 -5.3864 -8.8299 0.1357 0 1
-16.9806 -5.9349 -8.6012 0.1393 0 1
-16.2496 -6.4242 -8.3552 0.1422 0 1
-15.4852 -6.8546 -8.0975 0.1467 0 1
-14.6822 -7.2191 -7.8233 0.1503 0 1
-13.8697 -7.5271 -7.5457 0.1553 0 1
-13.0517 -7.7788 -7.2652 0.1613 0 1
-12.2438 -7.9819 -6.9888 0.1725 0 1
-11.4055 -8.1075 -6.6912 0.1742 0 24
-10.7073 -8.2794 -6.4720 0.1875 0 1
-9.9698 -8.3712 -6.2249 0.2024 0 1
-9.2744 -8.4464 -5.9982 0.2101 0 1
-8.6006 -8.4904 -5.7788 0.2181 0 1
-7.9496 -8.5060 -5.5671 0.2263 0 1
-7.3169 -8.4894 -5.3590 0.2315 0 1
-6.7086 -8.4485 -5.1585 0.2405 0 1
-6.1269 -8.3881 -4.9670 0.2498 0 1
-5.5718 -8.3107 -4.7844 0.2587 0 1
-5.0414 -8.2159 -4.6092 0.2676 0 1
-4.5365 -8.1079 -4.4425 0.2776 0 1
-4.0565 -7.9884 -4.2840 0.2860 0 1
-3.6007 -7.8590 -4.1336 0.2964 0 1
-3.1685 -7.7220 -3.9911 0.3073 0 1
-2.7483 -7.5494 -3.8416 0.3188 0 24
-2.3686 -7.4228 -3.7256 0.3292 0 1
-1.9940 -7.2433 -3.5923 0.3419 0 24
-1.6522 -7.1077 -3.4893 0.3545 0 1
-1.3227 -6.9469 -3.3815 0.3658 0 1
-1.0105 -6.7828 -3.2791 0.3762 0 1
-0.7148 -6.6149 -3.1814 0.3878 0 1
-0.4351 -6.4457 -3.0891 0.3992 0 1
-0.1705 -6.2756 -3.0019 0.4108 0 1
0.0799 -6.1050 -2.9194 0.4224 0 1
0.3168 -5.9342 -2.8416 0.4340 0 1
0.5409 -5.7631 -2.7678 0.4440 0 1
0.7507 -5.5758 -2.6902 0.4573 0 24
0.9534 -5.4215 -2.6322 0.4670 0 1
1.1431 -5.2517 -2.5700 0.4784 0 1
1.3221 -5.0809 -2.5104 0.4899 0 1
1.4913 -4.9110 -2.4542 0.5011 0 1
1.6512 -4.7422 -2.4011 0.5122 0 1
1.7927 -4.5502 -2.3385 0.5202 0 24
1.9327 -4.3801 -2.2892 0.5322 0 24
2.0728 -4.2283 -2.2517 0.5269 0 1
2.1942 -4.0544 -2.2044 0.5382 0 1
2.3082 -3.8832 -2.1601 0.5719 0 1
2.4190 -3.7201 -2.1218 0.5822 0 1
2.5233 -3.5585 -2.0859 0.5922 0 1
2.6214 -3.3983 -2.0522 0.6020 0 1
2.7136 -3.2395 -2.0207 0.6114 0 1
2.8002 -3.0820 -1.9911 0.6204 0 1
2.8814 -2.9257 -1.9635 0.6291 0 1
2.9575 -2.7706 -1.9378 0.6375 0 1
3.0287 -2.6166 -1.9138 0.6455 0 1
3.0951 -2.4636 -1.8916 0.6531 0 1
3.1567 -2.3114 -1.8708 0.6565 0 1
3.2136 -2.1600 -1.8515 0.6634 0 1
3.2681 -2.0106 -1.8347 0.6740 0 1
3.3184 -1.8618 -1.8194 0.6797 0 1
3.3648 -1.7136 -1.8055 0.6849 0 1
3.4075 -1.5660 -1.7932 0.6822 0 1
3.4468 -1.4190 -1.7824 0.6863 0 1
3.4824 -1.2724 -1.7728 0.6900 0 1
3.5143 -1.1259 -1.7646 0.6932 0 1
3.5427 -0.9797 -1.7576 0.6960 0 1
3.5674 -0.8336 -1.7518 0.6983 0 1
3.5887 -0.6876 -1.7472 0.7001 0 1
3.6064 -0.5416 -1.7438 0.7015 0 1
3.6208 -0.3956 -1.7416 0.7023 0 1
3.6317 -0.2494 -1.7406 0.7027 0 1
3.6392 -0.1031 -1.7408 0.7027 0 1
3.6449 0.0434 -1.7430 0.7011 0 1
3.6479 0.1905 -1.7467 0.6996 0 1
3.6453 0.3378 -1.7505 0.6877 0 1
2.7513 3.2379 -2.0899 0.5934 0 1
2.6603 3.3991 -2.1230 0.5842 0 1
2.5633 3.5615 -2.1583 0.5746 0 1
2.4585 3.7233 -2.1945 0.5696 0 1
2.3460 3.8843 -2.2319 0.5601 0 1
2.2266 4.0461 -2.2715 0.5503 0 1
2.1001 4.2087 -2.3135 0.5404 0 1
1.9542 4.3457 -2.3436 0.5317 0 24
1.8139 4.5106 -2.3912 0.5212 0 24
1.6740 4.7009 -2.4544 0.5099 0 1
1.5152 4.8661 -2.5068 0.4992 0 1
1.3472 5.0316 -2.5620 0.4889 0 1
1.1696 5.1973 -2.6203 0.4780 0 1
0.9822 5.3636 -2.6820 0.4672 0 1
0.7844 5.5312 -2.7478 0.4560 0 1
0.5754 5.6989 -2.8173 0.4447 0 1
0.3546 5.8665 -2.8907 0.4334 0 1
0.1213 6.0253 -2.9642 0.4211 0 24
-0.1247 6.1987 -3.0495 0.4117 0 1
-0.3846 6.3630 -3.1354 0.4004 0 1
-0.6588 6.5258 -3.2261 0.3891 0 1
-0.9481 6.6865 -3.3217 0.3779 0 1
-1.2532 6.8438 -3.4221 0.3700 0 1
-1.5737 6.9931 -3.5256 0.3591 0 1
-1.9111 7.1379 -3.6345 0.3483 0 1
-2.2660 7.2776 -3.7490 0.3377 0 1
-2.6391 7.4111 -3.8694 0.3272 0 1
-3.0311 7.5376 -3.9959 0.3169 0 1
-3.4426 7.6557 -4.1287 0.3067 0 1
-3.8740 7.7638 -4.2677 0.2969 0 1
-4.3260 7.8610 -4.4133 0.2871 0 1
-4.7997 7.9470 -4.5664 0.2746 0 1
-5.2963 8.0211 -4.7277 0.2652 0 1
-5.8136 8.0779 -4.8951 0.2584 0 1
-6.3490 8.1122 -5.0668 0.2496 0 1
-6.9034 8.1246 -5.2438 0.2442 0 1
-7.4752 8.1121 -5.4257 0.2360 0 1
-8.0700 8.0795 -5.6167 0.2195 0 1
-8.6997 8.0357 -5.8251 0.2117 0 1
-9.3486 7.9624 -6.0399 0.2041 0 1
-10.0145 7.8568 -6.2607 0.1969 0 1
-10.6974 7.7180 -6.4880 0.1887 0 1
-11.3945 7.5430 -6.7212 0.1817 0 1
-12.1007 7.3278 -6.9580 0.1755 0 1
-12.8091 7.0687 -7.1959 0.1689 0 1
-13.5236 6.7680 -7.4381 0.1634 0 1
-14.2259 6.4172 -7.6760 0.1576 0 1
-14.9093 6.0159 -7.9077 0.1509 0 1
-15.5698 5.5650 -8.1325 0.1468 0 1
-16.1844 5.0601 -8.3404 0.1440 0 1
-16.7492 4.5055 -8.5310 0.1408 0 1
-17.1890 3.8895 -8.6682 0.1380 0 24
-17.6894 3.2607 -8.8472 0.1355 0 1
-16.3564 2.3390 -8.1268 0.7453 26 14
-18.3084 1.8701 -9.0519 0.1338 0 1
-18.4912 1.1395 -9.1123 0.1333 0 1
-18.5796 0.3958 -9.1405 0.1329 0 1
-18.5751 -0.3520 -9.1379 0.1330 0 1
-18.4787 -1.0951 -9.1048 0.1342 0 1
-18.2895 -1.8248 -9.0404 0.1351 0 1
-18.0150 -2.5330 -8.9479 0.1365 0 1
-17.6626 -3.2129 -8.8300 0.1389 0 1
-17.1792 -3.8449 -8.6587 0.1405 0 24
-16.7462 -4.4626 -8.5241 0.1438 0 1
-16.1921 -5.0208 -8.3382 0.1468 0 1
-15.5857 -5.5294 -8.1340 0.1497 0 1
-14.9370 -5.9863 -7.9149 0.1538 0 1
-14.2509 -6.3883 -7.6814 0.1566 0 1
-13.5386 -6.7358 -7.4377 0.1617 0 1
-12.8141 -7.0322 -7.1893 0.1668 0 1
-12.0904 -7.2828 -6.9422 0.1777 0 1
-11.3834 -7.4972 -6.7042 0.1840 0 1
-10.6248 -7.6277 -6.4331 0.1989 0 24
-9.9978 -7.8058 -6.2387 0.2050 0 1
-9.3459 -7.9223 -6.0261 0.2122 0 1
-8.7089 -8.0064 -5.8186 0.2198 0 1
-8.0893 -8.0608 -5.6169 0.2277 0 1
-7.4839 -8.0834 -5.4182 0.2313 0 1
-6.8966 -8.0780 -5.2242 0.2399 0 1
-6.3316 -8.0510 -5.0378 0.2487 0 1
-5.7700 -7.9776 -4.8426 0.2580 0 24
-5.2698 -7.9403 -4.6873 0.2674 0 1
-4.7722 -7.8598 -4.5227 0.2772 0 1
-4.2976 -7.7661 -4.3657 0.2871 0 1
-3.8340 -7.6387 -4.2038 0.2988 0 24
-3.4042 -7.5229 -4.0614 0.3082 0 24
-3.0055 -7.4235 -3.9392 0.3186 0 1
-2.6154 -7.2905 -3.8096 0.3294 0 1
-2.2451 -7.1514 -3.6867 0.3404 0 1
-1.8942 -7.0089 -3.5710 0.3544 0 1
-1.5614 -6.8632 -3.4619 0.3656 0 1
-1.2457 -6.7138 -3.3586 0.3768 0 1
-0.9459 -6.5600 -3.2599 0.3872 0 1
-0.6616 -6.4027 -3.1659 0.3987 0 1
-0.3921 -6.2435 -3.0770 0.4101 0 1
-0.1367 -6.0830 -2.9927 0.4216 0 1
0.1053 -5.9216 -2.9130 0.4332 0 1
0.3345 -5.7591 -2.8374 0.4431 0 1
0.5502 -5.5811 -2.7584 0.4565 0 24
0.7574 -5.4330 -2.6981 0.4662 0 1
0.9523 -5.2700 -2.6341 0.4775 0 1
1.1368 -5.1073 -2.5735 0.4887 0 1
1.3111 -4.9435 -2.5156 0.5002 0 1
1.4761 -4.7802 -2.4607 0.5113 0 1
1.6321 -4.6176 -2.4089 0.5223 0 1
1.7700 -4.4315 -2.3471 0.5314 0 24
1.9159 -4.2875 -2.3098 0.5255 0 1
2.0425 -4.1174 -2.2607 0.5369 0 1
2.1613 -3.9493 -2.2144 0.5482 0 1
2.2754 -3.7875 -2.1732 0.5816 0 1
2.3840 -3.6291 -2.1357 0.5918 0 1
2.4864 -3.4719 -2.1004 0.6017 0 1
2.5827 -3.3160 -2.0673 0.6114 0 1
2.6733 -3.1612 -2.0363 0.6207 0 1
2.7584 -3.0075 -2.0072 0.6297 0 1
2.8383 -2.8550 -1.9801 0.6383 0 1
2.9131 -2.7034 -1.9548 0.6466 0 1
2.9831 -2.5529 -1.9312 0.6545 0 1
3.0482 -2.4030 -1.9092 0.6582 0 1
3.1086 -2.2539 -1.8886 0.6654 0 1
3.1652 -2.1060 -1.8699 0.6766 0 1
3.2187 -1.9595 -1.8534 0.6826 0 1
3.2682 -1.8135 -1.8384 0.6882 0 1
3.3137 -1.6681 -1.8247 0.6933 0 1
3.3554 -1.5231 -1.8125 0.6980 0 1
3.3935 -1.3785 -1.8016 0.6947 0 1
3.4284 -1.2344 -1.7922 0.6983 0 1
3.4596 -1.0906 -1.7842 0.7014 0 1
3.4873 -0.9468 -1.7773 0.7041 0 1
3.5114 -0.8032 -1.7717 0.7064 0 1
3.5321 -0.6596 -1.7673 0.7081 0 1
3.5493 -0.5160 -1.7641 0.7094 0 1
3.5630 -0.3724 -1.7620 0.7103 0 1
3.5734 -0.2286 -1.7612 0.7106 0 1
3.5804 -0.0847 -1.7615 0.7105 0 1
3.5857 0.0595 -1.7639 0.7088 0 1
3.5877 0.2042 -1.7675 0.6968 0 1
3.5834 0.3490 -1.7709 0.6955 0 1
3.5756 0.4942 -1.7754 0.6937 0 1
3.5642 0.6397 -1.7811 0.6915 0 1
3.5492 0.7856 -1.7880 0.6888 0 1
3.5306 0.9320 -1.7960 0.6857 0 1
3.5083 1.0788 -1.8053 0.6822 0 1
3.4822 1.2262 -1.8158 0.6783 0 1
3.4523 1.3742 -1.8276 0.6739 0 1
3.4185 1.5228 -1.8407 0.6691 0 1
3.3806 1.6721 -1.8550 0.6639 0 1
3.3387 1.8221 -1.8708 0.6583 0 1
3.2932 1.9732 -1.8883 0.6634 0 1
3.2434 2.1252 -1.9072 0.6567 0 1
3.1887 2.2779 -1.9275 0.6434 0 1
3.1301 2.4321 -1.9497 0.6361 0 1
3.0667 2.5872 -1.9734 0.6285 0 1
2.9983 2.7435 -1.9989 0.6204 0 1
2.9248 2.9009 -2.0262 0.6121 0 1
2.8459 3.0595 -2.0552 0.6035 0 1
2.7615 3.2192 -2.0861 0.5945 0 1
2.6712 3.3803 -2.1191 0.5853 0 1
2.5749 3.5426 -2.1541 0.5758 0 1
2.4712 3.7046 -2.1903 0.5707 0 1
2.3594 3.8655 -2.2275 0.5612 0 1
2.2409 4.0272 -2.2668 0.5515 0 1
2.1152 4.1898 -2.3085 0.5415 0 1
1.9700 4.3265 -2.3382 0.5329 0 24
1.8306 4.4914 -2.3855 0.5224 0 24
1.6919 4.6817 -2.4485 0.5111 0 1
1.5341 4.8468 -2.5005 0.5005 0 1
1.3672 5.0123 -2.5554 0.4901 0 1
1.1908 5.1780 -2.6133 0.4793 0 1
1.0045 5.3441 -2.6745 0.4685 0 1
0.8080 5.5117 -2.7399 0.4573 0 1
0.6003 5.6794 -2.8090 0.4461 0 1
0.3809 5.8470 -2.8820 0.4348 0 1
0.1490 6.0056 -2.9548 0.4225 0 24
-0.0954 6.1794 -3.0397 0.4130 0 1
-0.3536 6.3440 -3.1251 0.4017 0 1
-0.6261 6.5069 -3.2152 0.3904 0 1
-0.9137 6.6679 -3.3103 0.3792 0 1
-1.2169 6.8262 -3.4104 0.3702 0 1
-1.5356 6.9759 -3.5133 0.3604 0 1
-1.8709 7.1213 -3.6215 0.3496 0 1
-2.2237 7.2616 -3.7354 0.3389 0 1
-2.5947 7.3959 -3.8551 0.3284 0 1
-2.9844 7.5232 -3.9809 0.3181 0 1
-3.3937 7.6424 -4.1129 0.3079 0 1
-3.8228 7.7518 -4.2512 0.2981 0 1
-4.2723 7.8503 -4.3960 0.2882 0 1
-4.7433 7.9374 -4.5480 0.2757 0 1
-5.2373 8.0133 -4.7085 0.2663 0 1
-5.7526 8.0726 -4.8756 0.2594 0 1
-6.2856 8.1092 -5.0465 0.2507 0 1
-6.8380 8.1245 -5.2231 0.2452 0 1
-7.4077 8.1148 -5.4042 0.2370 0 1
-7.9979 8.0827 -5.5928 0.2205 0 1
-8.6254 8.0423 -5.8005 0.2126 0 1
-9.2720 7.9725 -6.0145 0.2049 0 1
-9.9362 7.8709 -6.2347 0.1977 0 1
-10.6172 7.7360 -6.4613 0.1895 0 1
-11.3126 7.5653 -6.6937 0.1825 0 1
-12.0183 7.3551 -6.9304 0.1762 0 1
-12.7259 7.1007 -7.1677 0.1705 0 1
-13.4408 6.8055 -7.4100 0.1640 0 1
-14.1450 6.4607 -7.6486 0.1581 0 1
-14.8304 6.0650 -7.8808 0.1515 0 1
-15.4946 5.6201 -8.1069 0.1472 0 1
-16.1154 5.1216 -8.3171 0.1444 0 1
-16.6863 4.5725 -8.5098 0.1412 0 1
-17.1986 3.9765 -8.6824 0.1381 0 1
-17.6425 3.3376 -8.8314 0.1357 0 1
-16.3584 2.4176 -8.1333 0.7447 26 14
-18.2811 1.9539 -9.0428 0.1339 0 1
-18.4749 1.2254 -9.1069 0.1334 0 1
-18.5742 0.4827 -9.1389 0.1329 0 1
-18.5799 -0.2650 -9.1396 0.1330 0 1
-18.4949 -1.0091 -9.1103 0.1341 0 1
-18.3162 -1.7408 -9.0495 0.1350 0 1
-18.0509 -2.4518 -8.9600 0.1363 0 1
-17.7071 -3.1353 -8.8448 0.1387 0 1
-17.2321 -3.7720 -8.6764 0.1402 0 24
-16.8071 -4.3945 -8.5446 0.1435 0 1
-16.2593 -4.9582 -8.3608 0.1464 0 1
-15.6589 -5.4729 -8.1588 0.1492 0 1
-15.0142 -5.9357 -7.9409 0.1533 0 1
-14.3328 -6.3445 -7.7095 0.1560 0 1
-13.6222 -6.6979 -7.4662 0.1611 0 1
-12.8990 -7.0003 -7.2185 0.1661 0 1
-12.1729 -7.2550 -6.9700 0.1770 0 1
-11.4038 -7.4343 -6.6957 0.1786 0 24
-10.7023 -7.6077 -6.4584 0.1981 0 24
-10.0751 -7.7905 -6.2641 0.1969 0 1
-9.4211 -7.9104 -6.0506 0.2114 0 1
-8.7823 -7.9981 -5.8425 0.2189 0 1
-8.1605 -8.0559 -5.6401 0.2267 0 1
-7.5538 -8.0825 -5.4413 0.2303 0 1
-6.9638 -8.0798 -5.2464 0.2389 0 1
-6.3962 -8.0551 -5.0591 0.2477 0 1
-5.8514 -8.0110 -4.8794 0.2568 0 1
-5.3292 -7.9488 -4.7070 0.2663 0 1
-4.8290 -7.8698 -4.5414 0.2760 0 1
-4.3517 -7.7776 -4.3836 0.2859 0 1
-3.8853 -7.6513 -4.2207 0.2976 0 24
-3.4532 -7.5370 -4.0777 0.3067 0 24
-3.0522 -7.4386 -3.9547 0.3173 0 1
-2.6598 -7.3063 -3.8243 0.3281 0 1
-2.2872 -7.1679 -3.7007 0.3391 0 1
-1.9280 -7.0034 -3.5728 0.3519 0 24
-1.5993 -6.8803 -3.4744 0.3642 0 1
-1.2816 -6.7313 -3.3703 0.3755 0 1
-0.9800 -6.5782 -3.2712 0.3858 0 1
-0.6939 -6.4211 -3.1766 0.3973 0 1
-0.4227 -6.2621 -3.0871 0.4087 0 1
-0.1657 -6.1018 -3.0023 0.4203 0 1
0.0778 -5.9404 -2.9221 0.4318 0 1
0.3085 -5.7781 -2.8460 0.4418 0 1
0.5270 -5.6151 -2.7740 0.4532 0 1
0.7340 -5.4520 -2.7058 0.4648 0 1
0.9301 -5.2890 -2.6413 0.4762 0 1
1.1158 -5.1262 -2.5804 0.4874 0 1
1.2913 -4.9626 -2.5221 0.4989 0 1
1.4574 -4.7992 -2.4669 0.5100 0 1
1.6144 -4.6365 -2.4148 0.5211 0 1
1.7629 -4.4746 -2.3655 0.5319 0 1
1.9007 -4.3075 -2.3157 0.5242 0 1
2.0213 -4.1232 -2.2586 0.5528 0 24
2.1479 -3.9688 -2.2196 0.5469 0 1
2.2623 -3.8060 -2.1777 0.5804 0 1
2.3717 -3.6474 -2.1399 0.5906 0 1
2.4748 -3.4901 -2.1044 0.6006 0 1
2.5718 -3.3341 -2.0711 0.6103 0 1
2.6630 -3.1792 -2.0398 0.6196 0 1
2.7488 -3.0254 -2.0105 0.6286 0 1
2.8292 -2.8727 -1.9832 0.6373 0 1
2.9047 -2.7210 -1.9576 0.6456 0 1
2.9752 -2.5703 -1.9338 0.6536 0 1
3.0409 -2.4205 -1.9117 0.6574 0 1
3.1018 -2.2712 -1.8909 0.6646 0 1
3.1587 -2.1231 -1.8719 0.6759 0 1
3.2127 -1.9765 -1.8553 0.6819 0 1
3.2626 -1.8305 -1.8401 0.6876 0 1
3.3086 -1.6850 -1.8262 0.6928 0 1
3.3508 -1.5400 -1.8138 0.6975 0 1
3.3892 -1.3953 -1.8027 0.7018 0 1
3.4245 -1.2512 -1.7933 0.6979 0 1
3.4562 -1.1073 -1.7850 0.7011 0 1
3.4842 -0.9636 -1.7781 0.7039 0 1
3.5088 -0.8199 -1.7723 0.7061 0 1
3.5298 -0.6763 -1.7677 0.7080 0 1
3.5474 -0.5328 -1.7644 0.7093 0 1
3.5616 -0.3891 -1.7622 0.7102 0 1
3.5724 -0.2454 -1.7612 0.7106 0 1
3.5797 -0.1014 -1.7614 0.7105 0 1
3.5852 0.0427 -1.7635 0.7089 0 1
3.5880 0.1873 -1.7672 0.6969 0 1
3.5841 0.3322 -1.7704 0.6957 0 1
2.6978 3.1750 -2.1069 0.6019 0 1
2.6078 3.3320 -2.1397 0.5927 0 1
2.5118 3.4901 -2.1745 0.5832 0 1
2.4086 3.6477 -2.2105 0.5782 0 1
2.2976 3.8041 -2.2473 0.5688 0 1
2.1799 3.9611 -2.2864 0.5590 0 1
2.0552 4.1187 -2.3277 0.5491 0 1
1.9119 4.2515 -2.3573 0.5405 0 24
1.7738 4.4109 -2.4042 0.5300 0 24
1.6361 4.5945 -2.4663 0.5188 0 1
1.4802 4.7537 -2.5177 0.5082 0 1
1.3154 4.9129 -2.5719 0.4979 0 1
1.1414 5.0720 -2.6290 0.4871 0 1
0.9580 5.2315 -2.6895 0.4763 0 1
0.7646 5.3918 -2.7539 0.4652 0 1
0.5605 5.5518 -2.8218 0.4540 0 1
0.3452 5.7111 -2.8933 0.4428 0 1
0.1181 5.8695 -2.9687 0.4324 0 1
-0.1211 6.0202 -3.0450 0.4199 0 24
-0.3736 6.1809 -3.1314 0.4099 0 1
-0.6394 6.3338 -3.2192 0.3987 0 1
-0.9194 6.4841 -3.3118 0.3876 0 1
-1.2143 6.6314 -3.4092 0.3765 0 1
-1.5236 6.7703 -3.5093 0.3692 0 1
-1.8484 6.9037 -3.6141 0.3582 0 1
-2.1893 7.0315 -3.7242 0.3476 0 1
-2.5471 7.1528 -3.8396 0.3371 0 1
-2.9221 7.2665 -3.9606 0.3268 0 1
-3.3149 7.3716 -4.0873 0.3168 0 1
-3.7257 7.4666 -4.2198 0.3070 0 1
-4.1549 7.5502 -4.3580 0.2973 0 1
-4.6029 7.6211 -4.5023 0.2877 0 1
-5.0705 7.6792 -4.6534 0.2755 0 1
-5.5583 7.7231 -4.8118 0.2665 0 1
-6.0619 7.7454 -4.9737 0.2600 0 1
-6.5820 7.7463 -5.1404 0.2516 0 1
-7.1183 7.7247 -5.3120 0.2465 0 1
-7.6672 7.6763 -5.4865 0.2386 0 1
-8.2408 7.6118 -5.6730 0.2222 0 1
-8.8381 7.5276 -5.8707 0.2147 0 1
-9.4488 7.4130 -6.0732 0.2075 0 1
-10.0693 7.2649 -6.2789 0.2007 0 1
-10.7011 7.0840 -6.4898 0.1924 0 1
-11.3400 6.8672 -6.7041 0.1863 0 1
-11.9784 6.6102 -6.9185 0.1813 0 1
-12.6118 6.3117 -7.1318 0.1734 0 1
-13.1905 5.9502 -7.3176 0.1678 0 24
-13.8423 5.5853 -7.5483 0.1643 0 1
-14.4173 5.1531 -7.7424 0.1601 0 1
-14.9623 4.6780 -7.9275 0.1549 0 1
-15.4583 4.1583 -8.0951 0.1519 0 1
-15.9036 3.5987 -8.2457 0.1491 0 1
-16.2814 3.0012 -8.3721 0.1480 0 1
-16.5300 2.3638 -8.4442 0.1462 0 24
-16.8278 1.7189 -8.5540 0.1447 0 1
-16.9878 1.0468 -8.6069 0.1439 0 1
-17.0042 0.3622 -8.6008 0.1440 0 24
-17.0647 -0.3234 -8.6310 0.1440 0 1
-16.9832 -1.0065 -8.6033 0.1444 0 1
