ply
format ascii 1.0
element vertex 1576
property float32 x
property float32 y
property float32 z
property float32 I
end_header
0.3637 -7.0428 -2.8130 0.9701
0.6268 -6.8079 -2.7270 0.9710
0.8735 -6.5772 -2.6465 0.9718
1.1048 -6.3506 -2.5712 0.9726
1.3216 -6.1267 -2.5000 0.9734
1.8861 -5.4514 -2.3009 0.9755
2.0621 -5.2648 -2.2554 0.9759
2.2198 -5.0584 -2.2034 0.9765
2.3679 -4.8554 -2.1547 0.9770
2.5008 -4.6441 -2.1039 0.9775
2.6235 -4.4352 -2.0554 0.9781
2.9454 -3.8360 -1.9291 0.9794
3.0436 -3.6502 -1.8957 0.9797
3.1355 -3.4670 -1.8646 0.9801
3.3017 -3.1076 -1.8086 0.9807
3.3766 -2.9312 -1.7835 0.9809
3.5750 -2.4158 -1.7210 0.9816
3.8209 -1.5849 -1.6500 0.9823
3.8584 -1.4215 -1.6402 0.9824
3.8920 -1.2586 -1.6316 0.9825
3.9220 -1.0963 -1.6243 0.9826
3.9900 -0.6109 -1.6101 0.9828
4.0055 -0.4493 -1.6077 0.9828
4.0262 -0.1260 -1.6067 0.9828
4.0335 0.0360 -1.6089 0.9828
4.0367 0.5260 -1.6238 0.9826
4.0285 0.6907 -1.6303 0.9826
3.9746 1.1880 -1.6547 0.9823
3.9489 1.3555 -1.6654 0.9822
3.7583 2.2108 -1.7392 0.9814
3.5245 2.9242 -1.8267 0.9805
3.3760 3.2933 -1.8812 0.9799
3.1092 3.8674 -1.9793 0.9789
2.8948 4.2613 -2.0549 0.9781
2.6456 4.6606 -2.1377 0.9772
2.3621 5.0717 -2.2316 0.9762
2.2061 5.2819 -2.2832 0.9757
2.0399 5.4955 -2.3382 0.9751
1.6739 5.9323 -2.4587 0.9738
1.0294 6.6154 -2.6705 0.9716
0.7857 6.8529 -2.7514 0.9707
0.5256 7.0950 -2.8378 0.9698
0.2477 7.3416 -2.9301 0.9689
-0.0493 7.5928 -3.0287 0.9678
-0.3667 7.8471 -3.1335 0.9667
-0.7061 8.1031 -3.2444 0.9656
-1.8716 8.8876 -3.6228 0.9616
-2.3153 9.1524 -3.7657 0.9602
-3.2984 9.6865 -4.0816 0.9569
-3.8461 9.9629 -4.2598 0.9551
-4.4330 10.2378 -4.4501 0.9531
-5.0671 10.5208 -4.6579 0.9510
-6.4712 11.0630 -5.1123 0.9463
-7.2460 11.3176 -5.3603 0.9438
-8.9886 11.8261 -5.9251 0.9380
-16.4108 13.2599 -8.4157 0.9131
-28.8403 12.1290 -12.4797 0.8739
-25.7570 8.4691 -10.8151 0.8898
-17.1582 2.7130 -6.9291 0.9279
-45.9117 3.5140 -18.3668 0.8201
-26.5504 -4.4182 -10.7360 0.8906
-39.0002 -9.7644 -16.0365 0.8410
-36.6782 -10.7672 -15.2475 0.8482
-34.4022 -11.6206 -14.4841 0.8552
-32.0116 -12.2678 -13.6743 0.8627
-29.4818 -12.6800 -12.8012 0.8709
-24.7372 -13.0869 -11.1629 0.8865
-20.7284 -13.1997 -9.8022 0.8996
-18.9926 -13.1967 -9.2250 0.9052
-17.3454 -13.1168 -8.6743 0.9106
-15.7841 -12.9657 -8.1478 0.9158
-12.9703 -12.5294 -7.1933 0.9253
-11.7347 -12.2854 -6.7767 0.9294
-10.6086 -12.0405 -6.4009 0.9332
-8.6474 -11.5701 -5.7616 0.9397
-7.7758 -11.3264 -5.4801 0.9426
-6.9579 -11.0635 -5.2132 0.9453
-6.1981 -10.7954 -4.9653 0.9478
-4.8347 -10.2493 -4.5202 0.9524
-3.6548 -9.6998 -4.1346 0.9563
-3.1251 -9.4266 -3.9613 0.9581
-2.6320 -9.1563 -3.8002 0.9598
-0.2923 -7.5643 -3.0195 0.9679
0.0117 -7.3410 -2.9282 0.9689
0.5643 -6.8647 -2.7474 0.9708
1.2701 -6.1810 -2.5170 0.9732
1.6701 -5.7410 -2.3849 0.9746
2.1823 -5.1084 -2.2158 0.9764
2.3326 -4.9045 -2.1663 0.9769
2.7108 -4.2801 -2.0208 0.9784
2.8192 -4.0787 -1.9777 0.9789
3.0203 -3.6952 -1.9036 0.9797
3.1137 -3.5114 -1.8720 0.9800
3.2010 -3.3300 -1.8424 0.9803
3.2827 -3.1509 -1.8150 0.9806
3.3588 -2.9740 -1.7895 0.9809
3.4306 -2.7998 -1.7663 0.9811
3.4979 -2.6277 -1.7451 0.9813
3.5605 -2.4572 -1.7256 0.9815
3.6728 -2.1207 -1.6917 0.9819
3.7689 -1.7891 -1.6641 0.9822
3.8496 -1.4613 -1.6424 0.9824
3.8842 -1.2983 -1.6336 0.9825
3.9150 -1.1358 -1.6260 0.9826
3.9421 -0.9737 -1.6197 0.9827
3.9657 -0.8118 -1.6146 0.9827
4.0020 -0.4887 -1.6082 0.9828
4.0150 -0.3271 -1.6068 0.9828
4.0318 -0.0035 -1.6082 0.9828
4.0373 0.1590 -1.6116 0.9828
4.0377 0.4860 -1.6222 0.9826
4.0314 0.6506 -1.6289 0.9826
4.0011 0.9810 -1.6432 0.9824
3.9556 1.3146 -1.6626 0.9822
3.9269 1.4829 -1.6743 0.9821
3.8571 1.8229 -1.7017 0.9818
3.6056 2.6990 -1.7965 0.9808
3.5410 2.8798 -1.8206 0.9805
3.3137 3.4354 -1.9039 0.9797
3.1330 3.8198 -1.9706 0.9789
2.2450 5.2304 -2.2704 0.9758
1.7210 5.8783 -2.4432 0.9740
1.5228 6.1013 -2.5083 0.9733
1.0865 6.5587 -2.6518 0.9718
0.3171 7.2811 -2.9070 0.9691
0.0249 7.5312 -3.0040 0.9681
-0.2875 7.7854 -3.1076 0.9670
-1.7680 8.8233 -3.5894 0.9620
-2.2046 9.0884 -3.7303 0.9605
-2.6706 9.3508 -3.8790 0.9590
-4.2862 10.1708 -4.4025 0.9536
-4.9081 10.4512 -4.6056 0.9515
-5.5579 10.6950 -4.8076 0.9494
-6.2905 11.0000 -5.0544 0.9469
-8.7290 11.7211 -5.8294 0.9390
-9.6801 11.9624 -6.1381 0.9359
-10.6969 12.1828 -6.4668 0.9326
-11.8083 12.4050 -6.8314 0.9289
-17.3051 13.1330 -8.6653 0.9107
-18.6106 12.9787 -9.0503 0.9069
-20.3470 13.0060 -9.6324 0.9012
-22.1938 12.9602 -10.2515 0.8952
-24.1456 12.8270 -10.9058 0.8889
-26.1915 12.5909 -11.5917 0.8824
-28.3143 12.2355 -12.3034 0.8756
-30.4886 11.7442 -13.0323 0.8687
-32.6802 11.1014 -13.7670 0.8619
-36.9292 9.3132 -15.1915 0.8487
-16.9524 3.5570 -6.9092 0.9281
-16.9999 2.8589 -6.8761 0.9285
-45.6530 3.9443 -18.2779 0.8209
-46.3712 2.1331 -18.5161 0.8188
-45.1734 -3.3795 -18.0691 0.8228
-44.3204 -5.1144 -17.7958 0.8252
-37.2466 -10.5390 -15.4402 0.8465
-32.7155 -12.1714 -13.9234 0.8604
-30.1191 -12.6060 -13.0237 0.8688
-27.5996 -12.8789 -12.1485 0.8771
-25.2613 -13.0492 -11.3412 0.8848
-23.1559 -13.1669 -10.6252 0.8916
-19.4262 -13.2177 -9.3723 0.9038
-17.7359 -13.1410 -8.8048 0.9093
-13.2905 -12.5894 -7.3021 0.9242
-12.0226 -12.3425 -6.8728 0.9285
-8.8352 -11.5829 -5.8108 0.9392
-7.9826 -11.3870 -5.5469 0.9419
0.0804 -7.0622 -2.9083 0.9699
0.3531 -6.8367 -2.8190 0.9708
0.6090 -6.6145 -2.7353 0.9717
0.8494 -6.3958 -2.6568 0.9725
1.0752 -6.1803 -2.5832 0.9732
1.2872 -5.9670 -2.5136 0.9739
1.8404 -5.3192 -2.3177 0.9759
2.0029 -5.1137 -2.2615 0.9765
2.1685 -4.9415 -2.2221 0.9769
2.3139 -4.7447 -2.1737 0.9774
2.4439 -4.5386 -2.1226 0.9779
2.7839 -3.9444 -1.9880 0.9793
2.9836 -3.5782 -1.9184 0.9800
3.1599 -3.2234 -1.8587 0.9807
3.2395 -3.0491 -1.8319 0.9809
3.4485 -2.5382 -1.7632 0.9816
3.5095 -2.3716 -1.7442 0.9818
3.6680 -1.8800 -1.6973 0.9823
3.8805 -0.9182 -1.6420 0.9829
3.9030 -0.7593 -1.6373 0.9829
3.9219 -0.6004 -1.6338 0.9830
3.9492 -0.2828 -1.6304 0.9830
3.9647 0.0354 -1.6326 0.9830
3.9699 0.3557 -1.6413 0.9829
3.9672 0.5170 -1.6474 0.9828
3.9574 0.6785 -1.6534 0.9828
3.9253 1.0032 -1.6683 0.9826
3.9035 1.1667 -1.6776 0.9825
3.8778 1.3311 -1.6882 0.9824
3.8481 1.4964 -1.7002 0.9823
3.5809 2.5142 -1.8017 0.9813
3.4549 2.8665 -1.8486 0.9808
3.1378 3.5967 -1.9655 0.9796
2.9424 3.9773 -2.0373 0.9788
2.7127 4.3605 -2.1147 0.9780
2.5857 4.5550 -2.1568 0.9776
2.4504 4.7521 -2.2016 0.9771
2.3063 4.9518 -2.2494 0.9766
2.1528 5.1543 -2.3001 0.9761
1.9778 5.3280 -2.3403 0.9757
1.8059 5.5379 -2.3986 0.9751
1.0004 6.4293 -2.6793 0.9722
0.2401 7.1159 -2.9319 0.9697
-0.6823 7.8300 -3.2365 0.9666
-1.4043 8.3134 -3.4718 0.9642
-1.8016 8.5550 -3.6001 0.9629
-2.2256 8.7979 -3.7369 0.9615
-2.6783 9.0415 -3.8830 0.9600
-3.1606 9.2817 -4.0375 0.9585
-4.2313 9.7720 -4.3849 0.9550
-5.4605 10.2607 -4.7862 0.9510
-7.5798 10.8520 -5.4508 0.9443
-9.3288 11.3000 -6.0339 0.9386
-12.3430 11.7321 -7.0123 0.9290
-13.5090 11.8438 -7.3980 0.9252
-14.8703 12.0152 -7.8724 0.9206
-16.3170 12.1332 -8.3730 0.9158
-17.7356 12.1120 -8.8437 0.9113
-18.6842 11.6869 -9.0749 0.9091
-23.5190 11.0239 -10.6958 0.8937
-25.2189 10.6060 -11.2657 0.8884
-26.9288 10.0712 -11.8389 0.8831
-16.8593 2.6657 -7.0286 0.9288
-38.2696 2.9291 -15.8048 0.8470
-38.7297 1.4016 -15.9586 0.8457
-38.5867 -1.7087 -15.9048 0.8461
-36.1390 -3.0599 -14.9346 0.8548
-26.4498 -4.4014 -11.0413 0.8905
-31.1854 -9.1548 -13.3835 0.8688
-29.3799 -9.9241 -12.7696 0.8745
-27.3976 -10.4996 -12.0819 0.8808
-23.5916 -11.2913 -10.7700 0.8930
-21.8693 -11.5697 -10.1880 0.8985
-20.2645 -11.7869 -9.6534 0.9036
-18.7672 -11.9509 -9.1618 0.9082
-17.2295 -11.9716 -8.6393 0.9132
-12.0090 -11.6007 -6.8756 0.9303
-10.9261 -11.4388 -6.5138 0.9339
-9.9201 -11.2591 -6.1791 0.9371
-9.0078 -11.0926 -5.8841 0.9401
-8.1527 -10.9081 -5.6077 0.9428
-7.3474 -10.7024 -5.3456 0.9454
-5.8868 -10.2531 -4.8684 0.9501
-5.2275 -10.0172 -4.6528 0.9523
-4.0232 -9.5013 -4.2487 0.9563
-1.6781 -8.3005 -3.4871 0.9640
0.2883 -6.8913 -2.8402 0.9706
0.7922 -6.4487 -2.6754 0.9723
1.0214 -6.2325 -2.6007 0.9730
1.6226 -5.5778 -2.3920 0.9752
1.7991 -5.3696 -2.3319 0.9758
2.2796 -4.7931 -2.1856 0.9773
2.4131 -4.5884 -2.1348 0.9778
2.7589 -3.9914 -1.9980 0.9792
2.9605 -3.6220 -1.9263 0.9800
3.0530 -3.4429 -1.8949 0.9803
3.2206 -3.0914 -1.8383 0.9809
3.2962 -2.9186 -1.8129 0.9811
3.3667 -2.7476 -1.7894 0.9814
3.4330 -2.5789 -1.7681 0.9816
3.4951 -2.4120 -1.7487 0.9818
3.6564 -1.9195 -1.7005 0.9823
3.7826 -1.4358 -1.6661 0.9826
3.8476 -1.1162 -1.6497 0.9828
3.9339 -0.4803 -1.6319 0.9830
3.9559 -0.1626 -1.6303 0.9830
3.9631 -0.0034 -1.6319 0.9830
3.9683 0.1563 -1.6353 0.9830
3.9700 0.3166 -1.6400 0.9829
3.9300 0.9635 -1.6662 0.9826
3.8230 1.6221 -1.7101 0.9822
3.7861 1.7894 -1.7244 0.9820
3.3266 3.1822 -1.8956 0.9803
3.1598 3.5511 -1.9573 0.9796
2.9677 3.9304 -2.0280 0.9789
2.3422 4.9029 -2.2375 0.9768
2.1911 5.1047 -2.2875 0.9763
2.0302 5.3093 -2.3407 0.9757
1.8589 5.5166 -2.3971 0.9751
1.6766 5.7267 -2.4571 0.9745
1.4764 5.9152 -2.5105 0.9740
1.2760 6.1561 -2.5888 0.9732
1.0561 6.3754 -2.6611 0.9724
0.8222 6.5997 -2.7386 0.9716
0.5730 6.8275 -2.8213 0.9708
0.3074 7.0590 -2.9095 0.9699
-0.2781 7.5324 -3.1038 0.9679
-0.9445 8.0124 -3.3222 0.9657
-1.3114 8.2548 -3.4418 0.9645
-1.7025 8.4961 -3.5681 0.9632
-2.1198 8.7386 -3.7028 0.9618
-3.5490 9.4684 -4.1638 0.9572
-4.0931 9.7127 -4.3402 0.9554
-4.6750 9.9549 -4.5288 0.9535
-5.3010 10.2007 -4.7338 0.9515
-7.4254 10.8559 -5.4159 0.9447
-8.2336 11.0559 -5.6764 0.9421
-12.1220 11.7502 -6.9518 0.9296
-14.4513 11.9125 -7.7120 0.9222
-17.6226 12.2897 -8.8470 0.9112
-18.3169 11.7083 -8.9518 0.9102
-21.4534 11.3969 -10.0033 0.9002
-26.5129 10.2127 -11.6995 0.8843
-25.6265 8.7052 -11.1447 0.8895
-29.8647 8.8227 -12.8232 0.8740
-31.4345 7.9275 -13.3494 0.8692
-16.7976 3.5246 -7.0676 0.9284
-16.8426 2.8324 -7.0329 0.9288
-38.1065 3.2923 -15.7500 0.8475
-38.6546 1.7781 -15.9341 0.8459
-38.6743 -1.3332 -15.9348 0.8459
-34.5746 -5.4060 -14.4102 0.8595
-33.4193 -8.0201 -14.1522 0.8619
-25.8972 -10.8390 -11.5603 0.8856
-24.0393 -11.2175 -10.9236 0.8916
-20.6369 -11.7346 -9.7757 0.9024
-16.1822 -11.9899 -8.2933 0.9166
-14.7983 -11.9151 -7.8234 0.9211
-13.4977 -11.7931 -7.3807 0.9254
-12.2357 -11.5901 -6.9400 0.9297
-10.1550 -11.3006 -6.2562 0.9364
-9.2246 -11.1349 -5.9542 0.9394
-8.3559 -10.9546 -5.6734 0.9421
-7.5393 -10.7547 -5.4084 0.9448
-0.8207 -7.4815 -3.1972 0.9678
-0.5039 -7.2861 -3.1026 0.9688
0.3430 -6.6405 -2.8247 0.9715
0.8263 -6.2225 -2.6665 0.9731
1.4488 -5.6114 -2.4619 0.9751
2.5090 -4.2416 -2.0935 0.9788
2.6210 -4.0499 -2.0492 0.9793
2.7263 -3.8628 -2.0085 0.9797
2.8290 -3.6845 -1.9733 0.9800
2.9253 -3.5084 -1.9405 0.9803
3.0156 -3.3344 -1.9098 0.9807
3.1001 -3.1624 -1.8812 0.9809
3.2528 -2.8238 -1.8299 0.9815
3.3216 -2.6571 -1.8069 0.9817
3.5021 -2.1668 -1.7494 0.9823
3.6483 -1.6883 -1.7077 0.9827
3.6891 -1.5303 -1.6966 0.9828
3.7260 -1.3727 -1.6868 0.9829
3.7592 -1.2157 -1.6783 0.9830
3.8145 -0.9026 -1.6652 0.9831
3.8555 -0.5903 -1.6569 0.9832
3.8707 -0.4342 -1.6546 0.9832
3.8825 -0.2780 -1.6535 0.9832
3.9017 0.1919 -1.6594 0.9832
3.9023 0.3497 -1.6644 0.9831
3.8988 0.5080 -1.6702 0.9831
3.8882 0.6666 -1.6758 0.9830
3.8740 0.8257 -1.6826 0.9829
3.7789 1.4695 -1.7224 0.9825
3.7453 1.6326 -1.7356 0.9824
3.6189 2.1288 -1.7836 0.9819
3.5681 2.2968 -1.8026 0.9817
3.4526 2.6376 -1.8457 0.9813
3.3875 2.8105 -1.8698 0.9811
3.2416 3.1622 -1.9237 0.9805
2.9800 3.7066 -2.0203 0.9795
2.8798 3.8928 -2.0570 0.9792
2.7707 4.0785 -2.0945 0.9788
2.6531 4.2648 -2.1336 0.9784
2.3945 4.6437 -2.2195 0.9775
2.2525 4.8365 -2.2664 0.9771
1.9298 5.1988 -2.3557 0.9762
1.5888 5.6308 -2.4854 0.9749
1.3959 5.8353 -2.5488 0.9743
0.2329 6.9018 -2.9336 0.9704
-0.3434 7.3477 -3.1247 0.9685
-1.3550 8.0213 -3.4557 0.9653
-1.7361 8.2437 -3.5788 0.9640
-2.1417 8.4661 -3.7097 0.9628
-2.5735 8.6877 -3.8490 0.9614
-3.5230 9.1260 -4.1556 0.9584
-4.0455 9.3429 -4.3250 0.9567
-4.6022 9.5554 -4.5054 0.9550
-6.4953 10.1451 -5.1173 0.9490
-12.5304 10.9859 -7.0791 0.9301
-14.8756 11.0613 -7.8747 0.9226
-16.2308 11.0843 -8.3493 0.9181
-17.5910 11.0031 -8.8141 0.9138
-18.6776 10.6630 -9.1362 0.9108
-19.6157 10.1755 -9.3872 0.9084
-20.9934 9.8401 -9.8491 0.9041
-25.1150 8.2580 -11.2308 0.8915
-27.6652 7.8792 -12.2196 0.8825
-16.6927 2.6394 -7.1792 0.9292
-33.3824 -0.1348 -14.1810 0.8650
-29.5518 -4.9176 -12.7263 0.8779
-28.3605 -7.1005 -12.4195 0.8807
-24.0982 -9.2352 -10.9630 0.8939
-19.8117 -10.4812 -9.5213 0.9072
-13.2960 -10.9219 -7.3095 0.9279
-12.2206 -10.8901 -6.9535 0.9313
-11.1878 -10.8074 -6.6079 0.9346
-10.2157 -10.6951 -6.2828 0.9377
-9.3264 -10.5852 -5.9930 0.9405
-8.4930 -10.4586 -5.7232 0.9431
-7.6814 -10.2776 -5.4506 0.9458
-6.9599 -10.1380 -5.2239 0.9480
-5.6023 -9.7576 -4.7797 0.9523
-3.8517 -9.0961 -4.1962 0.9580
-2.8792 -8.6846 -3.8867 0.9610
-2.4314 -8.4585 -3.7387 0.9625
-2.0038 -8.1992 -3.5856 0.9640
-1.6181 -8.0039 -3.4688 0.9651
-1.2497 -7.7805 -3.3475 0.9663
-0.2752 -7.1213 -3.0274 0.9695
0.0110 -6.9056 -2.9335 0.9704
0.5328 -6.4812 -2.7625 0.9721
0.7706 -6.2729 -2.6848 0.9729
1.2049 -5.8636 -2.5429 0.9743
1.4025 -5.6605 -2.4773 0.9750
1.5884 -5.4601 -2.4156 0.9756
1.9183 -5.0425 -2.2918 0.9768
2.0828 -4.8754 -2.2521 0.9772
2.2282 -4.6849 -2.2038 0.9777
2.3587 -4.4850 -2.1526 0.9782
2.5944 -4.0963 -2.0598 0.9791
2.7006 -3.9071 -2.0176 0.9796
2.8046 -3.7277 -1.9817 0.9799
2.9024 -3.5510 -1.9483 0.9803
2.9942 -3.3766 -1.9171 0.9806
3.2354 -2.8647 -1.8357 0.9814
3.3053 -2.6975 -1.8124 0.9816
3.3704 -2.5319 -1.7907 0.9818
3.4315 -2.3681 -1.7711 0.9820
3.4887 -2.2060 -1.7534 0.9822
3.6378 -1.7269 -1.7106 0.9827
3.6795 -1.5687 -1.6992 0.9828
3.7515 -1.2539 -1.6803 0.9830
3.7818 -1.0971 -1.6728 0.9830
3.8086 -0.9407 -1.6665 0.9831
3.8317 -0.7844 -1.6615 0.9831
3.8513 -0.6283 -1.6577 0.9832
3.8960 -0.0033 -1.6550 0.9832
3.9025 0.3112 -1.6630 0.9831
3.9005 0.4695 -1.6689 0.9831
3.8398 1.1068 -1.6976 0.9828
3.7539 1.5928 -1.7323 0.9824
3.7171 1.7567 -1.7465 0.9823
3.4677 2.5957 -1.8401 0.9814
3.4038 2.7682 -1.8638 0.9811
3.1808 3.2976 -1.9463 0.9803
3.0033 3.6617 -2.0118 0.9796
2.5591 4.4071 -2.1649 0.9781
2.2879 4.7893 -2.2547 0.9772
1.9693 5.1501 -2.3423 0.9763
1.8031 5.3510 -2.3987 0.9758
1.6340 5.5814 -2.4705 0.9750
1.4439 5.7853 -2.5330 0.9744
0.7991 6.4140 -2.7458 0.9723
0.2982 6.8481 -2.9119 0.9706
0.0234 7.0693 -3.0031 0.9697
-0.2693 7.2929 -3.1001 0.9688
-0.5810 7.5181 -3.2032 0.9678
-0.9126 7.7421 -3.3116 0.9667
-1.6410 8.1895 -3.5481 0.9644
-2.0405 8.4119 -3.6770 0.9631
-2.4658 8.6338 -3.8143 0.9617
-6.3297 10.1030 -5.0645 0.9495
-7.7655 10.4273 -5.5229 0.9451
-8.5613 10.5798 -5.7815 0.9426
-12.3126 11.0101 -7.0166 0.9307
-13.3588 11.0118 -7.3543 0.9275
-14.5067 11.0093 -7.7362 0.9239
-19.2837 10.2442 -9.2759 0.9095
-20.6561 9.9299 -9.7360 0.9052
-26.7413 7.9000 -11.8451 0.8859
-28.4603 7.1774 -12.4685 0.8802
-16.6761 2.8044 -7.1835 0.9291
-33.3964 0.1922 -14.1871 0.8649
-29.7640 -4.6538 -12.7974 0.8773
-28.6754 -6.8816 -12.5272 0.8797
-27.3564 -7.7405 -12.0773 0.8838
-25.9234 -8.4746 -11.5858 0.8882
-24.4627 -9.1010 -11.0877 0.8928
-20.1434 -10.4054 -9.6312 0.9062
-18.7958 -10.6877 -9.1851 0.9103
-17.4349 -10.8639 -8.7265 0.9146
-16.1174 -10.9664 -8.2813 0.9188
-14.8428 -10.9975 -7.8474 0.9229
-11.4336 -10.8304 -6.6901 0.9338
-10.4471 -10.7251 -6.3603 0.9370
-9.5033 -10.5753 -6.0398 0.9401
-7.8947 -10.3500 -5.5298 0.9450
-0.7971 -7.2670 -3.2016 0.9686
-0.4883 -7.0615 -3.1000 0.9696
-0.1977 -6.8574 -3.0044 0.9705
0.0758 -6.6547 -2.9146 0.9714
0.5758 -6.2543 -2.7506 0.9729
0.8044 -6.0569 -2.6759 0.9737
1.2224 -5.6669 -2.5389 0.9750
1.4131 -5.4731 -2.4755 0.9756
1.5927 -5.2816 -2.4159 0.9762
2.4547 -4.1498 -2.1115 0.9792
2.7734 -3.6121 -1.9944 0.9803
2.8688 -3.4406 -1.9619 0.9806
2.9582 -3.2709 -1.9314 0.9809
3.0420 -3.1031 -1.9031 0.9812
3.1935 -2.7723 -1.8521 0.9817
3.3252 -2.4474 -1.8082 0.9821
3.3842 -2.2869 -1.7888 0.9823
3.4398 -2.1282 -1.7714 0.9825
3.4923 -1.9711 -1.7562 0.9826
3.5408 -1.8148 -1.7425 0.9828
3.6623 -1.3493 -1.7093 0.9831
3.7501 -0.8874 -1.6877 0.9833
3.7722 -0.7338 -1.6830 0.9834
3.8058 -0.4269 -1.6772 0.9834
3.8320 0.0342 -1.6783 0.9834
3.8313 0.4993 -1.6921 0.9833
3.7885 0.9682 -1.7125 0.9831
3.7411 1.2841 -1.7322 0.9829
3.6780 1.6033 -1.7572 0.9826
3.5984 1.9263 -1.7875 0.9823
3.5522 2.0895 -1.8048 0.9822
3.3867 2.5872 -1.8665 0.9816
3.3220 2.7562 -1.8904 0.9813
3.2525 2.9271 -1.9163 0.9811
3.1778 3.1000 -1.9442 0.9808
3.0110 3.4514 -2.0059 0.9802
2.9185 3.6301 -2.0399 0.9799
2.7117 3.9916 -2.1133 0.9791
2.5956 4.1723 -2.1520 0.9788
2.3406 4.5392 -2.2366 0.9779
1.8945 5.1036 -2.3841 0.9765
1.7269 5.2956 -2.4394 0.9760
0.9465 6.0829 -2.6961 0.9735
0.7208 6.2866 -2.7712 0.9727
0.4809 6.4917 -2.8508 0.9720
-0.6386 7.3290 -3.2219 0.9684
-1.3086 7.7465 -3.4406 0.9663
-2.0631 8.1555 -3.6842 0.9639
-2.4757 8.3575 -3.8173 0.9627
-3.3788 8.7524 -4.1088 0.9599
-3.8729 8.9444 -4.2686 0.9583
-6.8280 9.7757 -5.2221 0.9493
-7.5207 9.8948 -5.4430 0.9472
-8.2580 10.0030 -5.6807 0.9449
-11.7070 10.2640 -6.8185 0.9343
-12.6942 10.2569 -7.1473 0.9312
-18.4547 9.5732 -9.1048 0.9132
-19.9555 9.3536 -9.6518 0.9082
-22.0640 8.2518 -10.3165 0.9022
-23.5907 7.7568 -10.8756 0.8972
-18.9832 2.2236 -8.3704 0.9199
-28.5843 -1.2658 -12.5306 0.8825
-28.1616 -2.3844 -12.3774 0.8839
-22.1536 -4.6087 -9.9098 0.9059
-24.9159 -6.2381 -11.2486 0.8939
-22.7816 -7.6953 -10.5309 0.9003
-21.6175 -8.2845 -10.1387 0.9038
-18.0634 -9.5563 -8.9496 0.9146
-15.6839 -9.9875 -8.1431 0.9220
-12.3721 -10.1629 -7.0120 0.9325
-9.5697 -10.0188 -6.0677 0.9413
-8.0299 -9.8884 -5.5786 0.9459
-7.2995 -9.7666 -5.3399 0.9481
-6.5894 -9.5984 -5.0988 0.9504
-5.3410 -9.3026 -4.6978 0.9542
-4.2166 -8.9390 -4.3285 0.9578
-3.7038 -8.7470 -4.1600 0.9594
-2.3404 -8.1419 -3.7101 0.9637
-1.2042 -7.4970 -3.3254 0.9674
-0.8753 -7.3172 -3.2274 0.9683
-0.2669 -6.9070 -3.0271 0.9703
0.0107 -6.7039 -2.9359 0.9711
0.2720 -6.5024 -2.8502 0.9720
0.5181 -6.3027 -2.7695 0.9728
0.7499 -6.1048 -2.6937 0.9735
1.1742 -5.7144 -2.5549 0.9748
1.3631 -5.5016 -2.4823 0.9756
1.7216 -5.1382 -2.3732 0.9766
2.0235 -4.7366 -2.2557 0.9778
2.1775 -4.5783 -2.2202 0.9781
2.5391 -4.0090 -2.0782 0.9795
2.7493 -3.6542 -2.0027 0.9802
2.9370 -3.3121 -1.9387 0.9809
3.0221 -3.1438 -1.9098 0.9811
3.1017 -2.9773 -1.8829 0.9814
3.1762 -2.8123 -1.8579 0.9816
3.2456 -2.6488 -1.8347 0.9819
3.3102 -2.4867 -1.8132 0.9821
3.3702 -2.3259 -1.7933 0.9823
3.4799 -2.0093 -1.7598 0.9826
3.5293 -1.8528 -1.7457 0.9827
3.5747 -1.6970 -1.7330 0.9829
3.6162 -1.5417 -1.7216 0.9830
3.7177 -1.0785 -1.6953 0.9832
3.7442 -0.9248 -1.6890 0.9833
3.7671 -0.7712 -1.6840 0.9833
3.8149 -0.3108 -1.6763 0.9834
3.8306 -0.0033 -1.6776 0.9834
3.8236 0.6171 -1.6962 0.9832
3.7723 1.0874 -1.7193 0.9830
3.7477 1.2455 -1.7295 0.9829
3.6866 1.5642 -1.7538 0.9827
3.6499 1.7250 -1.7680 0.9825
3.6090 1.8868 -1.7835 0.9824
3.5638 2.0496 -1.8005 0.9822
3.5142 2.2137 -1.8189 0.9820
3.4602 2.3793 -1.8391 0.9818
3.3382 2.7149 -1.8844 0.9814
3.1965 3.0577 -1.9372 0.9809
3.1175 3.2319 -1.9666 0.9806
3.0326 3.4081 -1.9979 0.9803
2.6245 4.1282 -2.1423 0.9789
2.3733 4.4941 -2.2258 0.9781
2.0893 4.8675 -2.3198 0.9771
1.9225 5.0277 -2.3574 0.9768
1.7593 5.2208 -2.4128 0.9762
1.2093 5.8345 -2.6095 0.9743
0.9968 6.0175 -2.6712 0.9737
0.5406 6.4416 -2.8310 0.9722
0.2895 6.6479 -2.9142 0.9714
0.0227 6.8561 -3.0026 0.9705
-0.2609 7.0661 -3.0967 0.9696
-1.5834 7.9017 -3.5293 0.9654
-2.3729 8.3085 -3.7842 0.9630
-3.7495 8.8974 -4.2284 0.9587
-4.2680 9.0882 -4.3972 0.9571
-6.0180 9.6055 -4.9641 0.9517
-6.6650 9.7442 -5.1702 0.9498
-8.0729 9.9762 -5.6203 0.9455
-8.8487 10.0778 -5.8734 0.9431
-9.6790 10.1681 -6.1480 0.9405
-10.5535 10.2297 -6.4368 0.9378
-11.4736 10.2598 -6.7407 0.9350
-12.4498 10.2625 -7.0660 0.9320
-13.4706 10.2230 -7.4059 0.9288
-14.5443 10.1429 -7.7656 0.9255
-16.9428 9.8938 -8.5925 0.9179
-18.1553 9.6448 -9.0033 0.9141
-19.3659 9.3096 -9.4103 0.9104
-20.6228 8.9118 -9.8389 0.9066
-21.7406 8.3744 -10.2031 0.9033
-23.2925 7.9124 -10.7733 0.8981
-16.4876 2.7727 -7.3221 0.9296
-28.2955 2.4447 -12.4381 0.8834
-28.1796 -2.1082 -12.3756 0.8839
-26.0984 -4.0807 -11.5686 0.8911
-22.1844 -4.3889 -9.9038 0.9060
-24.4864 -5.8763 -11.0282 0.8959
-23.0529 -7.5362 -10.6217 0.8995
-20.7196 -8.6720 -9.8368 0.9066
-19.5464 -9.1210 -9.4464 0.9101
-18.3576 -9.4829 -9.0489 0.9137
-17.1137 -9.7312 -8.6218 0.9176
-15.9707 -9.9516 -8.2410 0.9211
-14.8102 -10.0770 -7.8451 0.9248
-11.6265 -10.1582 -6.7615 0.9348
-10.6869 -10.1231 -6.4467 0.9377
-8.9879 -10.0018 -5.8890 0.9430
-8.2125 -9.9133 -5.6377 0.9453
-0.7723 -7.0406 -3.1959 0.9694
-0.4736 -6.8484 -3.0975 0.9703
-0.1920 -6.6565 -3.0048 0.9712
0.7833 -5.8984 -2.6848 0.9742
0.9936 -5.7116 -2.6159 0.9749
1.3788 -5.3401 -2.4886 0.9761
1.7210 -4.9742 -2.3750 0.9772
1.8679 -4.7690 -2.3110 0.9778
2.0127 -4.5866 -2.2600 0.9783
2.6190 -3.7107 -2.0494 0.9803
2.7195 -3.5418 -2.0149 0.9806
2.8139 -3.3747 -1.9826 0.9809
2.9855 -3.0455 -1.9243 0.9815
3.0632 -2.8831 -1.8981 0.9817
3.2035 -2.5626 -1.8510 0.9822
3.2665 -2.4042 -1.8301 0.9824
3.3250 -2.2469 -1.8107 0.9825
3.3797 -2.0910 -1.7932 0.9827
3.4795 -1.7834 -1.7642 0.9830
3.5236 -1.6306 -1.7519 0.9831
3.6002 -1.3264 -1.7312 0.9833
3.6328 -1.1748 -1.7228 0.9834
3.6873 -0.8725 -1.7097 0.9835
3.7092 -0.7216 -1.7050 0.9836
3.7681 0.0337 -1.7003 0.9836
3.7718 0.1855 -1.7040 0.9836
3.7721 0.3380 -1.7088 0.9835
3.7656 0.4907 -1.7134 0.9835
3.7406 0.7973 -1.7258 0.9834
3.7227 0.9514 -1.7337 0.9833
3.7009 1.1062 -1.7429 0.9832
3.6754 1.2616 -1.7534 0.9831
3.6125 1.5747 -1.7781 0.9829
3.4872 2.0513 -1.8255 0.9824
3.3820 2.3746 -1.8646 0.9820
3.2589 2.7038 -1.9107 0.9816
3.1900 2.8709 -1.9365 0.9813
3.1159 3.0396 -1.9641 0.9811
3.0361 3.2099 -1.9936 0.9808
2.9505 3.3820 -2.0251 0.9805
2.7608 3.7318 -2.0946 0.9798
2.6546 3.9076 -2.1316 0.9795
2.5400 4.0830 -2.1697 0.9791
1.9926 4.7706 -2.3328 0.9776
1.1292 5.7300 -2.6352 0.9747
0.7011 6.1148 -2.7772 0.9734
0.4674 6.3097 -2.8548 0.9726
-0.0435 6.7016 -3.0239 0.9710
-0.3224 6.8991 -3.1164 0.9701
-0.6184 7.0971 -3.2145 0.9692
-0.9323 7.2937 -3.3178 0.9682
-1.9894 7.8642 -3.6603 0.9650
-2.3842 8.0486 -3.7877 0.9638
-3.2448 8.4052 -4.0654 0.9612
-3.7130 8.5750 -4.2163 0.9598
-4.7356 8.8985 -4.5483 0.9567
-6.4887 9.2898 -5.1130 0.9515
-7.8059 9.4554 -5.5324 0.9476
-9.2966 9.5768 -6.0224 0.9431
-10.1023 9.6023 -6.2890 0.9407
-10.9451 9.5960 -6.5680 0.9381
-17.8775 8.3796 -8.9088 0.9170
-19.9451 7.4593 -9.6084 0.9108
-20.9316 6.8825 -9.9421 0.9078
-16.3135 3.9446 -7.5731 0.9290
-16.3345 3.2607 -7.5158 0.9295
-16.3765 2.5894 -7.4812 0.9298
-24.8978 1.9056 -11.2672 0.8962
-25.1056 -1.1117 -11.3392 0.8956
-24.7222 -2.0932 -11.1950 0.8968
-23.0746 -3.8398 -10.5548 0.9024
-21.7029 -5.4337 -10.0950 0.9065
-18.6374 -8.0159 -9.1543 0.9148
-17.5930 -8.4203 -8.8006 0.9180
-16.5449 -8.7529 -8.4457 0.9211
-13.3929 -9.3058 -7.3587 0.9309
-12.4615 -9.4235 -7.0496 0.9337
-10.6648 -9.5037 -6.4456 0.9392
-9.8334 -9.4991 -6.1691 0.9418
-8.3171 -9.4397 -5.6768 0.9463
-7.5883 -9.3445 -5.4315 0.9485
-6.9300 -9.2721 -5.2232 0.9505
-6.2866 -9.1573 -5.0119 0.9524
-3.5551 -8.3957 -4.1139 0.9608
-2.6634 -8.0339 -3.8190 0.9635
-2.2556 -7.8468 -3.6840 0.9648
-1.8714 -7.6576 -3.5569 0.9660
-1.1692 -7.2792 -3.3266 0.9682
-0.8478 -7.0875 -3.2208 0.9692
-0.5447 -6.8952 -3.1209 0.9701
-0.2590 -6.7032 -3.0269 0.9710
0.0104 -6.5119 -2.9383 0.9718
0.2644 -6.3214 -2.8548 0.9726
0.9435 -5.7570 -2.6323 0.9747
1.3343 -5.3852 -2.5034 0.9759
1.5130 -5.2009 -2.4440 0.9765
1.8312 -4.8136 -2.3238 0.9777
1.9783 -4.6309 -2.2722 0.9781
2.3744 -4.1053 -2.1399 0.9794
2.4856 -3.9245 -2.0961 0.9798
2.6956 -3.5828 -2.0231 0.9805
2.7915 -3.4153 -1.9903 0.9808
3.1185 -2.7613 -1.8795 0.9819
3.3112 -2.2851 -1.8153 0.9825
3.3665 -2.1288 -1.7972 0.9827
3.4191 -1.9742 -1.7815 0.9828
3.4682 -1.8207 -1.7674 0.9830
3.5132 -1.6678 -1.7548 0.9831
3.5544 -1.5153 -1.7435 0.9832
3.5917 -1.3633 -1.7334 0.9833
3.6551 -1.0604 -1.7173 0.9834
3.6814 -0.9093 -1.7110 0.9835
3.7391 -0.4566 -1.6997 0.9836
3.7514 -0.3056 -1.6983 0.9836
3.7602 -0.1545 -1.6981 0.9836
3.7667 -0.0032 -1.6996 0.9836
3.7712 0.1485 -1.7030 0.9836
3.7723 0.3008 -1.7075 0.9835
3.7676 0.4535 -1.7123 0.9835
3.7578 0.6064 -1.7175 0.9834
3.7274 0.9138 -1.7317 0.9833
3.6819 1.2237 -1.7507 0.9831
3.6210 1.5364 -1.7748 0.9829
3.4988 2.0122 -1.8212 0.9824
3.1344 2.9983 -1.9572 0.9811
3.0561 3.1683 -1.9863 0.9809
2.9719 3.3400 -2.0173 0.9806
2.8818 3.5134 -2.0504 0.9803
2.7853 3.6888 -2.0856 0.9799
2.5686 4.0401 -2.1602 0.9792
2.4485 4.2166 -2.2001 0.9788
2.3209 4.3947 -2.2425 0.9784
2.1852 4.5742 -2.2874 0.9780
2.0411 4.7554 -2.3350 0.9775
1.7261 5.1225 -2.4391 0.9766
1.5540 5.3081 -2.4957 0.9760
1.3715 5.4953 -2.5556 0.9755
1.1781 5.6839 -2.6192 0.9748
0.2812 6.4574 -2.9165 0.9720
-0.8542 7.2463 -3.2923 0.9685
-1.1821 7.4407 -3.3995 0.9675
-1.5291 7.6309 -3.5117 0.9664
-1.8967 7.8188 -3.6303 0.9653
-2.2859 8.0040 -3.7560 0.9641
-2.6982 8.1857 -3.8890 0.9629
-4.0857 8.7001 -4.3369 0.9587
-4.6047 8.8607 -4.5058 0.9571
-5.1536 9.0118 -4.6842 0.9555
-7.6383 9.4392 -5.4789 0.9481
-8.3470 9.5064 -5.7083 0.9460
-9.1061 9.5662 -5.9594 0.9437
-11.6122 9.5721 -6.7903 0.9361
-14.4580 9.2417 -7.7426 0.9275
-15.5014 9.0521 -8.0998 0.9242
-16.5579 8.7962 -8.4600 0.9210
-18.6786 8.0716 -9.1814 0.9146
-20.6947 7.0299 -9.8619 0.9085
-16.3557 4.1248 -7.6111 0.9287
-16.3311 3.4267 -7.5293 0.9294
-16.3690 2.7528 -7.4897 0.9297
-25.0817 1.1538 -11.3293 0.8957
-25.2091 0.1451 -11.3750 0.8953
-24.9061 -1.8633 -11.2695 0.8962
-23.6973 -2.7346 -10.7636 0.9006
-23.2119 -3.6293 -10.6009 0.9020
-20.7812 -6.7936 -9.8652 0.9085
-19.8538 -7.3864 -9.5583 0.9112
-18.8857 -7.9044 -9.2378 0.9141
-17.8479 -8.3284 -8.8869 0.9172
-14.7018 -9.1609 -7.8162 0.9268
-12.6963 -9.4071 -7.1299 0.9330
-11.7621 -9.4704 -6.8138 0.9359
-10.8752 -9.5017 -6.5162 0.9386
-10.0274 -9.4984 -6.2322 0.9412
-9.2440 -9.4899 -5.9777 0.9435
-8.4944 -9.4526 -5.7343 0.9458
-7.7794 -9.3904 -5.5022 0.9479
-5.8228 -9.0604 -4.8597 0.9538
-0.7488 -6.8259 -3.1905 0.9702
-0.4596 -6.6457 -3.0951 0.9710
-0.1864 -6.4653 -3.0052 0.9719
1.6817 -4.8604 -2.3896 0.9776
1.8260 -4.6621 -2.3263 0.9782
1.9686 -4.4859 -2.2761 0.9786
2.1126 -4.3319 -2.2393 0.9790
2.2359 -4.1522 -2.1911 0.9794
2.5677 -3.6380 -2.0689 0.9806
2.6671 -3.4736 -2.0348 0.9809
2.7606 -3.3107 -2.0028 0.9812
2.8483 -3.1494 -1.9729 0.9814
2.9305 -2.9894 -1.9450 0.9817
3.0075 -2.8307 -1.9190 0.9819
3.0795 -2.6734 -1.8947 0.9822
3.2670 -2.2077 -1.8320 0.9828
3.3216 -2.0551 -1.8148 0.9829
3.3725 -1.9035 -1.7993 0.9831
3.4198 -1.7528 -1.7855 0.9832
3.6007 -1.0065 -1.7371 0.9836
3.6259 -0.8580 -1.7312 0.9837
3.6918 -0.2644 -1.7197 0.9838
3.7092 0.1825 -1.7254 0.9838
3.6585 0.9350 -1.7544 0.9835
3.2609 2.4912 -1.9066 0.9821
2.9767 3.1471 -2.0127 0.9811
2.8011 3.4841 -2.0771 0.9805
2.7040 3.6551 -2.1125 0.9801
2.5993 3.8263 -2.1492 0.9798
2.3660 4.1680 -2.2268 0.9791
2.2383 4.3408 -2.2692 0.9787
2.1027 4.5148 -2.3140 0.9783
1.6450 5.0444 -2.4652 0.9769
1.2924 5.4028 -2.5811 0.9758
1.1004 5.5835 -2.6441 0.9752
0.4545 6.1358 -2.8587 0.9732
0.2133 6.3210 -2.9385 0.9725
-0.0422 6.5064 -3.0231 0.9717
-0.5993 6.8773 -3.2075 0.9700
-0.9027 7.0622 -3.3079 0.9691
-1.2235 7.2429 -3.4129 0.9681
-1.5622 7.4181 -3.5222 0.9671
-1.9201 7.5904 -3.6378 0.9661
-2.6979 7.9230 -3.8888 0.9638
-3.1198 8.0815 -4.0249 0.9625
-3.5649 8.2331 -4.1685 0.9612
-4.5306 8.5134 -4.4808 0.9584
-5.6054 8.7551 -4.8301 0.9552
-6.7784 8.9182 -5.2046 0.9518
-7.4041 8.9687 -5.4036 0.9500
-8.0612 9.0015 -5.6142 0.9481
-9.5023 9.0320 -6.0912 0.9438
-11.0686 8.9434 -6.6117 0.9392
-11.8948 8.8448 -6.8870 0.9367
-14.5177 8.2881 -7.7671 0.9289
-15.4445 8.0117 -8.0839 0.9261
-18.1671 6.7943 -9.0118 0.9180
-19.0169 6.2529 -9.3010 0.9155
-19.7856 5.6350 -9.5584 0.9133
-16.2437 2.5684 -7.6409 0.9300
-22.3099 1.7075 -10.3960 0.9060
-22.5284 -0.0910 -10.4673 0.9054
-21.1619 -3.5215 -9.9675 0.9097
-20.8262 -4.3326 -9.8835 0.9104
-20.1979 -5.0569 -9.6741 0.9123
-19.4965 -5.7234 -9.4408 0.9143
-18.7347 -6.3283 -9.1877 0.9165
-17.9118 -6.8643 -8.9124 0.9189
-17.0447 -7.3309 -8.6208 0.9214
-15.2263 -8.0553 -8.0035 0.9268
-14.3020 -8.3189 -7.6874 0.9296
-13.3417 -8.4959 -7.3490 0.9326
-12.4898 -8.6783 -7.0663 0.9351
-11.6354 -8.7988 -6.7778 0.9377
-8.5679 -8.9699 -5.7633 0.9468
-7.2234 -8.8953 -5.3240 0.9507
-4.3644 -8.3633 -4.3830 0.9592
-3.4165 -8.0684 -4.0710 0.9621
-2.9794 -7.9075 -3.9261 0.9634
-2.1690 -7.5456 -3.6478 0.9660
-1.1322 -7.0487 -3.3170 0.9690
-0.8217 -6.8697 -3.2146 0.9699
-0.5285 -6.6896 -3.1178 0.9708
0.0101 -6.3288 -2.9405 0.9725
0.2572 -6.1486 -2.8593 0.9732
0.7112 -5.7897 -2.7103 0.9746
0.9196 -5.6110 -2.6418 0.9752
1.1165 -5.4334 -2.5772 0.9758
1.3021 -5.2555 -2.5156 0.9764
1.4774 -5.0785 -2.4574 0.9769
2.0813 -4.3760 -2.2515 0.9789
2.2066 -4.1957 -2.2026 0.9793
2.4351 -3.8448 -2.1145 0.9801
2.6435 -3.5135 -2.0429 0.9808
2.7383 -3.3503 -2.0104 0.9811
2.8274 -3.1885 -1.9800 0.9814
3.1308 -2.5551 -1.8776 0.9823
3.1944 -2.3997 -1.8563 0.9825
3.2534 -2.2452 -1.8366 0.9827
3.3085 -2.0921 -1.8188 0.9829
3.4532 -1.6393 -1.7761 0.9833
3.5644 -1.1914 -1.7461 0.9836
3.5940 -1.0426 -1.7387 0.9836
3.6426 -0.7457 -1.7275 0.9837
3.6617 -0.5974 -1.7238 0.9838
3.6772 -0.4490 -1.7212 0.9838
3.6894 -0.3006 -1.7198 0.9838
3.7043 -0.0032 -1.7211 0.9838
3.7095 0.2958 -1.7290 0.9837
3.7034 0.4457 -1.7331 0.9837
3.6936 0.5961 -1.7384 0.9836
3.6632 0.8981 -1.7524 0.9835
3.6424 1.0499 -1.7612 0.9834
3.6179 1.2024 -1.7713 0.9833
3.5571 1.5093 -1.7953 0.9831
3.5207 1.6639 -1.8093 0.9830
3.4355 1.9758 -1.8414 0.9827
3.3330 2.2918 -1.8794 0.9823
3.2756 2.4519 -1.9011 0.9821
3.1464 2.7764 -1.9497 0.9817
3.0742 2.9407 -1.9766 0.9814
2.8238 3.4427 -2.0688 0.9806
2.7283 3.6133 -2.1036 0.9802
2.6259 3.7850 -2.1404 0.9799
2.5144 3.9549 -2.1775 0.9795
2.3959 4.1261 -2.2168 0.9792
2.1365 4.4723 -2.3029 0.9784
1.6852 5.0010 -2.4520 0.9770
1.5164 5.1795 -2.5075 0.9765
0.9478 5.7214 -2.6945 0.9747
0.7358 5.9056 -2.7651 0.9741
0.2733 6.2758 -2.9187 0.9727
-0.2454 6.6467 -3.0903 0.9711
-0.5280 6.8321 -3.1838 0.9702
-1.1437 7.1991 -3.3868 0.9684
-1.4780 7.3757 -3.4950 0.9674
-1.8311 7.5487 -3.6090 0.9663
-2.5986 7.8835 -3.8567 0.9641
-3.4544 8.1969 -4.1329 0.9615
-4.4072 8.4807 -4.4406 0.9587
-4.9242 8.6107 -4.6087 0.9572
-5.4685 8.7284 -4.7856 0.9556
-6.0380 8.8275 -4.9691 0.9539
-7.2492 8.9584 -5.3544 0.9504
-10.0785 9.0123 -6.2818 0.9421
-11.6913 8.8727 -6.8192 0.9373
-12.5380 8.7437 -7.1021 0.9348
-13.4080 8.5705 -7.3936 0.9322
-14.2971 8.3488 -7.6924 0.9296
-16.1446 7.7611 -8.3229 0.9240
-17.0578 7.3712 -8.6338 0.9213
-18.8179 6.3924 -9.2339 0.9161
-19.6040 5.7915 -9.4976 0.9138
-16.2334 2.7300 -7.6483 0.9300
-22.2520 1.9225 -10.3773 0.9062
-22.4447 1.0325 -10.4393 0.9057
-22.5269 0.1296 -10.4667 0.9054
-22.4737 -0.7747 -10.4480 0.9056
-22.2768 -1.6666 -10.3792 0.9062
-21.2508 -3.3227 -9.9936 0.9095
-19.6735 -5.5666 -9.4996 0.9138
-18.9269 -6.1874 -9.2518 0.9159
-18.1160 -6.7398 -8.9807 0.9183
-17.2032 -7.2002 -8.6648 0.9210
-16.3061 -7.6089 -8.3604 0.9237
-15.4512 -7.9816 -8.0802 0.9262
-14.5275 -8.2607 -7.7647 0.9289
-12.7064 -8.6455 -7.1407 0.9345
-11.8397 -8.7724 -6.8464 0.9371
-10.2088 -8.9195 -6.2986 0.9420
-8.0481 -8.9560 -5.5944 0.9483
-7.3817 -8.9104 -5.3761 0.9502
-6.7433 -8.8405 -5.1660 0.9521
-6.1355 -8.7522 -4.9661 0.9540
-5.5578 -8.6482 -4.7764 0.9557
-0.7264 -6.6218 -3.1853 0.9709
-0.4462 -6.4528 -3.0929 0.9717
-0.1812 -6.2828 -3.0055 0.9725
0.0696 -6.1124 -2.9229 0.9733
0.3069 -5.9417 -2.8449 0.9740
0.7415 -5.5837 -2.6934 0.9753
1.3140 -5.0891 -2.5133 0.9770
1.7856 -4.5588 -2.3411 0.9785
2.1881 -4.0635 -2.2068 0.9797
2.4133 -3.7290 -2.1239 0.9805
3.1532 -2.3208 -1.8721 0.9828
3.2104 -2.1694 -1.8527 0.9830
3.2649 -2.0200 -1.8358 0.9831
3.3154 -1.8713 -1.8204 0.9833
3.4803 -1.2822 -1.7735 0.9837
3.5409 -0.9898 -1.7581 0.9838
3.5874 -0.6979 -1.7475 0.9839
3.6054 -0.5520 -1.7441 0.9840
3.6200 -0.4061 -1.7418 0.9840
3.6311 -0.2600 -1.7407 0.9840
3.6446 0.0326 -1.7428 0.9840
3.6480 0.1794 -1.7464 0.9839
3.6458 0.3267 -1.7503 0.9839
3.6387 0.4742 -1.7546 0.9839
3.6280 0.6220 -1.7601 0.9838
3.5958 0.9190 -1.7747 0.9837
3.5195 1.3686 -1.8057 0.9834
3.4864 1.5197 -1.8186 0.9833
3.4079 1.8243 -1.8483 0.9830
3.3126 2.1323 -1.8837 0.9827
3.2590 2.2882 -1.9041 0.9825
3.2009 2.4453 -1.9261 0.9823
3.1381 2.6036 -1.9498 0.9821
3.0703 2.7631 -1.9751 0.9819
2.9973 2.9239 -2.0022 0.9816
2.7450 3.4144 -2.0949 0.9808
2.4341 3.9128 -2.2034 0.9798
2.1897 4.2465 -2.2846 0.9790
1.9035 4.5573 -2.3616 0.9783
1.7553 4.7287 -2.4119 0.9779
1.4383 5.0975 -2.5326 0.9768
1.0727 5.4429 -2.6527 0.9757
0.8741 5.6177 -2.7185 0.9751
0.6642 5.7934 -2.7884 0.9745
0.4413 5.9580 -2.8567 0.9739
0.2073 6.1452 -2.9401 0.9731
-0.3036 6.4950 -3.1091 0.9716
-0.8745 6.8414 -3.2980 0.9699
-1.1843 7.0111 -3.4000 0.9690
-1.5107 7.1737 -3.5055 0.9680
-5.8944 8.4391 -4.9221 0.9554
-7.6459 8.5379 -5.4803 0.9505
-8.2865 8.5362 -5.6886 0.9486
-10.3841 8.3904 -6.3836 0.9425
-11.8962 8.1242 -6.8883 0.9381
-12.6778 7.9299 -7.1503 0.9358
-13.4683 7.6890 -7.4157 0.9335
-14.2720 7.4035 -7.6879 0.9312
-18.0382 5.1374 -8.9683 0.9202
-16.1414 3.2222 -7.8705 0.9296
-20.2032 1.5463 -9.6888 0.9141
-20.3457 0.7363 -9.7350 0.9137
-20.3748 -0.0823 -9.7426 0.9136
-20.2989 -0.8989 -9.7158 0.9139
-19.8217 -2.4843 -9.5522 0.9152
-17.8328 -5.2350 -8.8869 0.9209
-17.1065 -5.7783 -8.6338 0.9231
-16.4454 -6.3024 -8.4213 0.9249
-14.8955 -7.1292 -7.8963 0.9294
-14.0847 -7.4514 -7.6193 0.9318
-13.2181 -7.6884 -7.3119 0.9344
-12.4566 -7.9323 -7.0615 0.9366
-10.9089 -8.2494 -6.5398 0.9412
-10.1635 -8.3487 -6.2893 0.9434
-8.7802 -8.4817 -5.8374 0.9473
-8.1236 -8.5048 -5.6238 0.9492
-7.4865 -8.4970 -5.4151 0.9510
-6.8715 -8.4619 -5.2123 0.9528
-6.2831 -8.4067 -5.0185 0.9545
-5.1845 -8.2437 -4.6566 0.9577
-4.1867 -8.0227 -4.3271 0.9607
-3.7246 -7.8960 -4.1746 0.9620
-3.2867 -7.7619 -4.0305 0.9633
-2.8601 -7.5908 -3.8788 0.9647
-0.7970 -6.6628 -3.2086 0.9707
-0.5130 -6.4941 -3.1149 0.9715
-0.2444 -6.3243 -3.0263 0.9723
0.0098 -6.1539 -2.9426 0.9731
0.2503 -5.9833 -2.8635 0.9738
0.4778 -5.8125 -2.7887 0.9745
0.6930 -5.6415 -2.7178 0.9751
0.8966 -5.4709 -2.6509 0.9757
1.0893 -5.3010 -2.5877 0.9763
1.9039 -4.4568 -2.3174 0.9787
2.0356 -4.2801 -2.2663 0.9792
2.1592 -4.1057 -2.2181 0.9796
2.2751 -3.9335 -2.1728 0.9801
2.4929 -3.6066 -2.0965 0.9807
2.5928 -3.4462 -2.0621 0.9811
2.6867 -3.2871 -2.0300 0.9814
2.8576 -2.9727 -1.9717 0.9819
2.9352 -2.8174 -1.9454 0.9821
3.0077 -2.6632 -1.9210 0.9823
3.1386 -2.3578 -1.8771 0.9827
3.1968 -2.2062 -1.8573 0.9829
3.3947 -1.6115 -1.7968 0.9835
3.4352 -1.4645 -1.7856 0.9836
3.5343 -1.0253 -1.7597 0.9838
3.6168 -0.4416 -1.7423 0.9840
3.6287 -0.2956 -1.7409 0.9840
3.6433 -0.0031 -1.7421 0.9840
3.6475 0.1436 -1.7454 0.9839
3.6470 0.2908 -1.7494 0.9839
3.6310 0.5860 -1.7587 0.9838
3.6005 0.8827 -1.7726 0.9837
3.5270 1.3319 -1.8027 0.9834
3.4948 1.4829 -1.8153 0.9833
3.4586 1.6346 -1.8292 0.9832
3.3738 1.9403 -1.8610 0.9829
3.3250 2.0945 -1.8790 0.9827
3.2155 2.4069 -1.9206 0.9823
3.0873 2.7242 -1.9688 0.9819
2.9385 3.0464 -2.0239 0.9814
2.7675 3.3741 -2.0867 0.9808
2.6730 3.5401 -2.1211 0.9805
2.5720 3.7074 -2.1576 0.9802
2.3450 4.0385 -2.2330 0.9795
1.9383 4.5158 -2.3498 0.9784
1.7922 4.6869 -2.3994 0.9780
1.6457 4.8840 -2.4644 0.9774
1.4801 5.0556 -2.5189 0.9769
1.3048 5.2279 -2.5765 0.9764
1.1194 5.4008 -2.6374 0.9758
0.9235 5.5750 -2.7021 0.9753
0.7164 5.7506 -2.7710 0.9746
0.4964 5.9145 -2.8381 0.9740
0.2657 6.1025 -2.9208 0.9733
0.0208 6.2778 -3.0018 0.9725
-0.5121 6.6266 -3.1781 0.9710
-1.1074 6.9704 -3.3748 0.9692
-1.4296 7.1345 -3.4793 0.9683
-1.7694 7.2941 -3.5890 0.9673
-2.9029 7.7446 -3.9548 0.9640
-3.3216 7.8820 -4.0899 0.9628
-5.2245 8.3390 -4.7054 0.9573
-6.8957 8.5216 -5.2417 0.9526
-7.4963 8.5376 -5.4327 0.9509
-8.7949 8.5251 -5.8569 0.9471
-10.2053 8.4124 -6.3240 0.9430
-10.9471 8.3079 -6.5713 0.9409
-11.7076 8.1647 -6.8251 0.9387
-13.2741 7.7515 -7.3502 0.9341
-14.8830 7.1546 -7.8962 0.9294
-17.8813 5.2825 -8.9155 0.9207
-16.1949 4.0842 -7.9863 0.9286
-16.1410 3.3868 -7.8862 0.9295
-20.1518 1.7411 -9.6718 0.9142
-20.3219 0.9348 -9.7275 0.9138
-20.1687 -1.5089 -9.6710 0.9142
-19.5400 -3.0552 -9.4569 0.9160
-19.1022 -3.7791 -9.3110 0.9173
-18.5816 -4.4593 -9.1374 0.9188
-17.2750 -5.6473 -8.6905 0.9226
-16.6252 -6.1852 -8.4820 0.9244
-15.0917 -7.0423 -7.9634 0.9288
-14.2827 -7.3780 -7.6869 0.9312
-12.6532 -7.8844 -7.1288 0.9360
-11.8620 -8.0710 -6.8605 0.9384
-11.0935 -8.2195 -6.6019 0.9406
-10.3433 -8.3281 -6.3497 0.9428
-8.9436 -8.4718 -5.8906 0.9468
-8.2814 -8.5017 -5.6751 0.9487
-5.8557 -8.3530 -4.8778 0.9558
-0.7051 -6.4276 -3.1804 0.9716
0.0677 -5.9475 -2.9255 0.9738
0.2988 -5.7853 -2.8493 0.9745
0.5177 -5.6225 -2.7771 0.9751
0.9214 -5.2966 -2.6443 0.9763
1.1075 -5.1340 -2.5832 0.9769
1.6070 -4.6446 -2.4173 0.9783
1.8941 -4.3163 -2.3184 0.9792
2.2564 -3.8146 -2.1799 0.9804
2.5667 -3.3428 -2.0729 0.9814
2.6582 -3.1879 -2.0416 0.9817
2.8248 -2.8816 -1.9848 0.9822
2.9005 -2.7300 -1.9591 0.9824
3.3483 -1.5495 -1.8146 0.9837
3.3869 -1.4049 -1.8035 0.9838
3.4542 -1.1171 -1.7856 0.9839
3.5608 -0.3994 -1.7624 0.9842
3.5718 -0.2558 -1.7613 0.9842
3.5794 -0.1120 -1.7614 0.9842
3.5850 0.0320 -1.7633 0.9841
3.5775 0.4662 -1.7745 0.9840
3.5526 0.7572 -1.7866 0.9839
3.5347 0.9034 -1.7944 0.9839
3.5131 1.0500 -1.8035 0.9838
3.4878 1.1972 -1.8137 0.9837
3.3027 1.9428 -1.8847 0.9831
3.2002 2.2469 -1.9232 0.9827
3.0801 2.5555 -1.9685 0.9823
3.0128 2.7114 -1.9936 0.9821
2.7796 3.1861 -2.0796 0.9813
2.6906 3.3467 -2.1121 0.9810
2.4939 3.6711 -2.1829 0.9804
2.3836 3.8316 -2.2195 0.9801
2.2667 3.9930 -2.2584 0.9797
2.1426 4.1553 -2.2995 0.9794
1.9988 4.2916 -2.3286 0.9791
1.7248 4.6464 -2.4377 0.9781
1.5690 4.8113 -2.4891 0.9777
1.4042 4.9766 -2.5433 0.9772
1.2300 5.1421 -2.6005 0.9767
1.0461 5.3079 -2.6609 0.9762
0.8520 5.4752 -2.7254 0.9756
0.6470 5.6428 -2.7936 0.9750
-0.0399 6.1429 -3.0215 0.9730
-0.8477 6.6322 -3.2886 0.9706
-1.1472 6.7912 -3.3876 0.9698
-1.4620 6.9426 -3.4896 0.9689
-1.7933 7.0889 -3.5966 0.9679
-2.1418 7.2304 -3.7090 0.9669
-2.5082 7.3660 -3.8273 0.9659
-2.8933 7.4949 -3.9516 0.9648
-4.1663 7.8287 -4.3619 0.9612
-6.1585 8.1026 -5.0058 0.9556
-6.7065 8.1237 -5.1813 0.9541
-7.2713 8.1195 -5.3609 0.9526
-7.8544 8.0911 -5.5463 0.9510
-9.1157 7.9921 -5.9628 0.9474
-9.7756 7.8987 -6.1816 0.9455
-11.1433 7.6100 -6.6371 0.9416
-11.8471 7.4103 -6.8731 0.9396
-13.2672 6.8822 -7.3513 0.9355
-14.6632 6.1667 -7.8240 0.9315
-15.2828 5.7156 -8.0254 0.9298
-15.9670 5.2501 -8.2671 0.9278
-16.5500 4.7135 -8.4639 0.9262
-17.5389 3.5011 -8.7968 0.9234
-17.9236 2.8340 -8.9253 0.9223
-18.4358 1.4110 -9.0942 0.9209
-18.5585 0.6716 -9.1341 0.9206
-18.5875 -0.0751 -9.1424 0.9205
-18.5265 -0.8204 -9.1213 0.9207
-18.3710 -1.5555 -9.0682 0.9211
-17.3468 -3.6087 -8.7148 0.9241
-16.9402 -4.2413 -8.5893 0.9251
-16.4072 -4.8165 -8.4105 0.9266
-15.8215 -5.3443 -8.2139 0.9283
-15.1864 -5.8199 -7.9992 0.9301
-11.6532 -7.4207 -6.7951 0.9403
-9.5614 -7.8541 -6.0860 0.9463
-8.9526 -7.9779 -5.8981 0.9479
-7.1218 -8.0830 -5.2987 0.9531
-6.5485 -8.0641 -5.1095 0.9547
-5.9979 -8.0251 -4.9278 0.9563
-4.9641 -7.8932 -4.5862 0.9593
-4.4809 -7.8045 -4.4264 0.9607
-4.0203 -7.7039 -4.2741 0.9620
-3.5709 -7.5701 -4.1168 0.9634
-3.1649 -7.4743 -3.9923 0.9645
-2.7671 -7.3440 -3.8601 0.9656
-1.3695 -6.7739 -3.3992 0.9697
-0.4983 -6.3077 -3.1121 0.9722
-0.2376 -6.1478 -3.0261 0.9729
0.0095 -5.9868 -2.9446 0.9737
0.2437 -5.8249 -2.8675 0.9743
0.4654 -5.6622 -2.7944 0.9750
0.8746 -5.3363 -2.6597 0.9762
1.4100 -4.8469 -2.4828 0.9777
1.7203 -4.5221 -2.3797 0.9787
1.9839 -4.1713 -2.2719 0.9796
2.1134 -4.0185 -2.2332 0.9800
2.2287 -3.8533 -2.1895 0.9804
2.3400 -3.6945 -2.1510 0.9807
2.5435 -3.3807 -2.0809 0.9813
2.6364 -3.2255 -2.0490 0.9816
3.1416 -2.1681 -1.8775 0.9831
3.2478 -1.8753 -1.8446 0.9834
3.2950 -1.7298 -1.8304 0.9835
3.3383 -1.5847 -1.8176 0.9837
3.3778 -1.4401 -1.8061 0.9838
3.5016 -0.8649 -1.7740 0.9841
3.5424 -0.5779 -1.7654 0.9841
3.5695 -0.2908 -1.7615 0.9842
3.5837 -0.0031 -1.7626 0.9842
3.5877 0.1413 -1.7660 0.9841
3.5564 0.7217 -1.7849 0.9840
3.4661 1.3089 -1.8223 0.9836
3.4340 1.4571 -1.8348 0.9835
3.3579 1.7555 -1.8637 0.9833
3.2135 2.2096 -1.9182 0.9828
3.1570 2.3631 -1.9396 0.9826
3.0297 2.6733 -1.9874 0.9821
2.9586 2.8301 -2.0138 0.9819
2.8822 2.9880 -2.0420 0.9817
2.8004 3.1471 -2.0720 0.9814
2.7128 3.3075 -2.1040 0.9811
2.4111 3.7924 -2.2104 0.9802
2.1735 4.1157 -2.2893 0.9795
2.0439 4.2786 -2.3322 0.9791
1.9067 4.4422 -2.3777 0.9787
1.6077 4.7711 -2.4763 0.9778
1.4452 4.9364 -2.5299 0.9773
1.2733 5.1018 -2.5863 0.9768
0.9002 5.4344 -2.7093 0.9757
0.6979 5.6019 -2.7766 0.9751
0.4842 5.7695 -2.8477 0.9745
0.2581 5.9270 -2.9180 0.9739
0.0202 6.1026 -3.0016 0.9732
-0.7772 6.5931 -3.2653 0.9708
-1.7111 7.0537 -3.5700 0.9682
-2.7978 7.4642 -3.9208 0.9651
-3.6167 7.7014 -4.1849 0.9628
-4.0561 7.8052 -4.3264 0.9615
-5.5041 8.0470 -4.7953 0.9575
-6.0281 8.0944 -4.9640 0.9560
-7.7107 8.1004 -5.5007 0.9514
-8.3208 8.0656 -5.6998 0.9497
-10.9733 7.6526 -6.5801 0.9421
-11.6752 7.4629 -6.8154 0.9401
-12.3821 7.2306 -7.0525 0.9381
-13.0932 6.9556 -7.2923 0.9360
-13.8038 6.6358 -7.5332 0.9340
-16.4738 4.1545 -8.3564 0.9271
-17.3661 3.6439 -8.7276 0.9239
-17.8388 2.9999 -8.8973 0.9225
-18.3912 1.5889 -9.0795 0.9210
-18.5892 0.1070 -9.1433 0.9205
-17.8895 -2.7972 -8.9060 0.9225
-17.5099 -3.4641 -8.7793 0.9235
-17.0604 -4.0942 -8.6295 0.9248
-16.5422 -4.6806 -8.4558 0.9262
-15.9692 -5.2205 -8.2636 0.9278
-15.2936 -5.6898 -8.0260 0.9298
-14.6848 -6.1462 -7.8299 0.9315
-13.9843 -6.5255 -7.5902 0.9335
-13.2681 -6.8539 -7.3453 0.9356
-12.5405 -7.1308 -7.0955 0.9377
-11.8253 -7.3685 -6.8531 0.9398
-9.7538 -7.8534 -6.1592 0.9457
-7.2648 -8.0843 -5.3459 0.9527
-5.5969 -7.9839 -4.7957 0.9575
-0.6848 -6.2425 -3.1757 0.9722
-0.4214 -6.0932 -3.0887 0.9730
-0.1714 -5.9421 -3.0061 0.9737
0.5046 -5.4800 -2.7829 0.9756
0.7071 -5.3245 -2.7162 0.9762
0.8992 -5.1688 -2.6531 0.9768
1.2538 -4.8560 -2.5362 0.9778
1.7178 -4.3858 -2.3819 0.9791
1.8448 -4.2039 -2.3216 0.9796
2.4223 -3.4321 -2.1243 0.9813
2.7740 -2.8297 -2.0039 0.9824
3.0448 -2.2410 -1.9118 0.9832
3.1016 -2.0960 -1.8930 0.9834
3.1554 -1.9523 -1.8764 0.9835
3.2052 -1.8091 -1.8612 0.9836
3.2510 -1.6663 -1.8474 0.9838
3.2931 -1.5239 -1.8350 0.9839
3.3314 -1.3819 -1.8238 0.9840
3.3661 -1.2401 -1.8140 0.9840
3.3974 -1.0987 -1.8056 0.9841
3.4710 -0.6752 -1.7882 0.9843
3.4887 -0.5341 -1.7848 0.9843
3.5213 -0.1102 -1.7815 0.9843
3.5248 0.3158 -1.7896 0.9843
3.5177 0.4584 -1.7939 0.9842
3.5070 0.6013 -1.7993 0.9842
3.4534 1.0322 -1.8227 0.9840
3.3992 1.3218 -1.8443 0.9838
3.3663 1.4674 -1.8570 0.9837
3.2454 1.9091 -1.9041 0.9833
3.1428 2.2066 -1.9419 0.9829
3.0856 2.3572 -1.9636 0.9827
2.7258 3.1244 -2.0968 0.9816
2.5438 3.4386 -2.1630 0.9810
2.3347 3.7530 -2.2351 0.9804
1.8204 4.3583 -2.3885 0.9791
1.6771 4.5180 -2.4371 0.9786
1.2006 5.0191 -2.6097 0.9771
0.8307 5.3383 -2.7320 0.9761
0.6304 5.4982 -2.7986 0.9755
0.4191 5.6577 -2.8689 0.9749
-0.0387 5.9670 -3.0175 0.9736
-0.5474 6.2823 -3.1889 0.9721
-0.8223 6.4334 -3.2798 0.9713
-1.4159 6.7236 -3.4747 0.9697
-2.7904 7.2283 -3.9182 0.9659
-3.5809 7.4351 -4.1732 0.9637
-4.0034 7.5227 -4.3093 0.9625
-5.8832 7.7404 -4.9166 0.9574
-6.9275 7.7356 -5.2512 0.9545
-7.4714 7.6966 -5.4244 0.9531
-8.0326 7.6350 -5.6042 0.9515
-9.2300 7.4579 -6.0008 0.9482
-9.8470 7.3221 -6.2053 0.9465
-11.1109 6.9499 -6.6273 0.9429
-11.7492 6.7075 -6.8415 0.9412
-13.0136 6.0998 -7.2679 0.9376
-13.6272 5.7310 -7.4758 0.9359
-14.2126 5.3154 -7.6734 0.9342
-14.7686 4.8560 -7.8617 0.9327
-15.2271 4.3367 -8.0064 0.9315
-15.7479 3.8078 -8.1931 0.9300
-16.9386 1.2964 -8.5908 0.9267
-17.0748 -0.0690 -8.6347 0.9263
-17.0235 -0.7538 -8.6171 0.9265
-16.8914 -1.4302 -8.5724 0.9268
-16.6814 -2.0907 -8.5016 0.9274
-16.0559 -3.3402 -8.2932 0.9291
-15.1792 -4.4560 -7.9999 0.9315
-12.2210 -6.4654 -6.9916 0.9399
-11.5834 -6.7376 -6.7765 0.9417
-10.9433 -6.9687 -6.5608 0.9435
-9.0828 -7.4610 -5.9441 0.9487
-8.4586 -7.5377 -5.7294 0.9505
-7.3378 -7.6822 -5.3722 0.9535
-6.2482 -7.6943 -5.0123 0.9565
-5.2183 -7.6012 -4.6625 0.9595
-4.7434 -7.5422 -4.5056 0.9608
-3.8542 -7.3856 -4.2128 0.9633
-3.4493 -7.3123 -4.0886 0.9644
-2.6704 -7.0874 -3.8300 0.9666
-2.3085 -6.9634 -3.7098 0.9677
-1.3275 -6.5661 -3.3876 0.9704
-1.0320 -6.4248 -3.2906 0.9713
-0.2310 -5.9791 -3.0258 0.9735
0.6588 -5.3624 -2.7321 0.9761
1.0379 -5.0508 -2.6075 0.9772
1.3780 -4.7371 -2.4948 0.9781
1.5346 -4.5802 -2.4427 0.9786
1.6829 -4.4238 -2.3935 0.9790
1.9426 -4.0845 -2.2872 0.9799
2.0689 -3.9340 -2.2478 0.9803
2.1846 -3.7770 -2.2065 0.9806
2.2944 -3.6226 -2.1684 0.9810
2.3980 -3.4692 -2.1327 0.9813
2.6738 -3.0153 -2.0380 0.9821
2.7550 -2.8660 -2.0103 0.9823
2.9024 -2.5699 -1.9604 0.9828
2.9687 -2.4228 -1.9378 0.9830
3.2832 -1.5586 -1.8379 0.9838
3.3579 -1.2746 -1.8163 0.9840
3.3900 -1.1331 -1.8075 0.9841
3.4443 -0.8507 -1.7941 0.9842
3.4998 -0.4273 -1.7830 0.9843
3.5115 -0.2861 -1.7816 0.9843
3.5198 -0.1446 -1.7814 0.9843
3.5289 0.1390 -1.7859 0.9843
3.5261 0.2812 -1.7888 0.9843
3.4590 0.9970 -1.8204 0.9840
3.4066 1.2864 -1.8414 0.9838
3.3747 1.4319 -1.8538 0.9837
3.2093 2.0217 -1.9181 0.9831
3.0392 2.4717 -1.9810 0.9826
2.8274 2.9312 -2.0595 0.9819
2.7464 3.0865 -2.0892 0.9817
2.6597 3.2427 -2.1209 0.9814
2.1275 4.0286 -2.3039 0.9798
1.8648 4.3446 -2.3909 0.9790
1.7127 4.4791 -2.4250 0.9787
1.5710 4.6622 -2.4879 0.9782
1.4115 4.8214 -2.5405 0.9777
1.2430 4.9804 -2.5958 0.9773
1.0652 5.1393 -2.6541 0.9767
0.6802 5.4593 -2.7821 0.9756
0.4716 5.6189 -2.8514 0.9750
-0.2249 6.0911 -3.0823 0.9730
-1.6559 6.8262 -3.5521 0.9690
-2.3345 7.0825 -3.7711 0.9671
-2.6990 7.2007 -3.8887 0.9661
-3.0810 7.3110 -4.0120 0.9651
-3.4808 7.4121 -4.1410 0.9640
-4.3353 7.5809 -4.4162 0.9616
-5.2663 7.6993 -4.7171 0.9591
-5.7608 7.7354 -4.8773 0.9577
-6.7968 7.7409 -5.2093 0.9549
-7.8919 7.6498 -5.5580 0.9519
-8.4787 7.5817 -5.7518 0.9503
-9.0813 7.4859 -5.9515 0.9486
-10.3199 7.1969 -6.3624 0.9452
-12.2301 6.4971 -7.0032 0.9398
-12.8613 6.1828 -7.2164 0.9380
-14.0727 5.4208 -7.6262 0.9346
-16.4107 2.7598 -8.4153 0.9281
-16.8999 1.4601 -8.5780 0.9268
-17.0288 0.7833 -8.6205 0.9264
-17.0761 0.0983 -8.6354 0.9263
-16.7394 -1.9317 -8.5212 0.9273
-16.4773 -2.5763 -8.4337 0.9280
-16.1464 -3.1944 -8.3234 0.9289
-15.7517 -3.7802 -8.1917 0.9300
-15.2454 -4.3137 -8.0122 0.9314
-14.7888 -4.8346 -7.8681 0.9326
-14.2337 -5.2955 -7.6799 0.9342
-13.0182 -6.0747 -7.2647 0.9376
-11.7391 -6.6751 -6.8290 0.9413
-9.8343 -7.2865 -6.1894 0.9466
-8.6334 -7.5430 -5.7975 0.9499
-8.0201 -7.5970 -5.5864 0.9517
-7.4755 -7.6744 -5.4178 0.9531
-5.8565 -7.6779 -4.8832 0.9576
-4.8572 -7.5579 -4.5432 0.9605
-0.6654 -6.0658 -3.1712 0.9729
-0.1667 -5.7823 -3.0063 0.9743
0.0642 -5.6373 -2.9298 0.9749
0.2829 -5.4782 -2.8508 0.9756
0.6899 -5.1947 -2.7233 0.9767
0.8778 -5.0456 -2.6615 0.9772
1.2252 -4.7455 -2.5470 0.9781
1.5372 -4.4429 -2.4432 0.9790
1.6810 -4.2918 -2.3954 0.9794
1.8062 -4.1159 -2.3359 0.9799
1.9327 -3.9631 -2.2914 0.9803
2.2756 -3.5162 -2.1766 0.9813
2.4715 -3.2189 -2.1090 0.9819
2.6453 -2.9249 -2.0495 0.9824
2.7986 -2.6341 -1.9973 0.9828
3.0492 -2.0605 -1.9125 0.9835
3.1974 -1.6388 -1.8672 0.9839
3.2391 -1.4989 -1.8548 0.9840
3.2771 -1.3594 -1.8438 0.9841
3.3697 -0.9419 -1.8183 0.9844
3.4147 -0.6643 -1.8079 0.9844
3.4322 -0.5255 -1.8045 0.9845
3.4463 -0.3866 -1.8022 0.9845
3.4570 -0.2476 -1.8012 0.9845
3.4695 0.0310 -1.8031 0.9845
3.4701 0.1707 -1.8055 0.9845
3.4343 0.7320 -1.8248 0.9843
3.3951 1.0147 -1.8415 0.9842
3.3700 1.1567 -1.8516 0.9841
3.3411 1.2992 -1.8630 0.9840
3.3090 1.4424 -1.8759 0.9839
3.1895 1.8762 -1.9230 0.9835
3.0301 2.3148 -1.9816 0.9830
2.8313 2.7620 -2.0555 0.9823
2.6735 3.0645 -2.1134 0.9818
2.5864 3.2171 -2.1452 0.9816
2.2872 3.6766 -2.2502 0.9807
2.1734 3.8288 -2.2880 0.9803
1.4982 4.5943 -2.5114 0.9785
1.1722 4.9005 -2.6186 0.9775
0.9959 5.0532 -2.6766 0.9771
0.8102 5.2066 -2.7384 0.9765
0.6145 5.3594 -2.8034 0.9760
0.1910 5.6621 -2.9442 0.9748
-0.5317 6.1024 -3.1834 0.9728
-1.0782 6.3826 -3.3639 0.9712
-1.3721 6.5155 -3.4603 0.9704
-2.0024 6.7597 -3.6638 0.9687
-2.3401 6.8722 -3.7728 0.9678
-2.6935 6.9773 -3.8868 0.9668
-3.4489 7.1609 -4.1305 0.9648
-4.2700 7.3000 -4.3951 0.9626
-5.1579 7.3845 -4.6811 0.9602
-5.6284 7.4051 -4.8338 0.9589
-7.1187 7.3332 -5.3113 0.9550
-8.1780 7.1700 -5.6522 0.9522
-9.3039 6.9183 -6.0254 0.9491
