ply
format ascii 1.0
element vertex 1401
property float32 x
property float32 y
property float32 z
property float32 CosAngle
property uint32 ObjIdx
property uint32 ObjTag
end_header
18.0182 13.8155 3.2295 0.1162 0 2
17.5045 14.5739 3.2398 0.6283 0 3
16.3003 14.7186 3.1238 0.6530 0 0
15.0217 14.7010 2.9896 0.6824 0 0
13.8467 14.6848 2.8708 0.7106 0 0
-0.0656 15.7227 2.0589 0.1518 0 9
-0.6498 14.6485 1.9201 0.1337 0 9
-1.3379 15.7981 2.0761 0.6696 0 9
2.0574 -17.7647 2.3418 0.7713 0 22
7.4326 -47.4252 6.2860 0.8222 0 3
3.8032 -19.1939 2.5623 0.6379 0 22
7.5005 -31.2211 4.2047 0.9673 0 3
7.8170 -27.6072 3.7572 0.9560 0 3
9.6951 -29.6439 4.0841 0.9446 0 3
11.0392 -29.6658 4.1449 0.9317 0 3
12.3806 -29.5794 4.1990 0.8388 0 3
9.3316 -20.0000 2.8900 0.3614 0 9
14.7917 -28.6417 4.2212 0.8841 0 3
16.2748 -28.6320 4.3127 0.8654 0 3
17.7998 -28.5796 4.4089 0.5984 0 3
20.1288 -29.6007 4.6874 0.8237 0 3
20.3631 -27.5022 4.4811 0.8000 0 3
21.3183 -26.4977 4.4534 0.7519 0 3
20.6508 -23.6570 4.1121 0.0842 0 2
19.4226 -20.5249 3.7003 0.0935 0 2
18.4521 -17.9939 3.3750 0.1025 0 2
17.8810 -16.0882 3.1497 0.6792 0 2
17.8918 -14.8425 3.0441 0.1381 0 1
17.5870 -13.4352 2.8981 0.1386 0 1
5.9902 -4.2063 0.9585 0.9904 14 6
16.8470 -10.8470 2.6238 0.1342 0 1
16.3344 -9.6120 2.4818 0.1250 0 24
15.9127 -8.5230 2.3638 0.1342 0 1
8.6261 -4.1836 1.2554 0.5346 0 9
8.7879 -3.8343 1.2555 0.7381 0 9
14.9980 -5.8389 2.1075 0.1651 0 1
14.3262 -4.9247 1.9837 0.1749 0 25
14.1980 -4.2515 1.9408 0.1788 0 25
14.0905 -3.6097 1.9047 0.1822 0 25
14.0016 -2.9935 1.8749 0.1851 0 25
13.9301 -2.3980 1.8510 0.1875 0 25
14.4313 -1.8913 1.9059 0.1912 0 1
14.4340 -1.3049 1.8978 0.1920 0 1
14.4516 -0.7232 1.8948 0.1923 0 1
14.4841 -0.1426 1.8968 0.1921 0 1
14.6019 0.4428 1.9130 0.1893 0 1
14.7503 1.0412 1.9363 0.1871 0 1
14.9187 1.6572 1.9656 0.1843 0 1
15.1023 2.2946 2.0003 0.1818 0 1
15.2888 2.9553 2.0391 0.1784 0 1
15.5024 3.6478 2.0855 0.1734 0 1
15.7063 4.3681 2.1348 0.1820 0 1
15.7740 5.0774 2.1699 0.1791 0 1
15.8532 5.8151 2.2112 0.1779 0 1
14.0585 5.8072 1.9918 0.5344 0 14
12.4573 5.7416 1.7962 0.3870 0 14
11.1393 5.6870 1.6378 0.4142 0 14
10.3993 5.8470 1.5622 0.6005 0 14
10.2497 6.3174 1.5766 0.4259 0 14
10.2268 6.8847 1.6144 0.3424 0 14
16.2609 11.9227 2.6404 0.1311 0 2
16.7516 13.3487 2.8049 0.1234 0 2
16.8744 14.5918 2.9212 0.6435 0 3
15.6900 14.7091 2.8162 0.6679 0 0
14.4619 14.6922 2.6996 0.6967 0 0
13.3298 14.6767 2.5962 0.7245 0 0
12.1735 14.5358 2.4828 0.7558 0 3
11.3315 14.6904 2.4295 0.7809 0 3
10.4207 14.6937 2.3589 0.8048 0 3
6.0093 9.2383 1.4431 0.5595 0 8
8.7327 14.6827 2.2370 0.8487 0 3
7.9499 14.6776 2.1858 0.8685 0 3
7.5519 15.3876 2.2446 0.4614 0 3
7.4780 16.9228 2.4227 0.4273 0 3
7.3962 18.7387 2.6380 0.3926 0 3
8.3919 24.0464 3.3351 0.8111 0 3
7.3406 24.1042 3.2995 0.9464 0 3
6.3999 24.5052 3.3165 0.9575 0 3
2.8401 12.9869 1.7408 0.2813 0 9
2.6455 14.9501 1.9881 0.6559 0 9
2.3827 17.5436 2.3184 0.0754 0 9
2.2536 23.6930 3.1166 0.1495 0 9
0.8967 16.3844 2.1487 0.8353 0 9
0.2205 15.1903 1.9893 0.1152 0 9
-0.4010 15.6366 2.0483 0.7700 0 9
-1.0152 15.4063 2.0218 0.1414 0 9
-1.6784 15.7813 2.0782 0.7733 0 9
2.5038 -18.1928 2.4048 0.7534 0 22
4.4099 -24.6645 3.2810 0.7577 0 6
7.0384 -31.9118 4.2792 0.2021 0 3
7.6174 -28.9559 3.9207 0.2740 0 3
9.0960 -29.6784 4.0648 0.9501 0 3
10.3857 -29.5901 4.1065 0.9379 0 3
11.7460 -29.6048 4.1707 0.9242 0 3
12.5787 -28.3292 4.0589 0.4167 0 3
9.3614 -18.9891 2.7723 0.9565 0 9
15.5767 -28.6366 4.2688 0.8743 0 3
9.6560 -16.1695 2.4662 0.7935 0 9
19.3332 -29.6059 4.6302 0.8339 0 3
21.0537 -29.5749 4.7539 0.8117 0 3
20.9037 -27.0005 4.4714 0.7639 0 3
21.3395 -25.3884 4.3429 0.0797 0 2
19.9566 -21.8947 3.8793 0.0892 0 2
18.8769 -19.1093 3.5174 0.0984 0 2
18.0134 -16.8271 3.2279 0.1072 0 2
18.2830 -15.7531 3.1602 0.1267 0 2
17.7386 -14.0837 2.9659 0.1427 0 1
17.4201 -12.7250 2.8249 0.1422 0 1
17.0632 -11.4428 2.6903 0.1308 0 1
16.6042 -10.1933 2.5513 0.1299 0 1
16.1360 -9.0346 2.4216 0.1310 0 1
15.6750 -7.9675 2.3026 0.1378 0 1
8.6502 -3.9683 1.2462 0.9275 0 9
15.0223 -6.1741 2.1268 0.1641 0 24
14.3935 -5.2506 2.0063 0.1730 0 25
14.2550 -4.5605 1.9599 0.1771 0 25
14.1381 -3.9049 1.9207 0.1807 0 25
14.0407 -3.2775 1.8880 0.1838 0 25
13.9613 -2.6729 1.8614 0.1864 0 25
14.3974 -2.1613 1.9064 0.1881 0 2
14.4309 -1.5770 1.9009 0.1917 0 1
14.4416 -0.9936 1.8956 0.1922 0 1
14.4671 -0.4129 1.8952 0.1923 0 1
14.5391 0.1690 1.9040 0.1902 0 1
14.6788 0.7608 1.9247 0.1882 0 1
14.8377 1.3680 1.9512 0.1856 0 1
15.0182 1.9955 1.9839 0.1822 0 1
15.1990 2.6443 2.0202 0.1801 0 1
15.3986 3.3209 2.0628 0.1763 0 1
15.6299 4.0337 2.1138 0.1711 0 1
15.7401 4.7437 2.1527 0.1805 0 1
15.8138 5.4676 2.1911 0.1795 0 1
15.8893 6.2185 2.2343 0.2022 0 1
13.0989 5.7430 1.8729 0.3741 0 14
11.7419 5.7206 1.7104 0.3867 0 14
10.6594 5.7337 1.5849 0.3494 0 14
10.3058 6.0892 1.5675 0.4755 0 14
10.2223 6.6074 1.5939 0.3860 0 14
10.3271 7.2791 1.6545 0.3148 0 14
16.5126 12.6611 2.7248 0.1270 0 2
17.0518 14.1969 2.9055 0.1191 0 2
10.1239 9.1416 1.7862 0.5978 0 20
15.0206 14.6999 2.7521 0.6834 0 0
13.8457 14.6838 2.6428 0.7117 0 0
-0.0694 16.6309 1.9906 0.1944 0 9
-0.6750 15.2164 1.8231 0.5554 0 9
-2.0354 16.2447 1.9596 0.3657 0 9
-1.7650 -38.9122 4.6623 0.4983 0 6
2.8840 -18.4023 2.2295 0.5882 0 22
3.7927 -19.1410 2.3356 0.6253 0 22
7.7326 -32.1872 3.9622 0.9672 0 3
7.8172 -27.6079 3.4344 0.9573 0 3
9.6792 -29.5954 3.7270 0.9459 0 3
7.2063 -19.3656 2.4732 0.1033 0 9
12.3920 -29.6067 3.8416 0.3951 0 3
12.8660 -27.5752 3.6421 0.9027 0 3
14.7921 -28.6425 3.8585 0.8854 0 3
16.2753 -28.6328 3.9421 0.8666 0 3
17.8267 -28.6227 4.0360 0.8464 0 3
19.0798 -28.0580 4.0612 0.0645 0 3
19.7723 -26.7041 3.9771 0.0750 0 3
19.4802 -24.2131 3.7196 0.0852 0 2
18.3443 -21.0146 3.3388 0.0949 0 2
17.4484 -18.4386 3.0385 0.1042 0 2
16.7260 -16.3107 2.7963 0.1133 0 2
16.8887 -15.1954 2.7192 0.1415 0 1
16.6006 -13.7714 2.5817 0.1386 0 1
16.3239 -12.4703 2.4587 0.1455 0 1
6.0082 -4.2189 0.8787 0.9889 14 6
15.5544 -10.0147 2.2143 0.1403 0 1
15.1346 -8.9060 2.1019 0.1372 0 1
14.7454 -7.8978 2.0021 0.1440 0 1
8.6550 -4.1976 1.1513 0.5155 0 9
8.8098 -3.8438 1.1505 0.5626 0 9
13.6317 -5.3069 1.7509 0.1814 0 25
13.5091 -4.6438 1.7098 0.1858 0 25
13.4048 -4.0139 1.6748 0.1897 0 25
13.3171 -3.4116 1.6454 0.1931 0 25
13.2445 -2.8317 1.6211 0.1960 0 25
13.1860 -2.2699 1.6015 0.1984 0 2
13.6746 -1.7921 1.6507 0.2021 0 1
5.6769 -0.5132 0.6822 0.1743 25 14
5.5885 -0.2797 0.6697 0.1775 25 14
5.4827 -0.0540 0.6563 0.1567 25 14
5.5440 0.1681 0.6639 0.1549 25 14
5.7025 0.4025 0.6842 0.1738 25 14
14.0920 1.5654 1.6971 0.1878 0 1
14.2617 2.1669 1.7266 0.1858 0 1
14.4287 2.7890 1.7590 0.1816 0 1
14.6141 3.4387 1.7970 0.1853 0 1
14.8196 4.1215 1.8411 0.1798 0 1
14.8931 4.7939 1.8727 0.1899 0 1
14.9598 5.4874 1.9072 0.1865 0 1
14.1046 5.8262 1.8266 0.8003 0 14
12.4791 5.7517 1.6447 0.3841 0 14
11.1496 5.6923 1.4984 0.4349 0 14
10.1934 5.7312 1.3997 0.6615 0 14
9.8261 6.0563 1.3816 0.6228 0 14
9.7477 6.5621 1.4065 0.8083 0 14
9.8197 7.1999 1.4574 0.4491 0 14
15.4283 12.2943 2.3613 0.1341 0 2
15.8807 13.7325 2.5129 0.1260 0 2
15.5551 14.5826 2.5520 0.6742 0 3
14.4609 14.6912 2.4674 0.6978 0 0
13.3289 14.6757 2.3729 0.7255 0 0
12.2318 14.6053 2.2802 0.6473 0 3
11.3384 14.6993 2.2220 0.7821 0 3
10.4204 14.6933 2.1561 0.8060 0 3
6.0477 9.2972 1.3275 0.5567 0 8
8.7324 14.6823 2.0447 0.8499 0 3
7.9497 14.6772 1.9979 0.8698 0 3
7.6104 15.5068 2.0675 0.4585 0 3
7.5435 17.0712 2.2339 0.4244 0 3
7.4636 18.9096 2.4333 0.3896 0 3
7.5809 21.7226 2.7538 0.6011 0 3
7.3405 24.1036 3.0158 0.9477 0 3
6.3945 24.4848 3.0289 0.7013 0 3
1.6138 16.9671 2.0400 0.2957 0 9
0.9566 17.4794 2.0953 0.1332 0 9
0.3270 22.5233 2.6962 0.7550 0 6
-0.4198 16.3699 1.9600 0.2768 0 9
-1.0058 15.2647 1.8310 0.2662 0 9
2.4812 -18.0283 2.1782 0.5047 0 22
4.4119 -24.6761 3.0004 0.8770 0 6
4.3094 -19.5385 2.3948 0.5309 0 22
7.7173 -29.3357 3.6307 0.2708 0 3
9.0962 -29.6792 3.7155 0.9514 0 3
10.3860 -29.5908 3.7536 0.9392 0 3
11.7463 -29.6055 3.8123 0.9255 0 3
12.6867 -28.5725 3.7419 0.4137 0 3
13.8683 -28.1310 3.7540 0.6448 0 3
10.0151 -18.4121 2.5087 0.3813 0 9
17.0344 -28.5251 3.9767 0.8560 0 3
19.2770 -29.5198 4.2199 0.9835 0 3
19.3501 -27.1819 3.9936 0.0701 0 3
20.1182 -25.9858 3.9335 0.0805 0 2
18.8379 -22.4121 3.5043 0.0904 0 2
17.8404 -19.5729 3.1699 0.0999 0 2
17.0438 -17.2537 2.9028 0.1091 0 2
17.2101 -16.0766 2.8189 0.6947 0 2
16.7335 -14.4180 2.6438 0.1388 0 1
16.4467 -13.0580 2.5136 0.1423 0 1
16.1565 -11.8019 2.3948 0.1267 0 1
15.7244 -10.5451 2.2661 0.1371 0 1
15.3365 -9.4150 2.1540 0.1339 0 1
14.9194 -8.3535 2.0466 0.1409 0 1
14.5799 -7.4109 1.9576 0.1605 0 1
8.6463 -3.9665 1.1386 0.9399 0 9
14.1689 -5.8233 1.8335 0.1759 0 1
13.5638 -4.9479 1.7281 0.1838 0 25
13.4512 -4.3033 1.6904 0.1879 0 25
13.3559 -3.6888 1.6585 0.1915 0 25
13.2765 -3.0990 1.6318 0.1947 0 25
13.2115 -2.5293 1.6100 0.1973 0 25
13.6835 -2.0541 1.6562 0.1999 0 1
13.6761 -1.4945 1.6467 0.2026 0 1
5.6285 -0.3872 0.6753 0.1761 25 14
5.5384 -0.1581 0.6632 0.1551 25 14
5.4573 0.0634 0.6532 0.1574 25 14
5.6332 0.2920 0.6752 0.1761 25 14
5.7862 0.5335 0.6955 0.1710 25 14
14.1818 1.8843 1.7124 0.1861 0 1
14.3481 2.4962 1.7432 0.1832 0 1
14.5270 3.1329 1.7787 0.1872 0 1
14.7204 3.7990 1.8196 0.1830 0 1
14.8676 4.4808 1.8586 0.1914 0 1
14.9266 5.1608 1.8904 0.1881 0 1
15.0012 5.8709 1.9281 0.1867 0 1
13.1552 5.7677 1.7193 0.3378 0 14
11.7415 5.7204 1.5633 0.3896 0 14
10.5854 5.6939 1.4387 0.4967 0 14
9.9392 5.8726 1.3818 0.3042 0 14
9.7751 6.3184 1.3931 0.7539 0 14
9.7579 6.8780 1.4289 0.7956 0 14
15.2426 11.6873 2.2990 0.1378 0 2
15.6604 13.0386 2.4391 0.1299 0 2
10.1288 9.1459 1.6334 0.6409 0 20
14.8965 14.5784 2.4948 0.6988 0 3
13.8448 14.6827 2.4155 0.7127 0 0
-0.0635 15.2115 1.6499 0.9444 0 9
-1.0700 24.1213 2.6189 0.3701 0 9
-2.1263 25.1072 2.7330 0.4729 0 9
-2.0994 16.7561 1.8317 0.1659 0 9
1.3602 -38.8640 4.2180 0.9995 0 22
2.8719 -18.3247 2.0119 0.6378 0 22
6.4628 -32.6158 3.6065 0.9768 0 3
7.7493 -32.2567 3.5983 0.4321 0 3
7.8728 -27.8042 3.1344 0.2846 0 3
9.6794 -29.5962 3.3775 0.9471 0 3
11.0188 -29.6110 3.4270 0.9342 0 3
12.4137 -29.6585 3.4874 0.9197 0 3
12.8664 -27.5759 3.3006 0.9038 0 3
14.7925 -28.6432 3.4967 0.8864 0 3
16.2757 -28.6336 3.5725 0.8676 0 3
17.7843 -28.5546 3.6488 0.8474 0 3
18.3841 -27.0351 3.5462 0.7934 0 3
18.3766 -24.8192 3.3497 0.0858 0 2
17.3295 -21.5399 2.9986 0.0958 0 2
16.5056 -18.9083 2.7224 0.1056 0 2
15.8423 -16.7414 2.5000 0.1150 0 2
16.1603 -15.7590 2.4483 0.1359 0 2
15.6622 -14.0918 2.2852 0.1456 0 1
15.4091 -12.7829 2.1716 0.1423 0 1
15.1129 -11.5452 2.0628 0.1334 0 1
6.0262 -4.2316 0.7987 0.9871 14 6
14.4153 -9.2813 1.8596 0.1445 0 1
14.0621 -8.2749 1.7698 0.1518 0 1
13.7861 -7.3840 1.6963 0.1690 0 1
8.6898 -4.2145 1.0476 0.5246 0 9
8.8344 -3.8546 1.0455 0.7567 0 9
12.8813 -5.0148 1.4993 0.1922 0 25
12.7820 -4.3939 1.4660 0.1966 0 25
12.6973 -3.8021 1.4377 0.2005 0 25
12.6259 -3.2345 1.4137 0.2039 0 25
12.5667 -2.6868 1.3939 0.2068 0 25
12.7114 -2.1882 1.3990 0.2129 0 2
12.9432 -1.6963 1.4159 0.2120 0 24
5.3507 -0.4837 0.5827 0.1851 25 14
5.2400 -0.2622 0.5691 0.1640 25 14
5.1510 -0.0507 0.5587 0.2411 25 14
5.1893 0.1574 0.5631 0.2392 25 14
5.3637 0.3786 0.5832 0.1600 25 14
5.5164 0.6128 0.6020 0.1792 25 14
13.4904 2.0497 1.4801 0.1954 0 1
13.6345 2.6355 1.5063 0.1933 0 1
13.7956 3.2461 1.5372 0.1885 0 1
13.9776 3.8873 1.5736 0.1842 0 1
14.1008 4.5389 1.6067 0.1927 0 1
14.1517 5.1909 1.6350 0.1948 0 1
14.2160 5.8723 1.6683 0.1909 0 1
12.4736 5.7491 1.4898 0.3530 0 14
11.1526 5.6938 1.3582 0.4354 0 14
10.1813 5.7244 1.2669 0.5929 0 14
9.8799 6.0895 1.2588 0.9316 0 14
9.8014 6.5983 1.2816 0.8153 0 14
9.9204 7.2737 1.3343 0.4319 0 14
14.3016 11.3964 1.9835 0.1449 0 2
14.6522 12.6702 2.1011 0.1368 0 2
15.0670 14.1250 2.2401 0.1283 0 2
14.3457 14.5741 2.2181 0.7038 0 3
13.3279 14.6747 2.1502 0.7265 0 0
12.2852 14.6691 2.0754 0.6446 0 3
11.3380 14.6988 2.0135 0.7831 0 3
10.4201 14.6929 1.9538 0.8070 0 3
6.0864 9.3567 1.2107 0.5539 0 8
8.7322 14.6819 1.8529 0.8510 0 3
7.9495 14.6768 1.8105 0.8709 0 3
7.6697 15.6275 1.8882 0.4556 0 3
7.6070 17.2149 2.0414 0.4214 0 3
7.5321 19.0831 2.2253 0.3866 0 3
7.9159 22.6825 2.6058 0.9940 0 3
7.3403 24.1030 2.7329 0.9489 0 3
3.8131 14.6004 1.6368 0.4000 0 9
2.4350 13.7604 1.5157 0.4244 0 9
2.1974 16.1799 1.7711 0.9976 0 9
1.4941 15.7085 1.7115 0.5221 0 9
0.7483 13.6735 1.4853 0.6639 0 9
0.2398 16.5208 1.7921 0.4938 0 9
-0.3920 15.2852 1.6585 0.2813 0 9
0.6325 -38.8075 4.2099 0.9630 0 22
2.4774 -18.0012 1.9709 0.7447 0 22
4.4310 -24.7827 2.7307 0.9625 0 6
8.3691 -37.9452 4.2147 0.0342 0 3
7.8196 -29.7246 3.3338 0.2676 0 3
9.0964 -29.6799 3.3671 0.9526 0 3
10.4142 -29.6714 3.4108 0.9404 0 3
11.7466 -29.6063 3.4548 0.9266 0 3
12.7963 -28.8193 3.4202 0.4107 0 3
13.7569 -27.9051 3.3746 0.5730 0 3
10.0158 -18.4133 2.2736 0.8726 0 9
17.0515 -28.5537 3.6073 0.5093 0 3
11.2149 -17.1739 2.2248 0.7743 0 20
18.8912 -26.5373 3.5333 0.8126 0 3
17.7842 -22.9711 3.1510 0.0912 0 2
16.8659 -20.0660 2.8432 0.1011 0 2
16.1340 -17.7008 2.5978 0.1106 0 2
15.9065 -16.1023 2.4550 0.7238 0 2
15.7739 -14.7350 2.3413 0.1387 0 1
15.5298 -13.3808 2.2235 0.1460 0 1
15.2732 -12.1263 2.1153 0.1461 0 1
14.9173 -10.8967 2.0037 0.1407 0 1
14.5954 -9.7879 1.9061 0.1479 0 1
14.2202 -8.7297 1.8099 0.1485 0 1
13.8928 -7.7787 1.7270 0.1556 0 1
13.6856 -6.9563 1.6652 0.1728 0 1
8.6956 -3.9891 1.0377 0.9745 0 9
12.9329 -5.3153 1.5166 0.1900 0 25
12.8263 -4.6789 1.4809 0.1946 0 25
12.7350 -4.0742 1.4503 0.1987 0 25
12.6576 -3.4959 1.4243 0.2024 0 25
12.5928 -2.9395 1.4026 0.2055 0 25
12.5398 -2.4007 1.3849 0.2081 0 25
12.9964 -1.9510 1.4255 0.2107 0 1
12.9980 -1.4204 1.4182 0.2134 0 1
5.2934 -0.3642 0.5755 0.1621 25 14
5.1864 -0.1480 0.5628 0.2393 25 14
5.1352 0.0597 0.5570 0.2347 25 14
5.2798 0.2736 0.5735 0.1627 25 14
5.4491 0.5024 0.5936 0.1818 25 14
13.4183 1.7829 1.4682 0.1969 0 1
13.5664 2.3602 1.4936 0.1949 0 1
13.7178 2.9584 1.5221 0.1904 0 1
13.8903 3.5848 1.5560 0.1863 0 1
14.0741 4.2417 1.5944 0.1942 0 1
14.1266 4.8842 1.6213 0.1964 0 1
14.1842 5.5512 1.6521 0.1927 0 1
13.2866 5.8253 1.5736 0.2281 0 14
11.7522 5.7256 1.4180 0.3803 0 14
10.5642 5.6825 1.3011 0.5290 0 14
9.9696 5.8905 1.2560 0.9447 0 14
9.8251 6.3507 1.2689 0.8880 0 14
9.8162 6.9190 1.3026 0.7322 0 14
14.1568 10.8547 1.9350 0.1485 0 2
14.4819 12.0574 2.0440 0.1406 0 2
10.1530 9.1678 1.4838 0.9483 0 20
14.8958 14.5777 2.2607 0.6906 0 3
13.8438 14.6817 2.1888 0.7137 0 0
-0.0626 14.9902 1.4581 0.2273 0 9
-0.7026 15.8383 1.5421 0.4075 0 9
-1.3840 16.3424 1.5953 0.7615 0 9
-0.2011 -38.8994 3.7837 0.9946 0 22
1.3618 -38.9073 3.7867 0.9951 0 22
8.4719 -42.7553 4.2396 0.0389 0 3
8.8370 -36.7843 3.6797 0.2436 0 3
7.9719 -28.1543 2.8462 0.2814 0 3
9.7058 -29.6767 3.0370 0.9482 0 3
11.0401 -29.6681 3.0791 0.9352 0 3
12.4140 -29.6592 3.1274 0.9208 0 3
12.9407 -27.7353 2.9769 0.4237 0 3
14.7929 -28.6440 3.1358 0.8874 0 3
16.2431 -28.5761 3.1972 0.8686 0 3
16.8354 -27.0311 3.0975 0.8223 0 3
17.3233 -25.4750 2.9965 0.0861 0 2
16.3634 -22.1002 2.6747 0.0965 0 2
15.6103 -19.4029 2.4222 0.1065 0 2
15.0052 -17.1895 2.2194 0.1163 0 2
15.2320 -16.0964 2.1555 0.7400 0 2
14.8022 -14.4346 2.0110 0.1450 0 1
14.5566 -13.0971 1.9046 0.1505 0 1
14.3397 -11.8958 1.8123 0.1384 0 1
14.0186 -10.7092 1.7159 0.1462 0 1
6.0471 -4.2463 0.7187 0.8965 14 6
13.4319 -8.6482 1.5539 0.1552 0 1
13.1462 -7.7359 1.4837 0.1626 0 1
12.9739 -6.9489 1.4316 0.1798 0 1
8.7408 -4.2393 0.9449 0.5725 0 9
8.8592 -3.8654 0.9402 0.8307 0 9
12.2108 -4.7538 1.2745 0.2030 0 25
12.1307 -4.1700 1.2477 0.2074 0 25
12.0622 -3.6119 1.2247 0.2113 0 25
12.0044 -3.0753 1.2053 0.2147 0 25
11.9564 -2.5563 1.1893 0.2176 0 25
12.3874 -2.1324 1.2226 0.2206 0 1
12.3289 -1.6158 1.2095 0.2222 0 24
5.0851 -0.4597 0.4966 0.2435 25 14
5.0088 -0.2507 0.4878 0.2479 25 14
4.9332 -0.0486 0.4799 0.2445 25 14
4.9721 0.1508 0.4839 0.2425 25 14
5.0857 0.3590 0.4959 0.2439 25 14
5.2062 0.5783 0.5095 0.2374 25 14
12.7976 1.9444 1.2591 0.2062 0 1
12.9268 2.4987 1.2806 0.2041 0 1
13.0639 3.0740 1.3054 0.2002 0 1
13.2181 3.6761 1.3345 0.1950 0 1
13.3663 4.3024 1.3658 0.2036 0 1
13.4176 4.9217 1.3901 0.2000 0 1
13.4697 5.5640 1.4175 0.2017 0 1
12.5965 5.8058 1.3491 0.2600 0 14
11.2665 5.7519 1.2304 0.5817 0 14
10.1849 5.7265 1.1365 0.6492 0 14
9.9114 6.1089 1.1325 0.9743 0 14
9.8366 6.6220 1.1534 0.8191 0 14
9.9213 7.2744 1.1966 0.4876 0 14
13.3305 10.6226 1.6580 0.1556 0 2
13.6025 11.7625 1.7492 0.1475 0 2
13.9216 13.0512 1.8561 0.1390 0 2
14.2990 14.5267 1.9827 0.1301 0 2
13.2296 14.5664 1.9140 0.7323 0 3
12.3151 14.7048 1.8656 0.7587 0 3
11.3377 14.6984 1.8056 0.7840 0 3
10.4198 14.6924 1.7520 0.8080 0 3
6.1255 9.4169 1.0927 0.5510 0 8
8.7319 14.6815 1.6615 0.8520 0 3
7.9493 14.6764 1.6235 0.8719 0 3
7.7297 15.7499 1.7065 0.4525 0 3
7.6714 17.3607 1.8462 0.4183 0 3
7.5408 19.1051 1.9978 0.9232 0 3
8.4138 24.1093 2.4838 0.9374 0 3
7.3401 24.1024 2.4507 0.9501 0 3
3.6041 13.8002 1.3873 0.2774 0 9
3.1895 14.5844 1.4521 0.7037 0 9
2.5111 14.1902 1.4017 0.8768 0 9
1.8867 13.8921 1.3637 0.2307 0 9
1.4587 15.3363 1.4985 0.7809 0 9
0.7828 14.3037 1.3934 0.1773 0 9
0.2203 15.1742 1.4761 0.5923 0 9
-0.4262 16.6181 1.6169 0.5401 0 9
-1.6952 25.7260 2.5077 0.4658 0 9
-1.7760 16.6994 1.6335 0.8942 0 9
2.1977 -38.8883 3.7886 0.9894 0 22
2.4660 -17.9181 1.7593 0.6275 0 22
3.3271 -18.6083 1.8387 0.9882 0 6
9.3415 -42.3543 4.2187 0.9735 0 3
7.9244 -30.1229 3.0297 0.2644 0 3
9.0794 -29.6243 3.0138 0.9537 0 3
10.4145 -29.6721 3.0588 0.9414 0 3
11.7469 -29.6071 3.0982 0.9277 0 3
12.9108 -29.0773 3.0946 0.4076 0 3
13.6813 -27.7518 3.0096 0.5989 0 3
10.0260 -18.4320 2.0409 0.9544 0 9
16.4435 -27.5356 3.1196 0.8241 0 3
11.2262 -17.1912 1.9971 0.8459 0 20
16.7798 -23.5713 2.8143 0.0917 0 2
15.9394 -20.5883 2.5326 0.1019 0 2
15.2712 -18.1687 2.3086 0.1118 0 2
14.7287 -16.1590 2.1267 0.1213 0 2
14.9382 -15.1222 2.0676 0.1410 0 1
14.6678 -13.7018 1.9524 0.1421 0 1
14.4416 -12.4432 1.8542 0.1546 0 1
14.1619 -11.2439 1.7589 0.1426 0 1
13.8675 -10.1299 1.6704 0.1513 0 1
13.5704 -9.1005 1.5893 0.1507 0 1
13.2744 -8.1491 1.5151 0.1592 0 1
13.0476 -7.3054 1.4545 0.1769 0 1
12.8949 -6.5544 1.4070 0.1829 0 1
8.7266 -4.0033 0.9339 0.9774 0 9
12.2524 -5.0356 1.2885 0.2008 0 25
12.1664 -4.4382 1.2597 0.2054 0 25
12.0927 -3.8687 1.2350 0.2095 0 25
12.0300 -3.3226 1.2139 0.2132 0 25
11.9775 -2.7958 1.1963 0.2163 0 25
11.9345 -2.2849 1.1819 0.2189 0 2
12.3793 -1.8583 1.2176 0.2232 0 1
5.1227 -0.5598 0.5012 0.2413 25 14
5.0436 -0.3470 0.4917 0.2459 25 14
4.9699 -0.1418 0.4836 0.2426 25 14
4.9182 0.0572 0.4784 0.2453 25 14
5.0328 0.2608 0.4902 0.2467 25 14
5.1489 0.4747 0.5029 0.2404 25 14
12.7344 1.6920 1.2495 0.2078 0 1
12.8679 2.2387 1.2704 0.2057 0 1
12.9982 2.8032 1.2934 0.2021 0 1
13.1435 3.3920 1.3203 0.1971 0 1
13.3085 4.0109 1.3520 0.1925 0 1
13.3923 4.6303 1.3783 0.2017 0 1
13.4464 5.2624 1.4045 0.2035 0 1
13.4996 5.9187 1.4337 0.1994 0 1
11.7689 5.7337 1.2734 0.4440 0 14
10.5509 5.6754 1.1653 0.5560 0 14
9.9907 5.9030 1.1287 0.8798 0 14
9.8590 6.3726 1.1419 0.8819 0 14
9.8493 6.9424 1.1721 0.7615 0 14
13.2174 10.1345 1.6200 0.1593 0 2
13.4706 11.2154 1.7049 0.1513 0 2
13.7666 12.4307 1.8042 0.1430 0 2
14.1152 13.8138 1.9210 0.1343 0 2
13.7382 14.5697 1.9478 0.7196 0 3
-0.0661 15.8469 1.3643 0.7640 0 9
-0.7385 16.6478 1.4347 0.1957 0 9
-2.1193 25.0243 2.1621 0.1261 0 9
-35.7991 -34.1950 4.2621 0.9266 0 20
-0.2011 -38.8979 3.3489 0.9933 0 22
1.3614 -38.8974 3.3508 0.9848 0 22
4.4827 -38.7066 3.3546 0.9990 0 6
6.6779 -42.6101 3.7132 0.9855 0 3
8.8687 -44.7582 3.9283 0.2043 0 3
8.9892 -37.4176 3.3130 0.9736 0 3
8.0733 -28.5125 2.5512 0.2782 0 3
9.7060 -29.6775 2.6882 0.9491 0 3
11.0403 -29.6689 2.7254 0.9361 0 3
12.4144 -29.6600 2.7682 0.9217 0 3
13.0496 -27.9686 2.6571 0.4206 0 3
14.5135 -28.1029 2.7231 0.5860 0 3
15.4884 -27.2485 2.6984 0.0849 0 3
16.3057 -26.1805 2.6554 0.0861 0 2
15.4332 -22.6956 2.3629 0.0968 0 2
14.7509 -19.9224 2.1342 0.1071 0 2
14.2041 -17.6551 1.9508 0.1172 0 2
14.0725 -16.1211 1.8423 0.7672 0 2
14.0239 -14.8198 1.7566 0.1470 0 1
13.7797 -13.4375 1.6570 0.1533 0 1
13.5822 -12.2204 1.5730 0.1523 0 1
13.3204 -11.0502 1.4900 0.1491 0 1
13.0769 -9.9898 1.4168 0.1581 0 1
6.0706 -4.2628 0.6386 0.8940 14 6
12.5709 -8.0938 1.2872 0.1649 0 1
12.3841 -7.2874 1.2371 0.1843 0 1
12.2532 -6.5629 1.1967 0.1868 0 1
8.7685 -4.2527 0.8390 0.4895 0 9
8.8801 -3.8745 0.8341 0.7611 0 9
11.6079 -4.5190 1.0724 0.2138 0 25
11.5437 -3.9682 1.0509 0.2182 0 25
11.4888 -3.4402 1.0325 0.2221 0 25
11.4423 -2.9313 1.0169 0.2255 0 25
11.4037 -2.4381 1.0040 0.2284 0 25
11.8180 -2.0344 1.0324 0.2292 0 1
11.8151 -1.5484 1.0259 0.2312 0 1
4.8769 -0.4409 0.4216 0.2541 25 14
4.8054 -0.2405 0.4142 0.2510 25 14
4.7317 -0.0466 0.4074 0.2552 25 14
4.7687 0.1446 0.4107 0.2531 25 14
4.8790 0.3444 0.4211 0.2545 25 14
4.9890 0.5542 0.4322 0.2479 25 14
12.1825 1.8510 1.0609 0.2184 0 1
12.2903 2.3757 1.0777 0.2149 0 1
12.4088 2.9198 1.0975 0.2110 0 1
12.5399 3.4875 1.1206 0.2067 0 1
12.6863 4.0835 1.1474 0.2009 0 1
12.7434 4.6744 1.1686 0.2108 0 1
12.7904 5.2834 1.1914 0.2068 0 1
12.8410 5.9185 1.2173 0.2081 0 1
11.2145 5.7254 1.0840 0.4732 0 14
10.1963 5.7328 1.0071 0.6492 0 14
9.8634 6.0793 0.9975 0.9600 0 14
9.7861 6.5880 1.0156 0.7227 0 14
9.8771 7.2420 1.0544 0.5113 0 14
12.4845 9.9484 1.3743 0.1663 0 2
12.6950 10.9777 1.4449 0.1582 0 2
12.9399 12.1309 1.5270 0.1497 0 2
13.2272 13.4378 1.6233 0.1408 0 2
13.2085 14.5432 1.6914 0.7331 0 3
12.3147 14.7043 1.6513 0.7595 0 3
11.3373 14.6979 1.5981 0.7848 0 3
10.4195 14.6920 1.5507 0.8088 0 3
6.1651 9.4777 0.9734 0.5480 0 8
8.7317 14.6810 1.4706 0.8529 0 3
7.9491 14.6760 1.4369 0.8728 0 3
7.7906 15.8739 1.5223 0.4495 0 3
7.7368 17.5087 1.6480 0.4152 0 3
7.5406 19.1046 1.7683 0.9242 0 3
8.4136 24.1087 2.1984 0.9384 0 3
7.3490 24.1317 2.1718 0.3089 0 3
7.3770 28.2467 2.5134 0.2724 0 3
3.1901 14.5874 1.2856 0.0932 0 9
1.3716 14.4204 1.2471 0.4332 0 9
1.4561 26.6063 2.2940 0.2240 0 9
0.2071 14.2650 1.2282 0.6217 0 9
-0.4245 16.5534 1.4256 0.4482 0 9
-1.1154 16.9268 1.4604 0.9048 0 9
2.1983 -38.8978 3.3542 0.9926 0 22
8.5524 -47.8340 4.1835 0.8842 0 3
9.3414 -42.3537 3.7340 0.9743 0 3
8.0318 -30.5312 2.7180 0.2611 0 3
9.0796 -29.6250 2.6676 0.9546 0 3
10.4148 -29.6729 2.7074 0.9424 0 3
11.7695 -29.6642 2.7475 0.9286 0 3
13.0238 -29.3317 2.7630 0.4045 0 3
13.7163 -27.8227 2.6706 0.3614 0 3
10.0520 -18.4799 1.8111 0.9908 0 9
9.8937 -16.5676 1.6613 0.8930 0 20
15.8113 -24.2125 2.4896 0.0918 0 2
15.0489 -21.1398 2.2340 0.1023 0 2
14.4443 -18.6572 2.0314 0.1125 0 2
13.9546 -16.6022 1.8672 0.1224 0 2
14.3198 -15.7104 1.8301 0.1446 0 2
13.8801 -14.0510 1.7004 0.1392 0 1
13.6807 -12.7797 1.6118 0.1576 0 1
13.4496 -11.5884 1.5284 0.1454 0 1
13.1856 -10.4688 1.4495 0.1545 0 1
12.9386 -9.4513 1.3795 0.1539 0 1
12.6798 -8.5033 1.3144 0.1615 0 1
12.4510 -7.6436 1.2578 0.1813 0 1
12.3122 -6.8937 1.2148 0.1877 0 1
12.1423 -6.1718 1.1727 0.1960 0 24
8.7558 -4.0167 0.8294 0.7432 0 9
11.6411 -4.7844 1.0836 0.2116 0 25
11.5724 -4.2215 1.0605 0.2162 0 25
11.5132 -3.6833 1.0407 0.2203 0 25
11.4629 -3.1660 1.0238 0.2239 0 25
11.4207 -2.6659 1.0097 0.2271 0 25
11.5051 -2.2027 1.0085 0.2350 0 2
11.8147 -1.7736 1.0286 0.2313 0 1
4.9111 -0.5367 0.4253 0.2519 25 14
4.8391 -0.3329 0.4176 0.2566 25 14
4.7654 -0.1360 0.4104 0.2533 25 14
4.7191 0.0549 0.4063 0.2559 25 14
4.8277 0.2502 0.4162 0.2498 25 14
4.9368 0.4552 0.4268 0.2510 25 14
12.1355 1.6124 1.0540 0.2198 0 1
12.2388 2.1293 1.0695 0.2151 0 1
12.3521 2.6639 1.0879 0.2129 0 1
12.4772 3.2201 1.1094 0.2087 0 1
12.6157 3.8021 1.1344 0.2041 0 1
12.7248 4.3996 1.1592 0.2125 0 1
12.7673 4.9966 1.1804 0.2087 0 1
12.8197 5.6206 1.2051 0.2044 0 1
11.8423 5.7695 1.1341 0.2719 0 14
10.6405 5.7236 1.0402 0.8531 0 14
9.9618 5.8859 0.9962 0.9604 0 14
9.8111 6.3416 1.0058 0.6723 0 14
9.7961 6.9049 1.0318 0.6779 0 14
12.3966 9.5051 1.3449 0.1700 0 2
12.5931 10.4848 1.4108 0.1620 0 2
12.8212 11.5771 1.4872 0.1537 0 2
13.0877 12.8082 1.5766 0.1450 0 2
13.4016 14.2128 1.6818 0.1359 0 2
-0.0624 14.9549 1.1207 0.9580 0 9
-1.1478 25.8756 1.9410 0.8510 0 9
-1.3350 15.7629 1.1855 0.2263 0 9
-30.6283 17.6400 2.6487 0.7922 0 3
-35.5605 -33.9671 3.6853 0.8749 0 20
-0.2012 -38.9016 2.9153 0.9955 0 22
4.8881 -24.6691 1.8846 0.7591 0 6
9.0327 -37.5990 2.8978 0.9712 0 3
8.1772 -28.8792 2.2493 0.2749 0 3
9.7063 -29.6782 2.3400 0.9499 0 3
11.0208 -29.6165 2.3681 0.9370 0 3
12.4147 -29.6608 2.4096 0.9225 0 3
13.1601 -28.2055 2.3325 0.4174 0 3
14.2330 -27.5598 2.3245 0.8622 0 3
15.0953 -26.5569 2.2892 0.8349 0 3
14.5278 -23.3260 2.0594 0.0967 0 2
13.9176 -20.4668 1.8548 0.1074 0 2
13.4300 -18.1384 1.6913 0.1178 0 2
13.0324 -16.1987 1.5580 0.1278 0 2
13.2781 -15.2109 1.5131 0.1486 0 1
13.0405 -13.7805 1.4218 0.1556 0 1
12.8636 -12.5442 1.3465 0.1551 0 1
12.6607 -11.3913 1.2763 0.1529 0 1
12.4443 -10.3234 1.2117 0.1610 0 1
12.2277 -9.3411 1.1531 0.1595 0 1
6.0967 -4.2811 0.5583 0.6656 14 6
11.8208 -7.6109 1.0536 0.1849 0 1
11.7016 -6.8859 1.0175 0.1915 0 1
11.5608 -6.1921 0.9828 0.2019 0 24
8.8593 -4.2967 0.7379 0.4903 0 9
8.8795 -3.8743 0.7260 0.8402 0 9
11.0627 -4.3068 0.8896 0.2245 0 25
11.0119 -3.7854 0.8726 0.2289 0 25
10.9683 -3.2844 0.8580 0.2328 0 25
10.9314 -2.8004 0.8457 0.2362 0 25
10.9007 -2.3306 0.8354 0.2391 0 2
11.2995 -1.9451 0.8592 0.2408 0 1
11.3012 -1.4811 0.8542 0.2427 0 1
4.6854 -0.4236 0.3526 0.2648 25 14
4.6141 -0.2309 0.3462 0.2616 25 14
4.5463 -0.0448 0.3407 0.2659 25 14
4.5816 0.1389 0.3435 0.2637 25 14
4.6848 0.3307 0.3520 0.2574 25 14
4.7895 0.5320 0.3611 0.2585 25 14
6.1985 0.9418 0.4698 0.2380 25 14
11.7135 2.2642 0.8941 0.2262 0 1
11.8143 2.7799 0.9095 0.2204 0 1
11.9279 3.3173 0.9278 0.2161 0 1
12.0530 3.8797 0.9489 0.2113 0 1
12.1364 4.4517 0.9688 0.2238 0 1
12.1694 5.0269 0.9867 0.2197 0 1
12.2102 5.6277 1.0075 0.2152 0 1
11.2379 5.7374 0.9456 0.9100 0 14
10.2127 5.7421 0.8780 0.8332 0 14
9.9087 6.1072 0.8723 0.9061 0 14
9.8523 6.6326 0.8900 0.8336 0 14
9.9589 7.3020 0.9254 0.3280 0 14
11.7409 9.3559 1.1250 0.1770 0 2
11.9024 10.2924 1.1792 0.1689 0 2
12.0892 11.3333 1.2418 0.1604 0 2
12.3065 12.5025 1.3147 0.1515 0 2
12.5615 13.8308 1.4001 0.1423 0 2
12.2887 14.6733 1.4343 0.1327 0 3
11.3370 14.6975 1.3910 0.7855 0 3
10.4192 14.6916 1.3497 0.8096 0 3
8.9851 13.8130 1.2349 0.8378 0 21
8.7314 14.6806 1.2800 0.8536 0 3
7.9488 14.6756 1.2507 0.8736 0 3
7.8523 15.9996 1.3356 0.4463 0 3
7.8032 17.6589 1.4468 0.4120 0 3
7.5923 19.2356 1.5497 0.3771 0 3
8.4134 24.1081 1.9135 0.9392 0 3
7.4340 24.4108 1.9123 0.3056 0 3
3.8370 14.6919 1.1379 0.1163 0 9
7.9229 36.2289 2.7791 0.8928 0 6
2.7508 15.5452 1.1831 0.4214 0 9
1.3879 14.5918 1.0984 0.1482 0 9
1.3949 25.4877 1.9129 0.8028 0 9
0.2311 15.9210 1.1932 0.9803 0 9
-0.4234 16.5093 1.2376 0.0724 0 9
-30.6441 18.4202 2.6794 0.7831 0 3
-30.6223 16.7717 2.6165 0.3489 0 3
-36.5947 -33.6698 3.7266 0.9233 0 20
0.6341 -38.9064 2.9160 0.9973 0 22
2.1983 -38.8982 2.9197 0.9624 0 22
9.3418 -42.3553 3.2504 0.9752 0 3
8.1419 -30.9499 2.3983 0.2578 0 3
9.0798 -29.6257 2.3221 0.9554 0 3
10.0701 -28.6910 2.2787 0.3211 0 3
11.7698 -29.6649 2.3917 0.9294 0 3
13.1385 -29.5901 2.4262 0.4013 0 3
13.6436 -27.6753 2.3123 0.7479 0 3
10.0882 -18.5465 1.5822 0.3611 0 9
9.8992 -16.5768 1.4469 0.9285 0 20
14.1838 -21.7204 1.9440 0.1025 0 2
13.6441 -19.1664 1.7631 0.1130 0 2
13.2078 -17.0600 1.6168 0.1232 0 2
13.5419 -16.1113 1.5772 0.7807 0 2
13.1498 -14.4268 1.4629 0.1410 0 1
12.9490 -13.1084 1.3808 0.1512 0 1
12.7730 -11.9318 1.3099 0.1594 0 1
12.5410 -10.8056 1.2406 0.1573 0 1
12.3408 -9.7980 1.1809 0.1652 0 1
12.1052 -8.8425 1.1234 0.1637 0 1
6.2085 -4.1635 0.5602 0.5608 14 7
11.7552 -7.2165 1.0337 0.1885 0 1
11.6440 -6.5195 1.0001 0.1948 0 1
11.5591 -5.8754 0.9717 0.2053 0 1
8.7790 -4.0274 0.7238 0.8945 0 9
11.0889 -4.5575 0.8984 0.2223 0 25
11.0346 -4.0253 0.8802 0.2269 0 25
10.9878 -3.5152 0.8645 0.2310 0 25
10.9478 -3.0237 0.8511 0.2347 0 25
10.9143 -2.5477 0.8399 0.2378 0 25
11.3040 -2.1641 0.8625 0.2390 0 1
6.0778 -0.9124 0.4606 0.9626 25 14
4.7166 -0.5154 0.3556 0.2625 25 14
4.6471 -0.3197 0.3491 0.2595 25 14
4.5773 -0.1306 0.3432 0.2640 25 14
4.5359 0.0527 0.3399 0.2665 25 14
4.6359 0.2403 0.3479 0.2604 25 14
4.7418 0.4372 0.3569 0.2616 25 14
11.5792 1.5385 0.8754 0.2306 0 1
11.6702 2.0303 0.8877 0.2274 0 1
11.7650 2.5373 0.9019 0.2242 0 1
11.8737 3.0643 0.9190 0.2181 0 1
11.9933 3.6145 0.9387 0.2135 0 1
12.1218 4.1911 0.9612 0.2217 0 1
12.1531 4.7563 0.9780 0.2217 0 1
12.1902 5.3446 0.9975 0.2173 0 1
12.2354 5.9610 1.0199 0.2125 0 1
10.6280 5.7169 0.9044 0.9850 0 14
10.0029 5.9102 0.8707 0.9481 0 14
9.8706 6.3801 0.8808 0.8948 0 14
9.8454 6.9396 0.9027 0.7030 0 14
11.6731 8.9504 1.1023 0.1807 0 2
11.8243 9.8447 1.1530 0.1727 0 2
11.9988 10.8345 1.2115 0.1644 0 2
12.2012 11.9406 1.2794 0.1557 0 2
12.4376 13.1904 1.3586 0.1466 0 2
-0.6548 14.7619 0.9428 0.1823 0 9
-30.7346 27.1376 2.6160 0.6846 0 3
-31.0210 25.2484 2.5520 0.3064 0 3
-31.2109 23.3843 2.4883 0.3142 0 3
-31.2863 21.5354 2.4234 0.7554 0 3
-31.4316 19.8243 2.3711 0.7765 0 3
-31.6856 18.2490 2.3330 0.3353 0 3
-31.8106 16.6574 2.2911 0.3414 0 3
-35.2809 -33.7000 3.1130 0.7948 0 20
-0.2012 -38.9093 2.4826 0.9997 0 22
5.5056 -47.5383 3.0534 0.9924 0 3
4.8879 -24.6681 1.6045 0.9480 0 6
9.0561 -37.6962 2.4736 0.2031 0 3
8.2835 -29.2548 1.9400 0.2716 0 3
9.7065 -29.6789 1.9924 0.9506 0 3
11.0112 -29.5906 2.0145 0.9376 0 3
12.3927 -29.6084 2.0480 0.9232 0 3
12.8570 -27.5559 1.9402 0.8805 0 3
13.7123 -26.5515 1.9067 0.8541 0 3
10.4911 -18.4568 1.3546 0.9413 0 9
13.1016 -21.0361 1.5812 0.1073 0 2
12.6750 -18.6394 1.4382 0.1180 0 2
12.3279 -16.6499 1.3218 0.1284 0 2
12.7178 -15.8077 1.2945 0.1517 0 2
12.3436 -14.1405 1.1976 0.1510 0 1
12.1823 -12.8737 1.1309 0.1615 0 1
12.0310 -11.7323 1.0722 0.1550 0 1
11.8416 -10.6543 1.0164 0.1635 0 1
11.6674 -9.6789 0.9672 0.1620 0 1
11.4674 -8.7603 0.9207 0.1702 0 1
6.1285 -4.3034 0.4778 0.6627 14 6
11.1819 -7.1995 0.8485 0.1956 0 1
11.0958 -6.5293 0.8214 0.2064 0 1
11.0270 -5.9062 0.7981 0.2139 0 1
8.9160 -4.3242 0.6323 0.2536 0 9
8.9056 -3.8856 0.6200 0.9022 0 9
10.5672 -4.1139 0.7235 0.2352 0 25
10.5277 -3.6189 0.7103 0.2396 0 25
10.4938 -3.1423 0.6989 0.2435 0 25
10.4650 -2.6809 0.6893 0.2469 0 25
10.4410 -2.2323 0.6812 0.2498 0 2
10.8265 -1.8637 0.7009 0.2520 0 1
5.3173 -0.6969 0.3422 0.0099 25 14
4.5040 -0.4072 0.2885 0.2675 25 14
4.4377 -0.2221 0.2835 0.2722 25 14
4.3652 -0.0430 0.2785 0.3181 25 14
4.4060 0.1336 0.2813 0.2003 25 14
4.5040 0.3179 0.2881 0.2679 25 14
4.6056 0.5116 0.2957 0.2611 25 14
6.0935 0.9258 0.3933 0.9606 25 14
11.1914 2.1633 0.7273 0.2369 0 1
11.2769 2.6535 0.7392 0.2331 0 1
11.3722 3.1627 0.7531 0.2268 0 1
11.4793 3.6950 0.7694 0.2220 0 1
11.5824 4.2485 0.7872 0.2307 0 1
11.6116 4.7964 0.8016 0.2304 0 1
11.6392 5.3646 0.8177 0.2259 0 1
11.2449 5.7409 0.8056 0.4209 0 14
10.2607 5.7691 0.7511 0.7219 0 14
9.9441 6.1291 0.7453 0.7603 0 14
9.8788 6.6504 0.7598 0.7250 0 14
11.2919 8.2793 0.8934 0.6085 0 2
11.0819 8.8307 0.9041 0.1877 0 2
11.2040 9.6885 0.9451 0.1796 0 2
11.3445 10.6352 0.9922 0.1710 0 2
11.5069 11.6901 1.0466 0.1622 0 2
11.6959 12.8777 1.1100 0.1529 0 2
11.9177 14.2302 1.1843 0.1433 0 2
11.3366 14.6971 1.1843 0.7862 0 3
10.4189 14.6911 1.1492 0.8102 0 3
8.9665 13.7844 1.0492 0.8401 0 21
8.7312 14.6802 1.0898 0.8543 0 3
7.9522 14.6818 1.0654 0.4768 0 3
7.9148 16.1271 1.1462 0.4431 0 3
7.8706 17.8114 1.2425 0.4088 0 3
7.6640 19.4174 1.3319 0.3739 0 3
8.4132 24.1075 1.6291 0.9400 0 3
7.5185 24.6881 1.6466 0.3023 0 3
7.5732 28.9979 1.9123 0.2658 0 3
2.6096 14.7469 0.9555 0.7648 0 9
1.9522 14.3740 0.9255 0.2349 0 9
1.3233 13.9123 0.8917 0.4033 0 9
0.8425 15.3952 0.9838 0.7274 0 9
0.3645 25.1072 1.6021 0.0391 0 9
-0.9994 15.1666 0.9698 0.7164 0 9
-30.7576 28.1983 2.6624 0.6727 0 3
-30.7514 25.9994 2.5694 0.3026 0 3
-30.9495 24.1045 2.5030 0.3106 0 3
-31.3038 22.4211 2.4568 0.7451 0 3
-31.2989 20.5682 2.3896 0.3255 0 3
-31.4444 18.9013 2.3409 0.3322 0 3
-31.7541 17.3916 2.3100 0.3386 0 3
-36.5059 -33.5881 3.1652 0.8680 0 20
-35.2303 -35.1285 3.1744 0.2856 0 20
0.6341 -38.9042 2.4826 0.9943 0 22
5.8753 -42.6906 2.7495 0.9892 0 3
9.3419 -42.3560 2.7675 0.9729 0 3
8.0145 -30.4655 2.0100 0.2544 0 20
8.4612 -27.6072 1.8423 0.9561 0 3
10.4153 -29.6744 2.0066 0.9439 0 3
11.7491 -29.6125 2.0327 0.9301 0 3
13.1176 -29.5430 2.0624 0.0684 0 3
13.3383 -27.0560 1.9247 0.8704 0 3
13.9357 -25.6197 1.8608 0.0912 0 2
9.9096 -16.5942 1.2332 0.9818 0 20
12.8621 -19.6964 1.5009 0.1131 0 2
12.4810 -17.5325 1.3732 0.1236 0 2
12.4918 -16.1351 1.3020 0.8059 0 2
12.4467 -14.8083 1.2343 0.1424 0 1
12.2511 -13.4408 1.1604 0.1574 0 1
12.1094 -12.2585 1.0994 0.1661 0 1
11.9263 -11.1409 1.0413 0.1596 0 1
11.7499 -10.1239 0.9896 0.1663 0 1
11.5572 -9.1759 0.9416 0.1664 0 1
11.3736 -8.3081 0.8987 0.1778 0 1
6.2087 -4.1637 0.4770 0.5613 14 7
11.1318 -6.8338 0.8334 0.2035 0 1
11.0123 -6.1659 0.8053 0.2082 0 24
10.6916 -5.4345 0.7652 0.2224 0 25
8.8120 -4.0425 0.6186 0.9654 0 9
10.5876 -4.3514 0.7304 0.2330 0 25
10.5453 -3.8468 0.7162 0.2376 0 25
10.5089 -3.3620 0.7040 0.2418 0 25
10.4778 -2.8939 0.6936 0.2454 0 25
10.4516 -2.4397 0.6848 0.2485 0 25
10.8273 -2.0729 0.7034 0.2506 0 1
6.0997 -0.9157 0.3935 0.9599 25 14
4.5362 -0.4957 0.2912 0.2651 25 14
4.4681 -0.3074 0.2858 0.2701 25 14
4.3972 -0.1255 0.2807 0.2007 25 14
4.3661 0.0508 0.2786 0.3180 25 14
4.4590 0.2311 0.2849 0.2709 25 14
4.5575 0.4202 0.2920 0.2643 25 14
4.6579 0.6189 0.2998 0.2653 25 14
6.0539 1.0532 0.3921 0.9635 25 14
11.2362 2.4232 0.7334 0.2349 0 1
11.3258 2.9229 0.7463 0.2309 0 1
11.4283 3.4443 0.7616 0.2243 0 1
11.5406 3.9901 0.7791 0.2192 0 1
11.5977 4.5389 0.7946 0.2285 0 1
11.6256 5.0971 0.8099 0.2281 0 1
11.6566 5.6790 0.8273 0.2233 0 1
10.6658 5.7371 0.7727 0.7054 0 14
10.0428 5.9338 0.7443 0.8809 0 14
9.8941 6.3953 0.7517 0.7694 0 14
9.9108 6.9857 0.7737 0.4982 0 14
11.0304 8.4576 0.8869 0.1914 0 2
11.1451 9.2792 0.9253 0.1834 0 2
11.2767 10.1824 0.9694 0.1751 0 2
11.4283 11.1843 1.0203 0.1663 0 2
11.6043 12.3066 1.0792 0.1572 0 2
-0.0719 17.2183 0.9072 0.2279 0 9
-31.2453 35.1256 2.4768 0.2609 0 3
-31.3784 32.5445 2.3818 0.6264 0 3
-31.7308 30.3696 2.3141 0.2792 0 3
-31.8206 28.0966 2.2365 0.6656 0 3
-32.3169 24.2129 2.1275 0.7370 0 3
-32.2790 22.2188 2.0646 0.7594 0 3
-32.2469 20.3385 2.0086 0.7805 0 3
-32.2175 18.5553 1.9588 0.8004 0 3
-31.1704 16.3222 1.8538 0.8947 0 3
-35.2588 -33.6789 2.5689 0.7958 0 20
-0.2012 -38.9087 2.0500 0.9962 0 22
1.3606 -38.8731 2.0493 0.7864 0 6
5.5057 -47.5393 2.5214 0.9930 0 3
4.9097 -24.7778 1.3308 0.9570 0 6
8.9021 -37.0554 2.0078 0.5099 0 3
8.2786 -29.2375 1.6010 0.9628 0 20
9.7068 -29.6797 1.6452 0.9512 0 3
10.3204 -27.7342 1.5591 0.9906 0 3
11.7469 -28.0654 1.6029 0.0727 0 3
12.5882 -26.9796 1.5685 0.0843 0 3
12.7526 -24.6933 1.4642 0.0958 0 2
10.4608 -18.4035 1.1153 0.7480 0 9
10.3412 -16.6039 1.0306 0.5270 0 20
11.6374 -17.1135 1.0904 0.1286 0 2
11.9431 -16.1302 1.0574 0.8198 0 2
11.6987 -14.5410 0.9833 0.1520 0 1
11.4895 -13.1621 0.9205 0.1597 0 24
11.4184 -12.0664 0.8752 0.1639 0 1
11.2632 -10.9835 0.8289 0.1656 0 1
11.1183 -10.0035 0.7880 0.1726 0 1
10.9530 -9.0862 0.7498 0.1727 0 1
10.8065 -8.2554 0.7165 0.1843 0 1
6.1747 -4.3358 0.3975 0.3332 14 6
10.6159 -6.8350 0.6652 0.2106 0 1
10.5071 -6.1829 0.6423 0.2182 0 24
10.2333 -5.4811 0.6116 0.2299 0 25
10.1885 -4.9414 0.5966 0.2357 0 25
8.9326 -3.8974 0.5135 0.9818 0 9
10.1148 -3.9378 0.5719 0.2459 0 25
10.0849 -3.4667 0.5618 0.2503 0 25
10.0592 -3.0121 0.5532 0.2542 0 25
10.0373 -2.5713 0.5459 0.2576 0 25
10.3149 -2.2053 0.5557 0.2615 0 2
10.3923 -1.7890 0.5556 0.2627 0 1
4.3754 -0.5734 0.2325 0.2002 25 14
4.2926 -0.3881 0.2271 0.2050 25 14
4.2425 -0.2123 0.2238 0.3271 25 14
4.2287 -0.0416 0.2228 0.3286 25 14
4.2471 0.1288 0.2239 0.3270 25 14
4.2999 0.3035 0.2271 0.2050 25 14
4.4241 0.4914 0.2345 0.1985 25 14
6.1145 0.9290 0.3258 0.9579 25 14
10.7144 2.0711 0.5749 0.2471 0 1
10.7888 2.5386 0.5839 0.2438 0 1
10.8693 3.0229 0.5944 0.2395 0 1
10.9584 3.5274 0.6065 0.2327 0 1
11.0581 4.0562 0.6206 0.2274 0 1
11.0953 4.5832 0.6325 0.2372 0 1
11.1197 5.1251 0.6451 0.2326 0 1
11.1412 5.6880 0.6591 0.2316 0 1
11.1331 6.2595 0.6729 0.2544 0 1
10.0843 6.2155 0.6241 0.4711 0 14
10.0451 6.7624 0.6380 0.4272 0 14
10.9929 8.0601 0.7182 0.2160 0 2
10.4937 8.3620 0.7069 0.1984 0 2
10.5839 9.1522 0.7372 0.1902 0 2
10.6872 10.0190 0.7718 0.1817 0 2
10.8058 10.9778 0.8116 0.1728 0 2
10.9429 12.0486 0.8575 0.1635 0 2
11.1025 13.2569 0.9110 0.1539 0 2
11.2900 14.6366 0.9739 0.1440 0 2
10.4186 14.6907 0.9489 0.8107 0 3
8.9480 13.7559 0.8646 0.8424 0 21
8.7309 14.6798 0.8999 0.8549 0 3
8.0115 14.7912 0.8863 0.4736 0 3
7.9783 16.2565 0.9541 0.4399 0 3
7.9391 17.9665 1.0349 0.4056 0 3
7.7410 19.6123 1.1109 0.3706 0 3
8.4144 24.1109 1.3454 0.9406 0 3
7.7681 25.5078 1.4048 0.2990 0 3
2.4996 14.1256 0.7558 0.3274 0 9
2.6360 27.7139 1.4667 0.4123 0 9
0.9684 17.6939 0.9336 0.0621 0 9
0.3678 25.3372 1.3350 0.5327 0 9
-0.3808 14.8462 0.7824 0.7107 0 9
-30.8208 39.0506 2.6210 0.5646 0 3
-31.1165 36.3258 2.5200 0.2564 0 3
-30.5717 32.9174 2.3669 0.9266 0 3
-31.4866 31.2840 2.3385 0.6502 0 3
-30.4659 27.9309 2.1776 0.7962 0 3
-32.1642 23.0374 2.0844 0.5013 0 3
-32.2615 21.2007 2.0339 0.7708 0 3
-32.2309 19.3740 1.9813 0.7913 0 3
-32.4669 17.7820 1.9503 0.4852 0 3
-32.8761 16.3259 1.9339 0.3342 0 3
-36.4027 -33.4932 2.6062 0.7758 0 20
-35.1455 -35.0440 2.6149 0.5294 0 20
5.8755 -42.6916 2.2704 0.9898 0 3
9.3097 -42.2101 2.2773 0.9749 0 3
8.0135 -30.4618 1.6595 0.2459 0 20
8.4614 -27.6079 1.5213 0.9567 0 3
10.2986 -29.3420 1.6384 0.7175 0 3
11.7494 -29.6133 1.6785 0.9307 0 3
12.1380 -27.3369 1.5759 0.0789 0 3
13.0083 -26.3866 1.5499 0.0905 0 2
12.4943 -22.9699 1.3776 0.1018 0 2
9.9247 -16.6194 1.0199 0.9759 0 20
11.7672 -18.0197 1.1339 0.1237 0 2
11.5061 -16.1631 1.0453 0.6739 0 2
11.7821 -15.2184 1.0140 0.1474 0 1
11.5936 -13.7933 0.9493 0.1590 0 1
11.4794 -12.5942 0.8978 0.1598 0 1
11.3356 -11.4752 0.8498 0.1616 0 1
11.1837 -10.4471 0.8063 0.1687 0 1
11.0326 -9.5059 0.7673 0.1687 0 1
10.8717 -8.6317 0.7314 0.1805 0 1
10.7360 -7.8424 0.7005 0.1885 0 1
6.2336 -4.1804 0.3954 0.7068 14 6
10.5831 -6.4969 0.6543 0.2142 0 1
10.5292 -5.8954 0.6358 0.2219 0 1
10.2087 -5.1890 0.6033 0.2331 0 25
8.8434 -4.0569 0.5126 0.8279 0 9
10.1302 -4.1634 0.5770 0.2437 0 25
10.0982 -3.6837 0.5663 0.2483 0 25
10.0706 -3.2218 0.5571 0.2524 0 25
10.0470 -2.7749 0.5492 0.2561 0 25
10.0271 -2.3406 0.5425 0.2592 0 2
10.3908 -1.9893 0.5574 0.2613 0 1
6.2192 -0.9336 0.3313 0.0130 25 14
4.3304 -0.4732 0.2295 0.2028 25 14
4.2505 -0.2924 0.2245 0.2074 25 14
4.2350 -0.1209 0.2232 0.3280 25 14
4.2299 0.0492 0.2229 0.3285 25 14
4.2674 0.2212 0.2251 0.3252 25 14
4.3651 0.4024 0.2310 0.2016 25 14
4.4830 0.5956 0.2383 0.2677 25 14
6.0747 1.0569 0.3249 0.9608 25 14
10.7535 2.3191 0.5796 0.2456 0 1
10.8310 2.7952 0.5893 0.2416 0 1
10.9151 3.2896 0.6006 0.2370 0 1
11.0106 3.8069 0.6138 0.2299 0 1
11.0855 4.3384 0.6272 0.2392 0 1
11.1077 4.8700 0.6390 0.2348 0 1
11.1308 5.4228 0.6523 0.2340 0 1
10.7809 5.7991 0.6450 0.6983 0 14
10.1086 5.9727 0.6186 0.6270 0 14
10.0452 6.4929 0.6302 0.4666 0 14
10.9577 7.7236 0.7063 0.0716 0 1
10.7893 8.2727 0.7163 0.6270 0 2
10.5404 8.7758 0.7226 0.1941 0 2
10.6374 9.6052 0.7551 0.1857 0 2
10.7485 10.5190 0.7924 0.1770 0 2
10.8765 11.5349 0.8353 0.1679 0 2
-0.0727 17.4261 0.7246 0.8298 0 9
-32.3690 36.3888 2.0250 0.6114 0 3
-32.3188 33.5199 1.9360 0.6395 0 3
-32.2738 30.8892 1.8575 0.6665 0 3
-32.2332 28.4609 1.7879 0.6924 0 3
-32.1964 26.2052 1.7261 0.7173 0 3
-30.2394 22.6564 1.5711 0.9139 0 3
-32.1298 22.1161 1.6218 0.7633 0 3
-32.1019 20.2471 1.5781 0.7845 0 3
-32.0762 18.4740 1.5391 0.8043 0 3
-32.2431 16.8839 1.5133 0.4236 0 3
-33.9622 16.0812 1.5624 0.4332 0 3
-35.0439 -33.4737 2.0150 0.6795 0 20
5.5058 -47.5403 1.9899 0.9935 0 3
3.6861 -18.6026 0.7885 0.9659 0 6
8.6235 -35.8955 1.5350 0.8115 0 3
8.2788 -29.2382 1.2635 0.9630 0 20
9.7070 -29.6804 1.2984 0.9517 0 3
10.8098 -29.0494 1.2888 0.0714 0 3
11.3327 -27.0756 1.2204 0.8956 0 3
11.8655 -25.4308 1.1668 0.0949 0 2
11.4909 -22.2501 1.0412 0.1063 0 2
10.4541 -18.3917 0.8796 0.9901 0 9
10.3250 -16.5780 0.8121 0.6976 0 20
10.9840 -16.1527 0.8122 0.8428 0 2
11.0668 -14.9467 0.7733 0.1526 0 1
10.9142 -13.5659 0.7240 0.1646 0 1
10.8179 -12.3927 0.6840 0.1656 0 1
10.7039 -11.3114 0.6475 0.1659 0 1
10.5830 -10.3202 0.6146 0.1747 0 1
10.4575 -9.4090 0.5849 0.1782 0 1
10.3323 -8.5713 0.5582 0.1867 0 1
10.2211 -7.8082 0.5348 0.1949 0 1
10.1578 -7.1328 0.5161 0.2144 0 1
10.1097 -6.5092 0.4999 0.2213 0 1
10.0688 -5.9250 0.4858 0.2293 0 1
9.7858 -5.2414 0.4616 0.2406 0 25
9.4101 -4.5638 0.4349 0.2719 0 9
8.9646 -3.9114 0.4067 0.9526 0 9
9.4248 -3.6692 0.4205 0.3663 0 9
9.6783 -3.3269 0.4255 0.2609 0 25
9.6596 -2.8925 0.4193 0.2648 0 25
9.6436 -2.4705 0.4139 0.2683 0 25
9.9876 -2.1354 0.4247 0.2708 0 1
9.9556 -1.7138 0.4200 0.2753 0 24
4.1545 -0.5445 0.1742 0.2110 25 14
4.1273 -0.3731 0.1723 0.3355 25 14
4.1101 -0.2057 0.1711 0.2620 25 14
4.0953 -0.0403 0.1703 0.3118 25 14
4.1160 0.1248 0.1712 0.2618 25 14
4.1540 0.2932 0.1732 0.3339 25 14
4.2002 0.4666 0.1757 0.2092 25 14
6.1504 0.9345 0.2587 0.8524 25 14
10.2762 1.9864 0.4352 0.2578 0 1
10.3417 2.4334 0.4417 0.2545 0 1
10.4111 2.8954 0.4493 0.2502 0 1
10.4858 3.3752 0.4580 0.2454 0 1
10.5681 3.8764 0.4680 0.2381 0 1
10.6227 4.3880 0.4779 0.2479 0 1
10.6370 4.9026 0.4870 0.2432 0 1
10.6548 5.4397 0.4974 0.2381 0 1
10.6699 5.9992 0.5090 0.2368 0 1
10.5935 6.5293 0.5174 0.2613 0 1
10.4953 7.0655 0.5261 0.2570 0 1
10.3854 7.6147 0.5355 0.2659 0 1
10.3709 8.2641 0.5514 0.6432 0 2
10.0295 8.6728 0.5513 0.2008 0 2
10.1025 9.4708 0.5758 0.1923 0 2
10.1859 10.3481 0.6037 0.1834 0 2
10.2817 11.3206 0.6359 0.1741 0 2
10.3925 12.4091 0.6730 0.1645 0 2
10.5216 13.6404 0.7163 0.1546 0 2
6.4636 9.1139 0.4646 0.6851 22 6
8.9296 13.7277 0.6809 0.8446 0 21
8.7307 14.6794 0.7102 0.8554 0 3
8.0716 14.9022 0.7047 0.4703 0 3
8.0428 16.3878 0.7590 0.4366 0 3
8.0087 18.1240 0.8239 0.4022 0 3
7.8113 19.7906 0.8847 0.3672 0 3
8.4127 24.1062 1.0616 0.9411 0 3
7.8608 25.8121 1.1219 0.2956 0 3
3.4470 25.3802 1.0650 0.2647 0 9
1.3258 13.9387 0.5822 0.5949 0 9
1.2979 23.7145 0.9875 0.7052 0 9
0.3941 27.1493 1.1290 0.1130 0 9
-32.2144 37.6075 2.0590 0.9665 0 3
-32.3414 34.8230 1.9761 0.6265 0 3
-32.2941 32.0864 1.8929 0.6541 0 3
-32.2516 29.5679 1.8193 0.6805 0 3
-32.2131 27.2352 1.7540 0.7059 0 3
-32.1782 25.0615 1.6959 0.7300 0 3
-31.9787 22.9045 1.6355 0.7225 0 3
-32.1146 21.1042 1.5978 0.7748 0 3
-32.0879 19.2881 1.5567 0.7952 0 3
-32.4654 17.7812 1.5391 0.4854 0 3
-32.2264 16.0033 1.4961 0.9420 0 3
-36.3769 -33.4694 2.0553 0.7854 0 20
-35.0457 -34.9445 2.0578 0.6612 0 20
5.8756 -42.6925 1.7919 0.9903 0 3
9.3413 -42.3534 1.8034 0.9741 0 3
7.8309 -29.7675 1.2798 0.2001 0 20
8.5183 -27.7936 1.2087 0.2844 0 3
10.3878 -29.5961 1.3042 0.9449 0 3
10.9428 -27.5805 1.2337 0.9034 0 3
11.7994 -26.5743 1.2090 0.8863 0 3
11.6538 -23.6390 1.0958 0.1010 0 2
11.3244 -20.8191 0.9854 0.1124 0 2
9.9502 -16.6622 0.8069 0.9250 0 20
10.8450 -16.6075 0.8247 0.1343 0 2
11.2656 -15.8252 0.8077 0.1587 0 2
10.9696 -14.1690 0.7451 0.1456 0 1
10.8650 -12.9265 0.7021 0.1613 0 1
10.7637 -11.8089 0.6644 0.1632 0 1
10.6372 -10.7682 0.6294 0.1706 0 1
10.5247 -9.8315 0.5988 0.1793 0 1
10.3887 -8.9511 0.5702 0.1828 0 1
10.2712 -8.1549 0.5453 0.1912 0 1
10.1823 -7.4379 0.5243 0.2110 0 1
6.2399 -4.1846 0.3124 0.9096 14 6
10.0449 -6.1665 0.4901 0.2321 0 24
9.8023 -5.4884 0.4671 0.2377 0 25
9.7680 -4.9650 0.4556 0.2437 0 25
8.8729 -4.0704 0.4059 0.9792 0 9
9.3394 -3.8384 0.4198 0.0630 0 9
9.6880 -3.5341 0.4288 0.2590 0 25
9.6679 -3.0930 0.4221 0.2631 0 25
9.6507 -2.6655 0.4163 0.2667 0 25
9.6362 -2.2493 0.4114 0.2699 0 2
9.9888 -1.9124 0.4229 0.2725 0 1
9.9963 -1.5006 0.4203 0.2742 0 1
4.1340 -0.4518 0.1729 0.3343 25 14
4.1189 -0.2834 0.1717 0.2611 25 14
4.1003 -0.1170 0.1706 0.2628 25 14
4.0983 0.0476 0.1704 0.3116 25 14
4.1372 0.2144 0.1723 0.3356 25 14
4.1738 0.3848 0.1743 0.3317 25 14
4.2632 0.5664 0.1788 0.2056 25 14
10.2471 1.7828 0.4325 0.2658 0 1
10.3110 2.2237 0.4386 0.2563 0 1
10.3782 2.6784 0.4457 0.2523 0 1
10.4504 3.1495 0.4538 0.2477 0 1
10.5281 3.6401 0.4632 0.2427 0 1
10.6161 4.1548 0.4740 0.2351 0 1
10.6300 4.6605 0.4826 0.2455 0 1
10.6461 5.1867 0.4924 0.2406 0 1
10.6631 5.7357 0.5034 0.2394 0 1
10.6389 6.2860 0.5138 0.2631 0 1
10.5411 6.8135 0.5219 0.2590 0 1
10.4408 7.3593 0.5311 0.2680 0 1
10.4909 8.0439 0.5497 0.2228 0 2
9.9986 8.3247 0.5410 0.2047 0 2
10.0673 9.0904 0.5640 0.1963 0 2
10.1456 9.9290 0.5902 0.1876 0 2
10.2354 10.8549 0.6203 0.1785 0 2
-32.1835 36.1803 1.4761 0.6151 0 3
-32.1416 33.3362 1.4116 0.6432 0 3
-32.1040 30.7268 1.3546 0.6703 0 3
-32.0700 28.3168 1.3042 0.6962 0 3
-32.0390 26.0770 1.2593 0.7211 0 3
-32.0108 23.9836 1.2193 0.7447 0 3
-31.9822 22.0144 1.1836 0.7671 0 3
-31.9583 20.1565 1.1518 0.7883 0 3
-31.9363 18.3934 1.1234 0.8082 0 3
-33.9371 17.7710 1.1678 0.4693 0 3
-35.1122 16.6257 1.1843 0.3160 0 3
-34.9328 -33.3676 1.4726 0.6905 0 20
-34.7223 -35.9409 1.5234 0.7655 0 20
5.5059 -47.5413 1.4589 0.9939 0 3
3.6962 -18.6538 0.5797 0.2123 0 6
8.8195 -36.7114 1.1509 0.7452 0 3
8.2790 -29.2389 0.9263 0.9635 0 20
9.6979 -29.6525 0.9510 0.9520 0 3
10.4499 -28.0822 0.9134 0.2261 0 3
10.9680 -26.2045 0.8660 0.0938 0 2
10.6822 -22.8947 0.7701 0.1054 0 2
10.4572 -20.2486 0.6947 0.1169 0 2
10.1666 -17.8858 0.6271 0.9911 0 9
10.1267 -16.2596 0.5839 0.1391 0 2
10.4433 -15.3576 0.5661 0.1529 0 1
10.3023 -13.9141 0.5278 0.1656 0 1
10.2327 -12.7188 0.4976 0.1669 0 1
10.1586 -11.6373 0.4709 0.1673 0 1
10.0640 -10.6351 0.4463 0.1836 0 1
9.9811 -9.7333 0.4250 0.1857 0 1
9.8791 -8.8886 0.4051 0.1949 0 1
9.7883 -8.1201 0.3877 0.2036 0 1
9.7345 -7.4365 0.3734 0.2294 0 1
9.6995 -6.8110 0.3613 0.2371 0 1
9.6246 -6.1968 0.3489 0.2434 0 24
9.4010 -5.5320 0.3325 0.5377 0 2
9.3761 -5.0219 0.3242 0.2512 0 25
8.9468 -4.3391 0.3031 0.3092 0 9
8.9622 -3.9103 0.2981 0.6107 0 9
8.9878 -3.4990 0.2940 0.2732 0 9
9.3035 -3.1981 0.2999 0.2716 0 25
9.2908 -2.7820 0.2956 0.2755 0 25
9.3003 -2.3825 0.2927 0.3790 0 2
9.6137 -2.0554 0.2997 0.2810 0 1
9.5891 -1.6507 0.2966 0.2857 0 24
4.0283 -0.5279 0.1238 0.2683 25 14
3.9770 -0.3595 0.1217 0.3200 25 14
3.9699 -0.1987 0.1212 0.3214 25 14
3.9634 -0.0390 0.1208 0.3223 25 14
3.9800 0.1207 0.1214 0.3209 25 14
4.0099 0.2831 0.1225 0.3178 25 14
4.0487 0.4497 0.1242 0.2647 25 14
4.4506 0.6762 0.1372 0.0899 25 14
9.8794 1.9097 0.3067 0.2753 0 1
9.9324 2.3371 0.3110 0.2708 0 1
9.9910 2.7786 0.3161 0.2664 0 1
10.0542 3.2363 0.3220 0.2561 0 1
10.1224 3.7130 0.3287 0.2509 0 1
10.1891 4.2089 0.3361 0.2585 0 1
10.1949 4.6989 0.3422 0.2539 0 1
10.2029 5.2090 0.3492 0.2488 0 1
10.2132 5.7423 0.3572 0.2432 0 1
10.1837 6.2767 0.3647 0.2719 0 1
10.0829 6.7878 0.3705 0.2676 0 1
9.9803 7.3177 0.3773 0.2628 0 1
10.0191 7.9839 0.3905 0.2300 0 2
9.5689 8.2745 0.3856 0.6745 0 2
9.5789 8.9800 0.4002 0.2029 0 2
9.6337 9.7871 0.4186 0.1940 0 2
9.6964 10.6762 0.4396 0.1847 0 2
9.7684 11.6639 0.4638 0.1751 0 2
9.8517 12.7719 0.4917 0.1652 0 2
6.4637 9.1141 0.3406 0.9059 22 6
8.9113 13.6995 0.4982 0.8467 0 21
8.7305 14.6790 0.5206 0.8557 0 3
8.1325 15.0147 0.5205 0.4669 0 3
8.1082 16.5212 0.5610 0.4333 0 3
8.0795 18.2842 0.6094 0.3989 0 3
8.8652 22.4606 0.7361 0.9130 0 3
8.4125 24.1056 0.7783 0.9415 0 3
7.9556 26.1235 0.8324 0.2922 0 3
3.1291 14.3084 0.4465 0.2535 0 9
2.4833 14.0332 0.4344 0.1761 0 9
2.5021 26.3064 0.8055 0.2036 0 9
0.7499 13.7024 0.4183 0.1701 0 9
0.2604 17.9381 0.5469 0.5863 0 9
-32.2045 37.5960 1.5090 0.6017 0 3
-31.1865 33.5795 1.3970 0.6303 0 3
-32.1211 31.9144 1.3803 0.6578 0 3
-30.1506 27.6417 1.2469 0.8038 0 3
-32.0531 27.0999 1.2795 0.7097 0 3
-32.0236 24.9411 1.2373 0.7338 0 3
-31.9967 22.9173 1.1997 0.7568 0 3
-31.9692 21.0087 1.1661 0.7786 0 3
-31.9464 19.2030 1.1362 0.7991 0 3
-32.1514 17.6092 1.1175 0.3167 0 3
-35.0727 17.4167 1.1937 0.3134 0 3
-36.2662 -33.3676 1.5023 0.6769 0 20
-34.8642 -34.7635 1.5008 0.6691 0 20
5.8758 -42.6935 1.3137 0.9907 0 3
8.0629 -45.0962 1.3965 0.2395 0 3
9.6155 -43.5963 1.3609 0.9870 0 3
7.9278 -30.1360 0.9499 0.9685 0 20
8.6252 -28.1423 0.8973 0.2810 0 3
10.1272 -28.8537 0.9322 0.2215 0 3
10.5428 -26.5724 0.8714 0.8780 0 3
