ply
format ascii 1.0
element vertex 1607
property float32 x
property float32 y
property float32 z
property float32 I
end_header
17.1958 14.5730 3.7174 0.9127
14.7542 14.6994 3.4348 0.9190
13.5970 14.6834 3.3004 0.9221
12.4166 14.5413 3.1535 0.9254
11.5645 14.7026 3.0850 0.9270
10.6309 14.6964 2.9914 0.9291
8.9174 14.6851 2.8335 0.9327
7.3867 14.7158 2.7156 0.9354
6.9694 19.4270 3.4039 0.9197
3.4432 12.7414 2.1767 0.9479
1.4756 14.2875 2.3689 0.9434
0.3314 14.7940 2.4405 0.9418
-0.8980 15.4359 2.5500 0.9392
2.5268 -18.3309 3.0518 0.9277
3.4085 -19.0297 3.1884 0.9246
7.7562 -35.0984 5.9282 0.8644
8.6476 -28.1548 4.8575 0.8875
2.6588 -18.3935 2.8539 0.9275
7.1017 -31.1618 4.9079 0.8787
8.0492 -25.6049 4.1216 0.8971
10.6521 -29.6559 4.8388 0.8803
7.4843 -18.4646 3.0595 0.9225
12.4918 -27.5754 4.6487 0.8847
14.3915 -28.6427 4.9224 0.8783
19.6650 -29.6020 5.4573 0.8660
20.2504 -27.9716 5.3028 0.8696
22.6133 -28.7265 5.6140 0.8625
24.5336 -26.4729 5.5425 0.8641
23.7095 -23.6029 5.1374 0.8734
20.9748 -17.7615 4.2206 0.8947
18.9293 -10.3745 3.3147 0.9164
17.3505 -6.9418 2.8697 0.9272
17.0194 -6.0268 2.7725 0.9295
15.8463 -3.5363 2.4932 0.9364
15.6457 -2.1897 2.4260 0.9381
16.1716 -1.6029 2.4955 0.9364
16.4119 0.3606 2.5208 0.9357
16.6011 1.0343 2.5542 0.9349
17.0552 2.4511 2.6459 0.9326
17.7381 4.7853 2.8212 0.9283
17.8326 5.5898 2.8698 0.9272
12.7113 5.7457 2.1421 0.9451
11.6237 5.8283 1.9968 0.9487
10.7482 5.9423 1.8859 0.9515
10.6316 6.4496 1.9095 0.9509
10.6907 7.0893 1.9698 0.9494
19.2834 13.9363 3.6535 0.9082
14.6550 14.6970 3.1871 0.9194
13.5055 14.6811 3.0633 0.9224
12.3311 14.5377 2.9273 0.9258
11.4856 14.7016 2.8649 0.9273
6.0076 9.1160 1.6765 0.9568
8.8509 14.6843 2.6329 0.9330
8.0608 14.6791 2.5716 0.9345
7.4472 14.9588 2.5660 0.9346
7.0267 19.7915 3.2251 0.9185
3.4866 13.0726 2.0776 0.9467
2.8573 12.7543 2.0071 0.9485
2.1049 14.9498 2.3183 0.9407
0.9357 15.7428 2.4217 0.9382
0.3328 17.4143 2.6746 0.9319
-1.6509 16.1842 2.4981 0.9363
-2.1908 15.3337 2.3786 0.9392
2.5888 -18.3352 2.8435 0.9278
7.9569 -25.6055 4.1175 0.8972
9.2292 -20.5530 3.4597 0.9129
9.9150 -19.8962 3.4136 0.9140
21.2750 -29.5914 5.5966 0.8629
24.4107 -26.5149 5.5344 0.8643
22.2899 -20.6067 4.6614 0.8844
21.0633 -17.9558 4.2502 0.8940
20.4516 -16.0592 3.9931 0.9001
5.9088 -4.2668 1.1192 0.9709
19.9370 -13.2096 3.6725 0.9078
19.5382 -11.8424 3.5084 0.9117
18.9733 -10.4799 3.3284 0.9160
16.1708 -5.0619 2.6020 0.9337
15.8566 -3.5934 2.4967 0.9363
15.7417 -2.9068 2.4582 0.9373
16.5846 0.9785 2.5512 0.9350
17.0361 2.3911 2.6417 0.9327
17.7313 4.7210 2.8177 0.9284
17.8842 6.3409 2.9138 0.9261
17.6965 7.0883 2.9274 0.9258
12.8038 5.7368 2.1545 0.9448
11.7152 5.8261 2.0092 0.9484
10.7825 5.9150 1.8885 0.9514
10.6357 6.4043 1.9065 0.9510
18.8912 14.7456 3.6800 0.9076
16.0105 14.7157 3.3393 0.9158
13.5961 14.6824 3.0728 0.9222
12.4141 14.5383 2.9357 0.9256
10.6306 14.6960 2.7852 0.9292
6.0486 9.1127 1.6796 0.9567
8.9171 14.6847 2.6382 0.9328
8.1240 14.6795 2.5764 0.9344
7.3768 16.3011 2.7476 0.9302
7.2863 17.9965 2.9815 0.9244
3.5401 13.1000 2.0838 0.9466
2.8391 15.3046 2.3903 0.9390
2.1385 14.8352 2.3016 0.9411
2.5787 24.9690 3.8546 0.9034
0.3261 14.5560 2.2358 0.9428
-0.4878 27.3144 4.1951 0.8953
-1.5981 16.1941 2.4989 0.9363
-2.1398 15.3373 2.3780 0.9393
2.5202 -18.2832 2.8341 0.9280
3.4021 -18.9944 2.9632 0.9249
6.8866 -31.1632 4.9009 0.8788
7.4174 -28.1379 4.4685 0.8889
7.8648 -25.6061 4.1134 0.8973
7.1012 -31.1596 4.5457 0.8789
7.5467 -27.8829 4.1087 0.8898
12.4942 -27.5807 4.3067 0.8849
15.8614 -28.6339 4.6559 0.8761
21.4230 -29.5913 5.1962 0.8628
22.1793 -28.1752 5.1002 0.8651
22.7979 -26.6777 4.9913 0.8678
22.3121 -24.0759 4.6689 0.8758
20.8937 -20.7998 4.1934 0.8877
18.9893 -16.0802 3.5393 0.9044
18.3961 -12.1017 3.1320 0.9149
17.8929 -10.7647 2.9701 0.9191
17.4097 -9.5417 2.8238 0.9229
16.1012 -6.4420 2.4667 0.9323
15.2921 -5.4151 2.3074 0.9366
15.1279 -4.6809 2.2524 0.9380
15.3074 -2.1424 2.1985 0.9395
15.3284 -0.2803 2.1806 0.9399
15.7907 1.6239 2.2579 0.9379
16.2130 3.0004 2.3452 0.9356
16.4616 3.7373 2.4010 0.9341
16.7391 5.2470 2.4951 0.9316
16.8374 6.0322 2.5440 0.9303
16.7171 6.7599 2.5648 0.9297
10.4389 6.3328 1.7367 0.9519
10.4347 6.9195 1.7809 0.9507
17.5969 12.7175 3.0881 0.9160
18.2135 14.3133 3.2949 0.9107
17.1060 14.5939 3.1982 0.9132
14.6539 14.6959 2.9519 0.9196
13.5045 14.6801 2.8372 0.9226
7.5037 15.0724 2.3948 0.9342
7.4303 16.5644 2.5822 0.9293
7.3430 18.3093 2.8059 0.9234
8.3347 23.4757 3.5433 0.9043
6.5362 24.5066 3.6076 0.9026
2.7112 27.1246 3.8773 0.8957
1.4370 24.1772 3.4449 0.9068
-0.5751 27.1911 3.8684 0.8959
7.0082 -31.2255 4.5519 0.8787
7.5253 -28.1707 4.1474 0.8889
9.2035 -29.6170 4.4113 0.8822
11.9084 -29.6594 4.5460 0.8789
9.0770 -20.2140 3.1517 0.9144
15.7389 -28.6347 4.6476 0.8763
19.5261 -29.6038 5.0442 0.8665
21.2756 -29.5923 5.1840 0.8631
22.3848 -28.6295 5.1691 0.8634
22.9324 -27.0146 5.0402 0.8666
22.4451 -24.3798 4.7135 0.8747
20.9968 -21.0405 4.2280 0.8868
19.8612 -18.3615 3.8473 0.8965
19.1169 -15.0111 3.4572 0.9065
5.9360 -4.2865 1.0414 0.9709
17.9342 -10.8701 2.9829 0.9188
17.4581 -9.6430 2.8368 0.9226
16.9083 -8.4699 2.6898 0.9264
8.6605 -3.9106 1.3516 0.9623
16.1242 -6.5129 2.4735 0.9322
15.0004 -4.0405 2.2096 0.9392
15.0731 -2.1602 2.1659 0.9403
15.2947 -0.9469 2.1796 0.9400
15.3251 -0.3307 2.1803 0.9399
15.5868 0.9197 2.2209 0.9389
15.7742 1.5698 2.2548 0.9380
15.9825 2.2432 2.2956 0.9369
16.1941 2.9418 2.3411 0.9357
16.6589 4.4354 2.4520 0.9327
12.8210 5.7445 1.9983 0.9448
10.6542 5.8446 1.7284 0.9521
10.4269 6.8651 1.7757 0.9508
17.5513 12.5967 3.0728 0.9164
17.1956 14.5728 3.2060 0.9130
14.7521 14.6972 2.9619 0.9193
10.6049 14.6604 2.5736 0.9295
5.9792 9.0082 1.5379 0.9573
8.1238 14.6791 2.3863 0.9345
7.4368 16.4338 2.5657 0.9297
7.3507 18.1555 2.7860 0.9239
4.9454 21.7394 3.1711 0.9139
0.9869 15.7310 2.2419 0.9383
-0.4456 24.9501 3.5494 0.9041
3.7554 -38.7057 5.5312 0.8546
2.5148 -18.2444 2.6196 0.9283
3.3914 -18.9344 2.7360 0.9252
7.0595 -31.9457 4.6535 0.8762
3.5301 -18.9879 2.5290 0.9250
7.1183 -31.2348 4.1950 0.8788
7.6425 -28.2366 3.8306 0.8887
9.3293 -29.6769 4.0736 0.8821
7.9899 -19.7121 2.7852 0.9178
12.5989 -27.8120 3.9982 0.8841
15.8618 -28.6347 4.2865 0.8763
21.0285 -24.6072 4.2386 0.8776
19.7136 -21.2720 3.7978 0.8896
17.8539 -16.3971 3.1743 0.9068
17.9779 -15.2237 3.0848 0.9093
17.6711 -13.7821 2.9346 0.9136
5.9605 -4.2744 0.9605 0.9708
16.9593 -11.1565 2.6582 0.9214
16.5109 -9.9333 2.5232 0.9252
16.0264 -8.7835 2.3931 0.9289
15.5799 -7.7404 2.2781 0.9322
8.7121 -3.8994 1.2499 0.9622
15.0432 -6.0187 2.1217 0.9367
14.3594 -5.0848 1.9947 0.9404
14.1135 -3.7518 1.9123 0.9428
14.4472 -0.8467 1.8951 0.9433
14.4766 -0.2648 1.8960 0.9433
14.5739 0.3202 1.9089 0.9429
14.8834 1.5306 1.9592 0.9414
15.2505 2.8223 2.0309 0.9393
15.7601 4.9402 2.1628 0.9355
15.8373 5.6739 2.2029 0.9344
15.8417 6.4059 2.2376 0.9334
10.4788 5.7933 1.5679 0.9528
10.2629 6.2260 1.5719 0.9527
16.1858 11.6976 2.6151 0.9226
16.6635 13.0952 2.7752 0.9181
13.5036 14.6791 2.6118 0.9227
12.3303 14.5368 2.4961 0.9260
11.4775 14.6913 2.4413 0.9275
10.5561 14.6946 2.3693 0.9296
8.8504 14.6835 2.2450 0.9332
8.0604 14.6783 2.1928 0.9347
7.5610 15.1874 2.2216 0.9338
7.4087 18.4733 2.6063 0.9228
8.4166 23.7063 3.2941 0.9035
7.4803 24.1051 3.3050 0.9032
2.3572 23.5832 3.1036 0.9088
3.8841 -38.7066 5.0940 0.8548
7.1036 -31.6504 4.2477 0.8773
9.2223 -29.6776 4.0695 0.8822
10.5363 -29.6397 4.1192 0.8808
11.8861 -29.6039 4.1774 0.8792
12.5883 -28.0335 4.0240 0.8834
14.2748 -28.6451 4.1910 0.8789
15.6581 -28.4878 4.2568 0.8771
17.2691 -28.6256 4.3777 0.8738
21.0532 -29.2829 4.7227 0.8646
17.6993 -13.8980 2.9468 0.9132
16.9976 -11.2621 2.6700 0.9210
8.6945 -3.9259 1.2492 0.9622
15.0610 -6.0834 2.1270 0.9366
14.1220 -3.8038 1.9152 0.9427
14.0273 -3.1789 1.8834 0.9436
13.9505 -2.5761 1.8577 0.9444
14.4428 -2.0699 1.9106 0.9428
14.4322 -1.4785 1.8998 0.9432
14.4454 -0.8943 1.8952 0.9433
14.4736 -0.3123 1.8957 0.9433
14.5629 0.2720 1.9073 0.9429
14.7062 0.8677 1.9291 0.9423
15.0544 2.1130 1.9907 0.9405
15.4402 3.4520 2.0718 0.9382
15.7542 4.8814 2.1597 0.9356
11.4747 5.7065 1.6781 0.9496
10.5358 5.7796 1.5736 0.9527
10.2690 6.1836 1.5697 0.9528
16.6212 12.9738 2.7611 0.9185
17.1832 14.5623 2.9494 0.9131
9.9884 9.1806 1.7765 0.9467
13.5942 14.6803 2.6200 0.9225
12.4133 14.5373 2.5032 0.9258
11.5634 14.7012 2.4492 0.9273
10.6234 14.6860 2.3735 0.9295
6.0167 9.0648 1.4247 0.9571
8.9166 14.6839 2.2496 0.9330
8.1236 14.6787 2.1969 0.9346
7.5662 15.0734 2.2085 0.9342
7.4161 18.3169 2.5877 0.9234
3.0284 13.3126 1.7878 0.9464
0.5886 26.2731 3.4413 0.8994
-0.2853 15.9741 2.0921 0.9376
-0.9014 15.4948 2.0324 0.9393
-1.5712 15.9212 2.0950 0.9375
2.5080 -18.1951 2.4051 0.9286
7.0438 -31.8747 4.2746 0.8766
9.1156 -29.6783 4.0655 0.8823
4.0131 -38.7093 4.6580 0.8549
2.6298 -18.1926 2.2001 0.9286
7.4314 -32.6086 4.0031 0.8739
10.6463 -29.6397 3.7696 0.8808
12.7021 -28.0398 3.6845 0.8834
14.2119 -28.2853 3.7889 0.8803
15.8623 -28.6355 3.9182 0.8764
17.3978 -28.6255 4.0094 0.8738
19.6344 -29.5560 4.2471 0.8668
19.8334 -25.1950 3.8379 0.8788
18.6159 -21.7840 3.4298 0.8910
16.6748 -14.1202 2.6153 0.9157
16.3891 -12.7822 2.4877 0.9197
5.9915 -4.2966 0.8825 0.9707
15.2385 -9.1678 2.1286 0.9309
14.8342 -8.1301 2.0247 0.9341
14.5264 -7.2170 1.9415 0.9367
8.7045 -3.8960 1.1415 0.9623
13.6755 -1.9140 1.6528 0.9459
5.6065 -0.3286 0.6722 0.9776
5.5075 -0.1007 0.6593 0.9781
14.8828 4.6651 1.8668 0.9391
11.3713 5.7018 1.5226 0.9500
10.3314 5.7118 1.4130 0.9536
9.7576 6.4705 1.4014 0.9539
9.7847 7.0715 1.4450 0.9525
15.3601 12.0709 2.3383 0.9243
15.8007 13.4803 2.4860 0.9197
15.7628 14.5839 2.5703 0.9171
12.3299 14.5363 2.2815 0.9261
11.4774 14.6912 2.2314 0.9276
10.5493 14.6851 2.1642 0.9297
7.6190 15.3039 2.0462 0.9334
7.5505 16.8323 2.2081 0.9284
7.1217 26.7018 3.3077 0.8946
3.0750 13.7262 1.6836 0.9449
0.8796 14.8000 1.7746 0.9420
-0.3086 14.5895 1.7466 0.9429
4.3951 -19.5826 2.4022 0.9223
11.8864 -29.6046 3.8184 0.8794
12.6954 -28.2721 3.7095 0.8826
14.0588 -28.2116 3.7728 0.8807
19.9479 -25.5128 3.8763 0.8777
17.7326 -19.2611 3.1336 0.8999
16.9551 -16.9903 2.8730 0.9078
16.4109 -12.8863 2.4975 0.9194
16.0935 -11.6213 2.3760 0.9231
15.6731 -10.3844 2.2503 0.9271
14.8651 -8.2107 2.0326 0.9339
14.5456 -7.2863 1.9472 0.9366
13.6748 -5.5235 1.7652 0.9423
13.2656 -3.0063 1.6280 0.9467
13.2027 -2.4380 1.6070 0.9473
13.6782 -1.9603 1.6539 0.9459
13.6778 -1.4012 1.6457 0.9461
5.8155 0.5787 0.6995 0.9767
14.2144 1.9951 1.7180 0.9438
14.5621 3.2557 1.7860 0.9417
14.7605 3.9300 1.8283 0.9403
15.0172 6.0152 1.9363 0.9369
9.8701 5.9433 1.3790 0.9546
15.7617 13.3577 2.4729 0.9201
14.7499 14.6951 2.4921 0.9195
12.4129 14.5369 2.2880 0.9259
6.0546 9.1219 1.3104 0.9569
8.9164 14.6835 2.0562 0.9331
8.1233 14.6783 2.0080 0.9346
7.6239 15.1882 2.0341 0.9338
7.5593 16.7044 2.1946 0.9288
7.5674 24.1050 3.0240 0.9032
2.4857 -18.0334 2.1789 0.9293
4.4188 -24.6707 2.9999 0.9040
4.3192 -19.5454 2.3959 0.9225
7.7190 -29.2819 3.6246 0.8852
9.1158 -29.6790 3.7161 0.8824
2.6174 -18.1069 1.9844 0.9290
3.4953 -18.8006 2.0742 0.9259
7.8406 -28.9685 3.2552 0.8863
9.3298 -29.6784 3.3744 0.8823
10.6284 -29.5900 3.4103 0.8812
12.8102 -28.2783 3.3673 0.8826
17.3983 -28.6263 3.6335 0.8739
17.9496 -27.0198 3.5185 0.8776
17.5821 -22.3351 3.0832 0.8919
16.7044 -19.5473 2.7889 0.9017
15.7218 -14.4390 2.3154 0.9177
15.4566 -13.0887 2.1969 0.9217
14.5105 -9.5456 1.8839 0.9325
14.1437 -8.5091 1.7904 0.9357
13.6426 -6.7779 1.6523 0.9405
8.7457 -3.9145 1.0393 0.9622
12.9072 -5.1641 1.5079 0.9456
12.7159 -3.9346 1.4438 0.9479
12.9951 -1.8188 1.4233 0.9486
5.2641 -0.3085 0.5720 0.9790
5.3262 0.3318 0.5788 0.9788
5.4867 0.5643 0.5983 0.9781
13.4595 1.9343 1.4749 0.9468
13.6056 2.5179 1.5008 0.9459
13.7630 3.1246 1.5308 0.9448
13.9414 3.7611 1.5662 0.9436
14.0900 4.4167 1.6016 0.9423
12.7606 5.7679 1.5189 0.9452
11.3744 5.7033 1.3801 0.9501
9.8590 7.1252 1.3194 0.9522
14.5905 12.4478 2.0803 0.9257
13.5017 14.6771 2.1631 0.9229
12.3296 14.5359 2.0674 0.9262
6.0906 9.2420 1.2006 0.9564
8.8499 14.6826 1.8595 0.9333
7.5432 18.8086 2.1981 0.9217
7.4800 24.1039 2.7375 0.9034
3.8907 14.5877 1.6376 0.9411
0.8875 14.9324 1.6225 0.9416
0.2714 14.1990 1.5404 0.9445
-0.3489 16.4992 1.7900 0.9358
-0.9605 15.6239 1.6979 0.9390
3.4394 -18.8450 2.0778 0.9258
8.4771 -37.7701 4.1987 0.8558
7.8310 -29.3151 3.2912 0.8851
9.2228 -29.6791 3.3710 0.8825
11.8867 -29.6054 3.4604 0.8795
12.8041 -28.5142 3.3903 0.8818
13.9034 -27.8997 3.3811 0.8821
17.2366 -28.5717 3.6193 0.8744
18.8118 -26.1653 3.4954 0.8784
17.6635 -22.5911 3.1105 0.8910
16.0542 -17.4380 2.5710 0.9090
16.0604 -16.0938 2.4661 0.9126
14.8710 -10.7386 1.9896 0.9289
13.8500 -7.6501 1.7162 0.9383
8.7242 -3.9394 1.0383 0.9622
12.9163 -5.2171 1.5110 0.9455
12.6470 -3.4065 1.4207 0.9487
12.5327 -2.3143 1.3824 0.9500
5.3753 -0.5507 0.5861 0.9785
5.2735 -0.3265 0.5731 0.9790
5.1731 -0.1116 0.5612 0.9794
5.1557 0.0963 0.5593 0.9795
5.4749 0.5448 0.5968 0.9781
13.5936 2.4694 1.4986 0.9459
13.7492 3.0740 1.5282 0.9449
14.1978 5.6869 1.6589 0.9403
10.3886 5.6989 1.2852 0.9534
9.9245 5.9761 1.2566 0.9545
9.8117 6.4601 1.2742 0.9538
14.5604 12.3396 2.0702 0.9261
14.6304 14.5760 2.2401 0.9203
12.4125 14.5364 2.0733 0.9260
11.5627 14.7003 2.0286 0.9275
10.6227 14.6851 1.9659 0.9297
6.0929 9.1795 1.1950 0.9566
8.9161 14.6831 1.8633 0.9332
7.6823 15.3046 1.8574 0.9334
7.5497 18.6470 2.1821 0.9222
8.1033 22.5878 2.6029 0.9080
3.7014 13.6968 1.5389 0.9445
0.3053 13.6286 1.4786 0.9466
-0.2945 16.4919 1.7891 0.9358
8.4148 -38.0787 4.2299 0.8548
7.8211 -29.6694 3.3281 0.8839
9.1160 -29.6798 3.3677 0.8826
7.9431 -29.3474 2.9573 0.8850
9.3300 -29.6791 3.0261 0.8825
12.0000 -29.6054 3.1072 0.8795
12.9231 -28.5276 3.0463 0.8817
14.1501 -28.1623 3.0656 0.8810
10.2286 -18.4652 2.0532 0.9187
16.7455 -27.5522 3.1361 0.8785
17.6287 -26.5368 3.0988 0.8798
16.5969 -22.9251 2.7529 0.8925
15.7936 -20.0632 2.4836 0.9025
14.9331 -16.1135 2.1369 0.9155
14.6162 -13.4236 1.9303 0.9233
14.3990 -12.1931 1.8352 0.9270
13.8105 -9.9038 1.6530 0.9340
13.5053 -8.8843 1.5724 0.9371
13.2124 -7.9489 1.4998 0.9399
8.7749 -3.9275 0.9351 0.9621
12.0170 -3.1945 1.2095 0.9513
4.9478 0.1087 0.4814 0.9803
5.0621 0.3154 0.4933 0.9798
12.7705 1.8353 1.2549 0.9495
13.0364 2.9597 1.3003 0.9477
13.4606 5.4431 1.4123 0.9433
13.5174 6.1100 1.4429 0.9421
11.3914 5.7118 1.2395 0.9501
9.9316 6.0250 1.1299 0.9544
9.8420 6.5265 1.1487 0.9536
9.8710 7.1339 1.1846 0.9522
13.2891 10.4434 1.6440 0.9343
13.5549 11.5643 1.7331 0.9309
13.8663 12.8293 1.8375 0.9269
14.2343 14.2750 1.9608 0.9222
11.4838 14.6993 1.8144 0.9278
8.8496 14.6822 1.6675 0.9334
8.0597 14.6771 1.6287 0.9349
7.7372 15.5413 1.6886 0.9326
7.6802 17.1213 1.8252 0.9274
7.6120 18.9802 1.9891 0.9211
8.0549 22.6875 2.3417 0.9078
7.4798 24.1033 2.4548 0.9035
2.5787 14.1604 1.4000 0.9438
0.2687 14.0614 1.3680 0.9450
0.7580 -38.8633 3.7809 0.8554
2.5396 -17.9863 1.7668 0.9296
9.5057 -42.3531 4.2221 0.8399
9.2230 -29.6798 3.0231 0.8826
11.8870 -29.6062 3.1032 0.8797
10.1174 -18.4072 2.0431 0.9191
16.6167 -27.5440 3.1289 0.8787
17.5047 -26.5391 3.0923 0.8801
16.6715 -23.1884 2.7779 0.8916
15.1998 -17.9056 2.2845 0.9099
14.8397 -16.1188 2.1311 0.9157
14.9007 -14.9316 2.0518 0.9187
14.6362 -13.5310 1.9388 0.9230
13.8319 -9.9882 1.6595 0.9337
13.2352 -8.0220 1.5054 0.9397
12.8745 -6.4492 1.4006 0.9438
8.7497 -3.9509 0.9338 0.9622
12.1548 -4.3492 1.2557 0.9494
12.0215 -3.2381 1.2110 0.9512
11.9455 -2.2058 1.1816 0.9524
12.3800 -1.7742 1.2165 0.9510
5.1090 -0.5234 0.4995 0.9796
5.0307 -0.3115 0.4903 0.9799
4.9561 -0.1070 0.4822 0.9803
4.9383 0.0923 0.4804 0.9803
5.0528 0.2981 0.4923 0.9799
12.7594 1.7909 1.2532 0.9495
13.3430 4.1343 1.3587 0.9454
13.4031 4.7521 1.3832 0.9445
13.4565 5.3900 1.4100 0.9434
10.3817 5.6951 1.1518 0.9535
9.9483 5.9904 1.1295 0.9544
9.8468 6.4831 1.1467 0.9537
9.8850 7.0946 1.1835 0.9523
13.2692 10.3573 1.6373 0.9346
13.5316 11.4677 1.7253 0.9312
13.8389 12.7197 1.8283 0.9272
14.2017 14.1490 1.9499 0.9226
13.4902 14.5681 1.9312 0.9233
12.4121 14.5360 1.8592 0.9261
11.5623 14.6999 1.8191 0.9276
7.7414 15.4224 1.6785 0.9330
7.6852 16.9827 1.8131 0.9278
7.6181 18.8159 1.9745 0.9217
7.3138 27.0643 2.7269 0.8934
2.5416 24.6098 2.4065 0.9054
-0.2763 15.4699 1.5050 0.9397
-1.5149 26.0400 2.5371 0.9005
-2.4734 25.0630 2.4497 0.9037
2.1982 -38.8883 3.7886 0.8551
3.3327 -18.6070 1.8387 0.9268
9.3596 -42.3541 4.2191 0.8400
7.9257 -30.0663 3.0244 0.8825
9.0990 -29.6241 3.0143 0.8829
-36.4560 -33.8411 4.2824 0.8190
0.8858 -38.8576 3.3462 0.8555
9.6520 -42.3525 3.7397 0.8400
10.6576 -29.6713 2.7143 0.8811
15.6471 -23.5538 2.4345 0.8927
14.0896 -15.2033 1.7846 0.9201
13.8310 -13.7689 1.6802 0.9246
13.6364 -12.5237 1.5940 0.9284
12.8796 -9.2362 1.3645 0.9384
12.4189 -7.4715 1.2478 0.9435
12.1645 -6.0435 1.1694 0.9469
8.7924 -3.9354 0.8293 0.9621
11.5581 -4.0928 1.0556 0.9520
11.4525 -3.0444 1.0202 0.9535
11.4121 -2.5468 1.0067 0.9541
11.8222 -2.1428 1.0344 0.9529
4.8216 -0.2826 0.4158 0.9808
4.7464 0.1043 0.4087 0.9811
4.8573 0.3026 0.4190 0.9807
12.1625 1.7479 1.0579 0.9519
12.2687 2.2705 1.0742 0.9511
12.5140 3.3760 1.1159 0.9493
12.6574 3.9676 1.1420 0.9481
12.7361 4.5629 1.1647 0.9471
12.7814 5.1685 1.1870 0.9462
12.8331 5.8007 1.2125 0.9450
11.4295 5.7310 1.1008 0.9500
10.3236 5.7075 1.0156 0.9537
9.8949 6.0027 0.9964 0.9546
9.8250 7.1006 1.0436 0.9525
12.6583 10.7994 1.4325 0.9354
12.8977 11.9332 1.5128 0.9319
13.1782 13.2159 1.6068 0.9278
12.4308 14.6552 1.6545 0.9257
10.5548 14.6929 1.5575 0.9299
6.1687 9.3604 0.9651 0.9560
8.8494 14.6818 1.4759 0.9335
8.0595 14.6767 1.4415 0.9350
8.5598 24.1096 2.2026 0.9024
7.4796 24.1027 2.1727 0.9036
7.3951 27.7269 2.4705 0.8912
3.2016 14.2909 1.2608 0.9429
1.5492 15.4997 1.3411 0.9394
1.3582 22.8510 1.9708 0.9122
0.3022 15.8128 1.3616 0.9385
-0.3482 16.4631 1.4177 0.9360
-36.6099 -33.7603 4.2874 0.8188
9.5058 -42.3535 3.7371 0.8401
8.0407 -30.1001 2.6823 0.8824
9.2058 -29.6242 2.6707 0.8829
13.8705 -27.8337 2.6774 0.8826
10.0056 -16.5854 1.6676 0.9252
14.9718 -20.8243 2.2081 0.9022
14.3812 -18.3932 2.0101 0.9105
14.1107 -15.3270 1.7936 0.9198
13.4127 -11.4339 1.5174 0.9317
13.1541 -10.3290 1.4399 0.9351
12.6472 -8.3796 1.3061 0.9409
12.2942 -6.7907 1.2092 0.9452
11.6305 -4.6978 1.0799 0.9509
11.5053 -3.6015 1.0379 0.9528
11.4562 -3.0858 1.0214 0.9535
11.4151 -2.5869 1.0077 0.9541
11.7707 -1.6869 1.0237 0.9534
4.7527 -0.1026 0.4093 0.9811
4.8479 0.2860 0.4181 0.9807
4.9568 0.4933 0.4289 0.9802
12.1542 1.7059 1.0566 0.9519
12.3752 2.7668 1.0917 0.9504
12.7329 4.5145 1.1631 0.9472
11.5371 5.7375 1.1093 0.9496
10.3828 5.6957 1.0196 0.9536
9.8168 7.0456 1.0403 0.9526
12.4370 9.7077 1.3583 0.9386
12.8767 11.8353 1.5057 0.9322
10.6221 14.6843 1.5603 0.9298
8.9156 14.6822 1.4788 0.9334
7.8014 15.5418 1.4972 0.9326
7.7495 17.1248 1.6183 0.9273
7.6876 18.9875 1.7636 0.9210
8.1557 22.7337 2.0794 0.9076
7.4062 27.4061 2.4441 0.8923
2.8475 15.3495 1.3440 0.9392
9.3595 -42.3536 3.7343 0.8402
9.0992 -29.6249 2.6681 0.8830
-36.3202 -33.7150 3.7138 0.8197
9.6521 -42.3529 3.2553 0.8401
8.1558 -30.1333 2.3394 0.8823
10.6579 -29.6721 2.3627 0.8812
13.1474 -29.0228 2.3877 0.8800
10.2027 -18.4185 1.5779 0.9190
10.0710 -16.5703 1.4531 0.9252
14.0687 -21.1778 1.9053 0.9030
13.5507 -18.7175 1.7317 0.9115
13.1307 -16.6803 1.5909 0.9184
13.0957 -14.1309 1.4438 0.9256
12.9104 -12.8524 1.3652 0.9295
12.7222 -11.6841 1.2945 0.9331
12.0582 -8.6471 1.1120 0.9422
11.8599 -7.8019 1.0638 0.9446
10.9396 -2.9081 0.8483 0.9556
10.9075 -2.4342 0.8375 0.9562
4.6997 -0.4658 0.3539 0.9812
4.5602 -0.0834 0.3418 0.9819
4.5610 0.1002 0.3419 0.9819
4.7685 0.4904 0.3592 0.9810
11.6030 1.6675 0.8785 0.9541
11.7938 2.6776 0.9063 0.9526
11.9056 3.2119 0.9241 0.9517
12.0287 3.7705 0.9447 0.9507
12.1314 4.3462 0.9657 0.9496
12.1631 4.9184 0.9832 0.9487
12.2025 5.5157 1.0035 0.9477
12.2455 6.1401 1.0266 0.9465
9.9309 6.0246 0.8705 0.9545
9.8880 7.1461 0.9143 0.9522
11.8744 10.1306 1.1697 0.9393
12.2697 12.3048 1.3022 0.9327
12.4304 14.6548 1.4401 0.9258
6.2084 9.4206 0.8455 0.9558
8.8491 14.6814 1.2846 0.9336
8.0593 14.6763 1.2548 0.9350
7.8585 15.7851 1.3214 0.9317
7.8106 17.4120 1.4301 0.9263
7.4794 24.1021 1.8912 0.9037
1.5605 15.6129 1.1759 0.9390
1.3549 22.7954 1.7113 0.9125
0.3049 15.9558 1.1959 0.9380
-1.5720 25.5695 1.9198 0.9023
-2.6104 25.5897 1.9276 0.9020
-30.6183 16.8463 2.6189 0.8692
2.3263 -38.8841 2.9192 0.8553
9.5060 -42.3544 3.2530 0.8402
8.1495 -30.5074 2.3664 0.8810
9.2235 -29.6813 2.3292 0.8828
10.5480 -29.6728 2.3600 0.8813
13.1435 -29.2701 2.4045 0.8792
13.8291 -27.7507 2.3236 0.8831
10.1389 -18.4464 1.5774 0.9190
9.9940 -16.5662 1.4499 0.9253
13.5890 -18.9009 1.7445 0.9109
13.1620 -16.8338 1.6013 0.9179
12.7426 -11.7804 1.3005 0.9328
12.0758 -8.7201 1.1162 0.9420
11.7391 -7.1152 1.0287 0.9464
11.6309 -6.4244 0.9957 0.9481
11.0806 -4.4757 0.8956 0.9532
10.9815 -3.4376 0.8623 0.9549
10.9099 -2.4724 0.8383 0.9561
4.7052 -0.4820 0.3545 0.9812
4.6349 -0.2870 0.3480 0.9815
4.5530 0.0851 0.3413 0.9819
4.6544 0.2746 0.3494 0.9815
11.7851 2.6348 0.9050 0.9527
12.1990 5.4658 1.0018 0.9478
12.2461 6.0901 1.0249 0.9466
9.9456 5.9888 0.8700 0.9545
9.8603 6.4920 0.8847 0.9537
9.8755 7.0878 0.9109 0.9524
11.8606 10.0516 1.1651 0.9395
12.0412 11.0674 1.2256 0.9365
10.6283 14.6929 1.3590 0.9298
8.1225 14.6767 1.2571 0.9349
7.8621 15.6629 1.3133 0.9321
7.7353 19.1053 1.5446 0.9206
7.5666 24.1026 1.8932 0.9036
7.5008 27.7561 2.1546 0.8911
2.7046 14.5794 1.1112 0.9423
1.4301 22.7943 1.7116 0.9125
-30.6488 18.6456 2.6884 0.8660
8.1429 -30.8903 2.3940 0.8797
9.0994 -29.6256 2.3225 0.8831
4.9289 -47.5433 3.0497 0.8257
8.0253 -29.6510 1.9599 0.8842
12.9293 -28.5412 1.9992 0.8820
13.6017 -27.0708 1.9330 0.8857
10.0688 -16.5667 1.2369 0.9252
12.7815 -19.2402 1.4738 0.9116
12.4010 -14.5115 1.2179 0.9263
12.0797 -12.0254 1.0875 0.9340
11.8877 -10.9177 1.0298 0.9374
11.5154 -8.9811 0.9318 0.9431
11.3390 -8.1314 0.8903 0.9456
11.1147 -6.6868 0.8276 0.9493
8.8526 -3.9623 0.6188 0.9619
10.5367 -3.7312 0.7132 0.9562
10.5014 -3.2494 0.7014 0.9569
10.4715 -2.7836 0.6913 0.9575
6.1167 -0.8561 0.3941 0.9755
4.5187 -0.4479 0.2897 0.9820
4.3767 -0.0800 0.2793 0.9826
4.5844 0.4715 0.2941 0.9817
11.1756 2.0682 0.7252 0.9555
11.6069 4.6935 0.7988 0.9511
11.6670 5.8501 0.8327 0.9490
10.3914 5.7450 0.7576 0.9535
9.8824 6.5533 0.7566 0.9536
9.9712 7.2063 0.7850 0.9519
11.0633 8.6942 0.8978 0.9452
11.1830 9.5407 0.9379 0.9428
11.6643 12.6797 1.0993 0.9333
11.8810 14.0071 1.1719 0.9290
11.4828 14.6980 1.1901 0.9280
9.0811 13.7797 1.0530 0.9360
8.8489 14.6810 1.0937 0.9336
7.9205 15.9096 1.1339 0.9312
7.8772 17.5607 1.2280 0.9258
7.6718 19.1292 1.3150 0.9207
1.6419 27.6248 1.7657 0.8950
-2.6396 25.8762 1.6596 0.9010
-31.1137 24.3487 2.5208 0.8535
-31.2351 22.4772 2.4553 0.8571
-31.4371 18.9838 2.3432 0.8631
0.7588 -38.9058 2.4828 0.8556
9.4952 -42.3064 2.7665 0.8405
8.0586 -30.1674 1.9923 0.8824
9.2237 -29.6820 1.9832 0.8829
13.0109 -28.9746 2.0266 0.8805
10.1550 -18.4756 1.3452 0.9190
12.4194 -14.6302 1.2245 0.9260
12.2327 -13.2871 1.1524 0.9302
11.9028 -11.0040 1.0343 0.9371
11.7283 -9.9980 0.9833 0.9401
11.5313 -9.0547 0.9355 0.9429
11.3520 -8.1975 0.8934 0.9454
11.1211 -6.7406 0.8297 0.9492
11.0474 -6.1021 0.8053 0.9507
10.6834 -5.3516 0.7624 0.9532
8.8363 -3.9899 0.6186 0.9619
10.5812 -4.2739 0.7281 0.9553
10.5398 -3.7713 0.7142 0.9561
10.5041 -3.2881 0.7023 0.9568
10.8271 -1.9993 0.7025 0.9568
6.1111 -0.8758 0.3939 0.9756
4.4568 -0.2759 0.2849 0.9823
7.0477 0.9892 0.4541 0.9719
11.2529 2.5159 0.7357 0.9548
11.5642 4.1001 0.7829 0.9520
11.6043 4.6481 0.7976 0.9511
10.4553 5.7355 0.7609 0.9533
9.9885 6.0146 0.7439 0.9543
11.0542 8.6284 0.8947 0.9453
11.3086 10.3940 0.9800 0.9403
11.4656 11.4230 1.0327 0.9372
11.6481 12.5788 1.0938 0.9336
11.5613 14.6985 1.1932 0.9278
9.1446 13.7771 1.0551 0.9359
8.1222 14.6763 1.0703 0.9350
7.9237 15.7856 1.1270 0.9317
7.8811 17.4155 1.2197 0.9262
8.6490 24.1090 1.6343 0.9024
7.5976 28.1144 1.8582 0.8898
2.0761 14.4022 0.9284 0.9433
1.5531 15.0379 0.9646 0.9412
1.6668 26.5678 1.6985 0.8988
0.3830 17.0946 1.0910 0.9338
-0.2665 14.9254 0.9525 0.9419
-0.8769 15.0732 0.9634 0.9413
-1.5724 15.9335 1.0216 0.9378
-30.7233 26.2780 2.5795 0.8504
-31.0980 24.5019 2.5261 0.8533
-31.1644 22.5823 2.4556 0.8571
-31.4269 19.1190 2.3471 0.8629
-31.7375 17.5985 2.3155 0.8646
-35.2458 -34.9995 3.1693 0.8195
0.6307 -38.9042 2.4826 0.8556
8.0153 -30.4060 2.0063 0.8816
8.4794 -27.6070 1.8427 0.8907
-36.1270 -33.5357 2.5970 0.8208
8.0019 -29.5644 1.6137 0.8845
11.9763 -29.5470 1.6797 0.8801
12.2598 -27.0633 1.5653 0.8878
12.9013 -25.6768 1.5140 0.8913
10.2342 -18.4754 1.1127 0.9189
10.0725 -16.5727 1.0218 0.9253
11.7115 -17.6295 1.1151 0.9187
11.7457 -14.9210 1.0005 0.9268
11.5698 -13.5388 0.9383 0.9312
11.3030 -11.2522 0.8403 0.9381
11.1540 -10.2438 0.7979 0.9411
10.9959 -9.3114 0.7591 0.9439
10.6321 -6.9942 0.6705 0.9503
10.5704 -6.3594 0.6499 0.9518
10.2452 -5.6150 0.6155 0.9543
10.1990 -5.0671 0.6000 0.9554
10.1227 -4.0501 0.5744 0.9573
10.0918 -3.5736 0.5640 0.9580
10.0651 -3.1143 0.5551 0.9587
10.0232 -2.2368 0.5411 0.9597
10.3917 -1.8836 0.5564 0.9586
6.1470 -0.8603 0.3270 0.9754
4.3099 -0.4272 0.2282 0.9828
4.2456 -0.2488 0.2241 0.9831
4.2315 -0.0774 0.2230 0.9832
4.2394 0.0931 0.2234 0.9832
4.3980 0.4523 0.2329 0.9824
5.3463 0.7683 0.2846 0.9786
10.6999 1.9801 0.5733 0.9573
10.7742 2.4461 0.5821 0.9567
10.8537 2.9281 0.5923 0.9560
11.0391 3.9549 0.6178 0.9541
11.0917 4.4852 0.6303 0.9532
11.1153 5.0242 0.6427 0.9523
11.1374 5.5845 0.6564 0.9513
10.0723 6.1104 0.6207 0.9539
10.0351 6.6546 0.6344 0.9529
10.5405 8.2834 0.7063 0.9477
10.5685 9.0165 0.7319 0.9459
10.6697 9.8718 0.7658 0.9434
11.0763 13.0584 0.9021 0.9337
9.0623 13.7512 0.8677 0.9362
8.8486 14.6806 0.9031 0.9336
8.0588 14.6755 0.8821 0.9351
7.7439 19.3090 1.0961 0.9200
8.5592 24.1078 1.3478 0.9026
7.6885 28.8272 1.5719 0.8874
-0.5319 25.1510 1.3254 0.9041
-31.0318 36.4341 2.5214 0.8256
-31.3678 33.9593 2.4356 0.8310
-31.4899 31.4517 2.3448 0.8367
-31.8308 29.3302 2.2804 0.8408
-32.2996 23.2432 2.0965 0.8527
-32.2632 21.3002 2.0368 0.8565
-32.2324 19.4640 1.9838 0.8600
-32.3205 17.7829 1.9436 0.8626
-36.3319 -33.5040 2.6038 0.8204
6.0278 -42.6911 2.2715 0.8414
8.5789 -27.6071 1.5231 0.8907
10.5486 -29.6743 1.6592 0.8815
11.8895 -29.6124 1.6812 0.8800
12.9473 -25.9811 1.5294 0.8902
10.0059 -16.5860 1.0205 0.9253
11.7347 -17.7912 1.1229 0.9182
11.4632 -12.4512 0.8917 0.9345
11.3159 -11.3394 0.8440 0.9378
11.1656 -10.3224 0.8011 0.9409
11.0101 -9.3857 0.7622 0.9437
10.8531 -8.5221 0.7270 0.9462
10.7192 -7.7404 0.6966 0.9484
10.6375 -7.0480 0.6723 0.9502
10.2026 -5.1108 0.6012 0.9553
10.1255 -4.0899 0.5753 0.9572
10.0671 -3.1513 0.5558 0.9586
10.0440 -2.7054 0.5480 0.9592
10.0247 -2.2718 0.5415 0.9597
10.3913 -1.9188 0.5567 0.9586
4.3166 -0.4422 0.2286 0.9828
4.2468 -0.2629 0.2242 0.9831
4.2326 -0.0913 0.2230 0.9832
4.2363 0.0791 0.2232 0.9832
4.3877 0.4366 0.2323 0.9825
4.5004 0.6317 0.2394 0.9820
10.6938 1.9426 0.5726 0.9574
10.9331 3.3876 0.6030 0.9552
11.0900 4.4421 0.6294 0.9533
11.1132 4.9793 0.6416 0.9524
10.0893 6.0753 0.6205 0.9539
10.0357 6.6075 0.6330 0.9530
10.5609 8.9500 0.7293 0.9461
10.6609 9.7987 0.7629 0.9436
10.9084 11.7800 0.8459 0.9377
11.2434 14.2944 0.9582 0.9297
9.1256 13.7485 0.8694 0.9360
7.9862 15.9101 0.9379 0.9312
7.7479 19.1365 1.0877 0.9206
8.2379 36.2129 1.9566 0.8618
2.5630 13.8162 0.7403 0.9453
1.4501 14.0409 0.7437 0.9450
0.9862 15.7191 0.8298 0.9389
0.3700 16.5126 0.8702 0.9360
-31.4145 31.5836 2.3470 0.8366
-32.2063 17.8584 1.9402 0.8629
-35.1116 -34.8662 2.6070 0.8202
9.3278 -42.2101 2.2775 0.8410
8.0136 -30.3996 1.6563 0.8817
8.4796 -27.6077 1.5216 0.8908
9.6527 -42.3555 1.8063 0.8404
8.6787 -27.6071 1.2033 0.8906
11.1040 -27.3949 1.2291 0.8884
11.9888 -26.4651 1.2080 0.8902
10.2690 -18.5383 0.8812 0.9187
10.0804 -16.5858 0.8070 0.9252
10.8078 -16.2691 0.8121 0.9248
10.6129 -10.5652 0.6227 0.9418
10.3628 -8.7753 0.5646 0.9471
10.1213 -6.6582 0.5037 0.9527
10.0775 -6.0629 0.4890 0.9540
9.7946 -5.3680 0.4644 0.9563
8.9131 -3.9894 0.4060 0.9617
9.6474 -2.5646 0.4151 0.9608
4.4199 -0.6186 0.1856 0.9823
4.1303 -0.4094 0.1726 0.9835
4.0967 -0.0749 0.1704 0.9837
4.1837 0.4303 0.1749 0.9833
10.2635 1.8994 0.4340 0.9591
10.3291 2.3450 0.4404 0.9585
10.3978 2.8051 0.4478 0.9578
10.6208 4.2948 0.4763 0.9552
10.6346 4.8070 0.4853 0.9544
10.6517 5.3410 0.4954 0.9534
10.6676 5.8977 0.5068 0.9524
10.6110 6.4371 0.5160 0.9515
10.5128 6.9713 0.5245 0.9508
10.4061 7.5206 0.5338 0.9499
10.4964 8.2487 0.5551 0.9480
10.0187 8.5474 0.5476 0.9486
10.1721 10.2012 0.5990 0.9440
10.2660 11.1596 0.6305 0.9411
10.3745 12.2310 0.6669 0.9378
10.5352 14.6656 0.7508 0.9303
8.8484 14.6802 0.7127 0.9337
8.0472 16.1640 0.7508 0.9303
8.0138 17.8652 0.8141 0.9246
7.8173 19.4921 0.8732 0.9194
7.7913 29.2126 1.2571 0.8860
2.5084 13.7744 0.5821 0.9455
0.8033 13.5155 0.5630 0.9472
-32.2971 32.2579 1.8980 0.8330
-30.3107 27.9295 1.7138 0.8479
-32.0892 19.3776 1.5586 0.8606
-33.8177 16.8707 1.5714 0.8596
-36.3070 -33.4810 2.0535 0.8206
-35.0460 -35.0309 2.0603 0.8201
9.5060 -42.3545 1.8049 0.8405
7.9159 -29.6331 1.2753 0.8844
8.5792 -27.6078 1.2021 0.8907
10.4266 -29.3313 1.2943 0.8828
11.0782 -27.5918 1.2363 0.8878
11.9384 -26.5863 1.2118 0.8899
11.6152 -23.3081 1.0828 0.9010
11.2932 -20.5463 0.9748 0.9104
10.0191 -16.6077 0.8065 0.9253
10.8234 -16.4095 0.8173 0.9243
10.9479 -14.0020 0.7390 0.9313
10.8528 -12.7848 0.6973 0.9351
10.7478 -11.6742 0.6598 0.9384
10.3729 -8.8425 0.5667 0.9469
10.1754 -7.3478 0.5219 0.9510
6.3141 -4.1835 0.3149 0.9701
10.0809 -6.1102 0.4901 0.9539
9.7975 -5.4116 0.4654 0.9562
9.7637 -4.8909 0.4541 0.9572
8.8979 -4.0178 0.4059 0.9617
9.3613 -3.7812 0.4198 0.9604
9.6851 -3.4655 0.4277 0.9597
9.9903 -1.8448 0.4224 0.9601
5.2517 -0.7526 0.2206 0.9790
4.1315 -0.4233 0.1727 0.9835
4.1436 0.2445 0.1726 0.9835
10.2581 1.8635 0.4335 0.9591
10.3237 2.3081 0.4399 0.9585
10.4653 3.2427 0.4556 0.9571
10.5449 3.7387 0.4652 0.9562
10.6664 5.8513 0.5059 0.9525
10.5208 6.9269 0.5238 0.9508
10.4159 7.4756 0.5331 0.9500
10.4950 8.1919 0.5536 0.9481
10.0840 9.2685 0.5695 0.9466
10.2578 11.0774 0.6277 0.9413
10.4897 13.3362 0.7055 0.9343
8.9146 14.6806 0.7141 0.9336
8.1218 14.6755 0.6974 0.9351
8.0496 16.0365 0.7461 0.9307
7.8208 19.3165 0.8665 0.9200
1.9585 13.5863 0.5707 0.9465
0.8449 13.4669 0.5610 0.9474
-32.1506 23.2969 1.6509 0.8530
-32.1184 21.3566 1.6037 0.8569
-32.0913 19.5233 1.5619 0.8604
-33.9234 17.0631 1.5789 0.8590
-36.5108 -33.4473 2.0588 0.8202
-35.0452 -34.8004 2.0535 0.8206
-35.9459 -33.3676 1.4951 0.8218
7.9040 -29.2027 0.9222 0.8860
10.2547 -28.5496 0.9247 0.8857
10.7737 -26.5800 0.8743 0.8916
10.5149 -20.9273 0.7139 0.9105
9.9785 -18.0138 0.6277 0.9209
10.0936 -16.6075 0.5924 0.9252
10.5911 -15.9429 0.5835 0.9263
10.3386 -14.2806 0.5374 0.9319
10.2514 -13.0227 0.5052 0.9358
10.1857 -11.9192 0.4779 0.9392
10.0038 -9.9588 0.4303 0.9451
9.9044 -9.0962 0.4099 0.9476
9.8107 -8.3077 0.3919 0.9499
9.7443 -7.5998 0.3767 0.9517
9.7082 -6.9619 0.3642 0.9533
9.6761 -6.3654 0.3531 0.9547
8.9134 -3.9895 0.2977 0.9617
9.3071 -3.2957 0.3010 0.9613
9.2939 -2.8757 0.2966 0.9618
9.2827 -2.4676 0.2928 0.9623
9.6132 -2.1453 0.3003 0.9613
3.9713 -0.2328 0.1213 0.9842
3.9739 0.0873 0.1212 0.9842
4.0037 0.2494 0.1223 0.9841
9.9218 2.2526 0.3101 0.9601
10.0421 3.1478 0.3208 0.9588
10.1828 4.1177 0.3348 0.9570
10.1941 4.6079 0.3410 0.9562
10.2017 5.1153 0.3479 0.9554
10.2115 5.6456 0.3557 0.9544
10.2016 6.1888 0.3637 0.9534
10.1008 6.6981 0.3695 0.9527
9.9983 7.2259 0.3760 0.9518
10.0191 7.8736 0.3884 0.9503
9.6922 8.2689 0.3884 0.9503
9.6862 10.5294 0.4361 0.9444
9.0250 13.6946 0.5000 0.9365
8.8481 14.6798 0.5225 0.9337
8.1357 14.8155 0.5152 0.9346
8.1119 16.2940 0.5548 0.9297
8.0838 18.0212 0.6021 0.9240
7.9634 25.6616 0.8191 0.8981
3.3710 15.0472 0.4701 0.9402
2.1708 15.4177 0.4746 0.9396
2.6920 26.9334 0.8251 0.8973
0.7970 13.4091 0.4095 0.9477
0.4507 23.5823 0.7190 0.9099
-32.0304 37.6066 1.5058 0.8206
-32.1634 34.8206 1.4450 0.8272
-32.1235 32.0845 1.3840 0.8339
-32.0550 27.2349 1.2822 0.8451
-32.0253 25.0621 1.2396 0.8498
-31.8296 22.9050 1.1954 0.8548
-31.9705 21.1069 1.1678 0.8579
-32.3174 17.7812 1.1244 0.8628
-34.8641 -34.8490 1.5027 0.8210
6.0281 -42.6931 1.3143 0.8415
7.6979 -34.2985 1.0715 0.8688
10.1974 -28.6865 0.9281 0.8853
10.6700 -26.5751 0.8730 0.8917
10.7777 -24.0014 0.8020 0.9001
10.5326 -21.1355 0.7199 0.9098
10.5939 -16.0616 0.5865 0.9259
10.1907 -12.0048 0.4800 0.9389
10.0948 -10.9650 0.4543 0.9421
10.0102 -10.0310 0.4320 0.9449
9.9125 -9.1640 0.4115 0.9474
9.8179 -8.3695 0.3933 0.9497
9.1120 -4.5645 0.3107 0.9600
8.8928 -4.0155 0.2974 0.9617
9.3082 -3.3307 0.3014 0.9612
9.2835 -2.5006 0.2931 0.9623
4.3122 -0.6180 0.1328 0.9827
3.9792 -0.4076 0.1219 0.9841
3.9719 -0.2459 0.1213 0.9842
3.9652 -0.0856 0.1209 0.9843
4.0012 0.2361 0.1222 0.9841
4.0837 0.5732 0.1257 0.9836
10.0368 3.1099 0.3203 0.9588
10.1039 3.5824 0.3268 0.9580
10.1764 4.0761 0.3342 0.9571
10.1936 4.5673 0.3405 0.9563
10.2010 5.0730 0.3473 0.9554
10.0068 7.1820 0.3755 0.9519
9.6201 9.5844 0.4140 0.9471
9.7507 11.4191 0.4577 0.9417
8.9144 14.6802 0.5235 0.9336
8.1394 14.7074 0.5124 0.9349
7.8950 19.4998 0.6413 0.9193
7.8031 24.8558 0.7942 0.9010
3.3632 14.7841 0.4622 0.9411
2.2168 15.3784 0.4736 0.9397
0.8561 13.6463 0.4168 0.9468
0.3900 17.4084 0.5308 0.9327
-0.2607 14.5988 0.4451 0.9432
-30.2268 32.9408 1.3628 0.8362
-32.1266 32.2995 1.3887 0.8333
-32.0575 27.4192 1.2859 0.8447
-31.9493 19.4368 1.1400 0.8610
-34.8645 -34.6209 1.4978 0.8215
5.8849 -42.6935 1.3138 0.8416
9.6340 -43.5957 1.3610 0.8364
-34.7233 -34.9375 0.9554 0.8211
6.1715 -42.6936 0.8366 0.8415
7.4489 -40.0664 0.7904 0.8496
9.4180 -41.3255 0.8221 0.8440
8.7341 -27.7834 0.5649 0.8900
9.7527 -21.5289 0.4584 0.9098
9.8186 -16.1550 0.3667 0.9272
9.7487 -14.6748 0.3417 0.9319
9.6725 -13.3605 0.3199 0.9361
9.5336 -10.2872 0.2720 0.9454
9.3915 -8.6252 0.2473 0.9503
9.3149 -7.2649 0.2291 0.9538
6.3553 -4.1808 0.1475 0.9700
9.0182 -5.4255 0.2041 0.9588
8.6667 -4.3058 0.1877 0.9620
8.8747 -3.5507 0.1854 0.9625
8.9591 -3.1725 0.1843 0.9627
8.9514 -2.7697 0.1817 0.9632
8.9695 -2.3844 0.1800 0.9636
9.2658 -2.0678 0.1841 0.9627
3.9585 -0.3924 0.0772 0.9842
3.9321 -0.2305 0.0764 0.9844
3.9062 -0.0714 0.0758 0.9845
3.9031 0.0858 0.0757 0.9845
3.9284 0.2448 0.0763 0.9844
3.9543 0.4067 0.0771 0.9842
9.4728 1.7531 0.1868 0.9622
9.5520 2.1686 0.1900 0.9616
9.6021 2.5904 0.1929 0.9610
9.6549 3.0264 0.1962 0.9603
9.7108 3.4790 0.2001 0.9596
9.7696 3.9506 0.2044 0.9587
9.7920 4.4261 0.2084 0.9579
9.7914 4.9096 0.2124 0.9571
9.7919 5.4135 0.2170 0.9562
9.7934 5.9412 0.2222 0.9552
9.1337 9.1598 0.2509 0.9496
9.2089 10.8568 0.2761 0.9446
6.5472 9.1140 0.2176 0.9561
8.1777 16.4261 0.3559 0.9292
8.1550 18.1798 0.3864 0.9234
8.0590 25.9697 0.5274 0.8969
2.7426 27.4397 0.5348 0.8955
0.3394 17.7586 0.3445 0.9314
-31.9519 31.9132 0.8759 0.8347
-31.8963 27.1001 0.8118 0.8458
-34.3296 22.6644 0.7978 0.8483
-35.9683 21.7200 0.8149 0.8453
-36.3394 16.3368 0.7727 0.8527
-36.0086 -33.2059 0.9500 0.8220
6.0282 -42.6940 0.8363 0.8416
8.1937 -44.8943 0.8851 0.8331
8.7344 -28.1073 0.5709 0.8889
9.7429 -27.4080 0.5642 0.8901
9.5299 -17.3384 0.3837 0.9239
9.7487 -16.1595 0.3660 0.9273
9.7574 -14.7934 0.3437 0.9316
9.6398 -12.3290 0.3035 0.9393
9.5382 -10.3604 0.2731 0.9452
9.4733 -9.4930 0.2601 0.9478
9.3973 -8.6877 0.2482 0.9501
9.3449 -7.9662 0.2382 0.9521
9.0044 -4.9736 0.1995 0.9597
8.6595 -3.9101 0.1843 0.9627
8.9452 -2.4095 0.1797 0.9636
9.2449 -1.7071 0.1823 0.9631
3.9607 -0.4058 0.0772 0.9842
3.9010 0.0729 0.0757 0.9845
9.5047 1.7266 0.1874 0.9621
9.5480 2.1347 0.1898 0.9616
9.6505 2.9902 0.1959 0.9604
9.7914 4.8693 0.2121 0.9572
9.7918 5.3715 0.2166 0.9563
9.7933 5.8971 0.2217 0.9553
9.7293 6.4058 0.2259 0.9545
9.6247 6.9077 0.2298 0.9537
9.5734 8.1132 0.2434 0.9510
9.1310 9.0971 0.2500 0.9497
9.1658 9.8981 0.2616 0.9475
9.2510 11.7613 0.2902 0.9419
8.1794 16.2949 0.3536 0.9297
8.1570 18.0252 0.3837 0.9239
7.9706 19.6865 0.4119 0.9185
8.6481 24.1065 0.4967 0.9026
8.0628 25.6831 0.5221 0.8979
3.3787 14.8523 0.2954 0.9409
1.6423 26.1771 0.5087 0.9004
0.5299 23.6518 0.4588 0.9097
-31.8351 37.6274 0.9559 0.8210
-31.9545 32.1264 0.8788 0.8342
-35.2078 32.6568 0.9314 0.8252
-31.8984 27.2831 0.8141 0.8454
-31.6696 22.9484 0.7585 0.8552
-34.0874 22.6659 0.7939 0.8489
-35.9638 21.8791 0.8165 0.8450
-36.3361 16.4793 0.7738 0.8525
-34.7967 -34.5536 0.9511 0.8219
5.3354 -38.7067 0.7578 0.8553
8.0614 -45.0076 0.8868 0.8328
7.5813 -34.3070 0.6814 0.8689
8.1670 -30.1746 0.2598 0.8825
8.8438 -28.1323 0.2451 0.8887
8.9778 -22.1494 0.1986 0.9088
8.9213 -19.6937 0.1797 0.9172
9.1711 -15.0897 0.1468 0.9318
9.0969 -12.5654 0.1289 0.9398
9.0702 -10.6138 0.1160 0.9457
8.9494 -8.2191 0.1010 0.9526
8.6487 -4.2968 0.0803 0.9621
8.6400 -3.4568 0.0773 0.9635
8.6333 -2.6713 0.0751 0.9645
8.6333 -2.2950 0.0742 0.9649
8.9435 -1.9959 0.0762 0.9640
8.9564 -1.6234 0.0757 0.9642
3.9910 -0.5586 0.0335 0.9840
3.9547 -0.3920 0.0330 0.9842
3.8998 0.0857 0.0324 0.9845
3.9251 0.2446 0.0327 0.9844
3.9509 0.4063 0.0330 0.9842
3.9828 0.5724 0.0334 0.9840
9.2089 2.0907 0.0785 0.9629
9.2521 2.4960 0.0796 0.9624
9.2971 2.9143 0.0810 0.9618
9.3442 3.3476 0.0825 0.9611
9.3897 3.7969 0.0842 0.9603
9.4154 4.7211 0.0875 0.9587
9.4081 5.2014 0.0893 0.9579
9.3689 6.2128 0.0934 0.9560
9.1616 7.8162 0.1001 0.9530
8.9232 8.2559 0.1010 0.9525
8.7040 9.4617 0.1069 0.9499
8.7809 13.3242 0.1326 0.9382
8.8083 14.6138 0.1418 0.9340
8.8881 22.1622 0.1985 0.9089
9.2779 34.7862 0.2992 0.8659
3.1692 14.1465 0.1205 0.9437
1.4418 24.2575 0.2020 0.9074
-31.8339 37.3759 0.4080 0.8217
-30.0946 32.5809 0.3686 0.8374
-30.0855 30.0490 0.3534 0.8436
-31.7392 26.9667 0.3462 0.8465
-30.0261 21.6072 0.3075 0.8625
-30.2407 19.9649 0.3012 0.8651
-29.8273 16.4112 0.2829 0.8727
-35.5974 17.7586 0.3306 0.8529
-36.0578 -33.2512 0.4077 0.8218
5.4657 -38.7101 0.3249 0.8552
8.8452 -28.4640 0.2477 0.8876
9.0556 -25.4744 0.2247 0.8975
8.9830 -22.3734 0.2004 0.9081
8.8959 -16.1849 0.1535 0.9288
9.0972 -12.6533 0.1295 0.9396
9.0405 -9.8197 0.1109 0.9480
8.9318 -7.6141 0.0975 0.9541
8.6604 -5.2491 0.0842 0.9603
8.6403 -3.4900 0.0774 0.9634
8.6367 -3.0904 0.0762 0.9640
8.6336 -2.7026 0.0752 0.9645
8.9425 -2.0266 0.0762 0.9640
8.9262 -1.6483 0.0754 0.9643
3.9569 -0.4054 0.0331 0.9842
3.9305 -0.2433 0.0327 0.9844
3.9487 0.3930 0.0330 0.9843
9.1687 1.6656 0.0775 0.9634
9.2056 2.0581 0.0784 0.9630
9.3402 3.3116 0.0824 0.9611
9.4160 4.6827 0.0874 0.9588
9.2709 6.6538 0.0948 0.9554
8.6894 8.6571 0.1019 0.9521
8.7029 9.3982 0.1065 0.9501
8.7356 11.1061 0.1174 0.9450
8.2289 18.1841 0.1659 0.9233
8.0476 19.8766 0.1782 0.9178
8.6479 24.1059 0.2129 0.9026
8.1597 25.9918 0.2264 0.8968
9.2659 34.2877 0.2952 0.8676
0.5369 23.9663 0.1992 0.9086
-0.2598 14.5468 0.1209 0.9435
-31.8362 37.6287 0.4097 0.8211
-29.9121 32.5979 0.3677 0.8378
-35.1046 27.6586 0.3714 0.8363
-30.2388 20.1069 0.3018 0.8648
-29.8286 16.5400 0.2835 0.8725
-37.0693 16.8118 0.3383 0.8497
-36.3497 -33.2997 0.4097 0.8210
-34.7042 -34.4617 0.4065 0.8223
5.8852 -42.6955 0.3582 0.8416
8.6536 -48.3135 0.4079 0.8217
8.5972 -32.6134 0.2803 0.8738
-35.4502 -32.9075 -0.1340 0.8241
5.5967 -38.7172 -0.1084 0.8551
7.8324 -34.3682 -0.0977 0.8685
8.1282 -30.0312 -0.0862 0.8830
8.1605 -25.9586 -0.0754 0.8969
8.1852 -22.7881 -0.0671 0.9077
8.2363 -16.3924 -0.0508 0.9292
8.7150 -15.7329 -0.0498 0.9306
8.5496 -14.0670 -0.0456 0.9363
8.5640 -12.8915 -0.0429 0.9400
8.5734 -9.2511 -0.0349 0.9508
8.5625 -8.5240 -0.0335 0.9528
8.5577 -7.2467 -0.0311 0.9561
8.5869 -6.6971 -0.0302 0.9574
8.3338 -3.7301 -0.0253 0.9641
8.3351 -3.3348 -0.0249 0.9647
8.3372 -2.5797 -0.0242 0.9657
8.6431 -1.9288 -0.0245 0.9652
3.9579 -0.5539 -0.0111 0.9841
3.9247 -0.2300 -0.0109 0.9844
3.9218 0.2443 -0.0109 0.9844
3.9586 0.5689 -0.0111 0.9841
8.8583 1.6393 -0.0250 0.9646
8.8903 2.0184 -0.0253 0.9642
8.9268 2.4083 -0.0256 0.9637
8.9650 2.8102 -0.0260 0.9631
9.0041 3.2258 -0.0265 0.9625
9.0383 3.6548 -0.0270 0.9618
9.0738 4.1015 -0.0276 0.9610
9.0370 5.4823 -0.0293 0.9586
9.0174 5.9797 -0.0300 0.9576
8.9333 6.4562 -0.0305 0.9569
8.8226 6.9333 -0.0311 0.9561
8.7269 7.4453 -0.0318 0.9552
8.7496 8.0953 -0.0330 0.9534
8.2904 8.3141 -0.0325 0.9541
8.2842 9.0053 -0.0339 0.9522
8.2743 10.5911 -0.0372 0.9477
6.4859 9.0287 -0.0308 0.9565
8.2327 16.5366 -0.0512 0.9288
8.2194 18.3233 -0.0556 0.9228
8.2029 20.4537 -0.0611 0.9156
8.1248 30.4629 -0.0873 0.8815
8.0799 36.0665 -0.1024 0.8626
8.4176 46.2234 -0.1302 0.8287
2.6184 26.1970 -0.0729 0.9000
-0.3140 14.8477 -0.0411 0.9423
-31.4064 31.3683 -0.1230 0.8373
-31.3906 28.9246 -0.1183 0.8430
-31.5838 26.8346 -0.1148 0.8472
-35.3399 27.6561 -0.1243 0.8357
-31.3260 22.5426 -0.1069 0.8569
-31.3020 18.9022 -0.1013 0.8639
-29.6320 16.3037 -0.0937 0.8735
-35.5956 17.7576 -0.1102 0.8529
5.5357 -24.6646 -0.0700 0.9038
8.2034 -20.4316 -0.0610 0.9157
8.7083 -15.8436 -0.0501 0.9302
8.5511 -14.1745 -0.0459 0.9359
8.5841 -11.9397 -0.0407 0.9429
8.5989 -10.9978 -0.0387 0.9457
8.6016 -10.1328 -0.0368 0.9482
8.5762 -9.3154 -0.0351 0.9506
8.5630 -8.5808 -0.0336 0.9527
8.5842 -6.7406 -0.0302 0.9573
6.2297 -4.1276 -0.0207 0.9706
8.3288 -5.0482 -0.0270 0.9618
8.3337 -3.7630 -0.0253 0.9641
3.9646 -0.5682 -0.0111 0.9841
3.9497 -0.4046 -0.0110 0.9842
3.9268 -0.2431 -0.0109 0.9844
3.9010 -0.0842 -0.0108 0.9845
3.9453 0.3926 -0.0110 0.9843
3.9578 0.5555 -0.0111 0.9841
8.9238 2.3760 -0.0256 0.9637
9.0011 3.1913 -0.0265 0.9625
9.0709 4.0642 -0.0275 0.9610
9.0684 4.5098 -0.0281 0.9603
9.0545 4.9671 -0.0286 0.9595
9.0386 5.4426 -0.0292 0.9587
9.0190 5.9381 -0.0299 0.9577
8.8306 6.8927 -0.0310 0.9562
8.2799 9.6967 -0.0353 0.9503
8.2747 10.5201 -0.0371 0.9479
8.2446 14.8974 -0.0472 0.9342
8.2047 20.2646 -0.0606 0.9163
8.1847 22.8148 -0.0671 0.9076
8.1276 30.0756 -0.0863 0.8828
1.5246 14.7623 -0.0411 0.9424
-31.6518 37.4108 -0.1358 0.8220
-31.4077 31.5767 -0.1234 0.8368
-31.3443 29.0733 -0.1184 0.8428
-31.3147 20.8223 -0.1042 0.8603
-31.2918 17.3513 -0.0991 0.8666
-35.5373 17.8749 -0.1102 0.8529
8.1220 -30.8109 -0.0883 0.8803
6.5062 -45.0089 -0.6300 0.8337
5.6202 -24.6610 -0.3504 0.9038
7.2402 -26.7503 -0.3839 0.8951
7.6221 -16.8256 -0.2559 0.9288
8.1004 -16.1219 -0.2499 0.9304
8.0096 -14.4595 -0.2290 0.9360
8.0367 -13.2232 -0.2144 0.9400
8.1240 -11.2216 -0.1919 0.9461
8.1697 -9.5601 -0.1742 0.9509
8.1886 -8.1518 -0.1601 0.9548
6.2518 -4.1127 -0.1037 0.9705
8.0224 -4.8265 -0.1297 0.9632
8.0309 -4.4014 -0.1269 0.9640
8.0510 -3.2212 -0.1201 0.9659
8.0561 -2.8528 -0.1184 0.9664
8.0606 -2.4941 -0.1169 0.9668
8.3468 -2.2188 -0.1196 0.9660
8.3783 -1.5186 -0.1180 0.9665
3.9493 -0.5527 -0.0552 0.9842
3.9210 -0.2298 -0.0544 0.9844
3.8953 -0.0712 -0.0540 0.9845
3.9409 0.4053 -0.0549 0.9843
8.5931 1.9509 -0.1221 0.9654
8.6557 2.7132 -0.1257 0.9644
8.6852 3.1116 -0.1278 0.9638
8.7122 3.5230 -0.1302 0.9631
8.7397 3.9505 -0.1329 0.9624
8.7010 5.2784 -0.1410 0.9601
8.6745 5.7523 -0.1442 0.9592
7.9030 8.5909 -0.1617 0.9544
7.8818 9.2923 -0.1688 0.9524
6.4804 9.0211 -0.1539 0.9565
7.7639 12.8809 -0.2083 0.9416
7.6164 16.9791 -0.2578 0.9283
7.5475 18.8193 -0.2809 0.9221
7.2263 27.0943 -0.3884 0.8939
7.0523 31.4797 -0.4469 0.8789
7.2140 39.6141 -0.5578 0.8512
6.6972 47.5663 -0.6654 0.8252
0.8807 14.8174 -0.2056 0.9423
-31.4687 36.9471 -0.6723 0.8235
-16.4519 16.4319 -0.3221 0.9112
-35.4357 32.6519 -0.6675 0.8247
-31.4298 26.7037 -0.5713 0.8479
-35.3386 27.6550 -0.6216 0.8357
-31.4099 22.6030 -0.5361 0.8566
-34.3252 22.6615 -0.5698 0.8483
-36.4465 22.0088 -0.5898 0.8434
-32.3111 17.7777 -0.5109 0.8628
-39.4429 17.7320 -0.5991 0.8411
6.4724 -45.8399 -0.6413 0.8309
5.5375 -24.6729 -0.3503 0.9038
7.2280 -27.0581 -0.3880 0.8940
7.3604 -23.6859 -0.3436 0.9055
7.5482 -18.7998 -0.2806 0.9222
7.6170 -16.9627 -0.2576 0.9283
8.0120 -14.5767 -0.2304 0.9356
7.9863 -13.2383 -0.2142 0.9400
8.1572 -10.4328 -0.1835 0.9484
8.1709 -9.6254 -0.1749 0.9507
8.1784 -8.8833 -0.1673 0.9528
8.1879 -8.2049 -0.1606 0.9547
8.1978 -7.5788 -0.1547 0.9563
8.2771 -6.4994 -0.1458 0.9588
8.0217 -4.8620 -0.1299 0.9632
8.0302 -4.4355 -0.1271 0.9640
8.0378 -4.0264 -0.1245 0.9647
8.0505 -3.2518 -0.1203 0.9659
8.0558 -2.8825 -0.1185 0.9664
8.0603 -2.5231 -0.1170 0.9668
8.3770 -1.5469 -0.1180 0.9665
3.9500 -0.5661 -0.0553 0.9842
3.9412 -0.4038 -0.0549 0.9843
3.9231 -0.2429 -0.0544 0.9844
3.8973 -0.0841 -0.0540 0.9845
3.8912 0.0727 -0.0539 0.9846
3.9163 0.2311 -0.0543 0.9844
3.9401 0.3921 -0.0549 0.9843
3.9494 0.5543 -0.0552 0.9842
8.5909 1.9207 -0.1219 0.9654
8.6210 2.2953 -0.1236 0.9649
8.7375 3.9149 -0.1326 0.9624
8.7455 4.3492 -0.1353 0.9617
8.7031 5.2406 -0.1407 0.9602
8.6767 5.7128 -0.1439 0.9593
8.5231 6.6527 -0.1498 0.9577
8.3193 7.6465 -0.1565 0.9558
7.8600 9.9928 -0.1761 0.9504
7.7670 12.7907 -0.2073 0.9419
7.6781 15.2963 -0.2371 0.9338
7.5536 18.6566 -0.2788 0.9226
7.3685 23.4715 -0.3408 0.9063
7.0686 31.0726 -0.4414 0.8803
6.7681 46.9506 -0.6571 0.8272
-35.2041 32.6534 -0.6652 0.8252
-35.1019 27.6565 -0.6191 0.8363
-31.2489 22.6436 -0.5346 0.8569
-34.0831 22.6630 -0.5670 0.8490
-36.4473 22.1733 -0.5910 0.8431
-32.0637 17.7793 -0.5079 0.8636
-32.5583 16.3765 -0.5049 0.8643
-40.4363 16.4104 -0.6045 0.8398
-35.8637 -32.8545 -0.6738 0.8232
-34.4868 -34.2459 -0.6733 0.8233
-16.6819 -27.3702 -0.4440 0.8797
6.7932 -37.9269 -0.5338 0.8572
5.4756 -24.7783 -0.3515 0.9035
7.3508 -23.9326 -0.3468 0.9047
-35.2560 -32.7272 -1.1997 0.8249
-34.1745 -34.3853 -1.2090 0.8237
4.8713 -46.9873 -1.1781 0.8278
5.5168 -38.1645 -0.9617 0.8570
5.9598 -32.0569 -0.8131 0.8777
5.6239 -24.6775 -0.6312 0.9037
6.9993 -17.2680 -0.4647 0.9282
7.4120 -16.3618 -0.4480 0.9307
7.5481 -12.4193 -0.3624 0.9435
7.6237 -11.4761 -0.3436 0.9464
7.6881 -10.6195 -0.3270 0.9489
7.7365 -9.8280 -0.3119 0.9512
7.8173 -7.7822 -0.2751 0.9568
7.8452 -7.2050 -0.2656 0.9583
7.9471 -6.7296 -0.2597 0.9592
7.7041 -5.5247 -0.2364 0.9628
7.7756 -3.4802 -0.2124 0.9665
7.7855 -3.1149 -0.2091 0.9670
7.8018 -2.4140 -0.2037 0.9679
8.0992 -1.8075 -0.2070 0.9673
8.1162 -1.4711 -0.2057 0.9675
3.9320 -0.3897 -0.0985 0.9843
3.9173 -0.2296 -0.0979 0.9844
3.8916 -0.0712 -0.0971 0.9845
3.8899 0.0855 -0.0970 0.9846
3.9151 0.2439 -0.0978 0.9844
3.9417 0.5665 -0.0993 0.9842
8.2917 1.5345 -0.2103 0.9668
8.3880 3.0051 -0.2222 0.9650
8.4293 3.8101 -0.2307 0.9637
8.4183 4.6542 -0.2399 0.9622
8.3890 5.0892 -0.2447 0.9615
8.3566 5.5415 -0.2501 0.9607
8.2267 6.4650 -0.2609 0.9590
8.1238 6.9308 -0.2663 0.9582
7.6792 8.3476 -0.2829 0.9556
7.4813 9.5762 -0.3031 0.9525
7.3867 11.2087 -0.3348 0.9477
7.2629 13.2260 -0.3763 0.9414
7.0957 15.8183 -0.4324 0.9330
6.9887 17.4259 -0.4682 0.9276
6.8601 19.3221 -0.5113 0.9212
6.5070 24.3972 -0.6297 0.9039
6.2564 27.9269 -0.7137 0.8918
5.9252 32.5368 -0.8248 0.8761
2.0563 14.6051 -0.3678 0.9427
1.3383 22.5166 -0.5625 0.9137
-0.3233 15.2872 -0.3813 0.9407
-31.2891 36.7362 -1.2034 0.8244
-31.2867 33.8715 -1.1499 0.8315
-32.7080 32.6683 -1.1529 0.8311
-31.3844 26.6652 -1.0270 0.8481
-31.2668 22.5000 -0.9607 0.8572
-34.3237 22.6605 -1.0257 0.8483
-32.3095 17.7769 -0.9197 0.8628
-33.7687 16.8462 -0.9411 0.8599
-39.4407 17.7310 -1.0784 0.8411
-41.8277 16.8150 -1.1243 0.8350
-34.2812 -34.2664 -1.2088 0.8237
4.8052 -47.8862 -1.2002 0.8248
5.9289 -32.4851 -0.8235 0.8762
5.5618 -24.7808 -0.6334 0.9034
6.8614 -19.3020 -0.5109 0.9213
6.9898 -17.4090 -0.4678 0.9277
7.3539 -16.3769 -0.4477 0.9307
7.7334 -9.8908 -0.3131 0.9510
7.7900 -8.4615 -0.2868 0.9550
7.8427 -7.2505 -0.2664 0.9582
7.7027 -5.5622 -0.2369 0.9627
7.7363 -4.6891 -0.2256 0.9645
7.7506 -4.2811 -0.2208 0.9652
7.7634 -3.8889 -0.2165 0.9659
7.7935 -2.7887 -0.2064 0.9674
7.8012 -2.4420 -0.2039 0.9678
8.0978 -1.8351 -0.2071 0.9673
8.1149 -1.4985 -0.2058 0.9675
3.9327 -0.4029 -0.0986 0.9843
3.8879 0.0726 -0.0970 0.9846
3.9410 0.5531 -0.0992 0.9842
8.2898 1.5059 -0.2101 0.9668
8.3648 2.5918 -0.2184 0.9656
8.3863 2.9734 -0.2219 0.9650
8.4276 3.7760 -0.2303 0.9637
8.4448 4.1996 -0.2352 0.9630
8.4204 4.6192 -0.2395 0.9623
8.2362 6.4288 -0.2606 0.9591
8.1323 6.8919 -0.2658 0.9582
8.0258 7.3767 -0.2719 0.9573
7.7217 8.3386 -0.2834 0.9555
6.5122 9.0026 -0.2771 0.9565
7.3342 12.0779 -0.3524 0.9450
