ply
format ascii 1.0
element vertex 1390
property float32 x
property float32 y
property float32 z
property float32 CosAngle
property uint32 ObjIdx
property uint32 ObjTag
end_header
3.9786 -0.3949 0.1219 0.3196 25 14
3.9714 -0.2336 0.1213 0.3212 25 14
3.9647 -0.0736 0.1209 0.3222 25 14
3.9736 0.0859 0.1212 0.3215 25 14
4.0034 0.2477 0.1223 0.3185 25 14
4.0383 0.4132 0.1237 0.2657 25 14
4.1084 0.5879 0.1265 0.2627 25 14
9.8691 1.8194 0.3059 0.2761 0 1
9.9204 2.2443 0.3100 0.2716 0 1
9.9782 2.6829 0.3150 0.2674 0 1
10.0403 3.1371 0.3207 0.2571 0 1
10.1075 3.6097 0.3272 0.2520 0 1
10.1803 4.1038 0.3346 0.2443 0 1
10.1936 4.5934 0.3408 0.2549 0 1
10.2011 5.0992 0.3476 0.2499 0 1
10.2108 5.6276 0.3554 0.2445 0 1
10.2048 6.1712 0.3635 0.2727 0 1
10.1042 6.6789 0.3692 0.2685 0 1
10.0020 7.2048 0.3758 0.2639 0 1
10.0187 7.8468 0.3879 0.2315 0 2
9.7243 8.2674 0.3891 0.6685 0 2
9.5684 8.8209 0.3967 0.2047 0 2
9.6217 9.6131 0.4146 0.1959 0 2
9.6827 10.4843 0.4350 0.1867 0 2
9.7527 11.4504 0.4585 0.1771 0 2
9.8335 12.5320 0.4856 0.1672 0 2
9.9275 13.7556 0.5171 0.1570 0 2
9.0686 13.6927 0.5006 0.8425 0 21
8.8956 14.6801 0.5232 0.8514 0 3
8.1370 14.7327 0.5130 0.4737 0 3
8.1135 16.1949 0.5522 0.4402 0 3
-31.7781 32.6191 0.8832 0.9412 0 3
-34.4826 32.6614 0.9212 0.6921 0 3
-31.9051 27.8762 0.8217 0.7033 0 3
-34.3555 27.6645 0.8555 0.6320 0 3
-31.8572 23.6080 0.7690 0.7514 0 3
-31.8405 21.6702 0.7470 0.9019 0 3
-35.9488 22.4081 0.8216 0.2881 0 3
-31.7954 18.0879 0.7095 0.8145 0 3
-31.5989 16.3324 0.6899 0.4343 0 3
-36.1110 16.8626 0.7730 0.4082 0 3
-34.9453 -33.7771 0.9426 0.7930 0 20
-34.4958 -36.1332 0.9689 0.7660 0 20
5.8119 -47.5396 0.9289 0.9935 0 3
3.8095 -18.6015 0.3683 0.9883 0 6
8.8674 -35.8969 0.7171 0.9482 0 3
8.4821 -29.2383 0.5905 0.9620 0 20
9.4099 -28.1566 0.5758 0.2282 0 3
10.0186 -26.3999 0.5477 0.0944 0 2
9.8365 -23.0798 0.4866 0.1062 0 2
9.6931 -20.4272 0.4385 0.1179 0 2
9.5775 -18.2524 0.3998 0.1293 0 2
9.4826 -16.4315 0.3679 0.1405 0 2
9.9386 -15.7268 0.3608 0.1658 0 2
9.7039 -14.0704 0.3315 0.1522 0 1
9.6562 -12.8633 0.3120 0.1708 0 1
9.6221 -11.7993 0.2953 0.1785 0 1
9.5669 -10.8140 0.2800 0.1863 0 1
9.5099 -9.9166 0.2665 0.1957 0 1
9.4336 -9.0774 0.2539 0.1978 0 1
9.3633 -8.3118 0.2428 0.2214 0 1
9.3280 -7.6332 0.2338 0.2332 0 1
9.3056 -7.0102 0.2260 0.2412 0 1
6.2528 -4.3280 0.1475 0.3310 14 6
9.2770 -5.8846 0.2131 0.2603 0 1
9.0115 -5.2209 0.2020 0.2566 0 25
8.9973 -4.7406 0.1972 0.2628 0 25
8.6664 -4.1304 0.1862 0.2717 0 9
8.6725 -3.7135 0.1830 0.9263 0 9
8.9640 -3.4192 0.1861 0.2785 0 25
8.9556 -3.0098 0.1832 0.2829 0 25
8.9483 -2.6124 0.1808 0.2867 0 25
8.9690 -2.2317 0.1793 0.2988 0 2
9.2692 -1.9146 0.1836 0.2930 0 1
9.2809 -1.5313 0.1824 0.2949 0 1
3.9716 -0.4924 0.0776 0.9626 25 14
3.9482 -0.3291 0.0768 0.9652 25 14
3.9221 -0.1687 0.0761 0.9741 25 14
3.8964 -0.0110 0.0756 0.9814 25 14
3.9127 0.1462 0.0759 0.9766 25 14
3.9382 0.3060 0.0766 0.9681 25 14
3.9642 0.4688 0.0774 0.9580 25 14
4.9311 0.7851 0.0968 0.0107 25 14
9.5235 1.9113 0.1884 0.2853 0 1
9.5700 2.3241 0.1910 0.2806 0 1
9.6210 2.7501 0.1941 0.2762 0 1
9.6748 3.1910 0.1976 0.2713 0 1
9.7317 3.6493 0.2016 0.2659 0 1
9.7890 4.1265 0.2060 0.2581 0 1
9.7914 4.5990 0.2098 0.2670 0 1
9.7911 5.0886 0.2140 0.2617 0 1
9.7920 5.5996 0.2188 0.2560 0 1
9.7868 6.1310 0.2240 0.2824 0 1
9.6837 6.6224 0.2275 0.2780 0 1
9.5781 7.1313 0.2316 0.2731 0 1
9.4077 8.2570 0.2428 0.6819 0 2
9.1127 8.6703 0.2440 0.2119 0 2
9.1449 9.4292 0.2548 0.2029 0 2
9.1816 10.2614 0.2671 0.1935 0 2
9.2236 11.1814 0.2811 0.1838 0 2
9.2719 12.2075 0.2973 0.1738 0 2
6.4246 9.2042 0.2177 0.7029 22 6
8.7521 13.6781 0.3149 0.5227 0 21
8.5810 14.6776 0.3298 0.8598 0 3
8.1909 15.3984 0.3383 0.4573 0 3
8.1707 16.9714 0.3653 0.4234 0 3
8.1467 18.8204 0.3978 0.3889 0 3
8.7444 22.6567 0.4710 0.9080 0 3
8.2066 24.1037 0.4938 0.9443 0 3
8.0433 27.1530 0.5493 0.2819 0 3
11.6388 46.0013 0.9203 0.0706 0 1
2.3996 14.1953 0.2792 0.4027 0 9
3.2533 25.4213 0.4971 0.5744 0 9
2.1091 24.1517 0.4702 0.6633 0 9
1.0569 22.5043 0.4370 0.9713 0 6
0.1609 23.8267 0.4621 0.2724 0 9
-32.0096 36.7615 0.9454 0.6113 0 3
-31.9751 33.8727 0.9034 0.6396 0 3
-33.4192 32.6682 0.9064 0.7034 0 3
-30.9428 27.9070 0.8082 0.5261 0 3
-32.0666 26.6648 0.8089 0.6441 0 3
-29.9464 22.9315 0.7315 0.9577 0 3
-31.8414 22.4128 0.7552 0.7651 0 3
-35.1076 22.6595 0.8104 0.5475 0 3
-31.8024 18.7610 0.7161 0.8069 0 3
-33.1017 17.7754 0.7287 0.4786 0 3
-36.0936 17.5523 0.7784 0.3042 0 3
-35.3352 -33.0934 0.9390 0.5541 0 20
-34.6744 -35.1934 0.9582 0.7801 0 20
6.2810 -42.6933 0.8369 0.9896 0 3
9.2167 -40.0074 0.7963 0.9101 0 3
7.9754 -29.2030 0.5871 0.9662 0 20
8.7456 -27.6081 0.5617 0.9551 0 3
9.8350 -27.2003 0.5610 0.2342 0 3
9.9025 -24.2886 0.5087 0.1016 0 2
9.7455 -21.4016 0.4561 0.1133 0 2
9.6200 -19.0572 0.4140 0.1248 0 2
9.5177 -17.1094 0.3797 0.1361 0 2
9.8551 -16.1526 0.3670 0.8706 0 2
9.7440 -14.6159 0.3407 0.1481 0 1
9.6267 -13.2537 0.3177 0.1667 0 24
9.6356 -12.2033 0.3016 0.1767 0 1
9.5914 -11.1920 0.2859 0.1825 0 1
9.5314 -10.2577 0.2716 0.1921 0 1
9.4640 -9.3982 0.2587 0.1942 0 1
9.3891 -8.6030 0.2470 0.2034 0 1
9.3407 -7.8924 0.2372 0.2267 0 1
9.3141 -7.2494 0.2289 0.2381 0 1
9.2932 -6.6515 0.2217 0.2459 0 1
6.3714 -4.1837 0.1478 0.3885 14 6
9.0175 -5.4159 0.2040 0.2541 0 25
9.0027 -4.9261 0.1990 0.2604 0 25
8.6667 -4.2994 0.1876 0.2964 0 9
8.6584 -3.8700 0.1839 0.2771 0 9
8.8794 -3.5481 0.1855 0.7867 0 9
8.9587 -3.1688 0.1843 0.2812 0 25
8.9510 -2.7669 0.1817 0.2852 0 25
8.9488 -2.3770 0.1796 0.2891 0 2
9.2655 -2.0666 0.1841 0.2911 0 1
9.2455 -1.6755 0.1822 0.2948 0 24
4.0602 -0.5684 0.0795 0.2659 25 14
3.9586 -0.3929 0.0772 0.9613 25 14
3.9322 -0.2313 0.0764 0.9708 25 14
3.9064 -0.0725 0.0758 0.9787 25 14
3.9029 0.0843 0.0757 0.9796 25 14
3.9282 0.2430 0.0763 0.9716 25 14
3.9539 0.4045 0.0771 0.9621 25 14
4.0385 0.5779 0.0791 0.2673 25 14
9.4717 1.7462 0.1868 0.2860 0 24
9.5507 2.1607 0.1899 0.2822 0 1
9.6007 2.5814 0.1928 0.2780 0 1
9.6533 3.0162 0.1962 0.2733 0 1
9.7090 3.4674 0.2000 0.2681 0 1
9.7678 3.9376 0.2043 0.2604 0 1
9.7918 4.4123 0.2083 0.2689 0 1
9.7911 4.8942 0.2123 0.2639 0 1
9.7915 5.3965 0.2168 0.2583 0 1
9.7931 5.9222 0.2220 0.2524 0 1
9.7243 6.4278 0.2261 0.2798 0 1
9.6198 6.9295 0.2299 0.2751 0 1
9.5165 7.4534 0.2344 0.2681 0 1
9.5727 8.1385 0.2437 0.2346 0 2
9.1022 8.3912 0.2401 0.2158 0 2
9.1318 9.1236 0.2504 0.2064 0 2
9.1667 9.9255 0.2620 0.1972 0 2
9.2064 10.8091 0.2754 0.1877 0 2
9.2521 11.7911 0.2907 0.1778 0 2
6.5930 9.1352 0.2185 0.3563 22 6
9.3664 14.1423 0.3290 0.1571 0 2
8.8953 14.6797 0.3329 0.8517 0 3
8.1980 14.8430 0.3289 0.4704 0 3
8.1790 16.3256 0.3541 0.4368 0 3
-31.8436 38.4267 0.4148 0.5971 0 3
-30.8790 34.3549 0.3839 0.7603 0 3
-30.0744 30.8703 0.3582 0.2271 0 3
-30.1514 28.5590 0.3452 0.2461 0 3
-31.5946 27.6049 0.3487 0.5120 0 3
-34.3542 27.6634 0.3666 0.6321 0 3
-30.0172 22.2445 0.3105 0.2633 0 3
-30.2329 20.5761 0.3039 0.2687 0 3
-29.8551 18.6098 0.2924 0.2127 0 3
-29.8329 16.9715 0.2853 0.7469 0 3
-34.3732 17.7664 0.3216 0.4648 0 3
-34.9644 -33.7956 0.4042 0.8778 0 20
-34.1805 -35.8029 0.4114 0.8623 0 20
5.8120 -47.5406 0.3981 0.9936 0 3
7.3770 -36.0216 0.3056 0.9819 0 3
8.3192 -33.6774 0.2883 0.2317 0 3
8.4823 -29.2390 0.2530 0.9621 0 20
9.0965 -27.2189 0.2385 0.0929 0 2
9.0149 -23.7551 0.2112 0.1049 0 2
8.9510 -21.0022 0.1897 0.1167 0 2
8.8997 -18.7551 0.1725 0.1284 0 2
8.8576 -16.8805 0.1584 0.1398 0 2
9.3031 -16.1205 0.1547 0.1657 0 2
9.1323 -14.4509 0.1421 0.1522 0 1
9.1002 -13.1951 0.1332 0.1704 0 1
9.0950 -12.1157 0.1259 0.1814 0 1
9.0854 -11.1411 0.1195 0.1890 0 1
9.0557 -10.2361 0.1136 0.1968 0 1
9.0111 -9.3965 0.1082 0.1990 0 1
8.9619 -8.6235 0.1034 0.2230 0 1
8.9402 -7.9363 0.0994 0.2320 0 1
8.9268 -7.3049 0.0959 0.2437 0 1
8.9271 -6.7250 0.0929 0.2744 0 1
6.2353 -4.3159 0.0630 0.6989 14 6
6.4759 -4.1078 0.0637 0.5703 14 6
8.6570 -5.0155 0.0832 0.2671 0 25
8.6514 -4.5583 0.0813 0.2733 0 25
8.6465 -4.1209 0.0796 0.2790 0 25
8.6421 -3.7005 0.0781 0.2843 0 25
8.6382 -3.2949 0.0768 0.2891 0 25
8.6348 -2.9020 0.0757 0.2934 0 25
8.6319 -2.5200 0.0747 0.2972 0 25
8.9130 -2.2178 0.0763 0.3008 0 2
8.9481 -1.8483 0.0759 0.3036 0 1
8.9613 -1.4785 0.0755 0.3054 0 1
3.9630 -0.4913 0.0332 0.9648 25 14
3.9444 -0.3288 0.0329 0.9662 25 14
3.9184 -0.1686 0.0326 0.9751 25 14
3.8927 -0.0110 0.0324 0.9825 25 14
3.9094 0.1461 0.0325 0.9776 25 14
3.9348 0.3057 0.0328 0.9691 25 14
3.9607 0.4684 0.0331 0.9589 25 14
4.3109 0.6864 0.0363 0.0927 25 14
9.1513 1.8366 0.0776 0.2954 0 24
9.2245 2.2402 0.0789 0.2912 0 1
9.2683 2.6492 0.0801 0.2867 0 1
9.3139 3.0720 0.0815 0.2818 0 1
9.3617 3.5106 0.0831 0.2764 0 1
9.4054 3.9648 0.0848 0.2687 0 1
9.4198 4.4245 0.0865 0.2776 0 1
9.4124 4.8918 0.0882 0.2723 0 1
9.4052 5.3784 0.0900 0.2666 0 1
9.3956 5.8859 0.0921 0.2601 0 1
9.3311 6.3813 0.0940 0.2886 0 1
9.2234 6.8672 0.0956 0.2837 0 1
9.1229 7.3800 0.0975 0.2762 0 1
9.1531 8.0335 0.1012 0.2420 0 2
8.6949 8.2728 0.0997 0.6509 0 2
8.6946 8.9649 0.1038 0.2134 0 2
8.7088 9.7330 0.1085 0.2041 0 2
8.7249 10.5769 0.1140 0.1944 0 2
8.7434 11.5117 0.1201 0.1844 0 2
6.4206 9.1984 0.0932 0.7163 22 6
8.7893 13.7362 0.1355 0.1634 0 2
8.5807 14.6772 0.1413 0.8600 0 3
8.2545 15.5179 0.1461 0.4538 0 3
8.2392 17.1137 0.1579 0.4200 0 3
8.2211 18.9924 0.1720 0.3854 0 3
8.7677 22.7172 0.2024 0.4103 0 3
8.2064 24.1031 0.2116 0.9445 0 3
8.1451 27.4966 0.2383 0.2784 0 3
9.3281 36.8684 0.3161 0.0704 0 2
3.1607 15.0031 0.1274 0.6690 0 9
2.0040 15.6594 0.1312 0.9852 0 9
0.1206 17.8554 0.1484 0.3907 0 9
-31.9214 36.6601 0.4040 0.7583 0 3
-30.0865 31.8721 0.3643 0.2172 0 3
-30.1069 29.4303 0.3499 0.2417 0 3
-31.7542 28.6387 0.3554 0.6969 0 3
-33.2758 27.6703 0.3597 0.6442 0 3
-30.9359 23.6892 0.3238 0.8794 0 3
-30.2356 21.2825 0.3073 0.2624 0 3
-30.2469 19.5222 0.2992 0.2749 0 3
-29.8398 17.6032 0.2879 0.5175 0 3
-30.1896 16.2116 0.2848 0.5580 0 3
-36.5060 17.7528 0.3374 0.4430 0 3
-37.6154 16.4586 0.3412 0.2991 0 3
-35.2646 -33.0273 0.4016 0.8876 0 20
-34.4911 -35.0073 0.4085 0.8686 0 20
8.4584 -44.8881 0.3796 0.1947 0 3
8.3608 -36.2922 0.3095 0.0634 0 3
8.1095 -29.6939 0.2558 0.2459 0 20
8.8428 -27.9149 0.2434 0.2825 0 3
9.0444 -25.0138 0.2211 0.1002 0 2
8.9743 -22.0121 0.1976 0.1121 0 2
8.9185 -19.5856 0.1789 0.1238 0 2
8.8732 -17.5776 0.1637 0.1354 0 2
8.9975 -16.1742 0.1538 0.9073 0 2
9.1655 -15.0223 0.1463 0.1416 0 1
9.1066 -13.6597 0.1364 0.1664 0 1
9.0964 -12.5237 0.1286 0.1776 0 1
9.0896 -11.5119 0.1219 0.1853 0 1
9.0687 -10.5821 0.1158 0.1930 0 1
8.9954 -9.6809 0.1098 0.1986 0 24
8.9779 -8.9155 0.1052 0.2047 0 1
8.9484 -8.1992 0.1009 0.2285 0 1
8.9305 -7.5459 0.0972 0.2404 0 1
8.9214 -6.9438 0.0940 0.2486 0 1
8.9417 -6.3999 0.0914 0.2789 0 1
6.3117 -4.1445 0.0628 0.7441 14 6
8.6594 -5.2008 0.0840 0.2646 0 25
8.6535 -4.7351 0.0820 0.2710 0 25
8.6483 -4.2902 0.0802 0.2769 0 25
8.6437 -3.8634 0.0787 0.2823 0 25
8.6396 -3.4523 0.0773 0.2873 0 25
8.6361 -3.0547 0.0761 0.2918 0 25
8.6330 -2.6686 0.0751 0.2958 0 25
8.6329 -2.2931 0.0742 0.2952 0 2
8.9432 -1.9947 0.0762 0.3025 0 1
8.9561 -1.6230 0.0756 0.3048 0 1
3.9914 -0.5588 0.0335 0.3090 25 14
3.9548 -0.3925 0.0330 0.9623 25 14
3.9285 -0.2310 0.0327 0.9718 25 14
3.9027 -0.0725 0.0324 0.9798 25 14
3.8996 0.0843 0.0324 0.9805 25 14
3.9248 0.2428 0.0327 0.9726 25 14
3.9505 0.4042 0.0330 0.9631 25 14
3.9764 0.5690 0.0334 0.3102 25 14
9.1707 1.6907 0.0775 0.2972 0 1
9.2078 2.0831 0.0785 0.2928 0 1
9.2509 2.4873 0.0796 0.2885 0 1
9.2958 2.9044 0.0809 0.2838 0 1
9.3427 3.3366 0.0825 0.2786 0 1
9.3882 3.7845 0.0841 0.2709 0 1
9.4228 4.2461 0.0859 0.2795 0 1
9.4153 4.7064 0.0875 0.2744 0 1
9.4080 5.1851 0.0893 0.2689 0 1
9.4001 5.6845 0.0913 0.2625 0 1
9.3725 6.1952 0.0934 0.2904 0 1
9.2660 6.6746 0.0949 0.2857 0 1
9.1583 7.1729 0.0967 0.2786 0 1
8.9539 8.2544 0.1012 0.7010 0 2
8.6895 8.6817 0.1021 0.2170 0 2
8.7030 9.4235 0.1066 0.2078 0 2
8.7184 10.2361 0.1118 0.1982 0 2
8.7359 11.1332 0.1176 0.1883 0 2
6.5315 9.0501 0.0928 0.8067 22 6
8.7792 13.2557 0.1321 0.1676 0 2
8.8063 14.5327 0.1412 0.1568 0 2
8.2598 14.9550 0.1420 0.4669 0 3
8.2455 16.4583 0.1530 0.4333 0 3
-31.6568 38.2013 -0.1374 0.6007 0 3
-31.4120 32.2433 -0.1247 0.6577 0 3
-31.3958 29.7377 -0.1198 0.6846 0 3
-31.5887 27.5997 -0.1162 0.7104 0 3
-34.3529 27.6624 -0.1222 0.6321 0 3
-30.5697 22.6539 -0.1054 0.9208 0 3
-31.3179 21.3145 -0.1050 0.7809 0 3
-31.3061 19.5142 -0.1022 0.8019 0 3
-31.2947 17.8031 -0.0997 0.8216 0 3
-31.3470 16.2022 -0.0978 0.5105 0 3
-37.9948 17.7423 -0.1162 0.4289 0 3
-38.9826 16.3301 -0.1171 0.2905 0 3
-34.8374 -33.6729 -0.1342 0.8851 0 20
-33.8923 -35.5010 -0.1360 0.9306 0 20
7.9759 -48.8563 -0.1371 0.0538 0 2
7.3769 -36.0208 -0.1019 0.9804 0 3
8.0590 -32.6242 -0.0931 0.9728 0 3
8.1435 -28.0709 -0.0810 0.0912 0 2
8.1720 -24.4524 -0.0714 0.1034 0 2
8.1942 -21.5923 -0.0640 0.1154 0 2
8.2119 -19.2681 -0.0580 0.1272 0 2
8.2264 -17.3364 -0.0532 0.1389 0 2
8.4976 -16.1943 -0.0507 0.9183 0 2
8.5757 -14.8601 -0.0475 0.1453 0 1
8.5542 -13.5362 -0.0444 0.1706 0 1
8.5720 -12.4291 -0.0418 0.1820 0 1
8.5916 -11.4451 -0.0396 0.1899 0 1
8.6055 -10.5526 -0.0377 0.1996 0 1
8.5604 -9.6762 -0.0358 0.2060 0 24
8.5658 -8.9322 -0.0343 0.2241 0 1
8.5596 -8.2364 -0.0329 0.2335 0 1
8.5554 -7.5947 -0.0317 0.2457 0 1
8.5671 -7.0105 -0.0307 0.2770 0 1
8.6003 -6.4788 -0.0298 0.2848 0 1
6.2176 -4.3037 -0.0209 0.8026 14 6
6.4607 -4.0982 -0.0212 0.5717 14 6
8.3294 -4.8257 -0.0267 0.2777 0 25
8.3312 -4.3896 -0.0261 0.2838 0 25
8.3327 -3.9713 -0.0256 0.2896 0 25
8.3341 -3.5686 -0.0251 0.2948 0 25
8.3353 -3.1794 -0.0247 0.2996 0 25
8.3363 -2.8017 -0.0244 0.3039 0 25
8.3372 -2.4340 -0.0241 0.3077 0 25
8.6346 -2.1485 -0.0247 0.3107 0 1
8.6486 -1.7865 -0.0245 0.3141 0 1
4.4583 -0.7356 -0.0125 0.0895 25 14
3.9544 -0.4902 -0.0110 0.9670 25 14
3.9407 -0.3285 -0.0110 0.9672 25 14
3.9147 -0.1684 -0.0109 0.9761 25 14
3.8891 -0.0110 -0.0108 0.9834 25 14
3.9061 0.1460 -0.0108 0.9785 25 14
3.9315 0.3054 -0.0109 0.9699 25 14
3.9527 0.4674 -0.0110 0.9680 25 14
4.1000 0.6528 -0.0115 0.2627 25 14
8.8368 1.7735 -0.0250 0.3059 0 24
8.9031 2.1621 -0.0254 0.3017 0 1
8.9405 2.5556 -0.0258 0.2973 0 1
8.9790 2.9615 -0.0262 0.2923 0 1
9.0162 3.3810 -0.0267 0.2848 0 1
9.0508 3.8153 -0.0272 0.2792 0 1
9.0756 4.2628 -0.0278 0.2881 0 1
9.0620 4.7097 -0.0283 0.2829 0 1
9.0479 5.1741 -0.0289 0.2772 0 1
9.0298 5.6568 -0.0295 0.2707 0 1
9.0033 6.1571 -0.0302 0.2991 0 1
8.8940 6.6220 -0.0307 0.2942 0 1
8.7893 7.1101 -0.0313 0.2867 0 1
8.6922 7.6291 -0.0320 0.2802 0 1
8.6717 8.2507 -0.0332 0.7360 0 2
8.2867 8.5442 -0.0330 0.2239 0 2
8.2824 9.2564 -0.0344 0.2146 0 2
8.2775 10.0345 -0.0360 0.2049 0 2
8.2720 10.8910 -0.0379 0.1949 0 2
6.4253 9.2051 -0.0311 0.5667 22 6
8.2584 12.9065 -0.0424 0.1739 0 2
8.2499 14.1114 -0.0453 0.1631 0 2
8.2400 15.4908 -0.0486 0.1519 0 2
8.2283 17.0910 -0.0526 0.1405 0 2
8.2141 18.9763 -0.0573 0.1289 0 2
8.1966 21.2375 -0.0631 0.1171 0 2
8.1751 24.0112 -0.0703 0.1051 0 2
8.1477 27.5055 -0.0795 0.0929 0 2
8.1117 32.0609 -0.0916 0.0806 0 2
8.5231 40.4572 -0.1145 0.0664 0 24
8.2107 48.5723 -0.1365 0.0802 0 24
1.9996 15.6247 -0.0436 0.9444 0 9
2.2170 25.3867 -0.0706 0.5974 0 9
1.2929 27.5285 -0.0763 0.4783 0 9
0.0993 14.6995 -0.0407 0.2432 0 9
-32.7986 37.6675 -0.1384 0.7583 0 3
-31.6268 33.5038 -0.1276 0.6468 0 3
-31.4020 30.6963 -0.1217 0.6742 0 3
-30.6144 27.6107 -0.1142 0.7981 0 3
-33.2745 27.6693 -0.1199 0.6443 0 3
-36.1099 27.6512 -0.1260 0.6130 0 3
-31.3227 22.0477 -0.1061 0.7723 0 3
-31.3106 20.2088 -0.1032 0.7938 0 3
-31.2991 18.4641 -0.1007 0.8141 0 3
-31.2881 16.8015 -0.0984 0.8330 0 3
-36.5040 17.7519 -0.1125 0.4431 0 3
-35.1382 -32.9089 -0.1334 0.8908 0 20
-34.3107 -34.8242 -0.1354 0.9343 0 20
5.6967 -38.7212 -0.1084 0.6674 0 6
8.0173 -42.5471 -0.1199 0.1662 0 3
7.9174 -34.3677 -0.0977 0.9759 0 3
8.1300 -29.7691 -0.0855 0.0864 0 2
8.1617 -25.7648 -0.0749 0.0986 0 2
8.1861 -22.6398 -0.0667 0.1107 0 2
8.2054 -20.1260 -0.0602 0.1226 0 2
8.2211 -18.0539 -0.0550 0.1344 0 2
8.2340 -16.3115 -0.0506 0.1459 0 2
8.5485 -14.0110 -0.0455 0.1585 0 1
8.5644 -12.8464 -0.0428 0.1769 0 1
8.5857 -11.8206 -0.0405 0.1860 0 1
8.6003 -10.8921 -0.0384 0.1958 0 1
8.6002 -10.0354 -0.0366 0.2035 0 1
8.5719 -9.2252 -0.0349 0.2057 0 1
8.5620 -8.5025 -0.0334 0.2298 0 1
8.5560 -7.8396 -0.0321 0.2390 0 1
8.5575 -7.2307 -0.0310 0.2509 0 1
8.5875 -6.6838 -0.0301 0.2818 0 1
8.6195 -6.1693 -0.0294 0.2893 0 1
6.2591 -4.1100 -0.0207 0.7710 14 6
8.3287 -5.0022 -0.0269 0.2751 0 25
8.3305 -4.5583 -0.0263 0.2815 0 25
8.3321 -4.1334 -0.0258 0.2874 0 25
8.3336 -3.7248 -0.0253 0.2928 0 25
8.3348 -3.3305 -0.0249 0.2978 0 25
8.3359 -2.9485 -0.0245 0.3023 0 25
8.3369 -2.5771 -0.0242 0.3063 0 25
8.4116 -2.2343 -0.0241 0.3173 0 2
8.6428 -1.9277 -0.0245 0.3131 0 1
8.6574 -1.5689 -0.0244 0.3153 0 1
3.9579 -0.5541 -0.0111 0.9641 25 14
3.9490 -0.3919 -0.0110 0.9709 25 14
3.9248 -0.2308 -0.0109 0.9728 25 14
3.8991 -0.0724 -0.0108 0.9807 25 14
3.8963 0.0842 -0.0108 0.9814 25 14
3.9215 0.2426 -0.0109 0.9735 25 14
3.9471 0.4038 -0.0110 0.9639 25 14
3.9584 0.5665 -0.0111 0.9636 25 14
8.8574 1.6329 -0.0250 0.3077 0 1
8.8894 2.0110 -0.0252 0.3041 0 1
8.9257 2.3999 -0.0256 0.2990 0 1
8.9638 2.8007 -0.0260 0.2943 0 1
9.0029 3.2152 -0.0265 0.2869 0 1
9.0371 3.6430 -0.0270 0.2815 0 1
9.0725 4.0882 -0.0276 0.2756 0 1
9.0674 4.5325 -0.0281 0.2850 0 1
9.0535 4.9897 -0.0286 0.2794 0 1
9.0374 5.4652 -0.0293 0.2731 0 1
9.0178 5.9608 -0.0299 0.2668 0 1
8.9373 6.4379 -0.0305 0.2962 0 1
8.8261 6.9127 -0.0311 0.2891 0 1
8.7308 7.4227 -0.0317 0.2828 0 1
8.7510 8.0673 -0.0330 0.2481 0 2
8.2906 8.2831 -0.0325 0.7942 0 2
8.2841 8.9699 -0.0338 0.2183 0 2
8.2795 9.7208 -0.0354 0.2087 0 2
8.2743 10.5449 -0.0371 0.1988 0 2
6.5153 9.0277 -0.0308 0.8248 22 6
8.2614 12.4739 -0.0414 0.1781 0 2
8.2534 13.6203 -0.0441 0.1674 0 2
8.2441 14.9265 -0.0472 0.1563 0 2
8.2331 16.4336 -0.0509 0.1450 0 2
-31.4723 37.9786 -0.6833 0.6041 0 3
-29.5816 32.9115 -0.6130 0.9736 0 3
-31.4516 32.2839 -0.6244 0.6611 0 3
-34.4791 32.6581 -0.6579 0.6923 0 3
-31.4329 27.4635 -0.5782 0.7139 0 3
-34.3516 27.6614 -0.6110 0.6321 0 3
-31.4154 23.2806 -0.5417 0.7621 0 3
-33.3067 22.6680 -0.5581 0.5679 0 3
-36.3346 22.6486 -0.5931 0.5344 0 3
-31.3882 17.8562 -0.5002 0.8251 0 3
-32.6077 16.8538 -0.5085 0.4648 0 3
-37.9927 17.7414 -0.5809 0.4289 0 3
-34.8403 -33.6757 -0.6712 0.9456 0 20
-33.7809 -35.3844 -0.6777 0.9366 0 20
-17.1612 -27.2912 -0.4466 0.3918 0 6
6.6735 -40.8784 -0.5738 0.0643 0 2
6.9530 -33.9511 -0.4801 0.0769 0 2
7.1526 -28.9549 -0.4132 0.0894 0 2
7.3021 -25.1705 -0.3631 0.1017 0 2
7.4180 -22.1963 -0.3242 0.1139 0 2
7.5104 -19.7904 -0.2932 0.1259 0 2
7.5856 -17.7984 -0.2680 0.1377 0 2
7.7349 -16.3004 -0.2499 0.9777 0 2
8.0259 -15.2955 -0.2393 0.1443 0 1
8.0082 -13.8768 -0.2219 0.1705 0 1
8.0567 -12.7489 -0.2089 0.1811 0 1
8.1013 -11.7466 -0.1977 0.1904 0 1
8.1397 -10.8431 -0.1878 0.2004 0 1
8.1712 -10.0201 -0.1791 0.2080 0 1
8.1728 -9.2381 -0.1709 0.2248 0 1
8.1831 -8.5331 -0.1638 0.2345 0 1
8.1918 -7.8825 -0.1575 0.2439 0 1
8.2132 -7.2909 -0.1521 0.2792 0 1
8.2563 -6.7562 -0.1478 0.2874 0 1
8.2107 -6.1854 -0.1424 0.2817 0 24
6.2341 -4.3151 -0.1050 0.8004 14 6
6.4455 -4.0886 -0.1057 0.5730 14 6
8.0257 -4.6498 -0.1285 0.2881 0 25
8.0338 -4.2329 -0.1258 0.2943 0 25
8.0409 -3.8323 -0.1234 0.3000 0 25
8.0473 -3.4458 -0.1213 0.3053 0 25
8.0529 -3.0716 -0.1194 0.3101 0 25
8.0577 -2.7081 -0.1178 0.3144 0 25
8.0632 -2.3540 -0.1164 0.3103 0 2
8.3526 -2.0783 -0.1192 0.3220 0 1
8.3404 -1.7228 -0.1180 0.3244 0 24
4.1346 -0.6822 -0.0581 0.2602 25 14
3.9458 -0.4892 -0.0551 0.9690 25 14
3.9370 -0.3282 -0.0547 0.9680 25 14
3.9110 -0.1682 -0.0542 0.9769 25 14
3.8855 -0.0109 -0.0538 0.9842 25 14
3.9028 0.1459 -0.0541 0.9792 25 14
3.9281 0.3052 -0.0546 0.9707 25 14
3.9444 0.4665 -0.0550 0.9700 25 14
4.0349 0.6424 -0.0566 0.3049 25 14
8.5756 1.7211 -0.1212 0.3168 0 1
8.6034 2.0893 -0.1226 0.3122 0 1
8.6352 2.4683 -0.1244 0.3077 0 1
8.6674 2.8587 -0.1264 0.3028 0 1
8.6947 3.2605 -0.1286 0.2953 0 1
8.7219 3.6767 -0.1311 0.2897 0 1
8.7495 4.1097 -0.1339 0.2837 0 1
8.7368 4.5406 -0.1364 0.2934 0 1
8.7167 4.9847 -0.1391 0.2877 0 1
8.6915 5.4448 -0.1421 0.2812 0 1
8.6643 5.9253 -0.1454 0.2747 0 1
8.5874 6.3936 -0.1483 0.3047 0 1
8.4791 6.8592 -0.1511 0.2971 0 1
8.3787 7.3539 -0.1544 0.2907 0 1
8.3772 7.9705 -0.1602 0.2553 0 2
8.0501 8.3003 -0.1602 0.8049 0 2
7.8957 8.8243 -0.1640 0.2251 0 2
7.8737 9.5450 -0.1714 0.2154 0 2
6.8494 9.0181 -0.1569 0.2127 22 6
6.4494 9.2397 -0.1561 0.5645 22 6
7.7879 12.1713 -0.2002 0.1844 0 2
7.7505 13.2571 -0.2127 0.1735 0 2
7.7069 14.4886 -0.2273 0.1624 0 2
7.6558 15.9018 -0.2445 0.1510 0 2
7.5950 17.5459 -0.2649 0.1394 0 2
7.5218 19.4891 -0.2894 0.1276 0 2
7.4319 21.8283 -0.3194 0.1156 0 2
7.3198 24.7107 -0.3570 0.1034 0 2
7.1759 28.3620 -0.4053 0.0911 0 2
6.9849 33.1559 -0.4694 0.0787 0 2
7.1124 42.0753 -0.5911 0.0694 0 1
2.0003 15.6303 -0.2183 0.9738 0 9
2.3600 27.0250 -0.3758 0.6857 0 9
1.2985 27.6476 -0.3834 0.2127 0 9
0.0994 14.7212 -0.2039 0.2992 0 9
-32.7976 37.6663 -0.6919 0.7583 0 3
-31.4555 33.3223 -0.6348 0.6503 0 3
-16.7436 16.3673 -0.3244 0.2441 0 6
-31.4364 28.3521 -0.5864 0.7039 0 3
-33.2733 27.6683 -0.5995 0.6442 0 3
-36.1085 27.6501 -0.6300 0.6130 0 3
-31.4077 22.1075 -0.5321 0.7758 0 3
-35.1031 22.6565 -0.5788 0.5476 0 3
-31.3913 18.5185 -0.5049 0.8175 0 3
-30.3894 16.3189 -0.4778 0.9137 0 3
-36.5021 17.7509 -0.5623 0.4430 0 3
-36.4998 15.9705 -0.5519 0.9495 0 3
-35.2505 -33.0140 -0.6690 0.9487 0 20
-34.1988 -34.7106 -0.6750 0.9403 0 20
5.7018 -38.7560 -0.5427 0.7501 0 6
6.8553 -36.3805 -0.5128 0.0720 0 2
7.0816 -30.7394 -0.4370 0.0845 0 2
7.2482 -26.5402 -0.3811 0.0969 0 2
7.3758 -23.2839 -0.3383 0.1091 0 2
7.4765 -20.6773 -0.3046 0.1212 0 2
7.5578 -18.5376 -0.2773 0.1331 0 2
7.6248 -16.7444 -0.2549 0.1448 0 2
8.1058 -16.0574 -0.2492 0.1723 0 2
8.0081 -14.3957 -0.2282 0.1513 0 1
8.0385 -13.1752 -0.2138 0.1770 0 1
8.0834 -12.1250 -0.2019 0.1886 0 1
8.1252 -11.1866 -0.1915 0.1965 0 1
8.1609 -10.3356 -0.1824 0.2063 0 1
8.1689 -9.5322 -0.1739 0.2063 0 1
8.1792 -8.8025 -0.1665 0.2308 0 1
8.1886 -8.1317 -0.1599 0.2403 0 1
8.1993 -7.5128 -0.1541 0.2528 0 1
8.2398 -6.9623 -0.1494 0.2842 0 1
8.2811 -6.4454 -0.1454 0.2922 0 1
8.2927 -5.9353 -0.1413 0.2519 0 1
6.2562 -4.1081 -0.1037 0.9796 14 6
8.0223 -4.8181 -0.1296 0.2856 0 25
8.0307 -4.3943 -0.1268 0.2920 0 25
8.0382 -3.9876 -0.1243 0.2979 0 25
8.0449 -3.5958 -0.1221 0.3033 0 25
8.0507 -3.2170 -0.1201 0.3083 0 25
8.0559 -2.8495 -0.1184 0.3128 0 25
8.0604 -2.4916 -0.1169 0.3168 0 25
8.3466 -2.2170 -0.1196 0.3201 0 1
8.3621 -1.8651 -0.1187 0.3237 0 1
8.3780 -1.5182 -0.1179 0.3258 0 1
3.9493 -0.5529 -0.0552 0.9661 25 14
3.9405 -0.3911 -0.0549 0.9729 25 14
3.9211 -0.2306 -0.0544 0.9736 25 14
3.8954 -0.0723 -0.0540 0.9816 25 14
3.8930 0.0841 -0.0539 0.9821 25 14
3.9181 0.2424 -0.0544 0.9742 25 14
3.9407 0.4032 -0.0549 0.9726 25 14
3.9500 0.5652 -0.0553 0.9655 25 14
8.5648 1.5790 -0.1206 0.3182 0 1
8.5923 1.9438 -0.1220 0.3146 0 1
8.6227 2.3184 -0.1237 0.3095 0 1
8.6547 2.7041 -0.1256 0.3048 0 1
8.6842 3.1014 -0.1277 0.2974 0 1
8.7112 3.5116 -0.1301 0.2920 0 1
8.7386 3.9378 -0.1328 0.2861 0 1
8.7443 4.3710 -0.1354 0.2955 0 1
8.7247 4.8085 -0.1380 0.2899 0 1
8.7016 5.2622 -0.1409 0.2836 0 1
8.6752 5.7343 -0.1441 0.2773 0 1
8.6311 6.2173 -0.1474 0.3067 0 1
8.5181 6.6715 -0.1499 0.3015 0 1
8.4187 7.1574 -0.1531 0.2933 0 1
8.2748 8.2673 -0.1620 0.7957 0 2
7.9037 8.5580 -0.1614 0.2288 0 2
7.8827 9.2549 -0.1684 0.2192 0 2
7.8590 10.0157 -0.1764 0.2093 0 2
6.5050 9.0134 -0.1540 0.9428 22 6
7.8012 11.7791 -0.1957 0.1886 0 2
7.7658 12.8157 -0.2076 0.1778 0 2
7.7248 13.9863 -0.2213 0.1668 0 2
7.6768 15.3232 -0.2374 0.1555 0 2
-31.2898 37.7584 -1.2229 0.6075 0 3
-31.5288 35.0779 -1.1762 0.6365 0 3
-31.2849 32.1128 -1.1181 0.6645 0 3
-34.4779 32.6569 -1.1843 0.6921 0 3
-31.2785 27.3287 -1.0358 0.7173 0 3
-34.3503 27.6603 -1.0999 0.6320 0 3
-31.2708 23.1735 -0.9706 0.7654 0 3
-33.3053 22.6671 -1.0047 0.5678 0 3
-36.2909 22.6214 -1.0665 0.8716 0 3
-31.2771 17.7930 -0.8974 0.9009 0 3
-33.8849 17.5140 -0.9512 0.4647 0 3
-38.3580 17.9119 -1.0557 0.2643 0 3
-41.4178 17.3502 -1.1199 0.8852 0 3
-34.8212 -33.6572 -1.2077 0.2039 0 20
-33.5219 -35.1131 -1.2106 0.9722 0 20
5.1984 -42.5212 -1.0683 0.0622 0 2
5.7365 -35.1387 -0.8879 0.0748 0 2
6.1170 -29.8690 -0.7603 0.0874 0 2
6.3999 -25.9077 -0.6655 0.0998 0 2
6.6180 -22.8127 -0.5924 0.1122 0 2
6.7912 -20.3208 -0.5343 0.1244 0 2
6.9317 -18.2657 -0.4872 0.1364 0 2
7.0478 -16.5367 -0.4483 0.1482 0 2
7.5512 -15.9134 -0.4393 0.1762 0 2
7.4711 -14.2381 -0.4010 0.1498 0 1
7.5426 -13.0700 -0.3763 0.1813 0 1
7.5835 -12.0001 -0.3540 0.1919 0 24
7.6522 -11.0955 -0.3361 0.2027 0 24
7.7112 -10.2723 -0.3203 0.2106 0 24
7.7513 -9.5051 -0.3059 0.2208 0 24
7.7784 -8.7923 -0.2928 0.2324 0 24
7.8022 -8.1359 -0.2811 0.2479 0 24
7.8283 -7.5327 -0.2709 0.2606 0 24
7.8575 -6.9752 -0.2620 0.2743 0 24
7.9672 -6.5197 -0.2567 0.2978 0 1
8.0078 -6.0325 -0.2500 0.2562 0 1
6.2507 -4.3266 -0.1896 0.7981 14 6
6.4304 -4.0790 -0.1899 0.5742 14 6
7.7433 -4.4861 -0.2232 0.2986 0 25
7.7568 -4.0870 -0.2187 0.3048 0 25
7.7688 -3.7026 -0.2146 0.3105 0 25
7.7795 -3.3311 -0.2110 0.3157 0 25
7.7889 -2.9709 -0.2079 0.3205 0 25
7.7971 -2.6205 -0.2051 0.3248 0 25
7.8042 -2.2784 -0.2027 0.3287 0 2
8.0884 -2.0126 -0.2079 0.3325 0 1
8.0785 -1.6687 -0.2057 0.3350 0 24
4.0647 -0.6706 -0.1027 0.3023 25 14
3.9373 -0.4881 -0.0989 0.9709 25 14
3.9286 -0.3275 -0.0983 0.9771 25 14
3.9073 -0.1681 -0.0975 0.9776 25 14
3.8818 -0.0109 -0.0968 0.9850 25 14
3.8995 0.1458 -0.0973 0.9798 25 14
3.9248 0.3049 -0.0982 0.9713 25 14
3.9360 0.4655 -0.0988 0.9719 25 14
3.9795 0.6336 -0.1005 0.3091 25 14
8.3002 1.6658 -0.2111 0.3273 0 1
8.3235 2.0214 -0.2136 0.3235 0 1
8.3499 2.3867 -0.2166 0.3182 0 1
8.3744 2.7621 -0.2199 0.3109 0 1
8.3954 3.1482 -0.2236 0.3058 0 1
8.4160 3.5477 -0.2278 0.3002 0 1
8.4364 3.9626 -0.2324 0.2942 0 1
8.4340 4.3832 -0.2370 0.3038 0 1
8.4082 4.8083 -0.2416 0.2977 0 1
8.3775 5.2481 -0.2465 0.2917 0 1
8.3442 5.7064 -0.2521 0.2852 0 1
8.3011 6.1805 -0.2581 0.3151 0 1
8.1900 6.6253 -0.2627 0.3076 0 1
8.0869 7.0978 -0.2683 0.3011 0 1
7.9781 7.5908 -0.2746 0.2942 0 1
7.9891 8.2374 -0.2862 0.2579 0 2
7.5450 8.4324 -0.2822 0.2401 0 2
7.5074 9.1009 -0.2942 0.2258 0 2
6.8244 8.9850 -0.2814 0.8136 22 6
6.4738 9.2746 -0.2821 0.5623 22 6
7.3681 11.5151 -0.3409 0.1949 0 2
7.3079 12.5001 -0.3611 0.1840 0 2
7.2384 13.6079 -0.3844 0.1729 0 2
7.1576 14.8671 -0.4115 0.1615 0 2
7.0625 16.3157 -0.4434 0.1499 0 2
6.9493 18.0057 -0.4813 0.1381 0 2
6.8126 20.0094 -0.5271 0.1261 0 2
6.6447 22.4316 -0.5834 0.1139 0 2
6.4338 25.4290 -0.6541 0.1016 0 2
6.1616 29.2477 -0.7454 0.0891 0 2
2.4152 14.2880 -0.3614 0.9771 0 9
2.0044 15.6626 -0.3938 0.5771 0 9
2.0395 23.3542 -0.5846 0.7821 0 9
1.2910 27.4883 -0.6863 0.0385 0 20
0.0986 14.6023 -0.3642 0.4976 0 9
-31.5297 36.2103 -1.1974 0.6253 0 3
-31.2860 33.1428 -1.1366 0.6537 0 3
-33.4147 32.6638 -1.1653 0.7034 0 3
-31.2798 28.2109 -1.0505 0.7073 0 3
-33.2721 27.6673 -1.0791 0.6441 0 3
-36.1071 27.6490 -1.1341 0.6129 0 3
-31.2657 22.0075 -0.9535 0.7791 0 3
-35.1016 22.6555 -1.0419 0.5475 0 3
-31.2566 18.4391 -0.9050 0.8209 0 3
-31.4348 16.8803 -0.8898 0.4323 0 3
-33.8225 16.4478 -0.9379 0.2621 0 3
-40.5079 17.7242 -1.1027 0.4066 0 3
-41.9177 16.3682 -1.1222 0.8182 0 3
-35.1414 -32.9119 -1.2007 0.9515 0 20
-34.0334 -34.5427 -1.2093 0.9732 0 20
4.9214 -46.2999 -1.1612 0.0572 0 2
5.5490 -37.7178 -0.9507 0.0699 0 2
5.9819 -31.7458 -0.8056 0.0825 0 2
5.6803 -24.6567 -0.6310 0.9927 0 6
6.5387 -23.9425 -0.6190 0.1074 0 2
6.7278 -21.2382 -0.5556 0.1196 0 2
6.8799 -19.0274 -0.5046 0.1317 0 2
7.0048 -17.1812 -0.4627 0.1436 0 2
7.4465 -16.3529 -0.4481 0.9816 0 2
7.4672 -14.7924 -0.4132 0.1454 0 1
7.5118 -13.5035 -0.3854 0.1771 0 1
7.5516 -12.3771 -0.3616 0.1910 0 24
7.6262 -11.4392 -0.3429 0.1985 0 24
7.6902 -10.5877 -0.3263 0.2088 0 24
7.7376 -9.7996 -0.3114 0.2171 0 24
7.7687 -9.0652 -0.2977 0.2278 0 24
7.7926 -8.3864 -0.2855 0.2420 0 24
7.8178 -7.7635 -0.2748 0.2552 0 24
7.8458 -7.1889 -0.2654 0.2692 0 24
7.9482 -6.7159 -0.2595 0.2946 0 1
7.9957 -6.2232 -0.2527 0.3026 0 1
7.7042 -5.5142 -0.2363 0.2820 0 25
6.2611 -4.1113 -0.1868 0.9825 14 6
7.7376 -4.6471 -0.2251 0.2960 0 25
7.7517 -4.2416 -0.2204 0.3024 0 25
7.7643 -3.8517 -0.2161 0.3083 0 25
7.7754 -3.4754 -0.2124 0.3137 0 25
7.7853 -3.1109 -0.2091 0.3187 0 25
7.7940 -2.7568 -0.2062 0.3232 0 25
7.8016 -2.4116 -0.2036 0.3272 0 25
8.0816 -2.1466 -0.2085 0.3314 0 1
8.0990 -1.8064 -0.2069 0.3342 0 1
8.1160 -1.4708 -0.2057 0.3362 0 1
3.9408 -0.5517 -0.0992 0.9680 25 14
3.9320 -0.3902 -0.0985 0.9748 25 14
3.9174 -0.2304 -0.0979 0.9743 25 14
3.8918 -0.0723 -0.0971 0.9823 25 14
3.8897 0.0841 -0.0970 0.9828 25 14
3.9148 0.2422 -0.0978 0.9748 25 14
3.9324 0.4023 -0.0986 0.9744 25 14
3.9416 0.5640 -0.0993 0.9674 25 14
8.2910 1.5285 -0.2102 0.3297 0 1
8.3144 1.8810 -0.2126 0.3250 0 1
8.3394 2.2422 -0.2154 0.3200 0 1
8.3661 2.6140 -0.2186 0.3128 0 1
8.3872 2.9953 -0.2221 0.3078 0 1
8.4080 3.3894 -0.2261 0.3024 0 1
8.4284 3.7980 -0.2305 0.2966 0 1
8.4433 4.2205 -0.2354 0.3059 0 1
8.4189 4.6400 -0.2397 0.3004 0 1
8.3898 5.0736 -0.2445 0.2941 0 1
8.3575 5.5243 -0.2498 0.2878 0 1
8.3227 5.9951 -0.2558 0.2811 0 1
8.2312 6.4468 -0.2607 0.3119 0 1
8.1280 6.9102 -0.2661 0.3037 0 1
8.0215 7.3949 -0.2721 0.2970 0 1
8.0124 8.0052 -0.2825 0.2613 0 2
7.7045 8.3423 -0.2832 0.8546 0 2
7.5221 8.8315 -0.2893 0.2297 0 2
7.4833 9.5369 -0.3023 0.2198 0 2
6.5025 9.0100 -0.2771 0.9871 22 6
7.3895 11.1575 -0.3337 0.1991 0 2
7.3325 12.1006 -0.3528 0.1883 0 2
7.2669 13.1572 -0.3748 0.1773 0 2
7.1908 14.3531 -0.4004 0.1660 0 2
-31.1093 37.5406 -1.7567 0.6108 0 3
-31.1153 34.6178 -1.6771 0.6398 0 3
-31.1198 31.9434 -1.6068 0.6678 0 3
-34.4767 32.6558 -1.7110 0.6919 0 3
-31.1255 27.1950 -1.4892 0.7205 0 3
-34.3491 27.6593 -1.5890 0.6318 0 3
-30.9448 22.9318 -1.3877 0.8710 0 3
-33.3039 22.6661 -1.4515 0.5676 0 3
-36.1336 22.5234 -1.5341 0.8120 0 3
-31.2591 17.7828 -1.2958 0.4998 0 3
-36.1293 18.6740 -1.4654 0.8501 0 3
-35.2333 16.4528 -1.4011 0.2432 0 3
-42.2808 17.7117 -1.6517 0.3921 0 3
-43.6187 16.2452 -1.6771 0.2667 0 3
-34.7287 -33.5678 -1.7403 0.9784 0 20
-33.2586 -34.8373 -1.7354 0.9807 0 20
3.6133 -44.2513 -1.5997 0.0600 0 2
4.4467 -36.3731 -1.3203 0.0727 0 2
5.0299 -30.8103 -1.1248 0.0853 0 2
5.4601 -26.6615 -0.9806 0.0979 0 2
5.7902 -23.4395 -0.8699 0.1103 0 2
6.0509 -20.8578 -0.7825 0.1226 0 2
6.2618 -18.7368 -0.7118 0.1348 0 2
6.4356 -16.9584 -0.6535 0.1468 0 2
6.9456 -16.2968 -0.6383 0.1753 0 2
6.9317 -14.6077 -0.5826 0.1489 0 1
7.0253 -13.3885 -0.5448 0.1820 0 1
7.1283 -12.3521 -0.5138 0.1918 0 1
7.2222 -11.4284 -0.4871 0.2050 0 1
7.3020 -10.5876 -0.4634 0.2144 0 1
7.3722 -9.8207 -0.4424 0.2185 0 1
7.4199 -9.0988 -0.4230 0.2285 0 1
7.4620 -8.4347 -0.4058 0.2382 0 1
7.5059 -7.8269 -0.3907 0.2623 0 1
7.5276 -7.2433 -0.3764 0.2740 0 24
7.5687 -6.7188 -0.3647 0.2850 0 24
7.6076 -6.2254 -0.3542 0.2936 0 24
7.4136 -5.5849 -0.3344 0.2873 0 2
6.2674 -4.3381 -0.2746 0.7957 14 6
6.4154 -4.0694 -0.2737 0.5754 14 6
7.4799 -4.3335 -0.3115 0.3090 0 25
7.4981 -3.9507 -0.3054 0.3152 0 25
7.5144 -3.5813 -0.2999 0.3209 0 25
7.5288 -3.2238 -0.2951 0.3261 0 25
7.5415 -2.8766 -0.2908 0.3309 0 25
7.5527 -2.5383 -0.2871 0.3352 0 25
7.6745 -2.2405 -0.2881 0.3699 0 2
7.8403 -1.9509 -0.2911 0.3429 0 1
7.8590 -1.6234 -0.2891 0.3454 0 1
4.0023 -0.6603 -0.1462 0.3069 25 14
3.9289 -0.4871 -0.1426 0.9726 25 14
3.9202 -0.3268 -0.1417 0.9788 25 14
3.9037 -0.1679 -0.1408 0.9782 25 14
3.8782 -0.0109 -0.1397 0.9855 25 14
3.8962 0.1456 -0.1405 0.9803 25 14
3.9186 0.3044 -0.1416 0.9797 25 14
3.9277 0.4645 -0.1425 0.9736 25 14
3.9368 0.6268 -0.1436 0.9659 25 14
8.0423 1.6140 -0.2955 0.3387 0 1
8.0614 1.9577 -0.2989 0.3339 0 1
8.0827 2.3104 -0.3029 0.3286 0 1
8.1000 2.6716 -0.3073 0.3213 0 1
8.1158 3.0434 -0.3123 0.3162 0 1
8.1307 3.4275 -0.3179 0.3106 0 1
8.1447 3.8256 -0.3242 0.3046 0 1
8.1513 4.2363 -0.3310 0.3143 0 1
8.1206 4.6438 -0.3371 0.3081 0 1
8.0852 5.0650 -0.3438 0.3021 0 1
8.0468 5.5030 -0.3512 0.2957 0 1
8.0050 5.9601 -0.3596 0.2888 0 1
7.9199 6.4068 -0.3670 0.3180 0 1
7.8146 6.8588 -0.3746 0.3115 0 1
7.7034 7.3294 -0.3831 0.3046 0 1
7.6769 7.9155 -0.3973 0.2690 0 2
7.4907 8.3717 -0.4048 0.8629 0 2
7.1735 8.6961 -0.4062 0.2363 0 2
6.7803 8.9271 -0.4039 0.7920 22 6
6.4984 9.3098 -0.4091 0.5599 22 6
6.9910 10.9257 -0.4673 0.2053 0 2
6.9129 11.8245 -0.4935 0.1945 0 2
6.8235 12.8277 -0.5235 0.1833 0 2
6.7201 13.9583 -0.5582 0.1719 0 2
6.5995 15.2462 -0.5986 0.1603 0 2
6.4575 16.7315 -0.6462 0.1485 0 2
6.2882 18.4690 -0.7030 0.1365 0 2
6.0831 20.5359 -0.7717 0.1244 0 2
5.8303 23.0440 -0.8564 0.1121 0 2
5.5115 26.1621 -0.9633 0.0996 0 2
5.0979 30.1576 -1.1020 0.0871 0 2
4.1837 32.6917 -1.1875 0.8337 0 19
2.2059 25.2597 -0.9136 0.9725 0 9
0.7265 15.4698 -0.5580 0.4890 0 9
-31.1066 38.7643 -1.7908 0.5992 0 3
-31.1131 35.7318 -1.7071 0.6286 0 3
-31.1182 32.9650 -1.6333 0.6570 0 3
-31.1220 30.4226 -1.5681 0.6843 0 3
-30.9486 27.9122 -1.5016 0.9653 0 3
-33.2709 27.6662 -1.5591 0.6439 0 3
-31.1274 23.8358 -1.4126 0.7596 0 3
-31.1249 21.9084 -1.3714 0.7824 0 3
-35.1000 22.6546 -1.5052 0.5474 0 3
-31.1230 18.3602 -1.3020 0.8241 0 3
-36.1304 19.4017 -1.4776 0.8430 0 3
-35.3908 17.2105 -1.4179 0.2515 0 3
-36.4715 15.9580 -1.4344 0.8251 0 3
-43.5569 17.0082 -1.6848 0.2659 0 3
-35.2367 -33.0012 -1.7394 0.9789 0 20
-33.9397 -34.4476 -1.7424 0.9772 0 20
2.5510 -38.7598 -1.3996 0.9260 0 6
4.1576 -39.1139 -1.4172 0.0677 0 2
4.8235 -32.7858 -1.1940 0.0804 0 2
5.3056 -28.1567 -1.0323 0.0930 0 2
4.2779 -18.5695 -0.6866 0.7033 0 6
5.9555 -21.8069 -0.8145 0.1178 0 2
6.1841 -19.5221 -0.7378 0.1301 0 2
6.3713 -17.6207 -0.6751 0.1422 0 2
6.7478 -16.5510 -0.6440 0.9971 0 2
6.9125 -15.1802 -0.6010 0.1404 0 1
6.9785 -13.8244 -0.5580 0.1777 0 1
7.0898 -12.7449 -0.5255 0.1875 0 1
7.1857 -11.7774 -0.4971 0.2009 0 1
7.2720 -10.9080 -0.4723 0.2103 0 1
7.3457 -10.1133 -0.4504 0.2206 0 1
7.4019 -9.3745 -0.4304 0.2246 0 1
7.4461 -8.6887 -0.4123 0.2344 0 1
7.4852 -8.0556 -0.3962 0.2587 0 1
7.5434 -7.4909 -0.3830 0.2770 0 1
7.5526 -6.9203 -0.3691 0.2808 0 24
7.5928 -6.4156 -0.3582 0.2901 0 24
7.7129 -6.0031 -0.3522 0.2469 0 1
7.4273 -5.3160 -0.3291 0.2924 0 25
6.2698 -4.1170 -0.2703 0.9194 14 6
7.4722 -4.4878 -0.3141 0.3065 0 25
7.4912 -4.0991 -0.3077 0.3128 0 25
7.5082 -3.7246 -0.3020 0.3187 0 25
7.5233 -3.3627 -0.2969 0.3241 0 25
7.5367 -3.0116 -0.2924 0.3291 0 25
7.5485 -2.6700 -0.2885 0.3336 0 25
7.5596 -2.3368 -0.2851 0.3391 0 2
7.8329 -2.0806 -0.2920 0.3418 0 1
7.8247 -1.7452 -0.2889 0.3446 0 24
4.1790 -0.7573 -0.1530 0.2566 25 14
3.9323 -0.5505 -0.1431 0.9698 25 14
3.9236 -0.3894 -0.1421 0.9766 25 14
3.9137 -0.2302 -0.1413 0.9749 25 14
3.8882 -0.0722 -0.1401 0.9829 25 14
3.8864 0.0840 -0.1401 0.9833 25 14
3.9115 0.2420 -0.1412 0.9753 25 14
3.9241 0.4015 -0.1421 0.9762 25 14
3.9332 0.5628 -0.1432 0.9691 25 14
4.4504 0.8205 -0.1631 0.0262 25 14
8.0238 1.8152 -0.2964 0.3348 0 24
8.0740 2.1709 -0.3012 0.3304 0 1
8.0936 2.5288 -0.3055 0.3232 0 1
8.1097 2.8962 -0.3103 0.3183 0 1
8.1250 3.2753 -0.3156 0.3129 0 1
8.1393 3.6677 -0.3217 0.3070 0 1
8.1527 4.0753 -0.3284 0.3007 0 1
8.1336 4.4827 -0.3346 0.3108 0 1
8.0994 4.8980 -0.3410 0.3045 0 1
8.0622 5.3291 -0.3482 0.2982 0 1
8.0218 5.7784 -0.3562 0.2915 0 1
7.9629 6.2366 -0.3644 0.3223 0 1
7.8566 6.6795 -0.3716 0.3141 0 1
7.7478 7.1425 -0.3797 0.3074 0 1
7.6325 7.6257 -0.3887 0.3002 0 1
7.6345 8.2665 -0.4054 0.2636 0 2
7.1952 8.4478 -0.3998 0.2479 0 2
7.1417 9.1015 -0.4168 0.2302 0 2
6.4894 8.9918 -0.3995 0.3210 22 6
7.0189 10.5978 -0.4580 0.2095 0 2
6.9448 11.4607 -0.4828 0.1988 0 2
6.8601 12.4206 -0.5112 0.1877 0 2
6.7624 13.4981 -0.5440 0.1764 0 2
-29.8121 39.0687 -2.3162 0.1480 0 3
-29.3493 35.4167 -2.1679 0.1580 0 3
-30.9447 34.4281 -2.1817 0.6431 0 3
-30.9564 31.7756 -2.0908 0.6710 0 3
-30.9660 29.3306 -2.0102 0.6979 0 3
-30.9740 27.0626 -1.9386 0.7237 0 3
-29.1922 23.5068 -1.7665 0.7735 0 3
-30.9854 22.9619 -1.8177 0.7719 0 3
-30.9866 21.0890 -1.7666 0.7941 0 3
-30.9893 19.3167 -1.7211 0.8151 0 3
-31.2576 17.7820 -1.6949 0.4996 0 3
-35.9801 18.5969 -1.9089 0.8532 0 3
-36.0591 16.8384 -1.8757 0.7699 0 3
-40.2308 16.8529 -2.0558 0.4734 0 3
-45.3596 16.8936 -2.2813 0.2390 0 3
-34.7119 -33.5516 -2.2753 0.9779 0 20
-33.1811 -34.7561 -2.2647 0.9825 0 20
-18.8253 -27.4275 -1.5679 0.8861 0 6
1.9035 -46.0644 -2.1729 0.0577 0 2
3.0743 -37.6502 -1.7804 0.0705 0 2
3.8846 -31.7750 -1.5087 0.0832 0 2
4.4778 -27.4289 -1.3099 0.0958 0 2
4.9303 -24.0742 -1.1582 0.1083 0 2
5.2861 -21.3992 -1.0389 0.1208 0 2
5.5730 -19.2103 -0.9427 0.1331 0 2
5.8087 -17.3809 -0.8637 0.1453 0 2
6.3318 -16.6848 -0.8411 0.1740 0 2
6.3867 -14.9855 -0.7678 0.1437 0 1
6.4995 -13.6970 -0.7145 0.1814 0 1
6.6389 -12.6521 -0.6734 0.1913 0 1
6.7589 -11.7119 -0.6373 0.2048 0 1
6.8679 -10.8678 -0.6059 0.2144 0 1
6.9600 -10.0918 -0.5778 0.2248 0 1
7.0331 -9.3689 -0.5521 0.2289 0 1
7.0929 -8.6978 -0.5290 0.2389 0 1
7.1546 -8.0872 -0.5089 0.2633 0 1
7.2216 -7.5305 -0.4917 0.2821 0 1
7.2965 -7.0210 -0.4772 0.2907 0 1
7.3654 -6.5383 -0.4642 0.2988 0 1
7.4027 -6.0577 -0.4508 0.2646 0 1
7.1504 -5.3866 -0.4219 0.2982 0 25
6.2842 -4.3498 -0.3602 0.7932 14 6
6.4004 -4.0599 -0.3572 0.5764 14 6
7.2337 -4.1909 -0.3940 0.3194 0 25
7.2560 -3.8231 -0.3865 0.3255 0 25
7.2759 -3.4677 -0.3799 0.3313 0 25
7.2936 -3.1231 -0.3739 0.3365 0 25
7.3092 -2.7880 -0.3687 0.3413 0 25
7.3229 -2.4611 -0.3641 0.3456 0 25
7.5847 -2.2143 -0.3724 0.3480 0 1
7.6065 -1.8927 -0.3694 0.3528 0 1
7.6268 -1.5754 -0.3670 0.3566 0 1
3.9417 -0.6503 -0.1883 0.3114 25 14
3.9204 -0.4860 -0.1862 0.9743 25 14
3.9119 -0.3261 -0.1850 0.9805 25 14
3.9000 -0.1678 -0.1840 0.9787 25 14
3.8746 -0.0109 -0.1826 0.9860 25 14
3.8929 0.1455 -0.1836 0.9807 25 14
3.9104 0.3038 -0.1849 0.9813 25 14
3.9194 0.4635 -0.1860 0.9752 25 14
3.9284 0.6254 -0.1875 0.9676 25 14
7.8000 1.5654 -0.3750 0.3491 0 1
7.8154 1.8980 -0.3791 0.3453 0 1
7.8302 2.2382 -0.3838 0.3364 0 1
7.8428 2.5868 -0.3892 0.3317 0 1
7.8540 2.9452 -0.3953 0.3266 0 1
7.8639 3.3150 -0.4022 0.3210 0 1
7.8723 3.6977 -0.4099 0.3150 0 1
7.8792 4.0949 -0.4185 0.3085 0 1
7.8518 4.4901 -0.4263 0.3185 0 1
7.8124 4.8941 -0.4345 0.3125 0 1
7.7696 5.3134 -0.4436 0.3061 0 1
7.7229 5.7500 -0.4538 0.2992 0 1
7.6670 6.2022 -0.4648 0.3327 0 1
7.5610 6.6362 -0.4741 0.3261 0 1
7.4487 7.0871 -0.4846 0.3191 0 1
7.3296 7.5575 -0.4962 0.3061 0 1
7.3106 8.1703 -0.5167 0.2709 0 2
7.0003 8.4862 -0.5185 0.9124 0 2
6.7801 8.9268 -0.5283 0.7917 22 6
6.4823 9.2867 -0.5338 0.5326 22 6
6.6503 10.3934 -0.5815 0.2158 0 2
6.5582 11.2178 -0.6124 0.2049 0 2
6.4532 12.1316 -0.6476 0.1937 0 2
6.3326 13.1536 -0.6880 0.1824 0 2
6.1932 14.3075 -0.7348 0.1708 0 2
6.0304 15.6249 -0.7894 0.1590 0 2
5.8384 17.1479 -0.8538 0.1470 0 2
5.6088 18.9344 -0.9307 0.1348 0 2
5.3300 21.0665 -1.0242 0.1225 0 2
4.9852 23.6637 -1.1398 0.1101 0 2
4.5485 26.9077 -1.2862 0.0976 0 2
2.6423 20.6470 -0.9811 0.1119 0 20
2.2112 25.3202 -1.1979 0.9956 0 9
1.2584 26.7941 -1.2642 0.9976 0 20
-29.5559 36.8319 -2.2257 0.1446 0 3
-29.2455 33.5870 -2.0990 0.6318 0 3
-30.0197 31.8013 -2.0611 0.7871 0 3
-30.9625 30.2666 -2.0407 0.6875 0 3
-30.9711 27.9324 -1.9657 0.7137 0 3
-29.2049 24.2852 -1.7902 0.5764 0 3
-30.9836 23.7257 -1.8393 0.7628 0 3
-30.9852 21.8101 -1.7859 0.7855 0 3
-30.9883 20.0008 -1.7383 0.8070 0 3
-30.9904 18.2820 -1.6958 0.8273 0 3
-35.9799 19.3209 -1.9248 0.8462 0 3
-36.1156 17.5630 -1.8928 0.6879 0 3
-40.1483 17.5668 -2.0654 0.6766 0 3
-45.3054 17.6910 -2.2923 0.3694 0 3
-35.3164 -33.0758 -2.2805 0.9757 0 20
-33.7797 -34.2852 -2.2684 0.9809 0 20
1.7175 -26.0955 -1.2326 0.8563 0 20
3.5986 -33.8552 -1.6046 0.0782 0 2
4.2653 -28.9918 -1.3811 0.0909 0 2
4.7663 -25.2947 -1.2131 0.1034 0 2
4.2540 -18.4657 -0.8931 0.9517 0 6
5.4674 -20.0198 -0.9781 0.1283 0 2
5.7215 -18.0615 -0.8929 0.1405 0 2
6.0777 -16.8089 -0.8424 0.9984 0 2
6.3559 -15.5895 -0.7935 0.1391 0 1
6.4394 -14.1413 -0.7323 0.1549 0 1
6.5874 -13.0496 -0.6890 0.1881 0 1
6.7125 -12.0666 -0.6508 0.1980 0 1
6.8274 -11.1901 -0.6178 0.2113 0 1
6.9252 -10.3878 -0.5884 0.2208 0 1
7.0075 -9.6478 -0.5620 0.2249 0 1
7.0703 -8.9545 -0.5377 0.2350 0 1
7.1283 -8.3179 -0.5163 0.2595 0 1
7.1933 -7.7415 -0.4981 0.2690 0 1
7.2679 -7.2174 -0.4827 0.2873 0 1
7.3391 -6.7246 -0.4691 0.2957 0 1
7.3962 -6.2494 -0.4564 0.2614 0 1
7.1378 -5.5555 -0.4263 0.2928 0 2
7.1695 -5.1314 -0.4155 0.3028 0 25
6.2822 -4.1252 -0.3542 0.9263 14 6
6.7066 -4.0280 -0.3687 0.3179 14 6
7.2475 -3.9657 -0.3894 0.3232 0 25
7.2683 -3.6056 -0.3824 0.3291 0 25
7.2869 -3.2570 -0.3762 0.3345 0 25
7.3033 -2.9183 -0.3707 0.3395 0 25
7.3178 -2.5884 -0.3658 0.3440 0 25
7.3402 -2.2690 -0.3621 0.4342 0 2
7.5980 -2.0182 -0.3705 0.3498 0 1
7.5928 -1.6935 -0.3666 0.3550 0 24
4.1093 -0.7447 -0.1968 0.2979 25 14
3.9238 -0.5493 -0.1867 0.9714 25 14
3.9152 -0.3886 -0.1854 0.9782 25 14
3.9067 -0.2298 -0.1844 0.9835 25 14
3.8845 -0.0721 -0.1831 0.9833 25 14
3.8832 0.0839 -0.1831 0.9836 25 14
3.9069 0.2417 -0.1845 0.9833 25 14
3.9158 0.4006 -0.1855 0.9778 25 14
3.9248 0.5616 -0.1869 0.9707 25 14
4.1356 0.7624 -0.1982 0.2959 25 14
7.7793 1.7599 -0.3759 0.3453 0 24
7.8248 2.1039 -0.3819 0.3407 0 1
7.8380 2.4490 -0.3870 0.3336 0 1
7.8498 2.8034 -0.3929 0.3287 0 1
7.8602 3.1686 -0.3994 0.3233 0 1
7.8692 3.5460 -0.4068 0.3174 0 1
7.8767 3.9373 -0.4150 0.3111 0 1
7.8664 4.3355 -0.4233 0.3208 0 1
7.8283 4.7340 -0.4312 0.3149 0 1
7.7868 5.1471 -0.4399 0.3087 0 1
7.7417 5.5766 -0.4497 0.3020 0 1
7.6926 6.0249 -0.4605 0.2967 0 1
7.6033 6.4641 -0.4704 0.3288 0 1
7.4935 6.9081 -0.4804 0.3219 0 1
7.3771 7.3705 -0.4915 0.3146 0 1
7.3418 7.9496 -0.5100 0.2740 0 2
7.1843 8.4350 -0.5222 0.9053 0 2
6.8296 8.7039 -0.5214 0.2406 0 2
6.4830 8.9829 -0.5221 0.7349 22 6
6.6834 10.0913 -0.5705 0.2200 0 2
6.5957 10.8847 -0.5998 0.2092 0 2
6.4961 11.7616 -0.6333 0.1981 0 2
6.3820 12.7386 -0.6715 0.1869 0 2
-30.7541 37.1119 -2.8073 0.6172 0 3
-30.7759 34.2402 -2.6814 0.6462 0 3
-30.4955 31.3026 -2.5453 0.1663 0 3
-29.8779 28.2999 -2.3969 0.7010 0 3
-18.9063 16.5188 -1.4623 0.8018 0 6
-29.4785 23.7373 -2.2044 0.1920 0 3
-29.2290 21.6604 -2.1189 0.1926 0 3
-29.1620 19.8472 -2.0545 0.7972 0 3
-30.8557 19.2335 -2.1177 0.8182 0 3
-31.2561 17.7811 -2.0944 0.4993 0 3
-35.8319 18.5203 -2.3493 0.8562 0 3
-41.1149 19.1993 -2.6429 0.8733 0 3
-42.2757 17.7096 -2.6696 0.3917 0 3
-34.6343 -33.4765 -2.8055 0.9814 0 20
-32.9204 -34.4830 -2.7767 0.9595 0 20
0.0560 -49.9004 -2.9064 0.0509 0 1
1.6100 -38.9632 -2.2713 0.0682 0 2
2.6749 -32.7583 -1.9143 0.0810 0 2
3.4483 -28.2057 -1.6550 0.0936 0 2
4.0346 -24.7137 -1.4585 0.1063 0 2
4.4937 -21.9426 -1.3045 0.1188 0 2
4.8625 -19.6840 -1.1809 0.1312 0 2
5.1646 -17.8026 -1.0796 0.1435 0 2
5.6811 -16.9990 -1.0439 0.9880 0 2
5.8356 -15.3774 -0.9580 0.1423 0 1
5.9672 -14.0012 -0.8865 0.1806 0 1
6.1421 -12.9439 -0.8345 0.1918 0 1
6.2921 -11.9912 -0.7887 0.2044 0 1
6.4279 -11.1383 -0.7490 0.2153 0 1
6.5461 -10.3586 -0.7137 0.2248 0 1
6.6449 -9.6348 -0.6817 0.2290 0 1
6.7235 -8.9565 -0.6523 0.2393 0 1
6.8036 -8.3431 -0.6270 0.2639 0 1
6.8801 -7.7770 -0.6048 0.2737 0 1
6.9623 -7.2601 -0.5859 0.2924 0 1
7.0420 -6.7761 -0.5692 0.3010 0 1
7.0920 -6.2956 -0.5523 0.2668 0 1
7.1163 -5.8233 -0.5356 0.2688 0 1
6.9067 -5.2030 -0.5036 0.3086 0 25
6.3011 -4.3615 -0.4463 0.7906 14 6
6.3855 -4.0505 -0.4404 0.5775 14 6
7.0029 -4.0572 -0.4714 0.3297 0 25
7.0287 -3.7034 -0.4627 0.3359 0 25
7.0518 -3.3609 -0.4550 0.3416 0 25
7.0724 -3.0284 -0.4481 0.3468 0 25
7.0906 -2.7046 -0.4420 0.3516 0 25
7.1083 -2.3890 -0.4368 0.3556 0 2
7.3617 -2.1492 -0.4467 0.3584 0 1
7.3859 -1.8378 -0.4433 0.3631 0 1
7.4081 -1.5302 -0.4406 0.3669 0 1
3.9206 -0.6469 -0.2314 0.9680 25 14
3.9120 -0.4850 -0.2296 0.9758 25 14
3.9035 -0.3254 -0.2281 0.9820 25 14
3.8950 -0.1676 -0.2271 0.9866 25 14
3.8710 -0.0109 -0.2255 0.9864 25 14
3.8896 0.1454 -0.2267 0.9810 25 14
3.9022 0.3032 -0.2280 0.9828 25 14
3.9111 0.4625 -0.2294 0.9767 25 14
3.9200 0.6241 -0.2312 0.9691 25 14
7.5749 1.5202 -0.4500 0.3644 0 1
7.5872 1.8426 -0.4547 0.3605 0 1
7.5978 2.1717 -0.4602 0.3564 0 1
7.6064 2.5088 -0.4665 0.3516 0 1
7.6133 2.8549 -0.4736 0.3464 0 1
7.6184 3.2115 -0.4815 0.3406 0 1
7.6217 3.5800 -0.4904 0.3344 0 1
7.6231 3.9618 -0.5004 0.3278 0 1
7.6010 4.3467 -0.5100 0.3309 0 1
7.5584 4.7350 -0.5195 0.3249 0 1
7.5120 5.1373 -0.5301 0.3184 0 1
7.4615 5.5554 -0.5418 0.3115 0 1
7.4081 5.9928 -0.5550 0.3039 0 1
7.3255 6.4295 -0.5677 0.3364 0 1
7.2118 6.8617 -0.5798 0.3294 0 1
7.0910 7.3114 -0.5932 0.3219 0 1
6.9777 7.7983 -0.6095 0.3078 0 1
6.9468 8.4213 -0.6358 0.2719 0 2
6.5485 8.6219 -0.6306 0.9491 0 2
6.4325 9.2155 -0.6546 0.2368 0 2
6.3410 9.9100 -0.6852 0.2262 0 2
6.2378 10.6697 -0.7198 0.2153 0 2
6.1207 11.5066 -0.7591 0.2042 0 2
5.9871 12.4359 -0.8039 0.1928 0 2
5.8337 13.4769 -0.8553 0.1812 0 2
5.6560 14.6547 -0.9149 0.1694 0 2
5.4482 16.0020 -0.9845 0.1574 0 2
5.2026 17.5633 -1.0669 0.1453 0 2
4.9084 19.4000 -1.1655 0.1330 0 2
4.5502 21.5989 -1.2856 0.1205 0 2
4.1056 24.2876 -1.4347 0.1080 0 2
2.6065 20.3671 -1.1959 0.9838 0 20
2.5368 29.0494 -1.6984 0.1546 0 20
1.2584 26.7936 -1.5623 0.9970 0 20
0.3226 47.7578 -2.7816 0.0649 0 1
-30.6046 38.1388 -2.8481 0.8412 0 3
-30.7677 35.3352 -2.7289 0.6350 0 3
-30.5472 32.3601 -2.5919 0.6633 0 3
-30.2531 29.5732 -2.4641 0.1718 0 3
-29.7784 26.8568 -2.3356 0.7169 0 3
-29.5887 24.6044 -2.2413 0.1889 0 3
-29.3608 22.4830 -2.1539 0.1932 0 3
-29.1593 20.5249 -2.0769 0.7886 0 3
-30.8535 19.9137 -2.1388 0.8101 0 3
-30.8588 18.2044 -2.0868 0.8303 0 3
-35.8305 19.2407 -2.3687 0.8492 0 3
-36.1705 17.5897 -2.3426 0.9665 0 3
-38.6323 16.9035 -2.4560 0.4061 0 3
-45.3025 17.6899 -2.8326 0.3692 0 3
-35.2370 -33.0014 -2.8119 0.9792 0 20
-33.6075 -34.1105 -2.7890 0.9553 0 20
1.1357 -44.4473 -2.5896 0.0631 0 2
1.7206 -26.1425 -1.5259 0.9025 0 20
3.1717 -29.8392 -1.7477 0.0887 0 2
3.8225 -25.9820 -1.5296 0.1013 0 2
4.3261 -22.9586 -1.3607 0.1139 0 2
4.2535 -18.4635 -1.1035 0.7968 0 6
5.0529 -18.5019 -1.1171 0.1387 0 2
5.4274 -17.1333 -1.0468 0.9695 0 2
5.7843 -15.9974 -0.9908 0.1376 0 1
5.9078 -14.4905 -0.9114 0.1495 0 1
6.0764 -13.3441 -0.8540 0.1874 0 1
6.2363 -12.3541 -0.8060 0.1974 0 1
6.3766 -11.4629 -0.7640 0.2110 0 1
6.5027 -10.6579 -0.7272 0.2206 0 1
6.6097 -9.9144 -0.6940 0.2312 0 1
6.6938 -9.2158 -0.6634 0.2353 0 1
6.7714 -8.5759 -0.6364 0.2600 0 1
6.8511 -7.9944 -0.6132 0.2699 0 1
6.9292 -7.4572 -0.5929 0.2890 0 1
7.0115 -6.9628 -0.5755 0.2977 0 1
7.0808 -6.4880 -0.5594 0.2634 0 1
7.1081 -6.0061 -0.5420 0.2718 0 1
6.8917 -5.3640 -0.5087 0.3055 0 25
6.9287 -4.9591 -0.4963 0.3132 0 25
6.2981 -4.1356 -0.4388 0.8041 14 6
6.6483 -3.9929 -0.4517 0.5193 14 6
7.0189 -3.8407 -0.4660 0.3335 0 25
7.0431 -3.4939 -0.4579 0.3394 0 25
7.0646 -3.1576 -0.4507 0.3448 0 25
7.0837 -2.8306 -0.4443 0.3498 0 25
7.1005 -2.5115 -0.4387 0.3543 0 25
7.3145 -2.2610 -0.4459 0.4382 0 2
7.3762 -1.9593 -0.4445 0.3621 0 1
7.4003 -1.6506 -0.4416 0.3661 0 1
4.0452 -0.7331 -0.2394 0.3025 25 14
3.9154 -0.5482 -0.2303 0.9729 25 14
3.9068 -0.3877 -0.2287 0.9798 25 14
3.8984 -0.2293 -0.2274 0.9850 25 14
3.8809 -0.0721 -0.2261 0.9837 25 14
3.8799 0.0838 -0.2260 0.9839 25 14
3.8987 0.2412 -0.2275 0.9847 25 14
3.9076 0.3998 -0.2288 0.9793 25 14
3.9165 0.5605 -0.2304 0.9722 25 14
4.0769 0.7516 -0.2415 0.3000 25 14
7.5826 1.7154 -0.4528 0.3621 0 1
7.5939 2.0418 -0.4580 0.3580 0 1
7.6032 2.3756 -0.4639 0.3535 0 1
7.6108 2.7181 -0.4707 0.3485 0 1
7.6166 3.0704 -0.4783 0.3429 0 1
7.6207 3.4340 -0.4868 0.3369 0 1
7.6228 3.8104 -0.4964 0.3305 0 1
7.6168 4.1979 -0.5065 0.3332 0 1
7.5756 4.5812 -0.5156 0.3273 0 1
7.5307 4.9778 -0.5258 0.3210 0 1
7.4818 5.3894 -0.5371 0.3143 0 1
7.4286 5.8182 -0.5496 0.3071 0 1
7.3683 6.2644 -0.5633 0.3390 0 1
7.2572 6.6903 -0.5749 0.3322 0 1
7.1393 7.1328 -0.5878 0.3249 0 1
7.0217 7.6030 -0.6028 0.3112 0 1
6.9834 8.1991 -0.6273 0.2757 0 2
6.7193 8.5633 -0.6340 0.9440 0 2
6.4656 8.9588 -0.6435 0.2408 0 2
6.3782 9.6305 -0.6728 0.2303 0 2
6.2798 10.3633 -0.7058 0.2196 0 2
6.1684 11.1684 -0.7431 0.2085 0 2
6.0417 12.0594 -0.7856 0.1973 0 2
-28.7087 37.6227 -3.2829 0.9338 0 3
-30.5792 36.9009 -3.3245 0.6203 0 3
-30.6086 34.0542 -3.1763 0.6493 0 3
-30.6340 31.4447 -3.0453 0.6772 0 3
-30.6559 29.0368 -2.9291 0.7041 0 3
-30.6747 26.8011 -2.8257 0.7299 0 3
