ply
format ascii 1.0
element vertex 1372
property float32 x
property float32 y
property float32 z
property float32 CosAngle
property uint32 ObjIdx
property uint32 ObjTag
end_header
0.9985 -13.9224 -2.5410 0.2067 0 1
1.4678 -13.0768 -2.3955 0.2193 0 1
1.8765 -12.2534 -2.2567 0.2250 0 24
2.2458 -11.5439 -2.1409 0.2342 0 1
2.5710 -10.8664 -2.0328 0.2488 0 1
2.8633 -10.2459 -1.9367 0.2611 0 1
3.1265 -9.6707 -1.8502 0.2741 0 1
3.3656 -9.1385 -1.7729 0.2860 0 1
3.5849 -8.6458 -1.7039 0.2951 0 1
3.7848 -8.1825 -1.6412 0.3063 0 1
3.9668 -7.7434 -1.5839 0.3169 0 1
4.1348 -7.3298 -1.5320 0.3306 0 1
4.2891 -6.9366 -1.4847 0.3411 0 1
4.4310 -6.5614 -1.4413 0.3514 0 1
4.5477 -6.1832 -1.3973 0.3529 0 1
4.6511 -5.8187 -1.3561 0.3637 0 1
4.7458 -5.4712 -1.3185 0.3775 0 1
4.8342 -5.1405 -1.2846 0.3875 0 1
4.9149 -4.8225 -1.2535 0.3971 0 1
4.9885 -4.5160 -1.2250 0.4063 0 1
5.0547 -4.2192 -1.1986 0.4049 0 1
5.1118 -3.9295 -1.1738 0.4135 0 1
5.1760 -3.6576 -1.1538 0.4377 0 1
5.2382 -3.3946 -1.1363 0.4445 0 1
5.2956 -3.1372 -1.1205 0.4508 0 1
5.3484 -2.8847 -1.1063 0.4566 0 1
5.3968 -2.6366 -1.0934 0.4619 0 1
5.4409 -2.3924 -1.0820 0.4668 0 1
5.4811 -2.1517 -1.0719 0.4713 0 1
5.5174 -1.9139 -1.0631 0.4752 0 1
5.5501 -1.6787 -1.0556 0.4786 0 1
5.5791 -1.4456 -1.0492 0.4815 0 1
3.8728 -0.8390 -0.7214 0.5592 25 14
3.8374 -0.6712 -0.7092 0.9740 25 14
3.8357 -0.5131 -0.7045 0.9805 25 14
3.8338 -0.3568 -0.7009 0.9731 25 14
3.8313 -0.2018 -0.6984 0.9766 25 14
3.8232 -0.0476 -0.6960 0.8649 25 14
3.8257 0.1062 -0.6967 0.8641 25 14
3.8301 0.2606 -0.6989 0.9760 25 14
3.8312 0.4158 -0.7016 0.9722 25 14
3.8324 0.5725 -0.7054 0.9669 25 14
3.8337 0.7312 -0.7105 0.9600 25 14
3.9644 0.9226 -0.7410 0.5411 25 14
5.7186 1.5755 -1.0798 0.4624 0 1
5.7094 1.8227 -1.0910 0.4577 0 1
5.6952 2.0738 -1.1034 0.4579 0 1
5.6723 2.3275 -1.1162 0.4481 0 1
5.6420 2.5846 -1.1298 0.4427 0 1
5.6075 2.8467 -1.1448 0.4369 0 1
5.5684 3.1143 -1.1615 0.4306 0 1
5.5245 3.3880 -1.1798 0.4234 0 1
5.4755 3.6685 -1.1998 0.4163 0 1
5.4210 3.9565 -1.2218 0.4088 0 1
5.3611 4.2532 -1.2458 0.4009 0 1
5.2864 4.5516 -1.2699 0.4046 0 1
5.2042 4.8582 -1.2961 0.3965 0 1
5.1148 5.1746 -1.3245 0.3879 0 1
5.0176 5.5018 -1.3556 0.3791 0 1
4.9119 5.8409 -1.3893 0.3698 0 1
4.8008 6.1981 -1.4272 0.3584 0 1
4.6741 6.5631 -1.4668 0.3857 0 1
4.5180 6.9160 -1.5039 0.3762 0 1
4.3503 7.2823 -1.5442 0.3664 0 1
4.1741 7.6715 -1.5899 0.3468 0 1
3.9931 8.0977 -1.6436 0.3354 0 1
3.7959 8.5474 -1.7026 0.3238 0 1
3.5787 9.0185 -1.7663 0.3179 0 1
3.3427 9.5231 -1.8373 0.3015 0 1
3.0853 10.0670 -1.9168 0.2890 0 1
2.8015 10.6505 -2.0048 0.2763 0 1
2.5143 11.4026 -2.1257 0.2485 0 2
2.1657 12.1184 -2.2411 0.2346 0 2
1.7751 12.9084 -2.3720 0.2203 0 2
1.3344 13.7883 -2.5218 0.2059 0 2
0.8244 14.6289 -2.6673 0.1901 0 1
0.2537 15.7441 -2.8665 0.1685 0 1
-0.4106 17.0531 -3.1053 0.1553 0 1
-1.1990 18.6355 -3.3995 0.1439 0 1
-2.1292 20.3132 -3.7182 0.1369 0 1
-3.2297 22.1763 -4.0797 0.1268 0 1
-4.5511 24.3459 -4.5088 0.1173 0 1
-6.1412 26.8342 -5.0113 0.1117 0 1
-8.1110 29.8679 -5.6342 0.0895 0 1
-10.8483 34.4164 -6.5692 0.0755 0 1
-14.4384 40.1097 -7.7605 0.0697 0 24
-16.1527 29.1321 -6.0640 0.5263 0 15
-16.4397 27.0289 -5.7592 0.3685 0 15
-28.8655 36.6605 -8.4944 0.7772 0 3
-28.9525 33.8772 -8.1126 0.6579 0 3
-29.0462 31.3445 -7.7795 0.6861 0 3
-29.1289 29.0043 -7.4833 0.7132 0 3
-18.0237 16.5591 -4.4557 0.7739 0 22
-19.4775 16.5021 -4.6473 0.6645 0 22
-29.3240 22.8860 -6.7717 0.7882 0 3
-29.3723 21.0812 -6.5818 0.8109 0 3
-29.4170 19.3717 -6.4121 0.8323 0 3
-29.5222 17.7832 -6.2741 0.5134 0 3
-34.2378 18.7921 -7.1100 0.8715 0 3
-39.3229 19.5704 -7.9961 0.8891 0 3
-38.1041 17.0899 -7.6024 0.1070 0 3
-44.0951 17.6852 -8.6489 0.3724 0 3
-27.7443 9.8531 -5.3598 0.9425 0 22
-27.6699 8.5915 -5.2744 0.6446 0 22
-32.8195 -32.7194 -8.4365 0.9702 0 20
-31.7681 -34.3242 -8.5141 0.9935 0 20
-14.4586 -40.2436 -7.7847 0.0643 0 1
-10.6716 -33.9287 -6.4749 0.0735 0 1
-7.9961 -29.5166 -5.5670 0.0837 0 1
-5.8938 -25.8261 -4.8224 0.0898 0 1
-4.2798 -22.9730 -4.2541 0.1092 0 1
-3.0152 -20.7939 -3.8250 0.1267 0 1
-1.9861 -19.0613 -3.4888 0.1483 0 1
-1.1230 -17.6230 -3.2147 0.1587 0 1
-0.3836 -16.3510 -2.9774 0.1722 0 1
0.2550 -15.2399 -2.7747 0.1833 0 1
0.8119 -14.2512 -2.5986 0.2028 0 1
1.3029 -13.3768 -2.4467 0.2147 0 1
1.7369 -12.5728 -2.3106 0.2216 0 1
2.1178 -11.8087 -2.1840 0.2296 0 1
2.4560 -11.1058 -2.0706 0.2442 0 1
2.7601 -10.4671 -1.9706 0.2566 0 1
3.0335 -9.8761 -1.8808 0.2684 0 1
3.2810 -9.3288 -1.8002 0.2817 0 1
3.5070 -8.8222 -1.7283 0.2909 0 1
3.7139 -8.3488 -1.6634 0.3022 0 1
3.9022 -7.9012 -1.6042 0.3128 0 1
4.0750 -7.4783 -1.5504 0.3266 0 1
4.2342 -7.0782 -1.5015 0.3373 0 1
4.3805 -6.6966 -1.4567 0.3476 0 1
4.5074 -6.3209 -1.4133 0.3489 0 1
4.6144 -5.9499 -1.3707 0.3598 0 1
4.7118 -5.5960 -1.3318 0.3703 0 1
4.8028 -5.2598 -1.2967 0.3839 0 1
4.8862 -4.9373 -1.2646 0.3936 0 1
4.9623 -4.6267 -1.2351 0.4030 0 1
5.0318 -4.3270 -1.2081 0.4120 0 1
5.0916 -4.0343 -1.1826 0.4104 0 1
5.1525 -3.7557 -1.1607 0.4351 0 1
5.2159 -3.4900 -1.1425 0.4421 0 1
5.2752 -3.2306 -1.1261 0.4485 0 1
5.3297 -2.9764 -1.1113 0.4545 0 1
5.3796 -2.7268 -1.0980 0.4600 0 1
5.4253 -2.4813 -1.0860 0.4651 0 1
5.4668 -2.2393 -1.0755 0.4697 0 1
5.5046 -2.0005 -1.0662 0.4738 0 1
5.5386 -1.7644 -1.0582 0.4774 0 1
5.5689 -1.5306 -1.0514 0.4805 0 1
3.9445 -0.9154 -0.7372 0.5472 25 14
3.8380 -0.7296 -0.7112 0.9713 25 14
3.8363 -0.5707 -0.7061 0.9783 25 14
3.8346 -0.4138 -0.7021 0.9838 25 14
3.8322 -0.2583 -0.6992 0.9755 25 14
3.8279 -0.1039 -0.6971 0.8636 25 14
3.8226 0.0499 -0.6959 0.8651 25 14
3.8296 0.2041 -0.6982 0.9770 25 14
3.8308 0.3589 -0.7004 0.9738 25 14
3.8320 0.5150 -0.7039 0.9690 25 14
3.8332 0.6730 -0.7085 0.9627 25 14
3.8908 0.8455 -0.7248 0.5532 25 14
5.7211 1.4862 -1.0761 0.4640 0 1
5.7132 1.7319 -1.0868 0.4595 0 1
5.7012 1.9816 -1.0988 0.4596 0 1
5.6823 2.2347 -1.1116 0.4499 0 1
5.6536 2.4901 -1.1246 0.4447 0 1
5.6206 2.7503 -1.1391 0.4390 0 1
5.5833 3.0158 -1.1552 0.4329 0 1
5.5412 3.2872 -1.1729 0.4264 0 1
5.4940 3.5652 -1.1923 0.4189 0 1
5.4416 3.8504 -1.2135 0.4116 0 1
5.3835 4.1436 -1.2367 0.4039 0 1
5.3147 4.4417 -1.2609 0.4075 0 1
5.2350 4.7451 -1.2862 0.3995 0 1
5.1483 5.0578 -1.3138 0.3911 0 1
5.0541 5.3809 -1.3439 0.3823 0 1
4.9516 5.7155 -1.3766 0.3732 0 1
4.8422 6.0655 -1.4129 0.3621 0 1
4.7257 6.4334 -1.4532 0.3520 0 1
4.5763 6.7855 -1.4899 0.3797 0 1
4.4130 7.1468 -1.5291 0.3700 0 1
4.2373 7.5224 -1.5717 0.3600 0 1
4.0610 7.9394 -1.6234 0.3396 0 1
3.8700 8.3802 -1.6804 0.3281 0 1
3.6608 8.8444 -1.7426 0.3222 0 1
3.4308 9.3332 -1.8102 0.3060 0 1
3.1823 9.8639 -1.8868 0.2936 0 1
2.9085 10.4323 -1.9716 0.2810 0 1
2.6324 11.1567 -2.0868 0.2532 0 2
2.2975 11.8484 -2.1971 0.2393 0 2
1.9231 12.6097 -2.3221 0.2251 0 2
1.5019 13.4551 -2.4646 0.2107 0 2
1.0150 14.2753 -2.6053 0.1434 0 1
0.4717 15.3110 -2.7886 0.1819 0 1
-0.1553 16.5514 -3.0133 0.1660 0 1
-0.8947 18.0346 -3.2872 0.1467 0 1
-1.7719 19.6890 -3.5988 0.1397 0 1
-2.8039 21.4582 -3.9396 0.1313 0 1
-4.0392 23.5143 -4.3434 0.1218 0 1
-5.5263 25.8895 -4.8192 0.1151 0 1
-7.3353 28.6699 -5.3874 0.1000 0 1
-9.7643 32.6418 -6.2025 0.0756 0 1
-13.0289 37.9331 -7.3015 0.0704 0 1
-16.8650 43.3494 -8.4678 0.3167 0 2
-16.0800 30.0327 -6.2017 0.5080 0 15
-16.3194 27.7408 -5.8591 0.5452 0 15
-28.8035 37.7082 -8.6382 0.6179 0 3
-28.9152 34.8572 -8.2447 0.6474 0 3
-29.0133 32.2462 -7.8966 0.6759 0 3
-29.0999 29.8391 -7.5876 0.7034 0 3
-17.4547 16.5155 -4.3745 0.7627 0 22
-29.0094 25.3190 -7.0096 0.4743 0 3
-29.3039 23.5708 -6.8462 0.7796 0 3
-29.3545 21.7286 -6.6486 0.8027 0 3
-29.4013 19.9864 -6.4720 0.8246 0 3
-29.4426 18.3298 -6.3137 0.8453 0 3
-29.6549 16.8480 -6.2090 0.9922 0 3
-31.6148 16.3177 -6.4767 0.4958 0 3
-38.3401 17.8766 -7.7011 0.8995 0 3
-44.3344 18.5415 -8.7483 0.9149 0 3
-27.7549 9.0669 -5.3154 0.9364 0 22
-27.7330 7.8417 -5.2466 0.8433 0 22
-31.2815 -17.7977 -6.9647 0.9407 0 22
-32.4803 -33.3466 -9.0084 0.9961 0 20
-31.0990 -34.6071 -9.0039 0.9972 0 20
-18.7938 -43.1704 -9.1116 0.0556 0 2
-14.7042 -37.8643 -7.8605 0.0657 0 1
-11.0681 -32.2890 -6.6054 0.0786 0 1
-8.4414 -28.2826 -5.7118 0.0838 0 1
-6.3517 -24.8891 -4.9709 0.0924 0 1
-4.7172 -22.1663 -4.3856 0.1135 0 24
-3.4629 -20.2340 -3.9726 0.1266 0 1
-2.4235 -18.6361 -3.6368 0.1509 0 1
-1.5439 -17.2751 -3.3564 0.1586 0 1
-0.7877 -16.0782 -3.1151 0.1746 0 1
-0.1317 -15.0178 -2.9063 0.1857 0 1
0.4423 -14.0767 -2.7254 0.2051 0 1
0.9494 -13.2374 -2.5683 0.2170 0 1
1.3995 -12.4682 -2.4280 0.2237 0 1
1.7956 -11.7253 -2.2955 0.2317 0 1
2.1479 -11.0409 -2.1767 0.2444 0 1
2.4652 -10.4191 -2.0720 0.2589 0 1
2.7508 -9.8432 -1.9778 0.2708 0 1
3.0092 -9.3079 -1.8930 0.2842 0 1
3.2444 -8.8095 -1.8167 0.2961 0 1
3.4592 -8.3429 -1.7478 0.3051 0 1
3.6568 -7.9058 -1.6857 0.3158 0 1
3.8380 -7.4919 -1.6290 0.3298 0 1
4.0050 -7.0997 -1.5775 0.3406 0 1
4.1586 -6.7255 -1.5302 0.3511 0 1
4.3000 -6.3673 -1.4868 0.3613 0 1
4.4146 -6.0022 -1.4419 0.3628 0 1
4.5188 -5.6532 -1.4005 0.3735 0 1
4.6157 -5.3212 -1.3632 0.3873 0 1
4.7049 -5.0030 -1.3290 0.3973 0 1
4.7865 -4.6966 -1.2977 0.4069 0 1
4.8606 -4.4003 -1.2688 0.4058 0 1
4.9249 -4.1109 -1.2414 0.4147 0 1
4.9863 -3.8330 -1.2171 0.4402 0 1
5.0528 -3.5706 -1.1973 0.4475 0 1
5.1153 -3.3149 -1.1796 0.4542 0 1
5.1731 -3.0646 -1.1636 0.4605 0 1
5.2262 -2.8188 -1.1491 0.4663 0 1
5.2749 -2.5771 -1.1361 0.4716 0 1
5.3193 -2.3389 -1.1245 0.4765 0 1
5.3597 -2.1040 -1.1142 0.4810 0 1
5.3962 -1.8719 -1.1053 0.4849 0 1
5.4290 -1.6421 -1.0976 0.4882 0 1
5.4581 -1.4143 -1.0911 0.4912 0 1
3.8685 -0.8381 -0.7660 0.6440 25 14
3.8354 -0.6709 -0.7535 0.9725 25 14
3.8337 -0.5129 -0.7485 0.9790 25 14
3.8320 -0.3567 -0.7448 0.9839 25 14
3.8302 -0.2017 -0.7422 0.9872 25 14
3.8276 -0.0476 -0.7408 0.9975 25 14
3.8287 0.1062 -0.7412 0.9886 25 14
3.8297 0.2605 -0.7428 0.9865 25 14
3.8307 0.4157 -0.7457 0.9827 25 14
3.8316 0.5724 -0.7497 0.9774 25 14
3.8325 0.7310 -0.7550 0.9705 25 14
3.9528 0.9199 -0.7854 0.5449 25 14
5.5893 1.5399 -1.1219 0.4721 0 1
5.5789 1.7811 -1.1333 0.4674 0 1
5.5648 2.0263 -1.1461 0.4622 0 1
5.5396 2.2731 -1.1588 0.4572 0 1
5.5085 2.5234 -1.1725 0.4519 0 1
5.4730 2.7784 -1.1878 0.4461 0 1
5.4329 3.0385 -1.2046 0.4398 0 1
5.3880 3.3043 -1.2231 0.4332 0 1
5.3379 3.5763 -1.2434 0.4261 0 1
5.2824 3.8554 -1.2655 0.4187 0 1
5.2214 4.1424 -1.2898 0.4108 0 1
5.1499 4.4341 -1.3151 0.4145 0 1
5.0671 4.7303 -1.3415 0.4063 0 1
4.9772 5.0355 -1.3701 0.3978 0 1
4.8796 5.3505 -1.4013 0.3890 0 1
4.7735 5.6763 -1.4353 0.3798 0 1
4.6616 6.0184 -1.4732 0.3684 0 1
4.5409 6.3761 -1.5148 0.3582 0 1
4.3932 6.7250 -1.5545 0.3861 0 1
4.2270 7.0760 -1.5951 0.3763 0 1
4.0499 7.4433 -1.6398 0.3566 0 1
3.8704 7.8490 -1.6935 0.3453 0 1
3.6753 8.2757 -1.7523 0.3337 0 1
3.4626 8.7260 -1.8167 0.3219 0 1
3.2291 9.1995 -1.8867 0.3115 0 1
2.9761 9.7106 -1.9654 0.2990 0 1
2.6976 10.2556 -2.0522 0.2840 0 1
2.3900 10.8391 -2.1479 0.2693 0 1
2.0534 11.4902 -2.2588 0.2477 0 1
1.6783 12.2043 -2.3840 0.2347 0 1
1.2510 12.9264 -2.5132 0.2141 0 24
0.7810 13.8580 -2.6860 0.2075 0 1
0.2391 14.8360 -2.8714 0.1873 0 1
-0.3851 15.9937 -3.0960 0.1713 0 1
-1.1147 17.3250 -3.3596 0.1562 0 24
-1.9736 18.8289 -3.6637 0.1456 0 1
-2.9784 20.4512 -3.9994 0.1378 0 1
-4.1667 22.2898 -4.3882 0.1241 0 1
-5.5940 24.4430 -4.8525 0.1148 0 1
-7.2962 26.8675 -5.3876 0.1102 0 1
-9.4870 30.0977 -6.1069 0.0876 0 1
-12.4619 34.6190 -7.1202 0.0766 0 1
-16.5668 40.7994 -8.5215 0.0696 0 2
-16.0237 28.8995 -6.3947 0.5331 0 15
-16.2454 26.7095 -6.0497 0.5676 0 15
-17.4097 26.1924 -6.0863 0.7500 0 15
-28.8646 36.6594 -9.0294 0.7756 0 3
-27.8834 32.6262 -8.3054 0.7939 0 3
-28.8951 31.1815 -8.2267 0.6882 0 3
-28.0647 27.9447 -7.6642 0.5655 0 3
-17.9933 16.5311 -4.7285 0.6682 0 22
-19.4779 16.5024 -4.9403 0.7152 0 22
-29.0257 22.6532 -7.1252 0.9955 0 3
-29.2429 20.9884 -6.9657 0.8128 0 3
-29.2908 19.2885 -6.7869 0.8342 0 3
-29.5209 17.7824 -6.6692 0.5123 0 3
-32.1921 17.6693 -7.1064 0.3004 0 3
-39.1649 19.4917 -8.4659 0.8908 0 3
-39.1360 17.5527 -8.3004 0.9808 0 3
-40.6155 16.2896 -8.4684 0.9219 0 3
-27.6425 9.8169 -5.6766 0.9604 0 22
-27.6580 7.3837 -5.5398 0.9401 0 22
-26.0653 -11.7098 -5.5297 0.8108 15 6
-31.3790 -15.6409 -6.7850 0.9100 0 22
-32.9414 -32.8409 -9.0015 0.9969 0 20
-31.6823 -34.2314 -9.0262 0.9945 0 20
-16.4726 -40.6392 -8.4859 0.0700 0 2
-12.4185 -34.5650 -7.1076 0.1421 0 1
-9.3298 -29.6625 -6.0175 0.0837 0 1
-7.0598 -26.0605 -5.2250 0.0879 0 1
-5.2814 -23.1426 -4.5936 0.1073 0 1
-3.9003 -20.9362 -4.1212 0.1220 0 1
-2.7792 -19.1662 -3.7478 0.1465 0 1
-1.8503 -17.7583 -3.4552 0.1541 0 1
-1.0512 -16.4963 -3.1988 0.1700 0 1
-0.3611 -15.3938 -2.9798 0.1825 0 1
0.2410 -14.4031 -2.7877 0.2005 0 1
0.7711 -13.5351 -2.6235 0.2124 0 1
1.2411 -12.7425 -2.4776 0.2250 0 1
1.6565 -11.9908 -2.3425 0.2271 0 1
2.0189 -11.2568 -2.2132 0.2403 0 24
2.3531 -10.6406 -2.1089 0.2544 0 1
2.6498 -10.0489 -2.0111 0.2667 0 1
2.9175 -9.4984 -1.9229 0.2798 0 1
3.1611 -8.9880 -1.8438 0.2918 0 1
3.3826 -8.5090 -1.7720 0.3036 0 1
3.5867 -8.0629 -1.7077 0.3123 0 1
3.7733 -7.6401 -1.6490 0.3258 0 1
3.9456 -7.2409 -1.5958 0.3366 0 1
4.1039 -6.8603 -1.5470 0.3473 0 1
4.2496 -6.4964 -1.5023 0.3576 0 1
4.3740 -6.1338 -1.4579 0.3588 0 1
4.4818 -5.7789 -1.4152 0.3696 0 1
4.5810 -5.4406 -1.3764 0.3836 0 1
4.6732 -5.1179 -1.3412 0.3937 0 1
4.7576 -4.8073 -1.3089 0.4034 0 1
4.8347 -4.5077 -1.2792 0.4128 0 1
4.9022 -4.2155 -1.2512 0.4115 0 1
4.9626 -3.9320 -1.2253 0.4202 0 1
5.0291 -3.6658 -1.2043 0.4449 0 1
5.0929 -3.4077 -1.1858 0.4519 0 1
5.1525 -3.1555 -1.1692 0.4583 0 1
5.2073 -2.9081 -1.1542 0.4642 0 1
5.2576 -2.6650 -1.1407 0.4697 0 1
5.3035 -2.4256 -1.1286 0.4748 0 1
5.3453 -2.1896 -1.1178 0.4794 0 1
5.3833 -1.9564 -1.1084 0.4835 0 1
5.4174 -1.7258 -1.1003 0.4871 0 1
5.4479 -1.4973 -1.0934 0.4901 0 1
3.9297 -0.9120 -0.7807 0.5481 25 14
3.8360 -0.7292 -0.7556 0.9698 25 14
3.8343 -0.5704 -0.7502 0.9768 25 14
3.8326 -0.4136 -0.7460 0.9823 25 14
3.8309 -0.2582 -0.7430 0.9862 25 14
3.8291 -0.1039 -0.7413 0.9885 25 14
3.8281 0.0500 -0.7409 0.9974 25 14
3.8293 0.2041 -0.7421 0.9874 25 14
3.8303 0.3589 -0.7445 0.9843 25 14
3.8313 0.5149 -0.7481 0.9795 25 14
3.8322 0.6728 -0.7529 0.9732 25 14
3.8803 0.8432 -0.7684 0.5569 25 14
5.5922 1.4527 -1.1181 0.4737 0 1
5.5832 1.6925 -1.1290 0.4692 0 1
5.5704 1.9362 -1.1412 0.4641 0 1
5.5499 2.1827 -1.1541 0.4591 0 1
5.5204 2.4314 -1.1673 0.4539 0 1
5.4865 2.6847 -1.1820 0.4482 0 1
5.4481 2.9428 -1.1983 0.4422 0 1
5.4050 3.2064 -1.2162 0.4357 0 1
5.3568 3.4761 -1.2358 0.4287 0 1
5.3033 3.7525 -1.2572 0.4214 0 1
5.2442 4.0364 -1.2806 0.4138 0 1
5.1784 4.3279 -1.3060 0.4174 0 1
5.0982 4.6210 -1.3316 0.4093 0 1
5.0110 4.9228 -1.3594 0.4010 0 1
4.9162 5.2341 -1.3896 0.3922 0 1
4.8133 5.5559 -1.4225 0.3832 0 1
4.7032 5.8913 -1.4588 0.3720 0 1
4.5862 6.2436 -1.4992 0.3620 0 1
4.4511 6.5998 -1.5405 0.3896 0 1
4.2891 6.9462 -1.5798 0.3799 0 1
4.1152 7.3056 -1.6226 0.3699 0 1
3.9377 7.6984 -1.6734 0.3495 0 1
3.7485 8.1172 -1.7302 0.3380 0 1
3.5425 8.5585 -1.7925 0.3263 0 1
3.3160 9.0210 -1.8599 0.3202 0 1
3.0713 9.5199 -1.9358 0.3036 0 1
2.8027 10.0528 -2.0196 0.2910 0 1
2.5058 10.6200 -2.1116 0.2760 0 1
2.1803 11.2442 -2.2165 0.2524 0 1
1.8204 11.9360 -2.3365 0.2394 0 1
1.4167 12.6921 -2.4714 0.2264 0 1
0.9624 13.5359 -2.6260 0.2123 0 1
0.4456 14.4637 -2.8003 0.1921 0 1
-0.1459 15.5461 -3.0086 0.1703 0 1
-0.8344 16.8193 -3.2588 0.1570 0 1
-1.6457 18.2871 -3.5532 0.1501 0 1
-2.5917 19.8342 -3.8709 0.1395 0 1
-3.7085 21.5894 -4.2391 0.1303 0 1
-5.0409 23.6159 -4.6731 0.1192 0 1
-6.6383 25.9456 -5.1827 0.1146 0 1
-8.6055 28.7679 -5.8108 0.0933 0 1
-11.2832 32.8505 -6.7217 0.0798 0 1
-14.7806 37.9916 -7.8889 0.0720 0 1
-18.8803 43.2962 -9.1406 0.0554 0 2
-17.7117 36.5357 -7.8573 0.2379 0 6
-15.9597 29.8080 -6.5432 0.5247 0 15
-16.1658 27.4796 -6.1697 0.5613 0 15
-16.8356 26.1540 -6.0192 0.8071 0 15
-26.9413 38.3732 -9.0734 0.5899 0 3
-28.6373 37.4905 -9.1295 0.6202 0 3
-27.0539 32.6134 -8.2001 0.6187 0 3
-28.8602 32.0759 -8.3500 0.6781 0 3
-27.2224 27.9139 -7.5453 0.9804 0 3
-17.4753 16.5350 -4.6557 0.6881 0 22
-29.1058 25.4031 -7.4761 0.7573 0 3
-27.7899 22.3530 -6.9017 0.0563 0 3
-29.2238 21.6319 -7.0361 0.8046 0 3
-29.2739 19.8998 -6.8500 0.8265 0 3
-29.3182 18.2523 -6.6832 0.8471 0 3
-31.2787 17.7706 -6.9617 0.4908 0 3
-32.1281 16.5827 -6.9967 0.4868 0 3
-34.2384 15.9641 -7.3106 0.9832 0 3
-44.1613 18.4691 -9.2633 0.9166 0 3
-27.6371 9.0284 -5.6264 0.9001 0 22
-27.6660 7.8228 -5.5638 0.9604 0 22
-31.1996 -17.7511 -7.3601 0.8143 0 22
-32.5012 -33.3680 -9.5509 0.9939 0 20
-31.0290 -34.5293 -9.5185 0.9982 0 20
-20.7627 -42.8967 -9.7716 0.0548 0 2
-16.5060 -37.9151 -8.4788 0.4442 0 2
-12.5064 -32.2048 -7.0837 0.0759 0 1
-9.7175 -28.3489 -6.1446 0.0842 0 1
-7.4430 -24.9375 -5.3361 0.0907 0 24
-5.6882 -22.2892 -4.7166 0.1122 0 24
-4.3330 -20.3607 -4.2682 0.1246 0 1
-3.2013 -18.7054 -3.8911 0.1491 0 1
-2.2603 -17.3810 -3.5938 0.1566 0 1
-1.4472 -16.1932 -3.3335 0.1727 0 1
-0.7421 -15.1472 -3.1095 0.1849 0 1
-0.1246 -14.2088 -2.9135 0.2029 0 1
0.4203 -13.3760 -2.7440 0.2147 0 1
0.9047 -12.6141 -2.5930 0.2272 0 1
1.3349 -11.8927 -2.4538 0.2292 0 1
1.7164 -11.2080 -2.3249 0.2419 0 1
2.0585 -10.5810 -2.2102 0.2566 0 1
2.3673 -10.0056 -2.1082 0.2690 0 1
2.6462 -9.4690 -2.0159 0.2809 0 1
2.9000 -8.9700 -1.9329 0.2942 0 1
3.1312 -8.5021 -1.8577 0.3061 0 1
3.3423 -8.0608 -1.7892 0.3179 0 1
3.5369 -7.6466 -1.7275 0.3288 0 1
3.7170 -7.2558 -1.6716 0.3398 0 1
3.8826 -6.8828 -1.6203 0.3505 0 1
4.0352 -6.5259 -1.5732 0.3610 0 1
4.1737 -6.1803 -1.5291 0.3617 0 1
4.2885 -5.8307 -1.4841 0.3727 0 1
4.3938 -5.4968 -1.4429 0.3869 0 1
4.4920 -5.1786 -1.4056 0.3971 0 1
4.5819 -4.8722 -1.3714 0.4071 0 1
4.6640 -4.5764 -1.3398 0.4062 0 1
4.7358 -4.2873 -1.3098 0.4155 0 1
4.8012 -4.0075 -1.2823 0.4245 0 1
4.8681 -3.7421 -1.2590 0.4499 0 1
4.9349 -3.4873 -1.2390 0.4571 0 1
4.9976 -3.2386 -1.2211 0.4639 0 1
5.0556 -2.9950 -1.2048 0.4702 0 1
5.1090 -2.7556 -1.1902 0.4759 0 1
5.1578 -2.5199 -1.1770 0.4813 0 1
5.2024 -2.2876 -1.1653 0.4862 0 1
5.2430 -2.0582 -1.1549 0.4906 0 1
5.2797 -1.8315 -1.1458 0.4945 0 1
5.3125 -1.6069 -1.1380 0.4979 0 1
5.3417 -1.3841 -1.1314 0.5007 0 1
3.8658 -0.8375 -0.8110 0.6430 25 14
3.8334 -0.6706 -0.7979 0.9709 25 14
3.8317 -0.5126 -0.7927 0.9773 25 14
3.8300 -0.3565 -0.7887 0.9822 25 14
3.8271 -0.2016 -0.7858 0.9942 25 14
3.8215 -0.0475 -0.7836 0.9969 25 14
3.8241 0.1061 -0.7844 0.9959 25 14
3.8278 0.2604 -0.7867 0.9848 25 14
3.8287 0.4155 -0.7897 0.9811 25 14
3.8296 0.5721 -0.7939 0.9758 25 14
3.8305 0.7306 -0.7996 0.9689 25 14
3.9408 0.9171 -0.8296 0.5454 25 14
5.4672 1.5063 -1.1628 0.4893 0 1
5.4559 1.7418 -1.1743 0.4845 0 1
5.4401 1.9809 -1.1871 0.4722 0 1
5.4123 2.2209 -1.1995 0.4670 0 1
5.3805 2.4648 -1.2135 0.4616 0 1
5.3442 2.7130 -1.2289 0.4558 0 1
5.3033 2.9660 -1.2459 0.4496 0 1
5.2575 3.2242 -1.2646 0.4430 0 1
5.2065 3.4883 -1.2850 0.4359 0 1
5.1501 3.7588 -1.3073 0.4285 0 1
5.0883 4.0367 -1.3317 0.4206 0 1
5.0197 4.3220 -1.3582 0.4243 0 1
4.9366 4.6084 -1.3847 0.4162 0 1
4.8463 4.9030 -1.4135 0.4077 0 1
4.7484 5.2066 -1.4449 0.3988 0 1
4.6422 5.5201 -1.4789 0.3897 0 1
4.5297 5.8481 -1.5167 0.3782 0 1
4.4089 6.1907 -1.5583 0.3681 0 1
4.2747 6.5435 -1.6026 0.3959 0 1
4.1101 6.8802 -1.6433 0.3861 0 1
3.9334 7.2291 -1.6875 0.3760 0 1
3.7546 7.6141 -1.7407 0.3552 0 1
3.5616 8.0197 -1.7992 0.3436 0 1
3.3517 8.4465 -1.8632 0.3318 0 1
3.1225 8.8958 -1.9331 0.3214 0 1
2.8735 9.3759 -2.0107 0.3064 0 1
2.6000 9.8847 -2.0957 0.2940 0 1
2.2994 10.4281 -2.1895 0.2814 0 1
1.9691 11.0185 -2.2950 0.2665 0 1
1.6054 11.6742 -2.4162 0.2448 0 1
1.1922 12.3186 -2.5376 0.2317 0 24
0.7427 13.1798 -2.7067 0.2177 0 1
0.2262 14.0361 -2.8783 0.1976 0 1
-0.3619 15.0316 -3.0830 0.1757 0 1
-1.0417 16.1894 -3.3263 0.1625 0 24
-1.8376 17.5318 -3.6144 0.1531 0 1
-2.7590 18.9444 -3.9253 0.1436 0 1
-3.8387 20.5349 -4.2834 0.1364 0 1
-5.1134 22.3430 -4.6996 0.1225 0 1
-6.6346 24.4313 -5.1908 0.1148 0 1
-8.4635 26.8505 -5.7724 0.1030 0 1
-10.8788 30.2210 -6.5857 0.0826 0 1
-14.0191 34.5250 -7.6403 0.0742 0 1
-17.4543 38.4738 -8.6625 0.0618 0 2
-15.7204 31.2505 -7.1727 0.4396 0 15
-15.8984 28.6734 -6.7224 0.5380 0 15
-16.1185 26.5008 -6.3599 0.5757 0 15
-17.3657 26.1263 -6.4323 0.7732 0 15
-29.6578 37.6668 -9.8299 0.7740 0 3
-28.6395 33.5109 -9.0385 0.6623 0 3
-30.2715 32.6668 -9.1317 0.7232 0 3
-28.8382 28.7148 -8.3443 0.7174 0 3
-17.9875 16.5258 -5.0084 0.6624 0 22
-19.4816 16.5055 -5.2354 0.6669 0 22
-29.0565 22.6772 -7.5574 0.7920 0 3
-28.5871 20.5177 -7.2149 0.0625 0 3
-29.1650 19.2057 -7.1601 0.8359 0 3
-29.5195 17.7816 -7.0659 0.5112 0 3
-32.3616 17.7623 -7.5692 0.4773 0 3
-32.5861 16.2175 -7.4632 0.4825 0 3
-39.4957 17.7140 -8.8754 0.4070 0 3
-43.4865 17.4411 -9.6069 0.3631 0 3
-27.5380 9.7798 -5.9919 0.9530 0 22
-27.4971 8.5379 -5.9035 0.8789 0 6
-27.5592 7.3573 -5.8486 0.9414 0 22
-25.5414 -15.4068 -6.1160 0.8769 15 6
-32.8471 -32.7469 -9.5102 0.9975 0 20
-31.5632 -34.1029 -9.5277 0.9972 0 20
-18.2186 -27.4461 -6.7545 0.6592 0 6
-17.3813 -38.3760 -8.6380 0.0620 0 2
-13.8072 -34.0634 -7.5363 0.0627 0 1
-10.6542 -29.6545 -6.4609 0.0845 0 1
-8.2395 -26.1964 -5.6307 0.0871 0 1
-6.3070 -23.2815 -4.9457 0.1042 0 1
-4.8047 -21.0538 -4.4278 0.1209 0 1
-3.5856 -19.2469 -4.0143 0.1379 0 1
-2.5892 -17.8558 -3.6994 0.1569 0 1
-1.7303 -16.6064 -3.4234 0.1674 0 1
-0.9888 -15.5170 -3.1881 0.1803 0 1
-0.3409 -14.5336 -2.9808 0.1914 0 1
0.2287 -13.6721 -2.8037 0.2108 0 1
0.7341 -12.8847 -2.6462 0.2226 0 1
1.1842 -12.1583 -2.5047 0.2245 0 1
1.5820 -11.4515 -2.3703 0.2372 0 1
1.9327 -10.7766 -2.2449 0.2503 0 24
2.2581 -10.2110 -2.1442 0.2645 0 1
2.5475 -9.6609 -2.0486 0.2764 0 1
2.8099 -9.1483 -1.9622 0.2898 0 1
3.0492 -8.6698 -1.8844 0.3018 0 1
3.2673 -8.2192 -1.8135 0.3136 0 1
3.4675 -7.7949 -1.7493 0.3217 0 1
3.6529 -7.3964 -1.6914 0.3358 0 1
3.8237 -7.0172 -1.6385 0.3466 0 1
3.9809 -6.6546 -1.5900 0.3572 0 1
4.1258 -6.3071 -1.5453 0.3675 0 1
4.2477 -5.9567 -1.5001 0.3687 0 1
4.3561 -5.6168 -1.4574 0.3795 0 1
4.4571 -5.2934 -1.4189 0.3934 0 1
4.5500 -4.9829 -1.3835 0.4035 0 1
4.6350 -4.6835 -1.3511 0.4132 0 1
4.7104 -4.3918 -1.3205 0.4122 0 1
4.7780 -4.1088 -1.2921 0.4212 0 1
4.8423 -3.8367 -1.2667 0.4471 0 1
4.9111 -3.5797 -1.2461 0.4545 0 1
4.9751 -3.3288 -1.2274 0.4615 0 1
5.0350 -3.0835 -1.2106 0.4679 0 1
5.0900 -2.8426 -1.1954 0.4739 0 1
5.1405 -2.6056 -1.1817 0.4794 0 1
5.1866 -2.3721 -1.1694 0.4844 0 1
5.2286 -2.1417 -1.1585 0.4890 0 1
5.2667 -1.9141 -1.1490 0.4931 0 1
5.3009 -1.6887 -1.1407 0.4967 0 1
5.3315 -1.4653 -1.1337 0.4997 0 1
3.9202 -0.9098 -0.8252 0.6320 25 14
3.8340 -0.7288 -0.8002 0.9681 25 14
3.8324 -0.5701 -0.7944 0.9752 25 14
3.8307 -0.4134 -0.7900 0.9806 25 14
3.8289 -0.2581 -0.7869 0.9845 25 14
3.8236 -0.1037 -0.7843 0.9961 25 14
3.8221 0.0499 -0.7837 0.9968 25 14
3.8274 0.2040 -0.7859 0.9858 25 14
3.8284 0.3587 -0.7884 0.9826 25 14
3.8293 0.5147 -0.7922 0.9779 25 14
3.8302 0.6724 -0.7974 0.9716 25 14
3.8749 0.8420 -0.8131 0.6415 25 14
5.4704 1.4210 -1.1589 0.4909 0 1
5.4605 1.6553 -1.1699 0.4863 0 1
5.4469 1.8932 -1.1824 0.4812 0 1
5.4229 2.1327 -1.1948 0.4688 0 1
5.3926 2.3752 -1.2082 0.4636 0 1
5.3580 2.6218 -1.2231 0.4580 0 1
5.3188 2.8729 -1.2395 0.4519 0 1
5.2748 3.1292 -1.2575 0.4454 0 1
5.2258 3.3911 -1.2773 0.4385 0 1
5.1714 3.6592 -1.2989 0.4312 0 1
5.1114 3.9342 -1.3225 0.4236 0 1
5.0462 4.2173 -1.3484 0.4154 0 1
4.9678 4.5028 -1.3747 0.4192 0 1
4.8802 4.7943 -1.4027 0.4108 0 1
4.7851 5.0946 -1.4331 0.4021 0 1
4.6820 5.4043 -1.4661 0.3930 0 1
4.5714 5.7262 -1.5023 0.3819 0 1
4.4542 6.0639 -1.5427 0.3719 0 1
4.3267 6.4154 -1.5866 0.3616 0 1
4.1716 6.7558 -1.6280 0.3898 0 1
3.9994 7.1001 -1.6709 0.3798 0 1
3.8213 7.4707 -1.7205 0.3594 0 1
3.6340 7.8691 -1.7772 0.3479 0 1
3.4305 8.2879 -1.8392 0.3362 0 1
3.2089 8.7295 -1.9070 0.3242 0 1
2.9674 9.1977 -1.9816 0.3109 0 1
2.7029 9.6950 -2.0637 0.2986 0 1
2.4126 10.2252 -2.1541 0.2860 0 1
2.0936 10.7972 -2.2551 0.2712 0 1
1.7428 11.4274 -2.3702 0.2495 0 1
1.3530 12.1215 -2.5008 0.2365 0 1
0.9105 12.8058 -2.6323 0.2226 0 24
0.4224 13.7125 -2.8129 0.2095 0 1
-0.1375 14.6484 -3.0036 0.1893 0 1
-0.7825 15.7733 -3.2381 0.1672 0 1
-1.5345 17.0515 -3.5104 0.1576 0 1
-2.4052 18.4069 -3.8062 0.1481 0 1
-3.4237 19.9313 -4.1466 0.1376 0 1
-4.6193 21.6408 -4.5372 0.1287 0 1
-6.0487 23.6412 -5.0035 0.1191 0 1
-7.7092 25.7717 -5.5156 0.1083 0 24
-9.9153 28.8679 -6.2585 0.0890 0 1
-12.7832 32.8575 -7.2290 0.0812 0 1
-16.6852 38.2624 -8.5588 0.0733 0 2
-17.6375 36.3827 -8.2903 0.9019 0 6
-15.8166 29.5407 -6.8706 0.4114 0 15
-16.0371 27.2609 -6.4850 0.5617 0 15
-16.7974 26.0946 -6.3631 0.8449 0 15
-26.6241 37.9214 -9.5004 0.9400 0 3
-26.9132 35.2335 -9.0907 0.6224 0 3
-31.2371 37.6563 -10.0318 0.7584 0 3
-28.7079 31.9068 -8.8004 0.6802 0 3
-31.8473 32.6563 -9.3528 0.7061 0 3
-17.4528 16.5137 -4.9265 0.6415 0 22
-18.9373 16.5282 -5.1538 0.6641 0 22
-28.8837 23.2328 -7.6004 0.3457 0 3
-29.0938 21.5357 -7.4219 0.8064 0 3
-27.5527 18.7298 -6.8311 0.8283 0 3
-29.1942 18.1752 -7.0512 0.8488 0 3
-31.2771 17.7697 -7.3758 0.4898 0 3
-32.5332 16.7918 -7.5067 0.4870 0 3
-38.0373 17.7354 -8.6053 0.9675 0 3
-43.9887 18.3969 -9.7764 0.9182 0 3
-42.9557 15.9694 -9.3966 0.3607 0 3
-27.5217 8.9907 -5.9365 0.9620 0 22
-27.5585 7.7924 -5.8721 0.9655 0 22
-31.0303 -17.6548 -7.7334 0.7708 0 22
-32.4223 -33.2869 -10.0655 0.9940 0 20
-30.8216 -34.2984 -9.9886 0.9719 0 20
-22.5449 -42.1696 -10.3580 0.5759 0 9
-17.3569 -35.8601 -8.6298 0.0654 0 2
-13.9977 -32.1535 -7.5963 0.0651 0 1
-10.9618 -28.2275 -6.5593 0.0866 0 1
-8.5673 -24.9934 -5.7231 0.0905 0 24
-6.6686 -22.3430 -5.0508 0.1111 0 24
-5.2132 -20.4279 -4.5668 0.1235 0 1
-3.9933 -18.7648 -4.1557 0.1404 0 1
-2.9856 -17.4452 -3.8338 0.1595 0 1
-2.1164 -16.2745 -3.5550 0.1700 0 1
-1.3623 -15.2434 -3.3151 0.1830 0 1
-0.7015 -14.3182 -3.1052 0.2006 0 1
-0.1183 -13.4939 -2.9231 0.2131 0 1
0.4003 -12.7384 -2.7607 0.2249 0 1
0.8632 -12.0354 -2.6137 0.2274 0 1
1.2753 -11.3613 -2.4765 0.2393 0 1
1.6436 -10.7324 -2.3519 0.2520 0 1
1.9705 -10.1288 -2.2352 0.2649 0 24
2.2764 -9.6214 -2.1417 0.2787 0 1
2.5490 -9.1210 -2.0514 0.2922 0 1
2.7979 -8.6543 -1.9702 0.3042 0 1
3.0252 -8.2141 -1.8961 0.3161 0 1
3.2331 -7.7975 -1.8285 0.3278 0 1
3.4248 -7.4043 -1.7671 0.3387 0 1
3.6029 -7.0330 -1.7117 0.3497 0 1
3.7670 -6.6778 -1.6608 0.3604 0 1
3.9184 -6.3371 -1.6139 0.3709 0 1
4.0539 -6.0029 -1.5690 0.3715 0 1
4.1689 -5.6681 -1.5241 0.3825 0 1
4.2757 -5.3490 -1.4833 0.3966 0 1
4.3742 -5.0428 -1.4460 0.4069 0 1
4.4645 -4.7474 -1.4116 0.4064 0 1
4.5442 -4.4587 -1.3790 0.4160 0 1
4.6168 -4.1795 -1.3490 0.4253 0 1
4.6829 -3.9089 -1.3213 0.4342 0 1
4.7548 -3.6550 -1.2991 0.4595 0 1
4.8218 -3.4074 -1.2789 0.4668 0 1
4.8846 -3.1655 -1.2608 0.4735 0 1
4.9429 -2.9282 -1.2445 0.4798 0 1
4.9964 -2.6948 -1.2297 0.4855 0 1
5.0454 -2.4650 -1.2164 0.4909 0 1
5.0901 -2.2382 -1.2045 0.4958 0 1
5.1308 -2.0142 -1.1940 0.5001 0 1
5.1676 -1.7926 -1.1848 0.5040 0 1
5.2005 -1.5730 -1.1769 0.5074 0 1
5.2297 -1.3551 -1.1702 0.5103 0 1
3.8631 -0.8370 -0.8562 0.6420 25 14
3.8314 -0.6702 -0.8425 0.9691 25 14
3.8298 -0.5123 -0.8370 0.9756 25 14
3.8263 -0.3561 -0.8324 0.9891 25 14
3.8209 -0.2013 -0.8288 0.9934 25 14
3.8154 -0.0475 -0.8265 0.9962 25 14
3.8181 0.1060 -0.8274 0.9952 25 14
3.8236 0.2601 -0.8302 0.9918 25 14
3.8268 0.4153 -0.8338 0.9793 25 14
3.8277 0.5718 -0.8383 0.9740 25 14
3.8285 0.7302 -0.8443 0.9671 25 14
3.9287 0.9143 -0.8738 0.5458 25 14
5.3500 1.4740 -1.2021 0.4989 0 1
5.3379 1.7041 -1.2138 0.4941 0 1
5.3187 1.9367 -1.2261 0.4818 0 1
5.2902 2.1708 -1.2387 0.4766 0 1
5.2577 2.4086 -1.2527 0.4713 0 1
5.2207 2.6503 -1.2683 0.4655 0 1
5.1791 2.8965 -1.2854 0.4593 0 1
5.1326 3.1476 -1.3042 0.4527 0 1
5.0809 3.4042 -1.3248 0.4456 0 1
5.0237 3.6666 -1.3472 0.4382 0 1
4.9612 3.9359 -1.3718 0.4304 0 1
4.8929 4.2128 -1.3986 0.4222 0 1
4.8120 4.4921 -1.4260 0.4259 0 1
4.7216 4.7768 -1.4549 0.4175 0 1
4.6235 5.0697 -1.4863 0.4086 0 1
4.5173 5.3716 -1.5203 0.3995 0 1
4.4045 5.6864 -1.5580 0.3881 0 1
4.2837 6.0150 -1.5996 0.3780 0 1
4.1525 6.3565 -1.6447 0.3677 0 1
3.9989 6.6942 -1.6891 0.3960 0 1
3.8242 7.0285 -1.7332 0.3859 0 1
3.6450 7.3918 -1.7853 0.3650 0 1
3.4542 7.7780 -1.8435 0.3535 0 1
3.2472 8.1832 -1.9070 0.3417 0 1
3.0207 8.6059 -1.9757 0.3220 0 1
2.7767 9.0601 -2.0526 0.3164 0 1
2.5089 9.5382 -2.1364 0.3040 0 1
2.2153 10.0468 -2.2285 0.2914 0 1
1.8933 10.5942 -2.3312 0.2765 0 1
1.5383 11.1863 -2.4459 0.2635 0 1
1.1400 11.7799 -2.5636 0.2484 0 24
0.7079 12.5623 -2.7255 0.2279 0 1
0.2149 13.3378 -2.8895 0.2149 0 1
-0.3418 14.1984 -3.0765 0.1948 0 1
-0.9799 15.2292 -3.3057 0.1727 0 1
-1.7170 16.3810 -3.5678 0.1634 0 1
-2.5664 17.6220 -3.8574 0.1533 0 1
-3.5531 19.0070 -4.1885 0.1436 0 1
-4.7028 20.5489 -4.5662 0.1348 0 1
-6.0617 22.3215 -5.0103 0.1229 0 1
-7.6371 24.2289 -5.5029 0.1080 0 24
-9.6603 26.8360 -6.1782 0.1014 0 1
-12.2516 30.1723 -7.0540 0.0819 0 1
-15.4766 34.1144 -8.1145 0.0760 0 1
-15.5950 31.0013 -7.5171 0.6234 0 15
-15.7819 28.4634 -7.0499 0.5100 0 15
-16.0017 26.3088 -6.6702 0.5525 0 15
-17.3445 26.0944 -6.7871 0.7594 0 15
-29.6569 37.6656 -10.3844 0.7722 0 3
-28.4845 33.3296 -9.4970 0.6643 0 3
-30.2705 32.6657 -9.6469 0.7215 0 3
-28.6940 28.5713 -8.7713 0.7193 0 3
-30.1182 27.6707 -8.8594 0.6662 0 3
-19.5014 16.5223 -5.5365 0.6295 0 22
-28.9249 22.5744 -7.9478 0.7937 0 3
-28.9858 20.8039 -7.7285 0.8163 0 3
-29.0398 19.1233 -7.5318 0.8376 0 3
-28.8658 17.3878 -7.2995 0.0733 0 3
-32.3600 17.7614 -7.9961 0.4762 0 3
-33.1307 16.4886 -8.0162 0.4644 0 3
-39.1220 17.5464 -9.2877 0.8433 0 3
-43.7602 17.5508 -10.2130 0.5635 0 3
-27.4229 9.7389 -6.3036 0.8872 0 22
-27.3990 8.5074 -6.2145 0.9204 0 6
-27.4601 7.3309 -6.1566 0.9471 0 22
-25.6848 -9.1395 -5.9054 0.4177 15 6
-31.0231 -17.0525 -7.6683 0.9758 0 6
-25.3679 -16.7277 -6.5822 0.8776 15 6
-32.9632 -32.8626 -10.0825 0.9923 0 20
-31.4351 -33.9644 -10.0247 0.9670 0 20
-31.3484 -36.7264 -10.4594 0.2127 0 20
-18.1910 -27.4045 -7.1250 0.2918 0 6
-23.6433 -42.7038 -10.5734 0.4545 0 9
-19.0754 -37.9781 -9.2060 0.0613 0 2
-15.4470 -34.1052 -8.1101 0.0646 0 1
-11.9510 -29.4842 -6.8914 0.0825 0 1
-9.4194 -26.2175 -6.0345 0.0857 0 1
-7.3455 -23.3539 -5.3031 0.1025 0 1
-5.6977 -21.0325 -4.7202 0.1179 0 24
-4.4114 -19.3303 -4.2949 0.1305 0 1
-3.3340 -17.8962 -3.9433 0.1551 0 1
-2.4192 -16.6837 -3.6517 0.1655 0 1
-1.6261 -15.6065 -3.3989 0.1785 0 1
-0.9331 -14.6430 -3.1783 0.1892 0 1
-0.3234 -13.7862 -2.9871 0.2085 0 1
0.2174 -12.9918 -2.8146 0.2201 0 24
0.7003 -12.2914 -2.6668 0.2328 0 1
1.1264 -11.5646 -2.5169 0.2342 0 24
1.5136 -10.9565 -2.3959 0.2474 0 1
1.8532 -10.3334 -2.2741 0.2603 0 24
2.1700 -9.8128 -2.1769 0.2741 0 1
2.4523 -9.3000 -2.0834 0.2865 0 1
2.7096 -8.8216 -1.9990 0.2999 0 1
2.9445 -8.3721 -1.9224 0.3118 0 1
3.1592 -7.9472 -1.8525 0.3236 0 1
3.3565 -7.5455 -1.7889 0.3376 0 1
3.5395 -7.1668 -1.7314 0.3457 0 1
3.7085 -6.8059 -1.6789 0.3565 0 1
3.8645 -6.4600 -1.6306 0.3671 0 1
4.0084 -6.1277 -1.5861 0.3774 0 1
4.1280 -5.7888 -1.5401 0.3785 0 1
4.2375 -5.4638 -1.4978 0.3928 0 1
4.3392 -5.1534 -1.4593 0.4032 0 1
4.4325 -4.8542 -1.4239 0.4132 0 1
4.5159 -4.5631 -1.3906 0.4125 0 1
4.5910 -4.2805 -1.3597 0.4219 0 1
4.6595 -4.0068 -1.3312 0.4309 0 1
4.7289 -3.7469 -1.3069 0.4568 0 1
4.7980 -3.4973 -1.2861 0.4642 0 1
4.8621 -3.2532 -1.2672 0.4712 0 1
4.9222 -3.0144 -1.2503 0.4775 0 1
4.9774 -2.7797 -1.2349 0.4835 0 1
5.0280 -2.5486 -1.2211 0.4890 0 1
5.0743 -2.3207 -1.2087 0.4940 0 1
5.1164 -2.0958 -1.1977 0.4986 0 1
5.1546 -1.8733 -1.1880 0.5026 0 1
5.1889 -1.6530 -1.1796 0.5062 0 1
5.2194 -1.4345 -1.1725 0.5093 0 1
3.9174 -0.9091 -0.8711 0.6310 25 14
3.8320 -0.7285 -0.8449 0.9664 25 14
3.8304 -0.5698 -0.8388 0.9734 25 14
3.8283 -0.4131 -0.8341 0.9872 25 14
3.8229 -0.2577 -0.8300 0.9921 25 14
3.8174 -0.1036 -0.8272 0.9954 25 14
3.8161 0.0498 -0.8267 0.9960 25 14
3.8216 0.2037 -0.8290 0.9932 25 14
3.8264 0.3585 -0.8325 0.9808 25 14
3.8274 0.5144 -0.8365 0.9761 25 14
3.8282 0.6721 -0.8419 0.9698 25 14
3.8744 0.8419 -0.8588 0.6401 25 14
5.3536 1.3907 -1.1981 0.5005 0 1
5.3428 1.6196 -1.2093 0.4959 0 1
5.3282 1.8520 -1.2219 0.4835 0 1
5.3011 2.0848 -1.2339 0.4785 0 1
5.2701 2.3212 -1.2474 0.4733 0 1
5.2348 2.5615 -1.2624 0.4677 0 1
5.1949 2.8060 -1.2789 0.4616 0 1
5.1502 3.0553 -1.2971 0.4551 0 1
5.1004 3.3097 -1.3170 0.4483 0 1
5.0453 3.5700 -1.3388 0.4410 0 1
4.9846 3.8366 -1.3625 0.4333 0 1
4.9186 4.1107 -1.3885 0.4252 0 1
4.8433 4.3900 -1.4160 0.4289 0 1
4.7555 4.6718 -1.4440 0.4206 0 1
4.6603 4.9616 -1.4745 0.4119 0 1
4.5571 5.2602 -1.5076 0.4029 0 1
4.4462 5.5694 -1.5437 0.3917 0 1
4.3290 5.8935 -1.5840 0.3817 0 1
4.2017 6.2301 -1.6278 0.3715 0 1
4.0598 6.5748 -1.6738 0.3996 0 1
3.8895 6.9050 -1.7167 0.3896 0 1
3.7110 7.2551 -1.7652 0.3692 0 1
3.5257 7.6348 -1.8216 0.3577 0 1
3.3248 8.0328 -1.8832 0.3460 0 1
3.1065 8.4511 -1.9504 0.3341 0 1
2.8688 8.8922 -2.0239 0.3209 0 1
2.6096 9.3601 -2.1049 0.3085 0 1
2.3258 9.8571 -2.1938 0.2960 0 1
2.0144 10.3884 -2.2922 0.2812 0 1
1.6723 10.9648 -2.4026 0.2683 0 1
1.2946 11.5977 -2.5278 0.2466 0 1
0.8690 12.2225 -2.6543 0.2359 0 24
0.4019 13.0460 -2.8273 0.2197 0 1
-0.1302 13.8695 -3.0045 0.2067 0 1
-0.7355 14.8271 -3.2157 0.1775 0 1
-1.4315 15.9074 -3.4597 0.1657 0 24
-2.2416 17.1547 -3.7475 0.1556 0 1
-3.1752 18.4846 -4.0627 0.1463 0 1
-4.2596 19.9557 -4.4201 0.1351 0 1
-5.5374 21.6427 -4.8391 0.1254 0 1
-7.0473 23.5588 -5.3266 0.1171 0 1
-8.8805 25.8553 -5.9218 0.1044 0 1
-11.2191 28.8374 -6.7027 0.0868 0 1
-14.2105 32.5874 -7.7008 0.0755 0 1
-17.4249 35.9442 -8.6527 0.0652 0 2
-15.7099 29.3414 -7.2094 0.5235 0 15
-15.9214 27.0641 -6.8017 0.5678 0 15
-16.7740 26.0582 -6.7129 0.8178 0 15
-28.3083 37.0598 -10.1017 0.6245 0 3
-27.1276 32.7023 -9.2038 0.6304 0 3
-28.5566 31.7386 -9.2482 0.6822 0 3
-26.9395 27.6239 -8.3581 0.9799 0 3
-28.7506 27.2036 -8.5737 0.7359 0 3
-18.9371 16.5281 -5.4447 0.2796 0 22
-28.9031 23.2484 -8.0348 0.7852 0 3
-28.9644 21.4399 -7.8059 0.8082 0 3
-29.0209 19.7278 -7.6013 0.8299 0 3
-29.0708 18.0984 -7.4178 0.8505 0 3
-28.4237 16.1486 -7.0813 0.4886 0 3
-34.3853 17.7477 -8.3819 0.4542 0 3
-34.2169 15.9541 -8.1779 0.8509 0 3
-43.8167 18.3250 -10.2879 0.9196 0 3
-27.4281 8.9601 -6.2503 0.9560 0 22
-27.4445 7.7602 -6.1779 0.9649 0 22
-30.8815 -17.5701 -8.1095 0.9289 0 22
-32.4478 -33.3132 -10.6143 0.9599 0 20
-30.7689 -34.2399 -10.5069 0.9712 0 20
-23.1034 -39.3280 -10.4107 0.5753 0 9
-18.8836 -35.3214 -9.1417 0.0649 0 2
-15.5207 -32.0666 -8.1312 0.0682 0 1
-12.1754 -27.9675 -6.9621 0.0820 0 1
-9.6873 -24.9455 -6.1079 0.0904 0 24
-7.7077 -22.4858 -5.4254 0.1053 0 1
-6.1043 -20.4525 -4.8716 0.1203 0 1
-4.7985 -18.8029 -4.4292 0.1384 0 1
-3.7173 -17.4677 -4.0762 0.1561 0 1
-2.7934 -16.3222 -3.7796 0.1680 0 1
-1.9904 -15.3057 -3.5228 0.1810 0 1
-1.2866 -14.3963 -3.2990 0.1995 0 1
-0.6657 -13.5884 -3.1052 0.2109 0 1
-0.1126 -12.8432 -2.9315 0.2226 0 1
0.3818 -12.1513 -2.7748 0.2251 0 1
0.8240 -11.4893 -2.6291 0.2367 0 1
1.2205 -10.8731 -2.4973 0.2495 0 1
1.5766 -10.2949 -2.3771 0.2643 0 1
1.8936 -9.7333 -2.2632 0.2748 0 24
2.1918 -9.2639 -2.1728 0.2887 0 1
2.4585 -8.7971 -2.0848 0.3022 0 1
2.7024 -8.3588 -2.0051 0.3142 0 1
2.9256 -7.9438 -1.9322 0.3261 0 1
3.1312 -7.5517 -1.8659 0.3411 0 1
3.3202 -7.1780 -1.8051 0.3516 0 1
3.4951 -6.8226 -1.7497 0.3596 0 1
3.6575 -6.4838 -1.6991 0.3703 0 1
3.8077 -6.1580 -1.6525 0.3807 0 1
3.9402 -5.8345 -1.6069 0.3813 0 1
4.0556 -5.5141 -1.5623 0.3958 0 1
4.1632 -5.2083 -1.5219 0.4064 0 1
4.2619 -4.9133 -1.4845 0.4062 0 1
4.3496 -4.6251 -1.4491 0.4161 0 1
4.4297 -4.3465 -1.4165 0.4257 0 1
4.5030 -4.0765 -1.3864 0.4349 0 1
4.5734 -3.8175 -1.3597 0.4615 0 1
4.6462 -3.5715 -1.3376 0.4691 0 1
4.7133 -3.3307 -1.3173 0.4763 0 1
4.7762 -3.0952 -1.2990 0.4831 0 1
4.8345 -2.8640 -1.2825 0.4893 0 1
4.8881 -2.6364 -1.2676 0.4951 0 1
4.9373 -2.4121 -1.2542 0.5004 0 1
4.9821 -2.1907 -1.2422 0.5053 0 1
5.0228 -1.9718 -1.2316 0.5096 0 1
5.0596 -1.7551 -1.2223 0.5135 0 1
5.0926 -1.5403 -1.2144 0.5169 0 1
4.1090 -1.0647 -0.9688 0.9698 25 14
3.8604 -0.8364 -0.9016 0.6409 25 14
3.8294 -0.6699 -0.8873 0.9672 25 14
3.8254 -0.5117 -0.8809 0.9825 25 14
3.8201 -0.3556 -0.8757 0.9883 25 14
3.8148 -0.2009 -0.8719 0.9926 25 14
3.8093 -0.0474 -0.8695 0.9953 25 14
3.8120 0.1058 -0.8704 0.9943 25 14
3.8175 0.2597 -0.8733 0.9910 25 14
3.8228 0.4149 -0.8777 0.9861 25 14
3.8257 0.5715 -0.8829 0.9721 25 14
3.8265 0.7299 -0.8891 0.9652 25 14
3.9285 0.9143 -0.9206 0.5920 25 14
5.2373 1.4429 -1.2399 0.5083 0 1
5.2243 1.6679 -1.2517 0.5036 0 1
5.2021 1.8942 -1.2636 0.4914 0 1
5.1730 2.1227 -1.2762 0.4862 0 1
5.1399 2.3546 -1.2904 0.4809 0 1
5.1023 2.5902 -1.3060 0.4751 0 1
5.0601 2.8300 -1.3233 0.4689 0 1
5.0129 3.0743 -1.3422 0.4623 0 1
4.9606 3.3236 -1.3629 0.4553 0 1
4.9028 3.5784 -1.3854 0.4479 0 1
4.8398 3.8396 -1.4101 0.4401 0 1
4.7708 4.1077 -1.4369 0.4319 0 1
4.6930 4.3811 -1.4654 0.4357 0 1
4.6025 4.6564 -1.4943 0.4272 0 1
4.5045 4.9392 -1.5257 0.4184 0 1
4.3984 5.2303 -1.5598 0.4093 0 1
4.2855 5.5328 -1.5973 0.3979 0 1
4.1650 5.8482 -1.6387 0.3878 0 1
4.0342 6.1754 -1.6836 0.3775 0 1
3.8923 6.5156 -1.7323 0.3669 0 1
3.7205 6.8379 -1.7768 0.3956 0 1
3.5411 7.1812 -1.8275 0.3748 0 1
3.3527 7.5494 -1.8854 0.3633 0 1
3.1485 7.9346 -1.9484 0.3515 0 1
2.9227 8.3266 -2.0142 0.3320 0 1
2.6840 8.7575 -2.0906 0.3027 0 1
2.4235 9.2137 -2.1745 0.3139 0 1
2.1368 9.6907 -2.2650 0.3014 0 1
1.8228 10.1996 -2.3649 0.2865 0 1
1.4783 10.7499 -2.4767 0.2735 0 1
1.0935 11.2986 -2.5909 0.2637 0 24
0.6761 11.9974 -2.7427 0.2380 0 1
0.2037 12.6426 -2.8860 0.2291 0 24
-0.3244 13.4756 -3.0766 0.2122 0 1
-0.9227 14.3406 -3.2799 0.1829 0 1
-1.6104 15.3636 -3.5259 0.1713 0 1
-2.3966 16.4560 -3.7956 0.1615 0 1
-3.3029 17.6688 -4.1027 0.1515 0 1
-4.3467 18.9929 -4.4471 0.1434 0 1
-5.5684 20.5052 -4.8497 0.1334 0 1
-6.9959 22.1947 -5.3115 0.1218 0 1
-8.7124 24.2029 -5.8712 0.1073 0 1
-10.8490 26.7181 -6.5818 0.0968 0 1
-13.5534 29.8753 -7.4877 0.0862 0 1
-15.5159 30.8439 -7.8805 0.4571 0 15
-15.6895 28.2968 -7.3849 0.5371 0 15
-15.9027 26.1460 -6.9848 0.7745 0 15
-17.3327 26.0766 -7.1467 0.7335 0 15
-28.0478 38.7271 -10.9139 0.6076 0 3
-29.6560 37.6645 -10.9416 0.7703 0 3
-28.3304 33.1493 -9.9528 0.6663 0 3
-30.2695 32.6646 -10.1644 0.7198 0 3
-28.5506 28.4285 -9.1960 0.7211 0 3
-30.1171 27.6697 -9.3347 0.6646 0 3
-32.6386 27.6527 -9.7638 0.6354 0 3
-28.7938 22.4722 -8.3366 0.7954 0 3
-28.8581 20.7122 -8.1076 0.8178 0 3
-28.9151 19.0412 -7.9021 0.8391 0 3
-29.5167 17.7799 -7.8648 0.5088 0 3
-29.1760 16.0139 -7.5964 0.9537 0 3
-33.6588 16.7515 -8.5813 0.4404 0 3
-39.4910 17.7119 -9.8786 0.4051 0 3
-44.0774 17.6781 -10.8394 0.3692 0 3
-27.3003 9.6954 -6.6124 0.9167 0 22
-27.3297 8.4859 -6.5316 0.3862 0 6
-27.3533 7.3023 -6.4619 0.9639 0 22
-46.9755 6.6357 -10.8283 0.3754 0 6
-30.9607 -17.0182 -8.0638 0.2548 0 6
-33.0732 -32.9724 -10.6593 0.9559 0 20
-31.3769 -33.9015 -10.5433 0.9678 0 20
-30.8978 -36.1986 -10.8626 0.3821 0 20
-20.6742 -37.3412 -9.7420 0.0609 0 2
-16.5535 -32.9572 -8.4178 0.4922 0 2
-13.2680 -29.2943 -7.3401 0.0778 0 1
-10.5674 -26.0706 -6.4207 0.0906 0 1
-8.3885 -23.3482 -5.6626 0.1005 0 1
-6.6183 -21.0419 -5.0346 0.1167 0 24
-5.2445 -19.3596 -4.5780 0.1287 0 1
-4.0906 -17.9248 -4.1964 0.1517 0 1
-3.1157 -16.7243 -3.8829 0.1636 0 1
-2.2712 -15.6629 -3.6123 0.1765 0 1
-1.5334 -14.7171 -3.3773 0.1888 0 1
-0.8843 -13.8772 -3.1738 0.2063 0 1
-0.3075 -13.1089 -2.9928 0.2188 0 1
0.2075 -12.4007 -2.8308 0.2305 0 1
0.6680 -11.7258 -2.6807 0.2322 0 1
1.0806 -11.0946 -2.5443 0.2446 0 1
1.4506 -10.5004 -2.4194 0.2575 0 1
1.7850 -9.9530 -2.3080 0.2718 0 1
2.0881 -9.4424 -2.2072 0.2842 0 1
2.3637 -8.9637 -2.1158 0.2978 0 1
2.6158 -8.5161 -2.0334 0.3099 0 1
2.8463 -8.0929 -1.9581 0.3218 0 1
3.0578 -7.6921 -1.8893 0.3368 0 1
3.2529 -7.3126 -1.8267 0.3475 0 1
3.4324 -6.9500 -1.7692 0.3556 0 1
3.5996 -6.6060 -1.7171 0.3664 0 1
3.7542 -6.2756 -1.6691 0.3770 0 1
3.8956 -5.9552 -1.6242 0.3772 0 1
4.0143 -5.6294 -1.5781 0.3883 0 1
4.1249 -5.3187 -1.5363 0.4025 0 1
4.2268 -5.0199 -1.4978 0.4129 0 1
4.3184 -4.7293 -1.4617 0.4125 0 1
4.4013 -4.4473 -1.4281 0.4222 0 1
4.4770 -4.1742 -1.3971 0.4316 0 1
4.5461 -3.9094 -1.3685 0.4406 0 1
4.6203 -3.6608 -1.3454 0.4664 0 1
4.6894 -3.4182 -1.3245 0.4738 0 1
4.7536 -3.1806 -1.3055 0.4807 0 1
4.8138 -2.9480 -1.2884 0.4871 0 1
4.8691 -2.7192 -1.2729 0.4930 0 1
4.9198 -2.4938 -1.2589 0.4985 0 1
4.9662 -2.2713 -1.2464 0.5036 0 1
5.0084 -2.0515 -1.2353 0.5081 0 1
5.0466 -1.8341 -1.2256 0.5121 0 1
5.0810 -1.6186 -1.2171 0.5157 0 1
5.1115 -1.4049 -1.2099 0.5188 0 1
3.9189 -0.9095 -0.9182 0.5935 25 14
3.8300 -0.7281 -0.8898 0.9645 25 14
3.8272 -0.5693 -0.8832 0.9800 25 14
3.8221 -0.4124 -0.8774 0.9864 25 14
3.8168 -0.2573 -0.8731 0.9912 25 14
3.8113 -0.1034 -0.8702 0.9945 25 14
3.8100 0.0497 -0.8697 0.9951 25 14
3.8155 0.2033 -0.8721 0.9924 25 14
3.8209 0.3580 -0.8759 0.9881 25 14
3.8254 0.5142 -0.8810 0.9742 25 14
3.8262 0.6717 -0.8867 0.9679 25 14
3.8738 0.8418 -0.9048 0.6386 25 14
5.2411 1.3615 -1.2359 0.5100 0 1
5.2295 1.5853 -1.2472 0.5054 0 1
5.2117 1.8115 -1.2593 0.4931 0 1
5.1841 2.0388 -1.2714 0.4884 0 1
5.1525 2.2694 -1.2850 0.4829 0 1
5.1166 2.5036 -1.3001 0.4773 0 1
5.0761 2.7418 -1.3168 0.4713 0 1
5.0308 2.9844 -1.3351 0.4648 0 1
4.9804 3.2318 -1.3551 0.4579 0 1
4.9246 3.4846 -1.3769 0.4507 0 1
4.8634 3.7433 -1.4008 0.4430 0 1
4.7968 4.0089 -1.4269 0.4349 0 1
4.7237 4.2816 -1.4551 0.4265 0 1
4.6364 4.5549 -1.4835 0.4303 0 1
4.5412 4.8349 -1.5140 0.4217 0 1
4.4381 5.1229 -1.5470 0.4127 0 1
4.3271 5.4202 -1.5830 0.4015 0 1
4.2102 5.7316 -1.6232 0.3915 0 1
4.0833 6.0544 -1.6668 0.3813 0 1
3.9455 6.3897 -1.7140 0.3708 0 1
3.7850 6.7194 -1.7602 0.3994 0 1
3.6064 7.0506 -1.8076 0.3789 0 1
3.4233 7.4129 -1.8637 0.3675 0 1
3.2251 7.7917 -1.9247 0.3559 0 1
3.0077 8.1823 -1.9897 0.3361 0 1
2.7706 8.5878 -2.0596 0.3072 0 1
2.5221 9.0462 -2.1435 0.3184 0 1
2.2446 9.5130 -2.2309 0.3060 0 1
1.9408 10.0089 -2.3270 0.2933 0 1
1.6081 10.5443 -2.4345 0.2783 0 1
1.2364 11.0763 -2.5438 0.2712 0 24
0.8319 11.7001 -2.6772 0.2533 0 24
0.3832 12.4385 -2.8403 0.2298 0 1
-0.1231 13.1165 -2.9939 0.2204 0 24
-0.6948 14.0049 -3.2004 0.1969 0 1
-1.3489 14.9885 -3.4349 0.1758 0 1
-2.0893 15.9888 -3.6804 0.1644 0 24
-2.9564 17.2109 -3.9858 0.1559 0 1
-3.9483 18.4971 -4.3170 0.1477 0 1
-5.0980 19.9256 -4.6944 0.1337 0 1
-6.4470 21.5522 -5.1345 0.1260 0 1
-8.0344 23.3917 -5.6452 0.1161 0 1
-10.0119 25.7345 -6.3026 0.1031 0 1
-12.5053 28.6771 -7.1406 0.0891 0 1
-15.5570 32.0910 -8.1398 0.0798 0 1
-15.6223 29.1779 -7.5542 0.5213 0 15
-15.8146 26.8827 -7.1188 0.5701 0 15
-16.7589 26.0348 -7.0670 0.8221 0 15
-27.9877 39.8636 -11.1172 0.5965 0 3
-28.1455 36.8467 -10.5828 0.6266 0 3
-23.0674 25.6378 -7.8716 0.5913 0 5
-31.8451 32.6540 -10.4105 0.7028 0 3
-28.6101 27.0707 -8.9899 0.7376 0 3
-31.6906 27.6591 -9.6007 0.6462 0 3
-28.7708 23.1420 -8.4274 0.7869 0 3
-28.8355 21.3445 -8.1884 0.8098 0 3
-28.8951 19.6423 -7.9746 0.8315 0 3
-28.9478 18.0218 -7.7829 0.8520 0 3
-31.2740 17.7679 -8.2097 0.4875 0 3
-34.0492 17.5742 -8.7456 0.6179 0 3
-38.0086 17.7220 -9.5719 0.4181 0 3
-42.6548 17.8391 -10.5528 0.9210 0 3
-27.3391 8.9310 -6.5645 0.9335 0 22
-27.3348 7.7291 -6.4836 0.9639 0 22
-46.9468 7.3364 -10.8453 0.7920 0 6
-30.7839 -17.5146 -8.4978 0.8971 0 22
-32.3863 -33.2500 -11.1367 0.9607 0 20
-30.5534 -34.0000 -10.9676 0.9139 0 20
-28.5311 -37.3993 -11.2863 0.6391 0 20
-23.2862 -36.2239 -10.3322 0.6251 0 9
-20.3048 -34.5640 -9.6181 0.0647 0 2
-16.5566 -30.9686 -8.4256 0.5174 0 2
-13.4039 -27.6930 -7.3818 0.0811 0 1
-10.7962 -24.7995 -6.4896 0.0950 0 1
-8.7027 -22.4102 -5.7681 0.1027 0 1
-7.0007 -20.4231 -5.1800 0.1182 0 1
-5.6073 -18.7872 -4.7042 0.1371 0 1
-4.4561 -17.4613 -4.3238 0.1543 0 1
-3.4756 -16.3318 -4.0063 0.1663 0 1
-2.6245 -15.3353 -3.7329 0.1791 0 1
-1.8783 -14.4439 -3.4947 0.1928 0 1
-1.2204 -13.6550 -3.2893 0.2098 0 1
-0.6322 -12.9035 -3.0997 0.2209 0 24
-0.1074 -12.2474 -2.9387 0.2229 0 1
0.3636 -11.5723 -2.7779 0.2323 0 24
0.7881 -10.9881 -2.6432 0.2469 0 1
1.1700 -10.4230 -2.5165 0.2595 0 1
1.5148 -9.8913 -2.4009 0.2739 0 1
1.8220 -9.3655 -2.2892 0.2848 0 24
2.1129 -8.9304 -2.2019 0.2987 0 1
2.3737 -8.4940 -2.1161 0.3122 0 1
2.6127 -8.0814 -2.0378 0.3242 0 1
2.8323 -7.6903 -1.9663 0.3393 0 1
3.0351 -7.3199 -1.9013 0.3500 0 1
3.2214 -6.9644 -1.8411 0.3615 0 1
3.3933 -6.6240 -1.7857 0.3727 0 1
3.5537 -6.2998 -1.7354 0.3801 0 1
3.7025 -5.9879 -1.6892 0.3905 0 1
3.8322 -5.6746 -1.6429 0.3910 0 1
3.9484 -5.3684 -1.5989 0.4055 0 1
4.0557 -5.0739 -1.5585 0.4057 0 1
4.1518 -4.7864 -1.5202 0.4159 0 1
4.2398 -4.5084 -1.4849 0.4258 0 1
4.3204 -4.2392 -1.4523 0.4353 0 1
4.3942 -3.9780 -1.4222 0.4445 0 1
4.4691 -3.7304 -1.3967 0.4710 0 1
4.5419 -3.4914 -1.3745 0.4786 0 1
4.6091 -3.2571 -1.3541 0.4859 0 1
4.6719 -3.0276 -1.3357 0.4926 0 1
4.7303 -2.8023 -1.3192 0.4988 0 1
4.7840 -2.5803 -1.3041 0.5045 0 1
4.8331 -2.3613 -1.2906 0.5098 0 1
4.8780 -2.1449 -1.2785 0.5147 0 1
4.9188 -1.9310 -1.2679 0.5191 0 1
4.9556 -1.7190 -1.2585 0.5229 0 1
4.9885 -1.5089 -1.2505 0.5263 0 1
4.1119 -1.0655 -1.0192 0.9029 25 14
3.8615 -0.8366 -0.9480 0.6027 25 14
3.8241 -0.6689 -0.9315 0.9742 25 14
3.8191 -0.5109 -0.9245 0.9815 25 14
3.8139 -0.3550 -0.9190 0.9874 25 14
3.8086 -0.2006 -0.9151 0.9916 25 14
3.8031 -0.0473 -0.9126 0.9944 25 14
3.8060 0.1056 -0.9135 0.9933 25 14
3.8114 0.2593 -0.9166 0.9900 25 14
3.8167 0.4142 -0.9211 0.9851 25 14
3.8218 0.5709 -0.9271 0.9787 25 14
3.8245 0.7295 -0.9342 0.9633 25 14
3.9335 0.9154 -0.9690 0.5897 25 14
5.1286 1.4130 -1.2764 0.5178 0 1
5.1149 1.6329 -1.2883 0.5130 0 1
5.0899 1.8534 -1.2997 0.5009 0 1
5.0603 2.0764 -1.3124 0.4961 0 1
5.0267 2.3027 -1.3266 0.4905 0 1
4.9886 2.5325 -1.3423 0.4847 0 1
4.9458 2.7661 -1.3596 0.4785 0 1
4.8982 3.0039 -1.3786 0.4719 0 1
4.8454 3.2463 -1.3994 0.4649 0 1
4.7871 3.4939 -1.4220 0.4576 0 1
4.7236 3.7474 -1.4467 0.4498 0 1
4.6542 4.0073 -1.4736 0.4416 0 1
4.5782 4.2739 -1.5027 0.4330 0 1
4.4888 4.5413 -1.5320 0.4369 0 1
4.3909 4.8146 -1.5634 0.4281 0 1
4.2851 5.0955 -1.5974 0.4190 0 1
4.1721 5.3865 -1.6347 0.4076 0 1
4.0521 5.6897 -1.6760 0.3976 0 1
3.9219 6.0036 -1.7206 0.3873 0 1
3.7809 6.3292 -1.7689 0.3767 0 1
3.6217 6.6564 -1.8182 0.4054 0 1
3.4426 6.9813 -1.8676 0.3845 0 1
3.2565 7.3327 -1.9251 0.3731 0 1
3.0533 7.6945 -1.9862 0.3530 0 1
2.8304 8.0636 -2.0504 0.3420 0 1
2.5920 8.4573 -2.1223 0.3126 0 1
2.3434 8.9090 -2.2103 0.3238 0 1
2.0633 9.3574 -2.2991 0.3113 0 1
1.7571 9.8324 -2.3965 0.2986 0 1
1.4225 10.3443 -2.5053 0.2835 0 1
1.0511 10.8605 -2.6180 0.2792 0 24
0.6466 11.4745 -2.7575 0.2427 0 1
0.1947 12.0824 -2.8993 0.2429 0 24
-0.3087 12.8241 -3.0778 0.2175 0 1
-0.8745 13.5909 -3.2676 0.2048 0 1
-1.5148 14.4522 -3.4865 0.1816 0 1
-2.2462 15.4233 -3.7396 0.1717 0 1
-3.0829 16.4918 -4.0254 0.1596 0 1
-4.0402 17.6535 -4.3452 0.1515 0 1
-5.1390 18.9237 -4.7048 0.1399 0 1
-6.4222 20.3744 -5.1256 0.1302 0 1
-7.8816 21.8948 -5.5833 0.1151 0 24
-9.7578 24.0307 -6.2230 0.1063 0 1
-12.0276 26.5120 -6.9851 0.0954 0 1
-14.7898 29.4005 -7.8964 0.0915 0 1
-15.6283 28.1864 -7.7328 0.5144 0 15
-15.8679 26.0888 -7.3264 0.9519 0 15
-17.3392 26.0864 -7.5155 0.7300 0 15
-27.8816 38.4976 -11.4049 0.6096 0 3
-29.6550 37.6633 -11.5016 0.7683 0 3
-28.1772 32.9701 -10.4059 0.6682 0 3
-23.0083 24.8289 -8.1218 0.6976 0 5
-23.0930 22.9942 -7.8191 0.6973 0 5
-30.1160 27.6687 -9.8124 0.6629 0 3
-28.4408 24.0962 -8.9437 0.9444 0 3
-28.6633 22.3703 -8.7238 0.7969 0 3
-28.5908 20.5204 -8.4438 0.7165 0 3
-28.7908 18.9593 -8.2711 0.8406 0 3
-27.1054 16.3274 -7.5922 0.9430 0 3
-32.3567 17.7596 -8.8559 0.4738 0 3
-35.6395 17.7372 -9.5515 0.4393 0 3
-39.4886 17.7108 -10.3839 0.4041 0 3
-43.6782 17.5180 -11.2913 0.9757 0 3
-27.2031 9.6609 -6.9263 0.9300 0 22
-27.2443 7.2732 -6.7657 0.9610 0 22
-33.0073 -32.9067 -11.1828 0.9553 0 20
-31.2430 -33.7569 -11.0360 0.9063 0 20
-30.6237 -35.8774 -11.3176 0.3870 0 20
-23.8391 -30.3152 -9.2532 0.3238 0 20
-28.0325 -38.7562 -11.4763 0.6192 0 20
-25.1836 -37.9389 -10.9257 0.8179 0 9
-22.1449 -36.4597 -10.2350 0.0608 0 2
-17.5580 -31.7128 -8.6973 0.0715 0 2
-14.5746 -29.0174 -7.7911 0.0698 0 1
-11.6660 -25.7573 -6.7843 0.0909 0 1
-9.4246 -23.2514 -6.0196 0.0984 0 1
-7.5542 -21.0260 -5.3605 0.1149 0 24
-6.0844 -19.3443 -4.8655 0.1263 0 1
-4.8528 -17.9134 -4.4529 0.1444 0 1
-3.8176 -16.7284 -4.1169 0.1586 0 1
