ply
format ascii 1.0
element vertex 1372
property float32 x
property float32 y
property float32 z
property float32 CosAngle
property uint32 ObjIdx
property uint32 ObjTag
end_header
-30.6693 27.4635 -2.8559 0.7221 0 3
-30.6862 25.3316 -2.7603 0.7471 0 3
-30.2908 23.0219 -2.6393 0.2861 0 3
-30.7102 21.4494 -2.5985 0.7936 0 3
-30.2236 19.3499 -2.4895 0.2018 0 3
-30.0089 17.5531 -2.4117 0.2134 0 3
-33.3845 17.7664 -2.6234 0.4744 0 3
-36.8411 17.7439 -2.8366 0.4388 0 3
-40.2563 17.4315 -3.0431 0.2158 0 3
-45.8105 17.6854 -3.4065 0.3654 0 3
-35.1087 -33.1970 -3.3518 0.9460 0 20
-33.3356 -34.1610 -3.3111 0.9585 0 20
-0.4027 -43.7594 -3.0357 0.0643 0 1
1.1538 -37.1987 -2.5817 0.0755 0 2
1.8650 -26.1431 -1.8182 0.9048 0 20
2.9309 -26.1947 -1.8285 0.1009 0 2
3.5382 -23.1545 -1.6249 0.1135 0 2
4.0211 -20.7026 -1.4630 0.1261 0 2
4.3492 -18.4047 -1.3119 0.8714 0 6
4.8784 -17.4731 -1.2585 0.9356 0 2
5.2168 -16.1484 -1.1772 0.1431 0 1
5.3936 -14.6540 -1.0832 0.1490 0 1
5.5878 -13.4829 -1.0125 0.1896 0 1
5.7782 -12.4967 -0.9551 0.1995 0 1
5.9447 -11.6079 -0.9047 0.2121 0 1
6.0934 -10.8043 -0.8605 0.2230 0 1
6.2237 -10.0668 -0.8210 0.2326 0 1
6.3292 -9.3730 -0.7846 0.2368 0 1
6.4279 -8.7399 -0.7526 0.2617 0 1
6.5217 -8.1587 -0.7246 0.2719 0 1
6.6064 -7.6156 -0.6994 0.2916 0 1
6.6994 -7.1229 -0.6783 0.3006 0 1
6.7737 -6.6452 -0.6583 0.2664 0 1
6.8124 -6.1658 -0.6374 0.2751 0 1
6.8435 -5.7107 -0.6183 0.2771 0 1
6.6687 -5.1245 -0.5834 0.3171 0 25
6.2795 -4.4356 -0.5333 0.8022 14 6
6.2935 -4.0765 -0.5202 0.6003 14 6
6.7433 -3.9925 -0.5436 0.5136 14 6
6.8085 -3.6698 -0.5365 0.3447 0 25
6.8351 -3.3368 -0.5276 0.3506 0 25
6.8588 -3.0133 -0.5197 0.3559 0 25
6.8798 -2.6980 -0.5126 0.3608 0 25
6.8996 -2.3905 -0.5065 0.3633 0 2
7.1456 -2.1582 -0.5178 0.3688 0 1
7.1716 -1.8550 -0.5139 0.3728 0 1
7.1961 -1.5556 -0.5107 0.3751 0 1
3.9156 -0.6830 -0.2757 0.3126 25 14
3.9055 -0.5205 -0.2733 0.9756 25 14
3.8971 -0.3606 -0.2715 0.9821 25 14
3.8887 -0.2026 -0.2701 0.9871 25 14
3.8730 -0.0459 -0.2687 0.9851 25 14
3.8808 0.1101 -0.2693 0.9828 25 14
3.8920 0.2673 -0.2706 0.9853 25 14
3.9009 0.4260 -0.2722 0.9796 25 14
3.9097 0.5868 -0.2743 0.9723 25 14
4.0962 0.7843 -0.2893 0.2980 25 14
7.3702 1.7210 -0.5250 0.3717 0 1
7.3785 2.0390 -0.5310 0.3675 0 1
7.3845 2.3640 -0.5379 0.3630 0 1
7.3884 2.6972 -0.5456 0.3578 0 1
7.3902 3.0398 -0.5543 0.3522 0 1
7.3898 3.3931 -0.5641 0.3461 0 1
7.3871 3.7584 -0.5750 0.3395 0 1
7.3716 4.1317 -0.5862 0.3297 0 1
7.3307 4.5053 -0.5969 0.3365 0 1
7.2819 4.8892 -0.6084 0.3301 0 1
7.2288 5.2871 -0.6213 0.3233 0 1
7.1709 5.7010 -0.6355 0.3161 0 1
7.1173 6.1412 -0.6521 0.3078 0 1
7.0138 6.5618 -0.6663 0.3412 0 1
6.8933 6.9894 -0.6810 0.3338 0 1
6.7723 7.4428 -0.6981 0.3199 0 1
6.6530 7.9300 -0.7181 0.3110 0 1
6.6062 8.5500 -0.7495 0.2750 0 2
6.2127 8.7460 -0.7442 0.9757 0 2
6.0802 9.3326 -0.7727 0.2387 0 2
5.9708 10.0238 -0.8094 0.2279 0 2
5.8473 10.7799 -0.8507 0.2168 0 2
5.7075 11.6130 -0.8976 0.2055 0 2
5.5480 12.5379 -0.9511 0.1939 0 2
5.3648 13.5740 -1.0125 0.1822 0 2
5.1528 14.7459 -1.0836 0.1702 0 2
4.9051 16.0863 -1.1666 0.1581 0 2
4.6124 17.6390 -1.2648 0.1458 0 2
4.2619 19.4648 -1.3823 0.1334 0 2
3.8354 21.6496 -1.5252 0.1209 0 2
2.6234 19.2951 -1.3508 0.9841 0 20
2.4093 25.3051 -1.7634 0.9225 0 9
1.2699 23.1860 -1.6108 0.9959 0 20
0.5768 39.7618 -2.7586 0.0746 0 1
-1.2232 47.5784 -3.3016 0.0660 0 1
-30.5602 38.6496 -3.4180 0.6034 0 3
-30.5924 35.6459 -3.2586 0.6329 0 3
-30.6200 32.9038 -3.1180 0.6614 0 3
-30.6439 30.3831 -2.9935 0.6889 0 3
-30.5024 27.9027 -2.8677 0.9613 0 3
-19.6043 16.5362 -1.7791 0.6666 0 6
-29.8242 23.1706 -2.6199 0.4587 0 3
-30.7072 21.9356 -2.6178 0.7877 0 3
-30.2901 19.8486 -2.5122 0.2000 0 3
-30.0500 18.0076 -2.4302 0.2068 0 3
-29.9278 16.3366 -2.3653 0.2189 0 3
-35.8756 17.7502 -2.7766 0.4482 0 3
-35.7974 15.9537 -2.7187 0.5764 0 3
-41.4244 16.4992 -3.0932 0.4794 0 3
-35.5841 -32.9386 -3.3637 0.9427 0 20
-33.7993 -33.9090 -3.3212 0.9555 0 20
-33.5476 -36.4785 -3.4379 0.2121 0 20
-19.7143 -27.4435 -2.3441 0.7441 0 6
-0.9132 -46.0944 -3.1982 0.0534 0 1
0.7850 -38.4779 -2.6698 0.0724 0 1
1.5866 -26.1461 -1.8171 0.9315 0 20
2.7438 -27.1237 -1.8912 0.0975 0 2
3.3918 -23.8912 -1.6740 0.1102 0 2
3.9036 -21.3026 -1.5024 0.1228 0 2
4.1893 -18.6081 -1.3232 0.9812 0 6
4.7114 -17.5937 -1.2635 0.9319 0 2
5.2251 -16.7806 -1.2192 0.1761 0 2
5.3513 -15.0290 -1.1067 0.1458 0 1
5.5336 -13.7631 -1.0290 0.1865 0 1
5.7303 -12.7466 -0.9695 0.1965 0 1
5.9024 -11.8329 -0.9173 0.2092 0 1
6.0559 -11.0091 -0.8716 0.2202 0 1
6.1915 -10.2565 -0.8311 0.2298 0 1
6.3037 -9.5521 -0.7939 0.2340 0 1
6.4015 -8.9002 -0.7605 0.2590 0 1
6.4979 -8.3081 -0.7317 0.2692 0 1
6.5848 -7.7554 -0.7058 0.2791 0 1
6.6756 -7.2503 -0.6837 0.2982 0 1
6.7626 -6.7766 -0.6641 0.2640 0 1
6.8027 -6.2895 -0.6427 0.2729 0 1
6.8377 -5.8300 -0.6233 0.2813 0 1
6.6573 -5.2289 -0.5872 0.3150 0 25
6.6989 -4.8392 -0.5733 0.3227 0 25
6.2962 -4.1737 -0.5240 0.3299 14 6
6.5847 -3.9935 -0.5342 0.5226 14 6
6.8010 -3.7594 -0.5391 0.3431 0 25
6.8284 -3.4237 -0.5299 0.3491 0 25
6.8528 -3.0978 -0.5217 0.3546 0 25
6.8745 -2.7804 -0.5144 0.3596 0 25
6.8953 -2.4712 -0.5081 0.3618 0 2
7.1387 -2.2390 -0.5190 0.3679 0 1
7.1648 -1.9345 -0.5148 0.3722 0 1
7.1899 -1.6343 -0.5115 0.3746 0 1
4.0255 -0.7462 -0.2840 0.3035 25 14
3.9078 -0.5630 -0.2739 0.9736 25 14
3.8993 -0.4026 -0.2719 0.9806 25 14
3.8909 -0.2442 -0.2704 0.9860 25 14
3.8797 -0.0872 -0.2692 0.9832 25 14
3.8743 0.0688 -0.2688 0.9847 25 14
3.8897 0.2257 -0.2703 0.9866 25 14
3.8985 0.3839 -0.2717 0.9812 25 14
3.9074 0.5442 -0.2737 0.9743 25 14
5.7937 9.1025 -0.8687 0.2462 0 2
5.6738 9.7593 -0.9089 0.2353 0 2
5.5391 10.4754 -0.9541 0.2242 0 2
5.3870 11.2611 -1.0051 0.2128 0 2
5.2141 12.1297 -1.0630 0.2012 0 2
5.0166 13.0977 -1.1292 0.1894 0 2
4.7890 14.1864 -1.2055 0.1774 0 2
4.5247 15.4235 -1.2941 0.1653 0 2
4.2145 16.8459 -1.3981 0.1530 0 2
3.8461 18.5035 -1.5216 0.1406 0 2
2.2536 13.5563 -1.1064 0.4935 0 20
2.2929 18.3180 -1.4864 0.1326 0 20
1.8924 22.3909 -1.8092 0.9905 0 6
1.3006 29.4694 -2.3750 0.0901 0 2
0.1403 36.0019 -2.8987 0.0778 0 1
-1.5547 42.7967 -3.4480 0.0702 0 1
-30.3935 37.6117 -3.8934 0.6143 0 3
-28.6045 32.6228 -3.4933 0.9539 0 3
-30.4657 32.0494 -3.5602 0.6718 0 3
-30.4948 29.6004 -3.4217 0.6990 0 3
-30.5199 27.3298 -3.2985 0.7251 0 3
-30.5417 25.2123 -3.1887 0.7501 0 3
-30.5605 23.2270 -3.0906 0.7739 0 3
-30.5741 21.3543 -3.0026 0.7965 0 3
-30.5878 19.5831 -2.9242 0.8178 0 3
-30.5993 17.8984 -2.8542 0.8379 0 3
-31.4680 16.7465 -2.8700 0.2102 0 3
-36.8391 17.7429 -3.2922 0.4384 0 3
-40.9140 17.7163 -3.5897 0.4021 0 3
-41.6859 16.0931 -3.5977 0.4158 0 3
-35.0455 -33.1373 -3.8833 0.9477 0 20
-33.1270 -33.9473 -3.8190 0.9019 0 20
-19.2800 -27.4488 -2.7007 0.8421 0 22
-2.2302 -45.1001 -3.6356 0.0608 0 1
-0.3457 -37.5677 -3.0249 0.0730 0 1
1.0132 -32.6663 -2.6314 0.0859 0 2
1.8629 -26.1140 -2.1079 0.9767 0 20
2.6536 -23.7165 -1.9214 0.1113 0 2
3.2375 -21.1871 -1.7257 0.1240 0 2
3.7108 -19.1053 -1.5670 0.1365 0 2
4.2432 -17.9562 -1.4855 0.8890 0 2
4.6066 -16.4998 -1.3793 0.1276 0 1
4.8472 -15.0045 -1.2695 0.1474 0 1
5.0701 -13.7750 -1.1818 0.1909 0 1
5.2930 -12.7717 -1.1131 0.2000 0 1
5.4888 -11.8709 -1.0530 0.2125 0 1
5.6627 -11.0571 -1.0002 0.2225 0 1
5.8178 -10.3157 -0.9535 0.2334 0 1
5.9501 -9.6244 -0.9110 0.2365 0 1
6.0697 -8.9886 -0.8733 0.2616 0 1
6.1795 -8.4021 -0.8398 0.2720 0 1
6.2787 -7.8547 -0.8096 0.2821 0 1
6.3763 -7.3503 -0.7834 0.3018 0 1
6.4631 -6.8717 -0.7595 0.2677 0 1
6.5143 -6.3907 -0.7347 0.2768 0 1
6.5595 -5.9368 -0.7123 0.2855 0 1
6.5916 -5.5004 -0.6912 0.2875 0 1
6.4541 -4.9596 -0.6554 0.3273 0 25
6.2984 -4.4489 -0.6209 0.7425 14 6
6.2898 -4.0741 -0.6034 0.7640 14 6
6.5741 -3.8923 -0.6151 0.3487 0 25
6.6065 -3.5609 -0.6043 0.3550 0 25
6.6356 -3.2394 -0.5945 0.3608 0 25
6.6615 -2.9266 -0.5858 0.3662 0 25
6.6845 -2.6214 -0.5781 0.3711 0 25
6.8508 -2.3736 -0.5838 0.6544 0 2
6.9468 -2.0981 -0.5843 0.3790 0 1
6.9742 -1.8039 -0.5800 0.3831 0 1
6.9992 -1.5130 -0.5766 0.3854 0 1
3.9055 -0.6812 -0.3192 0.9688 25 14
3.8972 -0.5193 -0.3165 0.9769 25 14
3.8888 -0.3598 -0.3144 0.9834 25 14
3.8804 -0.2022 -0.3129 0.9884 25 14
3.8694 -0.0459 -0.3116 0.9852 25 14
3.8751 0.1099 -0.3121 0.9907 25 14
3.8839 0.2667 -0.3134 0.9865 25 14
3.8926 0.4251 -0.3153 0.9808 25 14
3.9014 0.5856 -0.3176 0.9735 25 14
4.0385 0.7733 -0.3311 0.3020 25 14
7.1673 1.6736 -0.5926 0.3819 0 1
7.1731 1.9822 -0.5992 0.3777 0 1
7.1764 2.2974 -0.6067 0.3732 0 1
7.1773 2.6201 -0.6152 0.3680 0 1
7.1758 2.9516 -0.6247 0.3624 0 1
7.1717 3.2929 -0.6354 0.3563 0 1
7.1638 3.6449 -0.6472 0.3463 0 1
7.1426 4.0034 -0.6593 0.3399 0 1
7.1076 4.3682 -0.6717 0.3468 0 1
7.0562 4.7376 -0.6843 0.3404 0 1
7.0001 5.1199 -0.6983 0.3336 0 1
6.9393 5.5169 -0.7138 0.3261 0 1
6.8817 5.9378 -0.7318 0.3181 0 1
6.8044 6.3659 -0.7502 0.3514 0 1
6.6831 6.7763 -0.7663 0.3440 0 1
6.5575 7.2068 -0.7845 0.3301 0 1
6.4362 7.6716 -0.8063 0.3212 0 1
6.3053 8.1605 -0.8303 0.3119 0 1
6.2083 8.7397 -0.8631 0.9756 0 2
5.8231 8.9379 -0.8589 0.2490 0 2
5.7068 9.5807 -0.8979 0.2382 0 2
5.5762 10.2801 -0.9416 0.2272 0 2
5.4290 11.0463 -0.9910 0.2158 0 2
5.2620 11.8916 -1.0470 0.2043 0 2
5.0714 12.8315 -1.1109 0.1925 0 2
4.8523 13.8860 -1.1843 0.1806 0 2
4.5985 15.0808 -1.2694 0.1685 0 2
4.3015 16.4500 -1.3690 0.1562 0 2
3.9498 18.0398 -1.4869 0.1439 0 2
3.5279 19.9139 -1.6283 0.1314 0 2
2.4057 17.6941 -1.4377 0.1179 0 20
2.3595 24.7826 -2.0044 0.9778 0 9
1.4675 26.7936 -2.1605 0.9951 0 20
0.5008 34.5192 -2.7796 0.0803 0 1
-1.0502 40.8522 -3.2903 0.0710 0 1
-3.2445 49.1536 -3.9662 0.0633 0 1
-30.3823 38.4246 -3.9440 0.6064 0 3
-30.2714 35.2719 -3.7423 0.6076 0 3
-30.4573 32.7289 -3.5996 0.6644 0 3
-30.4875 30.2281 -3.4567 0.6919 0 3
-30.5136 27.9130 -3.3296 0.7183 0 3
-19.5555 16.4951 -2.0598 0.8258 0 6
-30.5558 23.7390 -3.1154 0.7677 0 3
-30.5701 21.8377 -3.0248 0.7906 0 3
-30.5844 20.0415 -2.9441 0.8123 0 3
-30.5965 18.3351 -2.8719 0.8327 0 3
-31.5303 17.2114 -2.8922 0.2020 0 3
-35.6386 17.6329 -3.2014 0.1107 0 3
-35.8816 15.9913 -3.1629 0.7886 0 3
-42.0254 16.7386 -3.6421 0.2183 0 3
-35.5196 -32.8790 -3.8970 0.9444 0 20
-33.6570 -33.7662 -3.8385 0.8973 0 20
-33.1488 -36.0448 -3.9428 0.3797 0 20
-2.9038 -48.3227 -3.8977 0.0482 0 1
-0.7769 -39.2118 -3.1577 0.0733 0 1
0.6844 -33.5462 -2.7015 0.0826 0 1
1.5920 -26.2354 -2.1162 0.6350 0 20
2.4762 -24.4782 -1.9809 0.1080 0 2
3.0956 -21.8053 -1.7732 0.1206 0 2
3.5949 -19.6182 -1.6058 0.1332 0 2
4.0744 -18.0976 -1.4936 0.8842 0 2
4.5958 -17.1618 -1.4304 0.1736 0 2
4.7914 -15.3878 -1.2976 0.1442 0 1
5.0038 -14.0530 -1.2010 0.1878 0 1
5.2372 -13.0259 -1.1304 0.1969 0 1
5.4392 -12.0989 -1.0680 0.2084 0 1
5.6187 -11.2641 -1.0135 0.2196 0 1
5.7786 -10.5051 -0.9653 0.2305 0 1
5.9192 -9.8054 -0.9222 0.2336 0 1
6.0387 -9.1506 -0.8827 0.2588 0 1
6.1517 -8.5528 -0.8482 0.2693 0 1
6.2535 -7.9956 -0.8173 0.2795 0 1
6.3494 -7.4781 -0.7898 0.2994 0 1
6.4482 -7.0032 -0.7665 0.3085 0 1
6.5014 -6.5148 -0.7410 0.2744 0 1
6.5481 -6.0541 -0.7180 0.2832 0 1
6.5859 -5.6153 -0.6968 0.2851 0 1
6.4417 -5.0596 -0.6595 0.3253 0 25
6.4870 -4.6862 -0.6443 0.3329 0 25
6.2920 -4.1709 -0.6078 0.7585 14 6
6.5650 -3.9816 -0.6182 0.3470 0 25
6.5983 -3.6474 -0.6070 0.3534 0 25
6.6282 -3.3233 -0.5970 0.3593 0 25
6.6550 -3.0083 -0.5880 0.3648 0 25
6.6787 -2.7013 -0.5800 0.3698 0 25
6.7433 -2.4167 -0.5767 0.6628 0 2
6.9396 -2.1765 -0.5856 0.3781 0 1
6.9672 -1.8812 -0.5810 0.3824 0 1
6.9929 -1.5895 -0.5774 0.3848 0 1
3.9637 -0.7348 -0.3246 0.3080 25 14
3.8994 -0.5618 -0.3172 0.9749 25 14
3.8910 -0.4017 -0.3149 0.9818 25 14
3.8826 -0.2436 -0.3132 0.9872 25 14
3.8743 -0.0870 -0.3120 0.9911 25 14
3.8710 0.0687 -0.3117 0.9847 25 14
3.8816 0.2252 -0.3130 0.9878 25 14
3.8903 0.3831 -0.3147 0.9825 25 14
3.8991 0.5430 -0.3170 0.9756 25 14
5.7041 8.9618 -0.9739 0.9944 0 2
5.4304 9.3406 -0.9905 0.2457 0 2
5.2902 10.0045 -1.0375 0.2345 0 2
5.1325 10.7292 -1.0904 0.2232 0 2
4.9544 11.5253 -1.1501 0.2116 0 2
4.7519 12.4066 -1.2180 0.1998 0 2
4.5202 13.3902 -1.2956 0.1878 0 2
4.2532 14.4980 -1.3852 0.1757 0 2
3.9426 15.7591 -1.4893 0.1634 0 2
3.5776 17.2117 -1.6117 0.1510 0 2
2.2465 13.5139 -1.2559 0.6980 0 20
1.6982 13.5668 -1.2535 0.5023 0 20
1.8916 22.3817 -2.0592 0.9983 0 6
1.1725 26.5669 -2.4380 0.0345 0 2
0.1235 31.6972 -2.9059 0.0869 0 1
-1.3401 36.8894 -3.3842 0.0727 0 1
-3.3754 44.0254 -4.0480 0.0656 0 1
-29.2697 39.3579 -4.4967 0.4217 0 3
-30.2195 37.3963 -4.4079 0.6172 0 3
-30.3061 31.8815 -4.0327 0.6747 0 3
-33.6423 32.6556 -4.2983 0.6983 0 3
-18.4618 16.5320 -2.2719 0.6544 0 22
-30.3984 25.0940 -3.6137 0.7529 0 3
-30.4215 23.1213 -3.5031 0.7767 0 3
-30.4389 21.2599 -3.4038 0.7992 0 3
-30.4561 19.4987 -3.3153 0.8206 0 3
-30.4720 17.8239 -3.2364 0.8998 0 3
-32.9494 17.5348 -3.4218 0.4736 0 3
-36.8371 17.7420 -3.7484 0.4380 0 3
-40.5549 17.5608 -4.0516 0.9655 0 3
-45.8045 17.6831 -4.5013 0.3648 0 3
-35.1182 -33.2060 -4.4309 0.8848 0 20
-32.8795 -33.6937 -4.3160 0.8176 0 20
-33.0339 -36.6936 -4.5264 0.5272 0 20
-20.9885 -27.4637 -3.1689 0.8353 0 22
-4.2319 -47.0948 -4.3349 0.0465 0 1
-1.9010 -38.4428 -3.5286 0.0717 0 1
-0.3021 -32.8246 -3.0094 0.0847 0 1
0.8949 -28.8511 -2.6463 0.0964 0 1
1.7313 -24.2695 -2.2306 0.1091 0 2
2.4239 -21.6634 -1.9984 0.1218 0 2
2.9857 -19.5390 -1.8121 0.5722 0 2
3.6034 -18.5521 -1.7326 0.8063 0 2
3.9812 -16.8475 -1.5871 0.1261 0 1
4.2820 -15.3369 -1.4598 0.1523 0 1
4.5377 -14.0463 -1.3533 0.1896 0 1
4.8010 -13.0439 -1.2743 0.1987 0 1
5.0274 -12.1307 -1.2038 0.2103 0 1
5.2288 -11.3086 -1.1422 0.2228 0 1
5.4070 -10.5579 -1.0875 0.2340 0 1
5.5660 -9.8691 -1.0387 0.2450 0 1
5.7080 -9.2326 -0.9951 0.2611 0 1
5.8348 -8.6408 -0.9559 0.2719 0 1
5.9492 -8.0890 -0.9206 0.2823 0 1
6.0530 -7.5723 -0.8887 0.3027 0 1
6.1524 -7.0922 -0.8607 0.2688 0 1
6.2166 -6.6096 -0.8319 0.2781 0 1
6.2736 -6.1546 -0.8057 0.2871 0 1
6.3243 -5.7239 -0.7820 0.2958 0 1
6.3571 -5.3048 -0.7591 0.2978 0 1
6.2526 -4.8047 -0.7229 0.3375 0 25
6.2998 -4.4499 -0.7071 0.3451 0 25
6.3191 -4.0931 -0.6902 0.7598 14 6
6.3811 -3.7780 -0.6798 0.3589 0 25
6.4158 -3.4581 -0.6682 0.3652 0 25
6.4471 -3.1473 -0.6577 0.3710 0 25
6.4750 -2.8446 -0.6484 0.3764 0 25
6.5012 -2.5495 -0.6402 0.3789 0 2
6.7291 -2.3314 -0.6529 0.3858 0 1
6.7589 -2.0414 -0.6473 0.3905 0 1
6.7871 -1.7555 -0.6427 0.3933 0 1
4.2253 -0.9134 -0.3963 0.3223 25 14
3.8971 -0.6798 -0.3627 0.9699 25 14
3.8888 -0.5182 -0.3597 0.9780 25 14
3.8805 -0.3591 -0.3573 0.9846 25 14
3.8722 -0.2018 -0.3555 0.9896 25 14
3.8639 -0.0458 -0.3543 0.9930 25 14
3.8670 0.1097 -0.3547 0.9918 25 14
3.8757 0.2662 -0.3562 0.9877 25 14
3.8844 0.4242 -0.3582 0.9819 25 14
3.8931 0.5843 -0.3609 0.9747 25 14
3.9822 0.7625 -0.3717 0.3060 25 14
6.9749 1.6287 -0.6566 0.3920 0 1
6.9785 1.9284 -0.6637 0.3878 0 1
6.9794 2.2343 -0.6718 0.3833 0 1
6.9776 2.5472 -0.6810 0.3782 0 1
6.9731 2.8682 -0.6912 0.3726 0 1
6.9658 3.1984 -0.7027 0.3665 0 1
6.9516 3.5369 -0.7150 0.3565 0 1
6.9272 3.8826 -0.7280 0.3502 0 1
6.8973 4.2389 -0.7422 0.3570 0 1
6.8437 4.5949 -0.7557 0.3507 0 1
6.7851 4.9626 -0.7707 0.3439 0 1
6.7219 5.3440 -0.7873 0.3364 0 1
6.6608 5.7472 -0.8065 0.3283 0 1
6.5936 6.1687 -0.8278 0.3199 0 1
6.4850 6.5754 -0.8467 0.3542 0 1
6.3557 6.9849 -0.8658 0.3402 0 1
6.2328 7.4291 -0.8890 0.3313 0 1
6.1003 7.8951 -0.9147 0.3220 0 1
6.0162 8.4693 -0.9524 0.2858 0 2
5.8048 8.9100 -0.9749 0.9934 0 2
5.4648 9.1744 -0.9790 0.2485 0 2
5.3287 9.8239 -1.0246 0.2375 0 2
5.1760 10.5315 -1.0758 0.2262 0 2
5.0036 11.3076 -1.1336 0.2146 0 2
4.8079 12.1649 -1.1992 0.2029 0 2
4.5845 13.1196 -1.2741 0.1910 0 2
4.3275 14.1922 -1.3602 0.1789 0 2
4.0294 15.4095 -1.4602 0.1666 0 2
3.6800 16.8072 -1.5773 0.1543 0 2
3.2656 18.4333 -1.7162 0.1418 0 2
1.8354 13.4996 -1.2490 0.8396 0 20
2.1582 22.6676 -2.0875 0.1166 0 2
1.3974 25.5140 -2.3426 0.1039 0 2
0.4425 30.5035 -2.7968 0.0903 0 1
-0.9091 35.3626 -3.2430 0.0791 0 1
-2.7690 41.9497 -3.8542 0.0714 0 1
-30.2061 38.2017 -4.4648 0.6094 0 3
-32.3219 37.6611 -4.5499 0.7600 0 3
-30.2960 32.5556 -4.0770 0.6673 0 3
-32.9405 32.6602 -4.2527 0.7058 0 3
-18.0813 16.5403 -2.2466 0.7002 0 22
-30.3927 25.6362 -3.6452 0.7624 0 3
-29.4881 22.9095 -3.4234 0.4540 0 3
-30.4339 21.7404 -3.4289 0.7934 0 3
-30.4518 19.9546 -3.3377 0.8151 0 3
-30.4671 18.2576 -3.2563 0.8354 0 3
-32.5538 17.7700 -3.4001 0.4829 0 3
-32.9238 16.2897 -3.3676 0.1971 0 3
-39.7667 17.7227 -3.9914 0.4114 0 3
-44.7132 17.8091 -4.4124 0.9037 0 3
-35.6688 -33.0170 -4.4559 0.8798 0 20
-33.6133 -33.7224 -4.3651 0.8981 0 20
-32.8932 -35.7669 -4.4548 0.5371 0 20
-18.0873 -27.4431 -3.0132 0.8069 0 22
-2.4196 -40.2656 -3.6981 0.0702 0 1
-0.6754 -34.0907 -3.1260 0.0805 0 1
0.6065 -29.7302 -2.7262 0.0934 0 1
1.5205 -25.0560 -2.3013 0.1057 0 2
2.2558 -22.2994 -2.0548 0.1184 0 2
2.8467 -20.0515 -1.8567 0.1311 0 2
3.4333 -18.7360 -1.7463 0.7661 0 2
3.8950 -17.3008 -1.6258 0.1287 0 1
4.2054 -15.7039 -1.4904 0.1491 0 1
4.4639 -14.3361 -1.3765 0.1547 0 1
4.7362 -13.3014 -1.2944 0.1956 0 1
4.9704 -12.3625 -1.2215 0.2073 0 1
5.1782 -11.5183 -1.1578 0.2198 0 1
5.3620 -10.7495 -1.1013 0.2311 0 1
5.5257 -10.0453 -1.0511 0.2421 0 1
5.6722 -9.3962 -1.0062 0.2582 0 1
5.8026 -8.7928 -0.9658 0.2691 0 1
5.9202 -8.2310 -0.9295 0.2796 0 1
6.0265 -7.7053 -0.8968 0.2898 0 1
6.1336 -7.2240 -0.8688 0.3096 0 1
6.2004 -6.7341 -0.8392 0.2757 0 1
6.2592 -6.2721 -0.8124 0.2848 0 1
6.3115 -5.8354 -0.7880 0.2936 0 1
6.3498 -5.4140 -0.7650 0.2955 0 1
6.2393 -4.9007 -0.7274 0.3355 0 25
6.2878 -4.5422 -0.7111 0.3431 0 25
6.3215 -4.1905 -0.6953 0.7542 14 6
6.3713 -3.8641 -0.6831 0.3572 0 25
6.4070 -3.5416 -0.6711 0.3636 0 25
6.4392 -3.2285 -0.6604 0.3695 0 25
6.4679 -2.9238 -0.6507 0.3750 0 25
6.4945 -2.6267 -0.6423 0.3772 0 2
6.7209 -2.4087 -0.6545 0.3848 0 1
6.7510 -2.1174 -0.6486 0.3897 0 1
6.7799 -1.8306 -0.6438 0.3926 0 1
6.8061 -1.5470 -0.6399 0.3950 0 1
3.9037 -0.7237 -0.3640 0.3124 25 14
3.8910 -0.5606 -0.3604 0.9760 25 14
3.8827 -0.4009 -0.3578 0.9830 25 14
3.8744 -0.2431 -0.3559 0.9884 25 14
3.8661 -0.0869 -0.3545 0.9922 25 14
3.8647 0.0686 -0.3544 0.9927 25 14
3.8735 0.2247 -0.3557 0.9889 25 14
3.8822 0.3823 -0.3576 0.9836 25 14
3.8908 0.5419 -0.3601 0.9767 25 14
5.6300 8.8453 -1.0785 0.2831 0 2
5.3216 9.1536 -1.0891 0.9959 0 2
5.0622 9.5734 -1.1140 0.2448 0 2
4.9006 10.2443 -1.1681 0.2335 0 2
4.7188 10.9773 -1.2291 0.2219 0 2
4.5133 11.7836 -1.2980 0.2101 0 2
4.2796 12.6772 -1.3763 0.1981 0 2
4.0120 13.6758 -1.4660 0.1860 0 2
3.7032 14.8022 -1.5695 0.1738 0 2
3.2314 15.5462 -1.6333 0.1728 0 9
2.2406 13.4783 -1.4055 0.8565 0 20
2.4161 19.3026 -2.0010 0.1363 0 2
1.8058 21.3663 -2.2057 0.1236 0 2
1.1113 25.1793 -2.5926 0.1112 0 2
0.1103 28.3107 -2.9122 0.0973 0 1
-1.1801 32.4854 -3.3438 0.0916 0 1
-2.9007 37.8335 -3.9031 0.0712 0 1
-5.3158 45.3328 -4.6951 0.0625 0 1
-18.9457 36.5153 -4.2316 0.8472 0 6
-28.1925 37.9094 -4.8596 0.9948 0 3
-30.0471 37.1830 -4.9175 0.6201 0 3
-28.6694 32.6970 -4.4731 0.7596 0 3
-30.1479 31.7151 -4.5011 0.6775 0 3
-33.6411 32.6545 -4.8226 0.6976 0 3
-18.4539 16.5249 -2.5481 0.6782 0 22
-19.9898 16.5017 -2.6663 0.6454 0 22
-30.1340 22.9028 -3.8934 0.7476 0 3
-32.4520 22.6660 -4.0718 0.5750 0 3
-30.2128 19.3430 -3.6902 0.8104 0 3
-30.4025 17.7833 -3.6230 0.5079 0 3
-33.3795 17.7637 -3.8895 0.4731 0 3
-34.7385 16.7312 -3.9662 0.1810 0 3
-40.9092 17.7142 -4.5857 0.4013 0 3
-45.7951 17.6795 -5.0495 0.3644 0 3
-35.2005 -33.2839 -4.9832 0.7937 0 20
-32.8545 -33.6681 -4.8389 0.8174 0 20
-32.6560 -36.2738 -5.0206 0.6691 0 20
-6.4199 -49.1711 -5.1009 0.0447 0 1
-3.5452 -39.4527 -4.0746 0.0689 0 1
-1.6556 -33.4799 -3.4481 0.0804 0 1
-0.2679 -29.1110 -2.9946 0.0906 0 1
0.8032 -25.8961 -2.6651 0.1080 0 1
1.5888 -22.2724 -2.2969 0.2824 0 2
2.2834 -20.4077 -2.1123 0.5227 0 2
2.9192 -19.1039 -1.9879 0.1561 0 2
3.3319 -17.1546 -1.7976 0.1304 0 1
3.6928 -15.6268 -1.6517 0.1508 0 1
3.9949 -14.3087 -1.5281 0.1882 0 1
4.2977 -13.3033 -1.4381 0.2000 0 1
4.5584 -12.3846 -1.3575 0.2091 0 1
4.7881 -11.5534 -1.2864 0.2222 0 1
4.9919 -10.7962 -1.2235 0.2331 0 1
5.1732 -10.1014 -1.1674 0.2444 0 1
5.3369 -9.4629 -1.1175 0.2566 0 1
5.4838 -8.8701 -1.0727 0.2673 0 1
5.6165 -8.3175 -1.0324 0.2777 0 1
5.7351 -7.7978 -0.9957 0.2925 0 1
5.8405 -7.3066 -0.9622 0.2695 0 1
5.9183 -6.8224 -0.9290 0.2791 0 1
5.9877 -6.3662 -0.8990 0.2884 0 1
6.0496 -5.9349 -0.8717 0.2974 0 1
6.1035 -5.5242 -0.8468 0.2992 0 1
6.1505 -5.1324 -0.8240 0.3401 0 1
6.0634 -4.6593 -0.7866 0.3481 0 2
6.1127 -4.3178 -0.7698 0.3553 0 25
6.1578 -3.9886 -0.7547 0.3624 0 25
6.1987 -3.6700 -0.7410 0.3691 0 25
6.2355 -3.3609 -0.7286 0.3754 0 25
6.2686 -3.0602 -0.7175 0.3812 0 25
6.3005 -2.7680 -0.7079 0.3875 0 2
6.4976 -2.5481 -0.7179 0.8097 0 2
6.5496 -2.2692 -0.7130 0.3960 0 1
6.5807 -1.9875 -0.7071 0.4006 0 1
6.6093 -1.7095 -0.7022 0.4034 0 1
4.1651 -0.9004 -0.4383 0.3266 25 14
3.8844 -0.6775 -0.4056 0.9532 25 14
3.8765 -0.5166 -0.4023 0.9563 25 14
3.8691 -0.3580 -0.3997 0.9625 25 14
3.8616 -0.2012 -0.3978 0.9671 25 14
3.8539 -0.0457 -0.3965 0.9703 25 14
3.8578 0.1094 -0.3970 0.9690 25 14
3.8671 0.2656 -0.3987 0.9648 25 14
3.8762 0.4233 -0.4011 0.9591 25 14
3.8849 0.5831 -0.4041 0.9757 25 14
3.9305 0.7526 -0.4117 0.2876 25 14
6.7922 1.5860 -0.7175 0.4022 0 1
6.7938 1.8774 -0.7250 0.3980 0 1
6.7925 2.1745 -0.7336 0.3935 0 1
6.7883 2.4781 -0.7433 0.3883 0 1
6.7811 2.7893 -0.7542 0.3827 0 1
6.7710 3.1089 -0.7664 0.3766 0 1
6.7511 3.4349 -0.7792 0.3667 0 1
6.7239 3.7687 -0.7929 0.3604 0 1
6.6927 4.1132 -0.8081 0.3536 0 1
6.6432 4.4603 -0.8231 0.3609 0 1
6.5825 4.8144 -0.8389 0.3541 0 1
6.5172 5.1813 -0.8564 0.3465 0 1
6.4532 5.5681 -0.8767 0.3385 0 1
6.3829 5.9715 -0.8991 0.3301 0 1
6.2979 6.3858 -0.9226 0.3643 0 1
6.1679 6.7786 -0.9427 0.3565 0 1
6.0414 7.2010 -0.9669 0.3415 0 1
5.9077 7.6459 -0.9939 0.3322 0 1
5.7633 8.1134 -1.0237 0.3225 0 1
5.6676 8.6992 -1.0680 0.2859 0 2
5.4216 9.1019 -1.0898 0.9960 0 2
5.1018 9.4056 -1.1007 0.2478 0 2
4.9450 10.0617 -1.1532 0.2365 0 2
4.7689 10.7773 -1.2123 0.2250 0 2
4.5700 11.5630 -1.2789 0.2132 0 2
4.3443 12.4320 -1.3546 0.2013 0 2
4.0863 13.4009 -1.4411 0.1892 0 2
3.7892 14.4910 -1.5407 0.1770 0 2
3.4441 15.7302 -1.6564 0.1646 0 2
3.0392 17.1553 -1.7921 0.1522 0 2
1.8421 13.5489 -1.4065 0.6799 0 20
1.9789 20.7843 -2.1476 0.1270 0 2
1.2684 23.1590 -2.3858 0.1143 0 2
0.3967 27.3440 -2.8130 0.1014 0 1
-0.8052 31.3211 -3.2229 0.0932 0 1
-2.3888 36.1893 -3.7307 0.0759 0 1
-4.5732 42.9320 -4.4411 0.0656 0 24
-29.7808 37.6638 -4.9390 0.2203 0 3
-28.2573 32.9251 -4.4631 0.7209 0 3
-30.1361 32.3838 -4.5504 0.6701 0 3
-32.9394 32.6591 -4.7714 0.7051 0 3
-18.0768 16.5362 -2.5201 0.6996 0 22
-32.7957 27.6632 -4.4133 0.6464 0 3
-30.2766 23.5220 -3.9438 0.7732 0 3
-30.1478 21.5360 -3.8111 0.8775 0 3
-30.1691 19.7694 -3.7102 0.7815 0 3
-30.3385 18.1805 -3.6382 0.8381 0 3
-32.5522 17.7692 -3.8148 0.4824 0 3
-34.8249 17.2303 -3.9967 0.1864 0 3
-35.9732 16.0321 -4.0512 0.4482 0 3
-44.5386 17.7396 -4.9315 0.9062 0 3
-45.3324 15.9760 -4.9442 0.3544 0 3
-35.6244 -32.9759 -4.9934 0.8800 0 20
-33.4603 -33.5689 -4.8754 0.8112 0 20
-32.6838 -35.5392 -4.9666 0.5386 0 20
-19.7215 -27.4535 -3.4771 0.8503 0 22
-18.0937 -27.4529 -3.3821 0.7963 0 22
-4.1700 -41.4655 -4.2868 0.0634 0 1
-2.0983 -34.9180 -3.5983 0.0794 0 1
-0.5970 -30.1332 -3.1002 0.0875 0 1
0.5441 -26.6714 -2.7441 0.1038 0 1
1.4152 -23.3219 -2.4034 0.1708 0 2
2.1024 -20.7832 -2.1488 0.5138 0 2
2.7775 -19.5646 -2.0327 0.1527 0 2
3.2273 -17.6119 -1.8418 0.1273 0 1
3.6019 -15.9990 -1.6869 0.1477 0 1
3.9232 -14.6502 -1.5601 0.1530 0 1
4.2216 -13.5580 -1.4607 0.1969 0 1
4.4932 -12.6191 -1.3779 0.2060 0 1
4.7300 -11.7644 -1.3043 0.2191 0 1
4.9405 -10.9896 -1.2394 0.2302 0 1
5.1273 -10.2791 -1.1816 0.2414 0 1
5.2953 -9.6264 -1.1301 0.2542 0 1
5.4465 -9.0224 -1.0841 0.2645 0 1
5.5828 -8.4597 -1.0426 0.2750 0 1
5.7050 -7.9319 -1.0050 0.2898 0 1
5.8184 -7.4393 -0.9715 0.3103 0 1
5.8986 -6.9472 -0.9375 0.2766 0 1
5.9701 -6.4841 -0.9066 0.2860 0 1
6.0340 -6.0464 -0.8787 0.2951 0 1
6.0909 -5.6314 -0.8533 0.3039 0 1
6.1361 -5.2317 -0.8295 0.3378 0 1
6.0496 -4.7516 -0.7913 0.3460 0 2
6.1000 -4.4066 -0.7741 0.3533 0 25
6.1463 -4.0744 -0.7585 0.3606 0 25
6.1883 -3.7531 -0.7445 0.3674 0 25
6.2261 -3.4416 -0.7318 0.3737 0 25
6.2602 -3.1388 -0.7204 0.3797 0 25
6.2921 -2.8443 -0.7103 0.3861 0 2
6.4252 -2.5987 -0.7129 0.8686 0 2
6.5412 -2.3443 -0.7148 0.3950 0 1
6.5726 -2.0614 -0.7086 0.3998 0 1
6.6021 -1.7826 -0.7034 0.4027 0 1
4.2746 -0.9716 -0.4509 0.3175 25 14
3.8868 -0.7205 -0.4066 0.9508 25 14
3.8784 -0.5588 -0.4031 0.9544 25 14
3.8711 -0.3997 -0.4003 0.9610 25 14
3.8636 -0.2424 -0.3982 0.9660 25 14
3.8559 -0.0866 -0.3967 0.9696 25 14
3.8553 0.0684 -0.3966 0.9699 25 14
3.8646 0.2242 -0.3982 0.9661 25 14
3.8738 0.3815 -0.4004 0.9608 25 14
3.8826 0.5407 -0.4032 0.9777 25 14
5.3810 8.4541 -1.1432 0.3199 0 1
5.2742 9.0719 -1.1971 0.2825 0 2
4.9579 9.3761 -1.2099 0.9930 0 2
4.6882 9.8004 -1.2393 0.2437 0 2
4.5041 10.4780 -1.3010 0.2322 0 2
4.2970 11.2190 -1.3705 0.2204 0 2
4.0628 12.0349 -1.4490 0.2085 0 2
3.7962 12.9402 -1.5384 0.1964 0 2
3.4908 13.9530 -1.6408 0.1841 0 2
3.1381 15.0970 -1.7590 0.1717 0 2
2.2394 13.4712 -1.5578 0.8648 0 20
2.2422 17.9127 -2.0594 0.1467 0 2
1.6635 19.6829 -2.2534 0.1341 0 2
1.0153 23.0037 -2.6267 0.1215 0 2
0.0997 25.5853 -2.9187 0.1082 0 1
-1.0568 29.0904 -3.3207 0.0995 0 1
-2.5344 33.0556 -3.7819 0.0898 0 1
-4.5261 38.5982 -4.4333 0.0688 0 24
-7.3519 46.4608 -5.3660 0.0677 0 1
-29.8763 36.9717 -5.4225 0.6229 0 3
-29.8115 33.9994 -5.1583 0.6404 0 3
-30.0980 31.6626 -4.9834 0.7247 0 3
-28.3069 27.4767 -4.5002 0.6543 0 3
-18.4497 16.5212 -2.8252 0.6740 0 22
-19.9850 16.4977 -2.9562 0.7565 0 22
-30.1463 22.9122 -4.3195 0.7820 0 3
-32.4507 22.6650 -4.5154 0.5743 0 3
-35.0555 22.4434 -4.7483 0.8258 0 3
-30.4011 17.7825 -4.0177 0.5073 0 3
-33.3778 17.7628 -4.3132 0.4726 0 3
-36.8331 17.7400 -4.6637 0.4371 0 3
-40.5387 17.5538 -5.0394 0.9692 0 3
-45.3529 17.5088 -5.5458 0.5350 0 3
-35.1759 -33.2605 -5.5225 0.7933 0 20
-32.5799 -33.3866 -5.3215 0.6992 0 20
-32.4853 -36.0842 -5.5387 0.6705 0 20
-19.2514 -27.4081 -3.8208 0.9382 0 6
-5.2932 -40.5417 -4.6641 0.0645 0 1
-3.0831 -34.3096 -3.9297 0.0806 0 1
-1.4604 -29.5322 -3.3730 0.0869 0 1
-0.2400 -26.0861 -2.9759 0.1072 0 1
0.7303 -23.5431 -2.6870 0.1116 0 1
1.5317 -21.4708 -2.4555 0.1360 0 2
2.1531 -19.2431 -2.2089 0.1204 0 1
2.6645 -17.4370 -2.0122 0.1285 0 1
3.0929 -15.9239 -1.8505 0.1526 0 1
3.4497 -14.5981 -1.7112 0.1613 0 1
3.7819 -13.5457 -1.6043 0.1986 0 1
4.0803 -12.6304 -1.5141 0.2076 0 1
4.3393 -11.7896 -1.4331 0.2209 0 1
4.5702 -11.0276 -1.3617 0.2320 0 1
4.7750 -10.3272 -1.2979 0.2434 0 1
4.9590 -9.6831 -1.2410 0.2564 0 1
5.1254 -9.0880 -1.1902 0.2668 0 1
5.2749 -8.5322 -1.1443 0.2775 0 1
5.4103 -8.0121 -1.1029 0.2880 0 1
5.5334 -7.5235 -1.0654 0.3008 0 1
5.6268 -7.0392 -1.0280 0.3036 0 1
5.7074 -6.5793 -0.9936 0.3141 0 1
5.7799 -6.1453 -0.9624 0.3243 0 1
5.8450 -5.7341 -0.9341 0.3341 0 1
5.9056 -5.3450 -0.9086 0.3416 0 1
5.9653 -4.9778 -0.8863 0.3502 0 1
5.9291 -4.5561 -0.8530 0.6184 0 2
5.9366 -4.1934 -0.8291 0.3669 0 2
5.9838 -3.8759 -0.8133 0.3699 0 2
6.0264 -3.5681 -0.7989 0.3762 0 2
6.0653 -3.2692 -0.7860 0.3887 0 2
6.0993 -2.9776 -0.7743 0.3903 0 2
6.2606 -2.7504 -0.7801 0.9254 0 2
6.3451 -2.4883 -0.7775 0.4022 0 1
6.3790 -2.2101 -0.7701 0.4074 0 1
6.4112 -1.9364 -0.7640 0.4107 0 1
6.4403 -1.6658 -0.7589 0.4135 0 1
4.1064 -0.8877 -0.4793 0.3309 25 14
3.8708 -0.6752 -0.4482 0.9554 25 14
3.8618 -0.5146 -0.4444 0.9636 25 14
3.8543 -0.3567 -0.4416 0.9650 25 14
3.8468 -0.2005 -0.4394 0.9697 25 14
3.8392 -0.0455 -0.4380 0.9729 25 14
3.8432 0.1090 -0.4386 0.9715 25 14
3.8524 0.2646 -0.4405 0.9673 25 14
3.8614 0.4217 -0.4431 0.9616 25 14
3.8703 0.5809 -0.4465 0.9544 25 14
3.8839 0.7437 -0.4511 0.2907 25 14
6.6184 1.5455 -0.7753 0.4122 0 1
6.6182 1.8288 -0.7833 0.4080 0 1
6.6150 2.1176 -0.7923 0.4035 0 1
6.6086 2.4125 -0.8025 0.3984 0 1
6.5991 2.7144 -0.8140 0.3928 0 1
6.5863 3.0242 -0.8268 0.3867 0 1
6.5615 3.3384 -0.8398 0.3769 0 1
6.5318 3.6610 -0.8542 0.3705 0 1
6.4979 3.9935 -0.8701 0.3638 0 1
6.4536 4.3330 -0.8868 0.3710 0 1
6.3912 4.6745 -0.9033 0.3642 0 1
6.3243 5.0279 -0.9217 0.3567 0 1
6.2577 5.3995 -0.9429 0.3487 0 1
6.1848 5.7862 -0.9662 0.3403 0 1
6.1048 6.1900 -0.9918 0.3315 0 1
5.9909 6.5841 -1.0155 0.3666 0 1
5.8611 6.9860 -1.0403 0.3516 0 1
5.7266 7.4115 -1.0684 0.3423 0 1
5.5815 7.8574 -1.0995 0.3326 0 1
5.4245 8.3262 -1.1336 0.3226 0 1
5.3161 8.9247 -1.1850 0.2854 0 2
5.0538 9.3169 -1.2091 0.9936 0 2
4.7334 9.6310 -1.2242 0.2468 0 2
4.5548 10.2935 -1.2841 0.2353 0 2
4.3541 11.0167 -1.3513 0.2235 0 2
4.1275 11.8116 -1.4273 0.2116 0 2
3.8700 12.6917 -1.5136 0.1996 0 2
3.5756 13.6741 -1.6123 0.1874 0 2
3.2363 14.7808 -1.7261 0.1750 0 2
2.4026 13.5617 -1.5712 0.4880 0 20
1.8486 13.5966 -1.5653 0.5776 0 20
1.8267 19.1866 -2.1986 0.1374 0 2
1.1998 21.9071 -2.5028 0.0418 0 2
0.3595 24.7829 -2.8274 0.1116 0 1
-0.7225 28.1041 -3.2071 0.1030 0 1
-2.1071 31.9221 -3.6495 0.0941 0 1
-3.9433 37.0184 -4.2468 0.0722 0 1
-6.5149 44.2038 -5.0971 0.0650 0 1
-29.8587 37.7624 -5.4917 0.6150 0 3
-32.3199 37.6588 -5.6612 0.7583 0 3
-29.7234 31.9403 -4.9772 0.6809 0 3
-29.3259 29.0763 -4.7110 0.7043 0 3
-18.0723 16.5320 -2.7941 0.6990 0 22
-32.7945 27.6621 -4.8942 0.6457 0 3
-29.1818 22.6715 -4.2155 0.8809 0 3
-30.3283 21.6649 -4.2518 0.5829 0 3
-34.5668 22.6511 -4.7144 0.5501 0 3
-30.2107 18.1039 -4.0177 0.8406 0 3
-32.5506 17.7683 -4.2304 0.4818 0 3
-35.8680 17.7464 -4.5651 0.4465 0 3
-36.1542 16.1128 -4.5154 0.1810 0 3
-44.4140 17.6900 -5.4537 0.3738 0 3
-35.8177 -33.1549 -5.5677 0.7868 0 20
-33.2648 -33.3727 -5.3752 0.6994 0 20
-32.5077 -35.3477 -5.4783 0.6779 0 20
-19.7325 -27.4688 -3.8582 0.7759 0 22
-18.0852 -27.4400 -3.7490 0.9041 0 22
-6.0412 -42.7345 -4.9234 0.0605 0 1
-3.5945 -35.7428 -4.0980 0.0771 0 1
-1.8444 -30.6934 -3.5077 0.0836 0 1
-0.5325 -26.8749 -3.0664 0.0970 0 1
0.4934 -24.1830 -2.7593 0.1089 0 1
1.3384 -22.0559 -2.5207 0.1308 0 2
2.0330 -20.0973 -2.3043 0.0893 0 1
2.5412 -17.8998 -2.0624 0.1253 0 1
2.9892 -16.3127 -1.8919 0.1493 0 1
3.3601 -14.9248 -1.7452 0.1581 0 1
3.6962 -13.8027 -1.6300 0.1954 0 1
4.0059 -12.8652 -1.5371 0.2073 0 1
4.2737 -12.0026 -1.4534 0.2178 0 1
4.5119 -11.2221 -1.3798 0.2295 0 1
4.7232 -10.5063 -1.3141 0.2405 0 1
4.9120 -9.8473 -1.2553 0.2534 0 1
5.0834 -9.2412 -1.2032 0.2640 0 1
5.2369 -8.6752 -1.1560 0.2747 0 1
5.3759 -8.1461 -1.1134 0.2852 0 1
5.5019 -7.6494 -1.0749 0.2955 0 1
5.6041 -7.1653 -1.0377 0.3007 0 1
5.6870 -6.6980 -1.0023 0.3113 0 1
5.7615 -6.2575 -0.9703 0.3216 0 1
5.8285 -5.8405 -0.9413 0.3316 0 1
5.8893 -5.4450 -0.9150 0.3443 0 1
5.9501 -5.0732 -0.8920 0.3480 0 1
5.9732 -4.6917 -0.8665 0.5331 0 2
5.9234 -4.2790 -0.8336 0.3663 0 2
5.9718 -3.9587 -0.8173 0.3681 0 2
9.3881 -5.6938 -1.2525 0.5256 0 1
6.0551 -3.3471 -0.7892 0.3842 0 2
6.0905 -3.0537 -0.7772 0.3888 0 2
6.2085 -2.8065 -0.7772 0.9589 0 2
6.3356 -2.5625 -0.7796 0.4011 0 1
6.3704 -2.2831 -0.7720 0.4051 0 1
6.4030 -2.0083 -0.7655 0.4099 0 1
6.4329 -1.7369 -0.7601 0.4128 0 1
4.2127 -0.9576 -0.4928 0.3218 25 14
3.8732 -0.7180 -0.4494 0.9530 25 14
3.8642 -0.5567 -0.4454 0.9616 25 14
3.8562 -0.3981 -0.4422 0.9635 25 14
3.8488 -0.2415 -0.4399 0.9686 25 14
3.8412 -0.0863 -0.4383 0.9722 25 14
3.8408 0.0682 -0.4382 0.9724 25 14
3.8500 0.2234 -0.4399 0.9686 25 14
3.8590 0.3800 -0.4424 0.9633 25 14
3.8680 0.5387 -0.4455 0.9565 25 14
5.2065 8.1799 -1.2151 0.3233 0 1
5.0393 8.6678 -1.2565 0.3102 0 1
4.9147 9.2944 -1.3176 0.2816 0 2
4.6010 9.6180 -1.3361 0.9743 0 2
4.1000 10.7047 -1.4365 0.2307 0 2
3.8664 11.4532 -1.5148 0.2188 0 2
3.6020 12.2781 -1.6035 0.2067 0 2
3.3009 13.1942 -1.7044 0.1944 0 2
2.9558 14.2202 -1.8201 0.1821 0 2
2.2355 13.4473 -1.7083 0.9538 0 20
2.0912 16.7068 -2.1100 0.1571 0 2
1.5417 18.2421 -2.2942 0.1445 0 2
0.9343 21.1700 -2.6555 0.1319 0 2
0.0910 23.3501 -2.9262 0.1183 0 1
-0.9549 26.2858 -3.2962 0.1094 0 1
-2.2669 29.5666 -3.7160 0.1011 0 1
-3.9474 33.6628 -4.2474 0.0836 0 1
-6.2554 39.5311 -5.0155 0.0705 0 1
-9.4849 47.4860 -6.0683 0.0658 0 1
-15.3934 46.8000 -6.1739 0.3660 0 15
-29.7070 36.7622 -5.9231 0.6256 0 3
-28.8516 32.9047 -5.4841 0.8638 0 3
-31.0549 32.6692 -5.6485 0.7238 0 3
-33.6388 32.6523 -5.8748 0.6959 0 3
-18.4621 16.5323 -3.1056 0.6903 0 22
-19.9960 16.5068 -3.2493 0.5856 0 22
-28.2900 21.5013 -4.4529 0.3251 0 3
-28.4076 19.8412 -4.3423 0.8070 0 3
-34.9054 22.3473 -5.1939 0.8282 0 3
-30.3996 17.7816 -4.4134 0.5067 0 3
-33.1068 17.6186 -4.6997 0.4913 0 3
-36.8311 17.7391 -5.1230 0.4365 0 3
-38.6164 16.7214 -5.2735 0.4003 0 3
-45.4123 17.5317 -6.1003 0.9681 0 3
-35.3070 -33.3846 -6.0893 0.6773 0 20
-32.5610 -33.3673 -5.8425 0.7055 0 20
-32.2070 -35.7751 -6.0323 0.7905 0 20
-7.1626 -41.7172 -5.3043 0.0613 0 1
-4.5692 -34.9966 -4.4229 0.0783 0 1
-2.7086 -30.1423 -3.7925 0.0811 0 1
-1.2992 -26.2720 -3.2963 0.0946 0 1
-0.2174 -23.6274 -2.9610 0.1104 0 1
0.6656 -21.4578 -2.6903 0.1118 0 1
1.3880 -19.4565 -2.4444 0.1193 0 1
1.9796 -17.6929 -2.2310 0.1335 0 1
2.4757 -16.2016 -2.0539 0.1713 0 1
2.8924 -14.8914 -1.9010 0.1630 0 1
3.2571 -13.7830 -1.7748 0.2003 0 1
3.5899 -12.8582 -1.6730 0.2089 0 1
3.8822 -12.0173 -1.5826 0.2195 0 1
4.1406 -11.2496 -1.5022 0.2312 0 1
4.3705 -10.5458 -1.4306 0.2423 0 1
4.5757 -9.8962 -1.3663 0.2537 0 1
4.7621 -9.2985 -1.3092 0.2666 0 1
4.9296 -8.7408 -1.2576 0.2771 0 1
5.0809 -8.2184 -1.2108 0.2877 0 1
5.2182 -7.7277 -1.1685 0.2982 0 1
5.3447 -7.2671 -1.1305 0.3029 0 1
5.4382 -6.8032 -1.0915 0.3137 0 1
5.5223 -6.3659 -1.0561 0.3242 0 1
5.5981 -5.9520 -1.0240 0.3344 0 1
5.6663 -5.5588 -0.9947 0.3442 0 1
5.7310 -5.1870 -0.9687 0.3567 0 1
5.7905 -4.8320 -0.9451 0.3603 0 1
5.8469 -4.4930 -0.9241 0.3685 0 1
5.8731 -4.1486 -0.9011 0.7578 0 2
5.8676 -3.8006 -0.8761 0.8218 0 2
5.9044 -3.4958 -0.8599 0.9123 0 2
5.9766 -3.2214 -0.8508 0.9673 0 2
6.0969 -2.9764 -0.8502 0.9742 0 2
6.1441 -2.6993 -0.8410 0.4083 0 1
6.1821 -2.4244 -0.8322 0.4123 0 1
6.2172 -2.1541 -0.8246 0.4175 0 1
6.2499 -1.8876 -0.8182 0.4208 0 1
6.2793 -1.6242 -0.8128 0.4235 0 1
4.0493 -0.8753 -0.5192 0.3351 25 14
3.8573 -0.6728 -0.4907 0.9575 25 14
3.8484 -0.5128 -0.4865 0.9657 25 14
3.8395 -0.3553 -0.4832 0.9674 25 14
3.8322 -0.1997 -0.4809 0.9721 25 14
3.8246 -0.0453 -0.4793 0.9753 25 14
3.8287 0.1086 -0.4800 0.9739 25 14
3.8378 0.2636 -0.4821 0.9697 25 14
3.8467 0.4201 -0.4849 0.9640 25 14
3.8569 0.5789 -0.4887 0.9613 25 14
3.8671 0.7405 -0.4934 0.9522 25 14
4.2578 0.9942 -0.5479 0.3176 25 14
6.4510 1.7827 -0.8387 0.4180 0 1
6.4461 2.0636 -0.8482 0.4134 0 1
6.4378 2.3502 -0.8588 0.4084 0 1
6.4261 2.6433 -0.8708 0.4028 0 1
6.4095 2.9430 -0.8838 0.3929 0 1
6.3817 3.2469 -0.8973 0.3870 0 1
6.3499 3.5591 -0.9122 0.3806 0 1
6.3137 3.8803 -0.9287 0.3739 0 1
6.2728 4.2116 -0.9468 0.3667 0 1
6.2103 4.5422 -0.9642 0.3743 0 1
6.1420 4.8830 -0.9833 0.3668 0 1
6.0733 5.2403 -1.0052 0.3588 0 1
5.9982 5.6116 -1.0293 0.3504 0 1
5.9159 5.9984 -1.0558 0.3416 0 1
5.8234 6.3999 -1.0843 0.3766 0 1
5.6907 6.7830 -1.1096 0.3616 0 1
5.5558 7.1905 -1.1387 0.3523 0 1
5.4103 7.6164 -1.1708 0.3427 0 1
5.2509 8.0597 -1.2054 0.3259 0 1
5.0830 8.5334 -1.2447 0.3075 0 1
4.9610 9.1459 -1.3039 0.2845 0 2
4.6936 9.5501 -1.3335 0.9762 0 2
4.3586 9.8501 -1.3498 0.2455 0 2
4.1572 10.5185 -1.4174 0.2338 0 2
3.9308 11.2488 -1.4932 0.2219 0 2
3.6750 12.0523 -1.5790 0.2099 0 2
3.3843 12.9426 -1.6765 0.1977 0 2
3.0516 13.9376 -1.7880 0.1854 0 2
2.3930 13.5073 -1.7190 0.6946 0 20
1.8720 13.7688 -1.7413 0.9693 0 20
1.6960 17.8137 -2.2424 0.1478 0 2
1.1288 20.6103 -2.5867 0.1354 0 2
0.3287 22.6551 -2.8394 0.1238 0 1
-0.6546 25.4613 -3.1918 0.1130 0 1
-1.8924 28.6700 -3.6006 0.1044 0 1
-3.4541 32.4259 -4.0865 0.0871 0 1
-5.5749 37.8259 -4.7914 0.0719 0 1
-8.5202 45.1441 -5.7572 0.0613 0 1
-16.8386 46.5083 -6.1985 0.8410 0 15
-29.6874 37.5457 -5.9982 0.6178 0 3
-27.9898 32.6133 -5.3858 0.8690 0 3
-29.8202 32.0443 -5.4855 0.6755 0 3
-32.9371 32.6569 -5.8125 0.7034 0 3
-18.0632 16.5238 -3.0679 0.7283 0 22
-19.6021 16.5344 -3.2136 0.5955 0 22
-28.2704 21.9634 -4.4863 0.7200 0 3
-28.4002 20.2876 -4.3738 0.8011 0 3
-34.5653 22.6501 -5.1787 0.5494 0 3
-30.0837 18.0278 -4.3951 0.8430 0 3
-34.9506 19.0784 -4.9899 0.8621 0 3
-35.8661 17.7455 -5.0146 0.4459 0 3
-39.7598 17.7197 -5.4550 0.4100 0 3
-40.0831 15.9650 -5.4068 0.5501 0 3
-45.1585 15.9148 -6.0002 0.9724 0 3
-24.5812 -4.5718 -3.1332 0.9806 16 6
-36.0711 -33.3894 -6.1596 0.6695 0 20
-33.2637 -33.3717 -5.9047 0.6984 0 20
-32.3421 -35.1676 -5.9874 0.7973 0 20
-19.7485 -27.4910 -4.2418 0.9006 0 22
-8.0380 -44.0112 -5.6066 0.0594 0 1
-5.1567 -36.4775 -4.6167 0.0753 0 1
-3.1523 -31.3461 -3.9480 0.0832 0 1
-1.6341 -27.1940 -3.4140 0.0932 0 1
-0.4807 -24.2628 -3.0411 0.1084 0 1
0.4488 -21.9988 -2.7574 0.1172 0 24
1.2114 -19.9630 -2.5063 0.1201 0 1
1.8338 -18.1277 -2.2833 0.1304 0 1
2.3461 -16.5255 -2.0917 0.1682 0 1
2.7913 -15.2328 -1.9407 0.1596 0 1
3.1632 -14.0502 -1.8048 0.1969 0 1
3.5058 -13.0915 -1.6984 0.2058 0 1
3.8090 -12.2329 -1.6056 0.2148 0 1
4.0753 -11.4454 -1.5225 0.2281 0 1
4.3125 -10.7261 -1.4487 0.2393 0 1
4.5237 -10.0626 -1.3826 0.2507 0 1
4.7147 -9.4519 -1.3237 0.2637 0 1
4.8871 -8.8844 -1.2707 0.2742 0 1
5.0424 -8.3529 -1.2227 0.2850 0 1
5.1833 -7.8543 -1.1793 0.2954 0 1
5.3125 -7.3861 -1.1402 0.3084 0 1
5.4145 -6.9228 -1.1014 0.3109 0 1
5.5009 -6.4788 -1.0651 0.3215 0 1
5.5788 -6.0591 -1.0321 0.3317 0 1
5.6490 -5.6607 -1.0022 0.3416 0 1
5.7145 -5.2834 -0.9753 0.3543 0 1
5.7748 -4.9237 -0.9510 0.3634 0 1
5.8326 -4.5812 -0.9294 0.3664 0 1
5.8834 -4.2501 -0.9095 0.7007 0 2
5.8661 -3.8886 -0.8820 0.8163 0 2
5.8895 -3.5719 -0.8632 0.9088 0 2
5.9551 -3.2918 -0.8527 0.9473 0 2
6.0607 -3.0388 -0.8496 0.9736 0 2
6.1336 -2.7726 -0.8435 0.4070 0 1
6.1724 -2.4965 -0.8344 0.4112 0 1
6.2080 -2.2249 -0.8264 0.4166 0 1
6.2416 -1.9576 -0.8197 0.4199 0 1
6.2719 -1.6934 -0.8141 0.4229 0 1
4.1496 -0.9432 -0.5333 0.3397 25 14
3.8596 -0.7155 -0.4919 0.9551 25 14
3.8508 -0.5548 -0.4875 0.9637 25 14
3.8418 -0.3966 -0.4840 0.9707 25 14
3.8341 -0.2406 -0.4814 0.9710 25 14
3.8266 -0.0860 -0.4797 0.9746 25 14
3.8263 0.0679 -0.4796 0.9748 25 14
3.8354 0.2225 -0.4814 0.9710 25 14
3.8444 0.3786 -0.4841 0.9657 25 14
3.8542 0.5367 -0.4877 0.9635 25 14
5.0414 7.9206 -1.2824 0.3334 0 1
4.8715 8.3792 -1.3239 0.3147 0 1
4.6959 8.8808 -1.3721 0.3092 0 1
4.5502 9.5119 -1.4402 0.2801 0 2
4.2484 9.8830 -1.4693 0.9420 0 2
3.9199 10.2343 -1.4969 0.2410 0 2
3.6876 10.9237 -1.5748 0.2290 0 2
3.4262 11.6789 -1.6624 0.2170 0 2
3.1302 12.5118 -1.7616 0.2047 0 2
2.7931 13.4376 -1.8746 0.1924 0 2
2.2334 13.4351 -1.8602 0.9763 0 20
1.9589 15.6502 -2.1543 0.1674 0 2
1.4363 16.9945 -2.3295 0.1548 0 2
0.8652 19.6030 -2.6801 0.1422 0 2
0.0836 21.4583 -2.9310 0.1294 0 1
-0.8708 23.9706 -3.2763 0.1187 0 1
-2.0508 26.7484 -3.6642 0.1105 0 1
-3.5103 29.9359 -4.1169 0.0980 0 1
-5.4220 34.2648 -4.7384 0.0796 0 1
-7.9829 39.9660 -5.5667 0.0637 0 24
-15.3692 46.7262 -6.7186 0.2123 0 15
-29.4529 39.6042 -6.7414 0.5982 0 3
-29.5392 36.5545 -6.4193 0.6283 0 3
-29.6146 33.7749 -6.1355 0.6573 0 3
-31.0539 32.6682 -6.1564 0.7227 0 3
-29.7389 28.8667 -5.6609 0.7124 0 3
-18.4725 16.5416 -3.3869 0.6889 0 22
-20.0306 16.5353 -3.5477 0.7654 0 22
-29.8722 22.7038 -5.1249 0.7869 0 3
-29.6558 20.7129 -4.9408 0.7685 0 3
-34.7562 22.2518 -5.6369 0.8306 0 3
-28.2359 16.5160 -4.4680 0.8622 0 3
-34.8137 18.5270 -5.3866 0.8692 0 3
-34.9186 16.8179 -5.2938 0.9793 0 3
-40.9019 17.7110 -6.0880 0.3998 0 3
-45.7861 17.6760 -6.7037 0.3630 0 3
-26.1055 -17.7291 -4.3103 0.9152 15 6
-35.3103 -33.3876 -6.6376 0.6758 0 20
-32.5634 -33.3697 -6.3684 0.8159 0 20
-32.0703 -35.6232 -6.5470 0.7927 0 20
-9.1361 -42.8122 -5.9793 0.0593 0 1
-6.1206 -35.6480 -4.9403 0.0747 0 1
-4.0107 -30.7185 -4.2314 0.0784 0 1
-2.3963 -26.6671 -3.6571 0.0909 0 1
-1.1712 -23.6846 -3.2390 0.1072 0 1
-0.1981 -21.5298 -2.9408 0.1113 0 1
0.6072 -19.5758 -2.6751 0.1223 0 1
1.2752 -17.8759 -2.4478 0.1324 0 1
1.8340 -16.3915 -2.2529 0.1699 0 1
2.3208 -15.1880 -2.0986 0.1607 0 1
2.7272 -14.0412 -1.9537 0.2032 0 1
3.0937 -13.0919 -1.8374 0.2105 0 1
3.4161 -12.2355 -1.7351 0.2192 0 1
3.7030 -11.4626 -1.6453 0.2298 0 1
3.9588 -10.7555 -1.5654 0.2415 0 1
4.1871 -10.1031 -1.4938 0.2526 0 1
4.3931 -9.5012 -1.4298 0.2657 0 1
4.5797 -8.9424 -1.3723 0.2768 0 1
4.7477 -8.4183 -1.3201 0.2873 0 1
4.9002 -7.9260 -1.2728 0.2979 0 1
5.0396 -7.4632 -1.2300 0.3111 0 1
5.1649 -7.0225 -1.1907 0.3130 0 1
5.2613 -6.5819 -1.1509 0.3238 0 1
5.3483 -6.1653 -1.1148 0.3343 0 1
5.4269 -5.7700 -1.0819 0.3444 0 1
5.4990 -5.3947 -1.0522 0.3574 0 1
5.5664 -5.0380 -1.0255 0.3668 0 1
5.6274 -4.6959 -1.0011 0.3757 0 1
5.6836 -4.3675 -0.9790 0.3785 0 1
5.7380 -4.0531 -0.9595 0.3843 0 1
5.7932 -3.7524 -0.9428 0.4012 0 1
5.8496 -3.4634 -0.9285 0.4073 0 1
5.9003 -3.1802 -0.9155 0.4082 0 1
5.9464 -2.9029 -0.9038 0.4134 0 1
5.9884 -2.6309 -0.8934 0.4183 0 1
6.0268 -2.3635 -0.8842 0.4223 0 1
6.0630 -2.1006 -0.8764 0.4275 0 1
6.0961 -1.8412 -0.8698 0.4308 0 1
6.1258 -1.5845 -0.8642 0.4335 0 1
3.9910 -0.8627 -0.5577 0.3535 25 14
3.8438 -0.6705 -0.5329 0.9595 25 14
3.8351 -0.5111 -0.5285 0.9676 25 14
3.8262 -0.3541 -0.5248 0.9743 25 14
3.8176 -0.1989 -0.5221 0.9744 25 14
3.8101 -0.0452 -0.5205 0.9776 25 14
3.8143 0.1082 -0.5212 0.9762 25 14
3.8233 0.2626 -0.5234 0.9720 25 14
3.8334 0.4186 -0.5267 0.9708 25 14
3.8436 0.5769 -0.5309 0.9632 25 14
3.8537 0.7379 -0.5359 0.9541 25 14
4.1936 0.9792 -0.5882 0.3352 25 14
6.2917 1.7386 -0.8916 0.4280 0 1
6.2852 2.0120 -0.9014 0.4234 0 1
6.2751 2.2908 -0.9124 0.4184 0 1
6.2616 2.5756 -0.9248 0.4128 0 1
6.2407 2.8654 -0.9380 0.4029 0 1
6.2111 3.1602 -0.9519 0.3970 0 1
6.1774 3.4624 -0.9673 0.3907 0 1
6.1392 3.7730 -0.9842 0.3840 0 1
6.0961 4.0930 -1.0029 0.3768 0 1
6.0389 4.4168 -1.0219 0.3844 0 1
5.9694 4.7458 -1.0416 0.3768 0 1
5.8990 5.0899 -1.0642 0.3688 0 1
5.8220 5.4468 -1.0890 0.3605 0 1
5.7378 5.8178 -1.1161 0.3517 0 1
5.6457 6.2047 -1.1458 0.3426 0 1
5.5296 6.5909 -1.1751 0.3716 0 1
5.3940 6.9811 -1.2050 0.3548 0 1
5.2456 7.3846 -1.2372 0.3456 0 1
5.0857 7.8061 -1.2725 0.3360 0 1
4.9146 8.2507 -1.3117 0.3176 0 1
4.7444 8.7466 -1.3591 0.3121 0 1
4.6011 9.3618 -1.4248 0.2832 0 2
4.3407 9.8097 -1.4652 0.9669 0 2
3.9928 10.1025 -1.4837 0.9328 0 2
3.7515 10.7359 -1.5533 0.2322 0 2
3.4983 11.4726 -1.6383 0.2202 0 2
3.2120 12.2837 -1.7342 0.2080 0 2
2.8865 13.1833 -1.8433 0.1957 0 2
2.3872 13.4747 -1.8691 0.8518 0 20
2.0836 15.3253 -2.1125 0.1707 0 2
1.5825 16.6211 -2.2805 0.1582 0 2
1.0473 19.1214 -2.6157 0.1457 0 2
0.3028 20.8709 -2.8510 0.1330 0 1
-0.5981 23.2646 -3.1787 0.1185 0 1
-1.7166 26.0060 -3.5598 0.1137 0 1
-3.0920 29.0270 -3.9872 0.1029 0 1
-4.8580 32.9622 -4.5509 0.0849 0 1
-7.2519 38.4240 -5.3409 0.0730 0 1
-10.6592 46.2008 -6.4762 0.0600 0 1
-16.8266 46.4752 -6.7512 0.8446 0 15
-29.5175 37.3309 -6.5003 0.6204 0 3
-29.4845 34.3550 -6.1837 0.6538 0 3
-29.6641 31.8766 -5.9476 0.6781 0 3
-32.9360 32.6558 -6.3351 0.7024 0 3
-18.0780 16.5372 -3.3465 0.6290 0 22
-19.6079 16.5392 -3.5037 0.6181 0 22
-29.8647 23.2021 -5.1655 0.7808 0 3
-29.6616 21.1887 -4.9789 0.5528 0 3
-34.5638 22.6491 -5.6443 0.5486 0 3
-28.2566 16.9329 -4.4994 0.3040 0 3
-29.8359 16.2865 -4.6428 0.6399 0 3
-35.8641 17.7445 -5.4654 0.4453 0 3
-39.7575 17.7186 -5.9453 0.4094 0 3
-40.4441 16.1087 -5.9462 0.9258 0 3
-24.4940 -4.5556 -3.4030 0.8984 16 6
-36.0743 -33.3923 -6.7142 0.6681 0 20
-33.0161 -33.1233 -6.3879 0.5631 0 20
-32.2016 -35.0149 -6.4976 0.7987 0 20
-10.0997 -44.9841 -6.2972 0.0605 0 1
-6.7970 -37.2158 -5.1673 0.0696 0 1
-4.5156 -31.9425 -4.4063 0.0816 0 1
-2.7775 -27.6193 -3.7915 0.0877 0 1
-1.4659 -24.3951 -3.3381 0.1049 0 1
-0.4358 -21.9973 -3.0052 0.1130 0 24
0.4092 -20.0597 -2.7405 0.1194 0 1
1.1111 -18.3105 -2.5056 0.1293 0 1
1.6797 -16.6049 -2.2796 0.1436 0 24
2.2055 -15.5352 -2.1432 0.1573 0 1
2.6205 -14.3005 -1.9858 0.1999 0 1
3.0020 -13.3344 -1.8669 0.2072 0 1
3.3339 -12.4495 -1.7604 0.2197 0 1
3.6306 -11.6597 -1.6680 0.2266 0 1
3.8941 -10.9363 -1.5856 0.2384 0 1
4.1293 -10.2704 -1.5119 0.2495 0 1
4.3406 -9.6553 -1.4459 0.2627 0 1
4.5323 -9.0861 -1.3869 0.2739 0 1
4.7050 -8.5533 -1.3334 0.2844 0 1
4.8613 -8.0530 -1.2848 0.2951 0 1
5.0036 -7.5821 -1.2408 0.3084 0 1
5.1357 -7.1404 -1.2014 0.3185 0 1
5.2368 -6.6957 -1.1610 0.3209 0 1
5.3262 -6.2730 -1.1240 0.3315 0 1
5.4069 -5.8723 -1.0903 0.3418 0 1
5.4801 -5.4915 -1.0597 0.3549 0 1
5.5493 -5.1306 -1.0323 0.3643 0 1
5.6119 -4.7848 -1.0073 0.3734 0 1
5.6688 -4.4525 -0.9846 0.3764 0 1
5.7237 -4.1347 -0.9644 0.3824 0 1
5.7776 -3.8299 -0.9468 0.3995 0 1
5.8352 -3.5390 -0.9321 0.4057 0 1
5.8874 -3.2544 -0.9188 0.4067 0 1
5.9346 -2.9755 -0.9068 0.4121 0 1
5.9777 -2.7022 -0.8960 0.4170 0 1
6.0170 -2.4336 -0.8865 0.4212 0 1
6.0537 -2.1696 -0.8784 0.4266 0 1
6.0877 -1.9094 -0.8714 0.4299 0 1
6.1183 -1.6519 -0.8656 0.4328 0 1
4.0790 -0.9272 -0.5713 0.3451 25 14
3.8461 -0.7130 -0.5343 0.9571 25 14
3.8374 -0.5529 -0.5296 0.9656 25 14
3.8286 -0.3953 -0.5257 0.9727 25 14
3.8196 -0.2397 -0.5227 0.9782 25 14
3.8121 -0.0856 -0.5208 0.9769 25 14
3.8119 0.0677 -0.5207 0.9770 25 14
3.8209 0.2217 -0.5228 0.9732 25 14
3.8307 0.3773 -0.5258 0.9726 25 14
3.8409 0.5349 -0.5297 0.9654 25 14
4.8860 7.6764 -1.3458 0.3434 0 1
4.7134 8.1074 -1.3869 0.3247 0 1
4.5404 8.5867 -1.4365 0.3135 0 1
4.3474 9.0879 -1.4899 0.3078 0 1
4.1799 9.7236 -1.5653 0.2782 0 2
3.9012 10.1854 -1.6131 0.9276 0 2
3.5535 10.5265 -1.6431 0.8810 0 2
3.2663 11.1339 -1.7160 0.2272 0 2
2.9759 11.8948 -1.8134 0.2150 0 2
2.6470 12.7347 -1.9236 0.2027 0 2
2.2356 13.4481 -2.0162 0.9610 0 20
1.8421 14.7166 -2.1935 0.1778 0 2
1.3441 15.9036 -2.3604 0.1652 0 2
0.8054 18.2481 -2.7014 0.1525 0 2
0.0773 19.8339 -2.9333 0.1362 0 1
-0.7988 21.9879 -3.2540 0.1271 0 1
-1.8719 24.4148 -3.6214 0.1188 0 1
-3.1704 27.0371 -4.0260 0.1087 0 1
-4.8006 30.3373 -4.5425 0.0948 0 1
-6.9388 34.7390 -5.2392 0.0780 0 1
-9.9080 40.9563 -6.2319 0.0639 0 1
-15.2665 46.4140 -7.2261 0.9777 0 15
-27.6328 37.1568 -6.8483 0.6009 0 3
-29.3727 36.3485 -6.9115 0.6308 0 3
-29.4551 33.5929 -6.6075 0.6598 0 3
-29.5274 31.0623 -6.3383 0.6879 0 3
-29.5910 28.7231 -6.0990 0.7149 0 3
-18.4597 16.5301 -3.6647 0.6045 0 22
-20.0319 16.5364 -3.8416 0.6183 0 22
-29.7376 22.6015 -5.5241 0.7892 0 3
-32.4466 22.6622 -5.8532 0.5719 0 3
-34.6079 22.1568 -6.0774 0.8328 0 3
-30.3968 17.7799 -5.2081 0.5052 0 3
-30.0481 15.9909 -5.0340 0.8754 0 3
-39.8100 19.1738 -6.5349 0.8886 0 3
-40.8994 17.7100 -6.5915 0.3992 0 3
-43.2283 16.6886 -6.8531 0.3625 0 3
-28.0519 7.0972 -4.2794 0.8489 0 6
-26.0229 -17.6730 -4.6522 0.9161 15 6
-35.5492 -33.6135 -7.2356 0.5363 0 20
-32.6452 -33.4535 -6.9129 0.9050 0 20
-31.8452 -35.3732 -7.0391 0.8882 0 20
-11.1789 -43.6972 -6.6707 0.0640 0 1
-7.7119 -36.1381 -5.4649 0.0711 0 24
-5.3640 -31.2417 -4.6881 0.0858 0 1
-3.5299 -27.0364 -4.0324 0.0873 0 1
-2.1520 -23.9488 -3.5561 0.1090 0 1
-1.0659 -21.5551 -3.1918 0.1108 0 1
-0.1815 -19.7221 -2.9169 0.1357 0 1
0.5623 -18.1273 -2.6822 0.1314 0 1
1.1814 -16.5605 -2.4554 0.1686 0 1
1.7255 -15.4214 -2.2950 0.1804 0 1
2.1808 -14.2719 -2.1352 0.2010 0 1
2.5902 -13.3355 -2.0091 0.2081 0 1
2.9456 -12.4650 -1.8943 0.2208 0 1
3.2584 -11.6708 -1.7920 0.2305 0 1
3.5392 -10.9555 -1.7027 0.2400 0 1
3.7917 -10.3017 -1.6235 0.2512 0 1
4.0184 -9.6962 -1.5523 0.2646 0 1
4.2240 -9.1356 -1.4885 0.2759 0 1
4.4101 -8.6114 -1.4309 0.2865 0 1
4.5783 -8.1178 -1.3783 0.2974 0 1
4.7313 -7.6529 -1.3307 0.3081 0 1
4.8731 -7.2166 -1.2878 0.3212 0 1
4.9962 -6.7932 -1.2471 0.3230 0 1
5.0950 -6.3739 -1.2068 0.3338 0 1
5.1844 -5.9764 -1.1701 0.3443 0 1
5.2654 -5.5983 -1.1366 0.3544 0 1
5.3412 -5.2399 -1.1066 0.3674 0 1
5.4106 -4.8970 -1.0793 0.3767 0 1
5.4735 -4.5675 -1.0543 0.3856 0 1
5.5306 -4.2499 -1.0315 0.3942 0 1
5.5836 -3.9441 -1.0110 0.3943 0 1
5.6434 -3.6554 -0.9944 0.4062 0 1
5.6993 -3.3744 -0.9795 0.4124 0 1
5.7504 -3.0995 -0.9661 0.4181 0 1
5.7972 -2.8301 -0.9541 0.4234 0 1
5.8399 -2.5656 -0.9434 0.4282 0 1
5.8789 -2.3055 -0.9339 0.4337 0 1
5.9159 -2.0497 -0.9259 0.4374 0 1
5.9492 -1.7968 -0.9191 0.4407 0 1
5.9791 -1.5465 -0.9134 0.4435 0 1
3.9255 -0.8486 -0.5940 0.3588 25 14
3.8304 -0.6681 -0.5750 0.9613 25 14
3.8218 -0.5093 -0.5702 0.9695 25 14
3.8131 -0.3528 -0.5663 0.9761 25 14
3.8042 -0.1982 -0.5634 0.9812 25 14
3.7957 -0.0450 -0.5614 0.9797 25 14
3.7999 0.1078 -0.5622 0.9783 25 14
3.8102 0.2617 -0.5648 0.9787 25 14
3.8203 0.4172 -0.5684 0.9726 25 14
