ply
format ascii 1.0
element vertex 1376
property float32 x
property float32 y
property float32 z
property float32 CosAngle
property uint32 ObjIdx
property uint32 ObjTag
end_header
4.5212 1.4593 -1.4799 0.5608 0 1
4.4938 1.6525 -1.4915 0.5564 0 1
4.4623 1.8477 -1.5044 0.5516 0 1
4.4264 2.0448 -1.5188 0.5464 0 1
4.3862 2.2443 -1.5347 0.5404 0 1
4.3414 2.4463 -1.5523 0.5343 0 1
4.2919 2.6510 -1.5714 0.5278 0 1
4.2373 2.8587 -1.5922 0.5209 0 1
4.1776 3.0697 -1.6148 0.5136 0 1
4.1128 3.2844 -1.6395 0.5059 0 1
4.0421 3.5030 -1.6661 0.4978 0 1
3.9653 3.7257 -1.6949 0.4894 0 1
3.8820 3.9529 -1.7258 0.4806 0 1
3.7917 4.1848 -1.7590 0.4715 0 1
3.6925 4.4199 -1.7940 0.4756 0 1
3.5818 4.6555 -1.8297 0.4663 0 1
3.4655 4.8997 -1.8694 0.4544 0 1
3.3405 5.1500 -1.9121 0.4442 0 1
3.2057 5.4063 -1.9578 0.4307 0 1
3.0599 5.6677 -2.0063 0.4203 0 1
2.9032 5.9363 -2.0584 0.4097 0 1
2.7347 6.2124 -2.1143 0.3992 0 1
2.5532 6.4964 -2.1743 0.3882 0 1
2.3548 6.7798 -2.2356 0.3998 0 1
2.1398 7.0645 -2.2993 0.3887 0 1
1.9094 7.3576 -2.3678 0.3775 0 1
1.6664 7.6775 -2.4472 0.3456 0 1
1.4077 8.0300 -2.5395 0.3330 0 1
1.1267 8.3989 -2.6397 0.3204 0 1
0.8202 8.7776 -2.7461 0.3074 0 1
0.4850 9.1462 -2.8530 0.3170 0 1
0.1217 9.5157 -2.9644 0.3051 0 1
-0.2713 9.9005 -3.0851 0.2932 0 1
-0.6992 10.3312 -3.2255 0.2668 0 1
-1.1680 10.7960 -3.3825 0.2544 0 1
-1.6735 11.2285 -3.5363 0.2448 0 24
-2.2412 11.7716 -3.7327 0.2252 0 1
-2.8489 12.2597 -3.9206 0.2146 0 24
-3.5467 12.8897 -4.1643 0.2016 0 1
-4.3078 13.5083 -4.4166 0.1900 0 1
-5.1568 14.1760 -4.6989 0.1750 0 1
-6.0961 14.8693 -5.0059 0.1711 0 1
-7.1293 15.5752 -5.3357 0.1630 0 1
-8.2882 16.3386 -5.7068 0.1438 0 1
-9.6412 17.2508 -6.1558 0.1318 0 1
-11.2325 18.3278 -6.6959 0.1104 0 1
-13.1372 19.6201 -7.3551 0.1033 0 1
-15.2025 20.8418 -8.0357 0.1168 0 1
-16.9296 21.3518 -8.4880 0.5285 0 2
-19.7528 22.9542 -9.4331 0.0840 0 2
-23.1625 24.8253 -10.5762 0.0749 0 25
-27.3313 27.0295 -11.9737 0.0662 0 25
-22.5451 20.5716 -9.5068 0.7613 0 5
-22.6369 19.0464 -9.2152 0.7955 0 5
-22.6838 17.5790 -8.9393 0.7644 0 5
-31.7914 22.6529 -12.1597 0.5596 0 3
-28.0588 18.3396 -10.4416 0.8487 0 3
-27.2595 16.2929 -9.8923 0.6555 0 3
-32.6085 17.7522 -11.5651 0.4625 0 3
-37.6161 18.5596 -13.0659 0.9035 0 3
-30.9618 13.7585 -10.5538 0.5435 0 5
-45.7128 8.1785 -14.4654 0.9945 0 6
-24.4004 -17.6679 -9.3839 0.9994 15 6
-33.4864 -28.6129 -13.7201 0.8182 0 9
-28.7876 -26.6719 -12.2244 0.5525 0 9
-25.1235 -25.2270 -11.0902 0.7282 0 9
-22.4652 -24.4481 -10.3424 0.0766 0 2
-19.1769 -22.6309 -9.2400 0.0858 0 2
-17.3327 -22.2052 -8.7745 0.1103 0 2
-14.2559 -19.8596 -7.6150 0.1018 0 1
-12.2957 -18.6692 -6.9633 0.1157 0 1
-10.5912 -17.5802 -6.3931 0.1239 0 1
-9.1108 -16.5969 -5.8976 0.1382 0 1
-7.8227 -15.7162 -5.4684 0.1491 0 1
-6.6881 -14.9102 -5.0903 0.1637 0 1
-5.6926 -14.1919 -4.7631 0.1794 0 1
-4.8101 -13.5427 -4.4767 0.1900 0 1
-4.0197 -12.9442 -4.2220 0.2038 0 1
-3.3070 -12.3858 -3.9933 0.2202 0 1
-2.6618 -11.8632 -3.7872 0.2261 0 1
-2.0750 -11.3687 -3.5998 0.2325 0 1
-1.5375 -10.8832 -3.4237 0.2445 0 1
-1.0475 -10.4231 -3.2631 0.2559 0 1
-0.5993 -9.9803 -3.1144 0.2691 0 1
-0.1887 -9.5341 -2.9704 0.2779 0 24
0.1870 -9.1624 -2.8546 0.2935 0 1
0.5327 -8.7817 -2.7405 0.3058 0 1
0.8512 -8.4177 -2.6355 0.3179 0 1
1.1450 -8.0689 -2.5386 0.3301 0 1
1.4164 -7.7332 -2.4489 0.3473 0 1
1.6680 -7.4127 -2.3668 0.3594 0 1
1.9014 -7.1039 -2.2907 0.3713 0 1
2.1180 -6.8058 -2.2203 0.3831 0 1
2.3191 -6.5166 -2.1546 0.3937 0 1
2.5059 -6.2362 -2.0935 0.4052 0 1
2.6798 -5.9643 -2.0368 0.4165 0 1
2.8417 -5.7003 -1.9840 0.4276 0 1
2.9925 -5.4434 -1.9349 0.4382 0 1
3.1276 -5.1842 -1.8860 0.4337 0 1
3.2477 -4.9245 -1.8375 0.4451 0 1
3.3586 -4.6728 -1.7925 0.4563 0 1
3.4627 -4.4305 -1.7516 0.4601 0 1
3.5597 -4.1956 -1.7139 0.4702 0 1
3.6493 -3.9665 -1.6789 0.4800 0 1
3.7376 -3.7484 -1.6489 0.5086 0 1
3.8223 -3.5370 -1.6222 0.5170 0 1
3.9011 -3.3292 -1.5975 0.5250 0 1
3.9742 -3.1245 -1.5747 0.5326 0 1
4.0420 -2.9229 -1.5538 0.5397 0 1
4.1047 -2.7241 -1.5346 0.5466 0 1
4.1636 -2.5283 -1.5173 0.5528 0 1
4.2179 -2.3346 -1.5017 0.5585 0 1
4.2677 -2.1429 -1.4875 0.5639 0 1
4.3133 -1.9529 -1.4749 0.5688 0 1
4.3547 -1.7644 -1.4636 0.5732 0 1
4.3920 -1.5773 -1.4537 0.5771 0 1
4.4255 -1.3913 -1.4450 0.5805 0 1
4.4554 -1.2063 -1.4378 0.5865 0 1
4.4822 -1.0222 -1.4320 0.5889 0 1
3.9246 -0.7305 -1.2435 0.7208 25 14
3.9123 -0.5667 -1.2314 0.7366 25 14
3.9006 -0.4058 -1.2216 0.7792 25 14
3.8891 -0.2472 -1.2139 0.7841 25 14
3.8786 -0.0903 -1.2085 0.7876 25 14
3.8766 0.0655 -1.2077 0.7881 25 14
3.8822 0.2219 -1.2113 0.7858 25 14
3.8885 0.3795 -1.2170 0.7453 25 14
3.8923 0.5385 -1.2240 0.7410 25 14
3.8984 0.7000 -1.2338 0.7265 25 14
4.2724 0.9457 -1.3631 0.3408 25 14
4.5518 1.2013 -1.4664 0.5659 0 1
4.5298 1.3924 -1.4762 0.5622 0 1
4.5038 1.5851 -1.4873 0.5580 0 1
4.4737 1.7796 -1.4997 0.5534 0 1
4.4394 1.9760 -1.5136 0.5483 0 1
4.4006 2.1746 -1.5290 0.5424 0 1
4.3575 2.3757 -1.5460 0.5365 0 1
4.3097 2.5795 -1.5645 0.5301 0 1
4.2569 2.7861 -1.5848 0.5233 0 1
4.1989 2.9958 -1.6067 0.5162 0 1
4.1360 3.2093 -1.6307 0.5086 0 1
4.0674 3.4265 -1.6566 0.5007 0 1
3.9928 3.6478 -1.6846 0.4923 0 1
3.9117 3.8733 -1.7148 0.4837 0 1
3.8240 4.1035 -1.7472 0.4747 0 1
3.7290 4.3387 -1.7821 0.4654 0 1
3.6213 4.5730 -1.8170 0.4696 0 1
3.5070 4.8141 -1.8553 0.4578 0 1
3.3850 5.0622 -1.8969 0.4478 0 1
3.2539 5.3167 -1.9417 0.4375 0 1
3.1118 5.5760 -1.9891 0.4239 0 1
2.9590 5.8420 -2.0399 0.4134 0 1
2.7947 6.1155 -2.0945 0.4026 0 1
2.6179 6.3966 -2.1529 0.3920 0 1
2.4263 6.6826 -2.2145 0.4036 0 1
2.2163 6.9646 -2.2766 0.3926 0 1
1.9914 7.2546 -2.3434 0.3814 0 1
1.7515 7.5584 -2.4168 0.3499 0 1
1.5001 7.9056 -2.5065 0.3374 0 1
1.2272 8.2686 -2.6038 0.3248 0 1
0.9302 8.6482 -2.7094 0.3115 0 1
0.6050 9.0210 -2.8163 0.3211 0 1
0.2514 9.3855 -2.9246 0.3093 0 1
-0.1310 9.7648 -3.0420 0.2973 0 1
-0.5459 10.1753 -3.1741 0.2711 0 1
-1.0000 10.6314 -3.3262 0.2587 0 1
-1.4956 11.0964 -3.4877 0.2501 0 1
-2.0316 11.5473 -3.6522 0.2349 0 24
-2.6272 12.0683 -3.8473 0.2198 0 24
-3.3002 12.6845 -4.0827 0.2059 0 1
-4.0338 13.2882 -4.3257 0.1940 0 1
-4.8498 13.9354 -4.5962 0.1826 0 1
-5.7610 14.6317 -4.8983 0.1725 0 1
-6.7582 15.3274 -5.2179 0.1666 0 1
-7.8316 15.9888 -5.5458 0.1532 0 24
-9.1511 16.9253 -5.9934 0.1354 0 1
-10.6388 17.9166 -6.4907 0.1190 0 1
-12.4498 19.1680 -7.1196 0.1067 0 1
-14.5100 20.4881 -7.8203 0.1201 0 1
-16.7265 21.7125 -8.5375 0.6509 0 2
-18.7094 22.3668 -9.0833 0.0873 0 2
-21.9005 24.1408 -10.1531 0.0781 0 2
-25.7804 26.2188 -11.4538 0.0692 0 25
-22.5242 21.1372 -9.6217 0.7464 0 5
-22.5853 19.5488 -9.3045 0.8047 0 5
-22.6839 18.0923 -9.0382 0.7582 0 5
-22.7488 16.6940 -8.7895 0.7225 0 5
-28.0342 18.8881 -10.5297 0.7203 0 3
-26.4261 16.3005 -9.6716 0.9003 0 3
-29.2925 16.4820 -10.4697 0.3687 0 3
-37.5926 19.2062 -13.1497 0.8977 0 3
-29.7274 13.7109 -10.1974 0.2226 0 5
-33.1603 13.7067 -11.1769 0.4356 0 5
-26.5571 8.5534 -8.6909 0.8686 0 6
-45.7497 6.9534 -14.4145 0.9207 0 22
-35.4045 -24.8886 -13.4807 0.3398 0 20
-30.6102 -25.4235 -12.3948 0.9635 0 20
-30.8934 -27.8303 -12.9521 0.4296 0 9
-25.5733 -24.9705 -11.1336 0.5017 0 9
-23.1435 -24.4900 -10.4960 0.8683 0 9
-20.2512 -23.2321 -9.6001 0.0826 0 2
-17.5628 -21.8627 -8.7354 0.9286 0 2
-15.2153 -20.5825 -7.9730 0.0734 0 1
-12.9400 -19.0617 -7.1765 0.1122 0 1
-11.1569 -17.9466 -6.5825 0.1203 0 1
-9.6004 -16.9235 -6.0608 0.1345 0 1
-8.2520 -16.0134 -5.6115 0.1453 0 1
-7.0638 -15.1757 -5.2142 0.1598 0 1
-6.0239 -14.4305 -4.8710 0.1697 0 1
-5.1065 -13.7638 -4.5729 0.1860 0 1
-4.2851 -13.1470 -4.3073 0.1998 0 1
-3.5468 -12.5760 -4.0702 0.2114 0 1
-2.8793 -12.0416 -3.8567 0.2221 0 1
-2.2638 -11.4911 -3.6482 0.2310 0 24
-1.7189 -11.0490 -3.4831 0.2403 0 1
-1.2130 -10.5809 -3.3175 0.2523 0 1
-0.7506 -10.1314 -3.1645 0.2629 0 1
-0.3278 -9.7047 -3.0247 0.2771 0 1
0.0597 -9.2990 -2.8967 0.2893 0 1
0.4157 -8.9122 -2.7791 0.3015 0 1
0.7433 -8.5426 -2.6710 0.3137 0 1
1.0454 -8.1886 -2.5714 0.3259 0 1
1.3242 -7.8476 -2.4790 0.3431 0 1
1.5777 -7.4993 -2.3871 0.3547 0 24
1.8167 -7.1886 -2.3096 0.3665 0 24
2.0445 -6.9084 -2.2442 0.3790 0 1
2.2509 -6.6163 -2.1770 0.3897 0 1
2.4424 -6.3328 -2.1143 0.4013 0 1
2.6207 -6.0580 -2.0560 0.4126 0 1
4.2022 -2.0369 -1.5116 0.5747 0 1
4.2461 -1.8514 -1.4994 0.5793 0 1
4.2859 -1.6672 -1.4886 0.5835 0 1
4.3218 -1.4842 -1.4791 0.5873 0 1
4.3539 -1.3022 -1.4710 0.5936 0 1
4.3830 -1.1211 -1.4644 0.5963 0 1
4.4083 -0.9407 -1.4591 0.5985 0 1
4.4301 -0.7607 -1.4550 0.6002 0 1
4.4483 -0.5809 -1.4521 0.6014 0 1
3.9169 -0.3522 -1.2730 0.7743 25 14
3.9056 -0.1934 -1.2658 0.7787 25 14
3.8952 -0.0362 -1.2609 0.7817 25 14
3.8987 0.1205 -1.2626 0.7806 25 14
3.9048 0.2780 -1.2672 0.7778 25 14
3.9118 0.4370 -1.2741 0.7736 25 14
3.9191 0.5981 -1.2833 0.7319 25 14
3.9288 0.7623 -1.2955 0.7165 25 14
4.4768 1.0568 -1.4889 0.5772 0 1
4.4572 1.2432 -1.4978 0.5737 0 1
4.4337 1.4310 -1.5081 0.5699 0 1
4.4062 1.6203 -1.5196 0.5655 0 1
4.3745 1.8113 -1.5326 0.5607 0 1
4.3385 2.0042 -1.5469 0.5555 0 1
4.2981 2.1993 -1.5628 0.5495 0 1
4.2533 2.3967 -1.5803 0.5434 0 1
4.2037 2.5966 -1.5994 0.5370 0 1
4.1491 2.7992 -1.6201 0.5301 0 1
4.0895 3.0049 -1.6427 0.5228 0 1
4.0247 3.2141 -1.6672 0.5151 0 1
3.9542 3.4269 -1.6937 0.5071 0 1
3.8776 3.6433 -1.7223 0.4987 0 1
3.7946 3.8639 -1.7530 0.4899 0 1
3.7048 4.0888 -1.7860 0.4809 0 1
3.6078 4.3184 -1.8215 0.4715 0 1
3.4988 4.5476 -1.8573 0.4757 0 1
3.3833 4.7835 -1.8965 0.4638 0 1
3.2594 5.0251 -1.9388 0.4537 0 1
3.1254 5.2708 -1.9835 0.4402 0 1
2.9813 5.5222 -2.0314 0.4299 0 1
2.8268 5.7801 -2.0827 0.4193 0 1
2.6608 6.0447 -2.1378 0.4085 0 1
2.4824 6.3161 -2.1967 0.3978 0 1
2.2907 6.5953 -2.2600 0.3867 0 1
2.0805 6.8689 -2.3232 0.3984 0 1
1.8550 7.1480 -2.3904 0.3872 0 1
1.6150 7.4410 -2.4647 0.3553 0 1
1.3628 7.7737 -2.5547 0.3428 0 1
1.0894 8.1205 -2.6521 0.3302 0 1
0.7917 8.4726 -2.7545 0.3173 0 1
0.4681 8.8271 -2.8613 0.3079 0 1
0.1175 9.1827 -2.9726 0.3151 0 1
-0.2614 9.5403 -3.0893 0.3032 0 1
-0.6715 9.9214 -3.2189 0.2769 0 1
-1.1195 10.3478 -3.3691 0.2645 0 1
-1.6055 10.7723 -3.5255 0.2562 0 1
-2.1367 11.2227 -3.6980 0.2375 0 1
-2.7100 11.6619 -3.8755 0.2264 0 24
-3.3623 12.2195 -4.1024 0.2122 0 1
-4.0567 12.7211 -4.3221 0.1999 0 24
-4.8547 13.3455 -4.5968 0.1891 0 1
-5.7248 13.9637 -4.8851 0.1791 0 1
-6.6716 14.5754 -5.1887 0.1709 0 1
-7.7177 15.2139 -5.5221 0.1630 0 1
-8.8953 15.9161 -5.9020 0.1448 0 1
-10.2508 16.7261 -6.3500 0.1324 0 1
-11.8660 17.7217 -6.9036 0.1159 0 1
-13.7389 18.8353 -7.5465 0.1048 0 1
-15.7321 19.8416 -8.1965 0.1108 0 1
-17.4583 20.2879 -8.6639 0.0947 0 2
-20.1879 21.6371 -9.5789 0.0857 0 2
-23.4238 23.1651 -10.6637 0.0770 0 25
-22.4430 20.4785 -9.8345 0.7409 0 5
-22.5012 18.9322 -9.5187 0.7886 0 5
-22.5832 17.5011 -9.2482 0.8338 0 5
-25.4510 18.1350 -10.1158 0.0472 0 21
-27.9370 18.2599 -10.8034 0.8494 0 3
-28.1796 16.8428 -10.6267 0.8935 0 3
-29.6388 16.1354 -10.9235 0.3912 0 3
-37.4626 18.4838 -13.5222 0.9040 0 3
-30.8382 13.7036 -10.9234 0.5066 0 5
-42.2441 16.7737 -14.7127 0.8462 0 3
-45.5475 8.1490 -14.9776 0.9025 0 6
-24.3539 -17.6342 -9.7328 0.7042 15 6
-32.0702 -25.2460 -13.2116 0.3435 0 9
-29.4664 -25.1780 -12.5458 0.4674 0 9
-26.5124 -24.5639 -11.6992 0.0702 0 2
-22.7665 -22.8603 -10.4434 0.0786 0 2
-19.6358 -21.3690 -9.3939 0.0874 0 2
-17.8942 -21.1172 -8.9596 0.9632 0 2
-14.8868 -19.0717 -7.8315 0.0891 0 1
-12.8931 -17.9612 -7.1568 0.1165 0 1
-11.2074 -17.0167 -6.5956 0.1243 0 1
-9.7329 -16.1555 -6.1051 0.1372 0 1
-8.4368 -15.3692 -5.6752 0.1488 0 1
-7.2844 -14.6346 -5.2915 0.1618 0 1
-6.2632 -13.9628 -4.9536 0.1787 0 1
-5.3613 -13.3658 -4.6615 0.1889 0 1
-4.5475 -12.8033 -4.3980 0.2026 0 1
-3.7979 -12.2300 -4.1453 0.2122 0 24
-3.1447 -11.7781 -3.9461 0.2248 0 1
-2.5376 -11.3096 -3.7519 0.2364 0 1
-1.9732 -10.8105 -3.5571 0.2447 0 24
-1.4710 -10.4125 -3.4039 0.2547 0 1
-1.0042 -9.9922 -3.2507 0.2669 0 1
-0.5737 -9.5554 -3.0986 0.2769 0 24
-0.1821 -9.2003 -2.9787 0.2913 0 1
0.1802 -8.8303 -2.8589 0.3035 0 1
0.5142 -8.4757 -2.7486 0.3157 0 1
0.8226 -8.1353 -2.6468 0.3278 0 1
1.1081 -7.8090 -2.5531 0.3449 0 1
1.3683 -7.4705 -2.4584 0.3568 0 24
1.6184 -7.1921 -2.3863 0.3691 0 1
1.8410 -6.8783 -2.3048 0.3804 0 24
2.0588 -6.6154 -2.2427 0.3927 0 1
2.2560 -6.3392 -2.1780 0.4033 0 1
2.4396 -6.0711 -2.1179 0.4148 0 1
2.6107 -5.8106 -2.0620 0.4260 0 1
2.7703 -5.5570 -2.0099 0.4368 0 1
2.9191 -5.3099 -1.9614 0.4476 0 1
3.0506 -5.0566 -1.9116 0.4431 0 1
3.1698 -4.8063 -1.8637 0.4545 0 1
3.2799 -4.5633 -1.8191 0.4656 0 1
3.3818 -4.3270 -1.7777 0.4765 0 1
3.4782 -4.0996 -1.7403 0.4795 0 1
3.5680 -3.8782 -1.7058 0.5091 0 1
3.6584 -3.6690 -1.6771 0.5178 0 1
3.7426 -3.4632 -1.6506 0.5261 0 1
3.8209 -3.2608 -1.6260 0.5341 0 1
3.8937 -3.0613 -1.6033 0.5417 0 1
3.9612 -2.8645 -1.5823 0.5488 0 1
4.0236 -2.6702 -1.5631 0.5556 0 1
4.0823 -2.4789 -1.5460 0.5618 0 1
4.1363 -2.2894 -1.5303 0.5675 0 1
4.1859 -2.1018 -1.5162 0.5729 0 1
4.2313 -1.9158 -1.5035 0.5778 0 1
4.2725 -1.7312 -1.4922 0.5821 0 1
4.3098 -1.5477 -1.4823 0.5860 0 1
4.3431 -1.3654 -1.4737 0.5895 0 1
4.3733 -1.1840 -1.4666 0.5954 0 1
4.3999 -1.0034 -1.4608 0.5978 0 1
4.4229 -0.8233 -1.4563 0.5996 0 1
4.4423 -0.6434 -1.4530 0.6010 0 1
3.9211 -0.4079 -1.2761 0.7724 25 14
3.9094 -0.2485 -1.2680 0.7773 25 14
3.8987 -0.0908 -1.2623 0.7808 25 14
3.8969 0.0659 -1.2616 0.7813 25 14
3.9026 0.2231 -1.2653 0.7790 25 14
3.9092 0.3815 -1.2714 0.7752 25 14
3.9168 0.5419 -1.2799 0.7701 25 14
3.9244 0.7046 -1.2906 0.7192 25 14
4.4813 0.9920 -1.4857 0.5871 0 1
4.4644 1.1782 -1.4946 0.5750 0 1
4.4423 1.3655 -1.5044 0.5713 0 1
4.4162 1.5543 -1.5155 0.5671 0 1
4.3860 1.7446 -1.5279 0.5624 0 1
4.3515 1.9369 -1.5418 0.5574 0 1
4.3126 2.1311 -1.5571 0.5515 0 1
4.2694 2.3277 -1.5740 0.5456 0 1
4.2215 2.5267 -1.5926 0.5393 0 1
4.1687 2.7284 -1.6127 0.5325 0 1
4.1107 2.9329 -1.6346 0.5254 0 1
4.0479 3.1410 -1.6585 0.5179 0 1
3.9794 3.3524 -1.6843 0.5099 0 1
3.9050 3.5676 -1.7121 0.5016 0 1
3.8242 3.7867 -1.7421 0.4930 0 1
3.7368 4.0100 -1.7743 0.4841 0 1
3.6424 4.2380 -1.8089 0.4748 0 1
3.5379 4.4677 -1.8447 0.4789 0 1
3.4243 4.7007 -1.8825 0.4672 0 1
3.3036 4.9404 -1.9238 0.4572 0 1
3.1731 5.1847 -1.9676 0.4438 0 1
3.0326 5.4340 -2.0144 0.4335 0 1
2.8818 5.6896 -2.0645 0.4230 0 1
2.7199 5.9518 -2.1182 0.4122 0 1
2.5459 6.2208 -2.1758 0.4017 0 1
2.3590 6.4973 -2.2375 0.3906 0 1
2.1555 6.7736 -2.3009 0.4022 0 1
1.9352 7.0500 -2.3665 0.3911 0 1
1.6995 7.3340 -2.4369 0.3798 0 1
1.4528 7.6564 -2.5225 0.3471 0 1
1.1870 7.9981 -2.6173 0.3346 0 1
0.8983 8.3517 -2.7190 0.3215 0 1
0.5837 8.7032 -2.8235 0.3120 0 1
0.2427 9.0612 -2.9341 0.3192 0 1
-0.1263 9.4144 -3.0477 0.3073 0 1
-0.5247 9.7809 -3.1706 0.2954 0 1
-0.9591 10.1970 -3.3153 0.2688 0 1
-1.4321 10.6255 -3.4705 0.2603 0 1
-1.9404 11.0288 -3.6248 0.2456 0 24
-2.5109 11.5343 -3.8210 0.2278 0 1
-3.1319 12.0377 -4.0263 0.2162 0 1
-3.8029 12.5278 -4.2379 0.2036 0 24
-4.5728 13.1396 -4.5034 0.1930 0 1
-5.4115 13.7440 -4.7813 0.1818 0 1
-6.3310 14.3585 -5.0795 0.1746 0 1
-7.3423 14.9898 -5.4029 0.1666 0 1
-8.4633 15.6532 -5.7601 0.1549 0 1
-9.7598 16.4364 -6.1876 0.1358 0 1
-11.2770 17.3623 -6.7015 0.1194 0 1
-13.0545 18.4329 -7.3114 0.1082 0 1
-15.0407 19.5242 -7.9777 0.1138 0 1
-16.7633 20.0403 -8.4572 0.6804 0 2
-19.1865 21.1491 -9.2432 0.0888 0 2
-22.2326 22.6107 -10.2644 0.0800 0 2
-17.5905 16.5073 -7.8085 0.8679 0 6
-22.4633 19.4432 -9.6167 0.7754 0 5
-22.5455 17.9819 -9.3348 0.7795 0 5
-27.8283 20.4216 -11.1732 0.8213 0 3
-27.9105 18.8048 -10.8938 0.8424 0 3
-28.8208 17.7777 -10.9612 0.5053 0 3
-29.8055 16.7707 -11.0703 0.4725 0 3
-32.9345 16.8263 -11.9715 0.9666 0 3
-29.6945 13.6957 -10.5851 0.2591 0 5
-33.0698 13.6692 -11.5829 0.4444 0 5
-26.4522 8.5196 -8.9956 0.9997 0 6
-24.8946 -17.5004 -9.8501 0.8395 0 20
-36.7529 -28.1088 -14.9773 0.7657 0 9
-30.3812 -25.2333 -12.7838 0.5381 0 9
-27.7933 -25.0376 -12.1087 0.4128 0 9
-23.9921 -23.4265 -10.8543 0.0756 0 2
-20.6643 -21.8666 -9.7386 0.0843 0 2
-18.1332 -20.8024 -8.9328 0.9661 0 2
-15.8198 -19.6930 -8.1766 0.0733 0 1
-13.5297 -18.3023 -7.3674 0.1134 0 1
-11.7717 -17.3406 -6.7842 0.1209 0 1
-10.2237 -16.4455 -6.2682 0.1331 0 1
-8.8700 -15.6359 -5.8189 0.1440 0 1
-7.6679 -14.8799 -5.4185 0.1542 0 1
-6.6053 -14.1907 -5.0667 0.1690 0 1
-5.6650 -13.5708 -4.7602 0.1859 0 1
-4.8206 -12.9932 -4.4860 0.1986 0 1
-4.0603 -12.4574 -4.2412 0.2101 0 1
-3.3695 -11.9472 -4.0181 0.2194 0 1
-2.7426 -11.4699 -3.8174 0.2323 0 1
-2.1693 -11.0113 -3.6328 0.2386 0 1
-1.6433 -10.5632 -3.4604 0.2505 0 1
-1.1621 -10.1368 -3.3027 0.2625 0 1
-0.7206 -9.7258 -3.1568 0.2749 0 1
-0.3153 -9.3329 -3.0227 0.2871 0 1
0.0575 -8.9573 -2.8995 0.2993 0 1
0.4010 -8.5975 -2.7860 0.3114 0 1
0.7180 -8.2522 -2.6813 0.3236 0 1
1.0112 -7.9203 -2.5846 0.3357 0 1
1.2787 -7.5776 -2.4875 0.3528 0 24
1.5350 -7.2964 -2.4135 0.3649 0 1
1.7691 -7.0000 -2.3371 0.3769 0 1
1.9807 -6.6930 -2.2594 0.3867 0 24
2.1890 -6.4344 -2.2000 0.3993 0 1
2.3772 -6.1635 -2.1383 0.4108 0 1
2.5525 -5.9004 -2.0810 0.4221 0 1
4.1229 -1.9985 -1.5394 0.5836 0 1
4.1666 -1.8167 -1.5272 0.5882 0 1
4.2062 -1.6362 -1.5164 0.5924 0 1
4.2419 -1.4567 -1.5069 0.5962 0 1
4.2744 -1.2784 -1.4990 0.6025 0 1
4.3032 -1.1007 -1.4924 0.6051 0 1
4.3284 -0.9236 -1.4870 0.6073 0 1
4.3500 -0.7469 -1.4829 0.6090 0 1
4.3680 -0.5704 -1.4800 0.6102 0 1
4.3825 -0.3940 -1.4784 0.6109 0 1
4.3935 -0.2176 -1.4779 0.6110 0 1
4.4024 -0.0409 -1.4792 0.6099 0 1
4.4100 0.1363 -1.4824 0.6086 0 1
4.4140 0.3143 -1.4868 0.6068 0 1
4.4145 0.4932 -1.4924 0.6045 0 1
4.4115 0.6733 -1.4993 0.6017 0 1
4.4048 0.8546 -1.5075 0.5984 0 1
4.3922 1.0369 -1.5163 0.5861 0 1
4.3725 1.2196 -1.5252 0.5827 0 1
4.3489 1.4036 -1.5354 0.5788 0 1
4.3213 1.5891 -1.5469 0.5745 0 1
4.2895 1.7761 -1.5598 0.5698 0 1
4.2534 1.9649 -1.5742 0.5646 0 1
4.2129 2.1557 -1.5900 0.5586 0 1
4.1681 2.3486 -1.6074 0.5525 0 1
4.1185 2.5439 -1.6264 0.5461 0 1
4.0639 2.7417 -1.6471 0.5392 0 1
4.0044 2.9424 -1.6696 0.5320 0 1
3.9398 3.1463 -1.6940 0.5243 0 1
3.8695 3.3534 -1.7203 0.5163 0 1
3.7931 3.5640 -1.7487 0.5079 0 1
3.7105 3.7782 -1.7792 0.4992 0 1
3.6211 3.9965 -1.8120 0.4902 0 1
3.5247 4.2190 -1.8471 0.4809 0 1
3.4190 4.4438 -1.8838 0.4850 0 1
3.3043 4.6718 -1.9226 0.4731 0 1
3.1810 4.9042 -1.9640 0.4598 0 1
3.0484 5.1410 -2.0081 0.4497 0 1
2.9062 5.3831 -2.0554 0.4394 0 1
2.7538 5.6308 -2.1060 0.4288 0 1
2.5903 5.8846 -2.1602 0.4180 0 1
2.4149 6.1444 -2.2181 0.4075 0 1
2.2267 6.4110 -2.2802 0.3964 0 1
2.0241 6.6826 -2.3460 0.4080 0 1
1.8033 6.9486 -2.4119 0.3968 0 1
1.5673 7.2213 -2.4827 0.3855 0 1
1.3203 7.5315 -2.5690 0.3525 0 1
1.0542 7.8582 -2.6639 0.3400 0 1
0.7649 8.1862 -2.7624 0.3272 0 1
0.4518 8.5196 -2.8665 0.3179 0 1
0.1134 8.8603 -2.9771 0.3061 0 1
-0.2522 9.2032 -3.0933 0.3131 0 1
-0.6462 9.5477 -3.2152 0.3012 0 1
-1.0746 9.9325 -3.3566 0.2746 0 1
-1.5387 10.3240 -3.5070 0.2663 0 1
-2.0362 10.6946 -3.6578 0.2519 0 24
-2.5924 11.1558 -3.8480 0.2361 0 1
-3.1951 11.6118 -4.0464 0.2225 0 1
-3.8436 12.0526 -4.2504 0.2102 0 24
-4.5679 12.5570 -4.4894 0.1990 0 24
-5.3869 13.1394 -4.7712 0.1875 0 1
-6.2628 13.6822 -5.0557 0.1803 0 1
-7.2218 14.2364 -5.3634 0.1710 0 1
-8.2766 14.8091 -5.6999 0.1618 0 1
-9.4626 15.4399 -6.0842 0.1453 0 1
-10.8249 16.1669 -6.5370 0.1256 0 1
-12.4159 17.0215 -7.0787 0.1160 0 1
-14.2669 17.9936 -7.7152 0.1045 0 1
-16.4987 19.1728 -8.4984 0.1170 0 2
-17.8757 19.1589 -8.8038 0.0964 0 2
-20.4753 20.2492 -9.6753 0.0877 0 2
-23.5067 21.4490 -10.6915 0.0794 0 25
-22.4011 18.8479 -9.8360 0.7718 0 5
-22.5146 17.4479 -9.5701 0.8418 0 5
-25.2376 17.9830 -10.4118 0.5165 0 21
-27.8153 18.1804 -11.1646 0.8500 0 3
-29.7345 17.7722 -11.6387 0.4333 0 3
-30.4520 16.5782 -11.6492 0.3682 0 3
-36.3597 17.9397 -13.6222 0.5156 0 3
-30.8177 13.6944 -11.3305 0.3441 0 5
-45.4097 8.1243 -15.4991 0.2685 0 6
-38.4467 -25.5488 -15.5095 0.5635 0 9
-34.9638 -25.3166 -14.5034 0.5266 0 9
-30.4389 -23.9618 -13.0155 0.0652 0 2
-26.3492 -22.5144 -11.6445 0.0729 0 2
-22.8954 -21.2127 -10.4866 0.0809 0 2
-19.9527 -20.0349 -9.5001 0.0894 0 2
-18.3917 -20.0151 -9.1327 0.1148 0 2
-15.4676 -18.2536 -8.0386 0.0897 0 1
-13.4237 -17.1973 -7.3298 0.1179 0 1
-11.7717 -16.3990 -6.7823 0.1273 0 1
-10.3034 -15.6441 -6.2937 0.1371 0 1
-9.0045 -14.9465 -5.8627 0.1478 0 1
-7.8538 -14.3071 -5.4836 0.1631 0 1
-6.8172 -13.6961 -5.1402 0.1722 0 1
-5.8968 -13.1461 -4.8408 0.1891 0 1
-5.0649 -12.6269 -4.5710 0.2016 0 1
-4.3109 -12.1373 -4.3275 0.2121 0 1
-3.6234 -11.6682 -4.1050 0.2221 0 1
-2.9966 -11.2233 -3.9029 0.2350 0 1
-2.4227 -10.7973 -3.7179 0.2411 0 1
-1.8874 -10.3408 -3.5317 0.2542 0 24
-1.4100 -9.9802 -3.3865 0.2689 0 1
-0.9605 -9.5577 -3.2274 0.2757 0 24
-0.5537 -9.2211 -3.1037 0.2891 0 1
-0.1754 -8.8632 -2.9785 0.3013 0 1
0.1738 -8.5194 -2.8629 0.3134 0 1
0.4967 -8.1884 -2.7562 0.3256 0 1
0.7958 -7.8698 -2.6576 0.3427 0 1
1.0699 -7.5398 -2.5586 0.3548 0 24
1.3316 -7.2700 -2.4832 0.3668 0 1
1.5713 -6.9828 -2.4048 0.3788 0 1
1.7889 -6.6837 -2.3247 0.3902 0 24
1.9959 -6.4132 -2.2566 0.3996 0 24
2.1958 -6.1700 -2.2004 0.4129 0 1
2.3762 -5.9134 -2.1412 0.4243 0 1
2.5446 -5.6636 -2.0861 0.4352 0 1
2.7019 -5.4198 -2.0347 0.4462 0 1
2.8487 -5.1819 -1.9868 0.4570 0 1
2.9768 -4.9343 -1.9362 0.4524 0 1
3.0949 -4.6929 -1.8887 0.4638 0 1
3.2044 -4.4581 -1.8446 0.4749 0 1
3.3056 -4.2295 -1.8036 0.4857 0 1
3.3999 -4.0073 -1.7657 0.4888 0 1
3.4922 -3.7958 -1.7330 0.5182 0 1
3.5820 -3.5923 -1.7044 0.5269 0 1
3.6656 -3.3920 -1.6780 0.5352 0 1
3.7435 -3.1947 -1.6535 0.5432 0 1
3.8158 -3.0001 -1.6308 0.5507 0 1
3.8830 -2.8079 -1.6100 0.5578 0 1
3.9451 -2.6181 -1.5908 0.5645 0 1
4.0035 -2.4310 -1.5737 0.5708 0 1
4.0572 -2.2457 -1.5580 0.5765 0 1
4.1067 -2.0620 -1.5439 0.5819 0 1
4.1518 -1.8798 -1.5313 0.5867 0 1
4.1929 -1.6989 -1.5200 0.5910 0 1
4.2299 -1.5191 -1.5101 0.5949 0 1
4.2635 -1.3403 -1.5016 0.6014 0 1
4.2936 -1.1625 -1.4945 0.6043 0 1
4.3201 -0.9852 -1.4887 0.6066 0 1
4.3429 -0.8084 -1.4842 0.6085 0 1
4.3622 -0.6318 -1.4809 0.6098 0 1
4.3779 -0.4554 -1.4788 0.6107 0 1
4.3900 -0.2790 -1.4780 0.6110 0 1
4.3990 -0.1024 -1.4784 0.6102 0 1
4.4077 0.0745 -1.4811 0.6091 0 1
4.4130 0.2522 -1.4851 0.6074 0 1
4.4148 0.4308 -1.4903 0.6053 0 1
4.4130 0.6105 -1.4968 0.6027 0 1
4.4076 0.7914 -1.5045 0.5996 0 1
4.3981 0.9735 -1.5135 0.5872 0 1
4.3798 1.1559 -1.5219 0.5840 0 1
4.3576 1.3394 -1.5317 0.5802 0 1
4.3313 1.5244 -1.5427 0.5761 0 1
4.3010 1.7108 -1.5552 0.5715 0 1
4.2664 1.8990 -1.5690 0.5664 0 1
4.2275 2.0891 -1.5843 0.5610 0 1
4.1842 2.2812 -1.6012 0.5547 0 1
4.1363 2.4757 -1.6196 0.5484 0 1
4.0835 2.6726 -1.6397 0.5417 0 1
4.0256 2.8722 -1.6615 0.5346 0 1
3.9629 3.0750 -1.6853 0.5270 0 1
3.8946 3.2810 -1.7110 0.5191 0 1
3.8204 3.4903 -1.7386 0.5109 0 1
3.7400 3.7032 -1.7683 0.5023 0 1
3.6530 3.9201 -1.8003 0.4934 0 1
3.5591 4.1411 -1.8346 0.4842 0 1
3.4577 4.3664 -1.8713 0.4883 0 1
3.3450 4.5917 -1.9087 0.4766 0 1
3.2251 4.8230 -1.9493 0.4633 0 1
3.0956 5.0580 -1.9924 0.4532 0 1
2.9568 5.2982 -2.0385 0.4430 0 1
2.8080 5.5439 -2.0880 0.4325 0 1
2.6485 5.7956 -2.1409 0.4218 0 1
2.4774 6.0533 -2.1975 0.4113 0 1
2.2937 6.3175 -2.2581 0.4002 0 1
2.0967 6.5888 -2.3231 0.3890 0 1
1.8818 6.8553 -2.3885 0.4007 0 1
1.6512 7.1256 -2.4575 0.3895 0 1
1.4081 7.4207 -2.5377 0.3569 0 1
1.1492 7.7430 -2.6300 0.3443 0 1
0.8683 8.0728 -2.7280 0.3313 0 1
0.5635 8.4024 -2.8294 0.3195 0 1
0.2341 8.7404 -2.9377 0.3102 0 1
-0.1219 9.0860 -3.0530 0.3173 0 1
-0.5057 9.4265 -3.1717 0.3054 0 1
-0.9212 9.7940 -3.3051 0.2788 0 1
-1.3734 10.1899 -3.4546 0.2704 0 1
-1.8615 10.5802 -3.6094 0.2588 0 1
-2.3951 11.0024 -3.7832 0.2401 0 1
-2.9684 11.4092 -3.9609 0.2286 0 24
-3.6067 11.8814 -4.1718 0.2146 0 24
-4.3240 12.4248 -4.4201 0.2024 0 1
-5.0989 12.9500 -4.6761 0.1913 0 1
-5.9502 13.4949 -4.9552 0.1840 0 1
-6.8776 14.0412 -5.2531 0.1746 0 1
-7.8676 14.5514 -5.5579 0.1651 0 24
-9.0295 15.2064 -5.9419 0.1488 0 1
-10.3213 15.8909 -6.3664 0.1379 0 1
-11.8387 16.7162 -6.8822 0.1193 0 1
-13.5929 17.6448 -7.4835 0.1077 0 1
-15.5170 18.5504 -8.1256 0.1141 0 1
-17.0575 18.8023 -8.5295 0.0995 0 2
-19.5261 19.8582 -9.3571 0.0907 0 2
-17.4658 16.3903 -8.0474 0.9602 0 6
-22.3828 19.3735 -9.9460 0.7635 0 5
-22.4654 17.9181 -9.6547 0.8242 0 5
-24.9483 18.3081 -10.3970 0.7306 0 21
-27.7880 18.7222 -11.2576 0.8430 0 3
-28.8194 17.7768 -11.3767 0.5035 0 3
-31.3718 17.6520 -12.0943 0.4016 0 3
-37.2840 19.0485 -14.0670 0.8987 0 3
-29.6696 13.6842 -10.9776 0.5386 0 5
-33.1016 13.6824 -12.0342 0.3967 0 5
-26.3625 8.4907 -9.3054 0.8273 0 6
-24.7849 -17.4233 -10.1790 0.8402 0 20
-32.0398 -24.5042 -13.5522 0.0626 0 2
-27.6926 -23.0003 -12.0948 0.0702 0 2
-24.0335 -21.6505 -10.8681 0.0781 0 2
-20.9251 -20.4318 -9.8261 0.0864 0 2
-18.7752 -19.8675 -9.1842 0.9955 0 2
-16.2999 -18.6992 -8.3344 0.0860 0 1
-14.0491 -17.4888 -7.5371 0.1146 0 1
-12.3266 -16.6748 -6.9670 0.1257 0 1
-10.7940 -15.9005 -6.4569 0.1336 0 1
-9.4391 -15.1835 -6.0068 0.1442 0 1
-8.2384 -14.5225 -5.6097 0.1595 0 1
-7.1654 -13.9047 -5.2556 0.1685 0 1
-6.2057 -13.3323 -4.9409 0.1853 0 1
-5.3449 -12.8039 -4.6617 0.1954 0 1
-4.5653 -12.3052 -4.4097 0.2082 0 1
-3.8406 -11.7832 -4.1639 0.2194 0 24
-3.2079 -11.3743 -3.9706 0.2310 0 1
-2.6174 -10.9465 -3.7815 0.2425 0 1
-2.0729 -10.5220 -3.6032 0.2488 0 1
-1.5736 -10.1155 -3.4395 0.2648 0 1
-1.1152 -9.7275 -3.2897 0.2731 0 1
-0.6927 -9.3490 -3.1497 0.2849 0 1
-0.3036 -8.9861 -3.0209 0.2971 0 1
0.0554 -8.6375 -2.9021 0.3092 0 1
0.3872 -8.3021 -2.7924 0.3214 0 1
0.6943 -7.9791 -2.6910 0.3335 0 1
0.9793 -7.6706 -2.5981 0.3505 0 1
1.2440 -7.3722 -2.5119 0.3626 0 1
1.4898 -7.0817 -2.4314 0.3746 0 1
1.7186 -6.8003 -2.3566 0.3865 0 1
1.9256 -6.5068 -2.2799 0.3962 0 24
2.1300 -6.2610 -2.2220 0.4089 0 1
2.3148 -6.0019 -2.1613 0.4203 0 1
2.4874 -5.7498 -2.1048 0.4316 0 1
4.0459 -1.9612 -1.5663 0.5924 0 1
4.0894 -1.7831 -1.5541 0.5971 0 1
4.1289 -1.6061 -1.5433 0.6012 0 1
4.1647 -1.4302 -1.5340 0.6081 0 1
4.1971 -1.2553 -1.5261 0.6112 0 1
4.2258 -1.0809 -1.5195 0.6139 0 1
4.2508 -0.9071 -1.5142 0.6161 0 1
4.2722 -0.7336 -1.5101 0.6177 0 1
4.2901 -0.5603 -1.5072 0.6189 0 1
4.3044 -0.3870 -1.5055 0.6196 0 1
4.3152 -0.2137 -1.5051 0.6198 0 1
4.3238 -0.0402 -1.5063 0.6186 0 1
4.3311 0.1338 -1.5095 0.6173 0 1
4.3348 0.3086 -1.5139 0.6155 0 1
4.3350 0.4843 -1.5195 0.6132 0 1
4.3317 0.6611 -1.5265 0.6104 0 1
4.3247 0.8391 -1.5347 0.6072 0 1
4.3102 1.0175 -1.5428 0.5950 0 1
4.2904 1.1967 -1.5517 0.5916 0 1
4.2667 1.3771 -1.5618 0.5878 0 1
4.2390 1.5588 -1.5734 0.5835 0 1
4.2071 1.7420 -1.5863 0.5787 0 1
4.1710 1.9269 -1.6006 0.5735 0 1
4.1305 2.1135 -1.6163 0.5680 0 1
4.0856 2.3022 -1.6337 0.5616 0 1
4.0360 2.4930 -1.6526 0.5551 0 1
3.9816 2.6862 -1.6732 0.5483 0 1
3.9222 2.8820 -1.6956 0.5411 0 1
3.8578 3.0808 -1.7198 0.5335 0 1
3.7877 3.2825 -1.7460 0.5255 0 1
3.7117 3.4874 -1.7742 0.5171 0 1
3.6294 3.6957 -1.8045 0.5084 0 1
3.5406 3.9076 -1.8369 0.4995 0 1
3.4449 4.1234 -1.8718 0.4902 0 1
3.3417 4.3434 -1.9091 0.4806 0 1
3.2280 4.5639 -1.9474 0.4790 0 1
3.1057 4.7880 -1.9881 0.4692 0 1
2.9746 5.0165 -2.0317 0.4591 0 1
2.8342 5.2498 -2.0783 0.4488 0 1
2.6839 5.4880 -2.1282 0.4383 0 1
2.5230 5.7316 -2.1816 0.4276 0 1
2.3505 5.9807 -2.2386 0.4170 0 1
2.1658 6.2355 -2.2995 0.4060 0 1
1.9678 6.4967 -2.3647 0.3948 0 1
1.7540 6.7587 -2.4325 0.4064 0 1
1.5233 7.0183 -2.5018 0.3952 0 1
1.2801 7.3023 -2.5826 0.3622 0 1
1.0210 7.6105 -2.6750 0.3497 0 1
0.7397 7.9165 -2.7698 0.3371 0 1
0.4364 8.2290 -2.8707 0.3252 0 1
0.1094 8.5487 -2.9783 0.3160 0 1
-0.2432 8.8770 -3.0936 0.3042 0 1
-0.6232 9.2069 -3.2147 0.3112 0 1
-1.0328 9.5465 -3.3450 0.2846 0 1
-1.4768 9.9086 -3.4899 0.2765 0 1
-1.9552 10.2695 -3.6417 0.2649 0 1
-2.4755 10.6528 -3.8099 0.2463 0 1
-3.0327 11.0216 -3.9822 0.2347 0 24
-3.6504 11.4469 -4.1855 0.2214 0 24
-4.3413 11.9341 -4.4239 0.2089 0 1
-5.0845 12.4018 -4.6693 0.1979 0 1
-5.8810 12.8482 -4.9224 0.1860 0 24
-6.7769 13.3593 -5.2184 0.1804 0 1
-7.7422 13.8529 -5.5283 0.1703 0 1
-8.8028 14.3632 -5.8685 0.1624 0 1
-9.9840 14.9110 -6.2513 0.1461 0 1
-11.3323 15.5359 -6.6989 0.1280 0 1
-12.8961 16.2648 -7.2309 0.1154 0 1
-14.6981 17.0803 -7.8499 0.1146 0 1
-16.7118 17.9114 -8.5338 0.7204 0 2
-18.1710 17.9703 -8.9028 0.0985 0 2
-20.6175 18.8127 -9.7230 0.0902 0 2
-23.4214 19.7064 -10.6629 0.0822 0 25
-22.4173 17.3725 -9.8798 0.8030 0 5
-27.6095 19.6731 -11.8100 0.8300 0 3
-27.6938 18.1010 -11.5254 0.8505 0 3
-29.7300 17.7695 -12.0657 0.4904 0 3
-32.6032 17.7493 -12.9317 0.4575 0 3
-35.9265 17.7259 -13.9559 0.4239 0 3
-30.8315 13.7006 -11.7532 0.4039 0 5
-42.1652 16.7423 -15.8043 0.8141 0 3
-38.7927 -23.5886 -15.8161 0.0554 0 2
-33.8601 -22.5009 -14.1625 0.0619 0 2
-24.2258 -17.5414 -10.4194 0.5525 15 6
-26.0029 -20.4697 -11.5284 0.0761 0 2
-22.8602 -19.5332 -10.4748 0.0837 0 2
-20.1311 -18.6515 -9.5602 0.0972 0 2
-18.3942 -18.4700 -9.0807 0.0665 0 1
-15.7645 -17.1560 -8.1165 0.0912 0 1
-13.8837 -16.3844 -7.4813 0.1211 0 1
-12.2768 -15.7279 -6.9505 0.1301 0 1
-10.8254 -15.0806 -6.4669 0.1380 0 1
-9.5359 -14.4787 -6.0395 0.1530 0 1
-8.3878 -13.9229 -5.6624 0.1632 0 1
-7.3478 -13.3853 -5.3193 0.1719 0 1
-6.4133 -12.8847 -5.0138 0.1886 0 1
-5.5687 -12.4145 -4.7399 0.2000 0 1
-4.7990 -11.9639 -4.4906 0.2111 0 1
-4.0956 -11.5310 -4.2628 0.2209 0 1
-3.4504 -11.1110 -4.0530 0.2324 0 1
-2.8608 -10.7148 -3.8634 0.2452 0 1
-2.3157 -10.3206 -3.6847 0.2513 0 1
-1.8150 -9.9439 -3.5213 0.2672 0 1
-1.3479 -9.5408 -3.3567 0.2742 0 24
-0.9269 -9.2237 -3.2294 0.2870 0 1
-0.5332 -8.8795 -3.0989 0.2991 0 1
-0.1691 -8.5477 -2.9783 0.3112 0 1
0.1679 -8.2275 -2.8667 0.3233 0 1
0.4803 -7.9179 -2.7634 0.3354 0 1
0.7708 -7.6225 -2.6689 0.3525 0 1
1.0410 -7.3360 -2.5812 0.3644 0 1
1.2924 -7.0564 -2.4991 0.3765 0 1
1.5265 -6.7839 -2.4224 0.3884 0 1
1.7449 -6.5191 -2.3509 0.4002 0 1
1.9419 -6.2398 -2.2765 0.4088 0 24
2.1383 -6.0085 -2.2217 0.4224 0 1
2.3156 -5.7627 -2.1635 0.4337 0 1
2.4814 -5.5227 -2.1092 0.4447 0 1
2.6363 -5.2882 -2.0584 0.4556 0 1
2.7797 -5.0564 -2.0101 0.4501 0 1
2.9060 -4.8169 -1.9597 0.4617 0 1
3.0231 -4.5839 -1.9129 0.4730 0 1
3.1316 -4.3570 -1.8692 0.4840 0 1
3.2322 -4.1356 -1.8285 0.4948 0 1
3.3254 -3.9195 -1.7906 0.5053 0 1
3.4190 -3.7162 -1.7591 0.5273 0 1
3.5081 -3.5182 -1.7308 0.5360 0 1
3.5912 -3.3231 -1.7045 0.5442 0 1
3.6686 -3.1307 -1.6801 0.5521 0 1
3.7405 -2.9408 -1.6575 0.5597 0 1
3.8073 -2.7532 -1.6368 0.5668 0 1
3.8691 -2.5677 -1.6177 0.5735 0 1
3.9271 -2.3846 -1.6005 0.5797 0 1
3.9806 -2.2033 -1.5849 0.5855 0 1
4.0298 -2.0234 -1.5709 0.5907 0 1
4.0747 -1.8449 -1.5582 0.5955 0 1
4.1156 -1.6676 -1.5469 0.5998 0 1
4.1526 -1.4913 -1.5370 0.6069 0 1
4.1863 -1.3161 -1.5287 0.6102 0 1
4.2163 -1.1415 -1.5217 0.6130 0 1
4.2425 -0.9675 -1.5159 0.6154 0 1
4.2652 -0.7939 -1.5113 0.6172 0 1
4.2842 -0.6205 -1.5080 0.6186 0 1
4.2998 -0.4473 -1.5060 0.6194 0 1
4.3118 -0.2740 -1.5051 0.6198 0 1
4.3205 -0.1006 -1.5055 0.6189 0 1
4.3289 0.0732 -1.5082 0.6178 0 1
4.3339 0.2477 -1.5122 0.6162 0 1
4.3353 0.4231 -1.5174 0.6141 0 1
4.3332 0.5995 -1.5239 0.6115 0 1
4.3275 0.7770 -1.5317 0.6084 0 1
4.3161 0.9554 -1.5400 0.5961 0 1
4.2977 1.1342 -1.5484 0.5929 0 1
4.2754 1.3142 -1.5582 0.5892 0 1
4.2491 1.4954 -1.5692 0.5850 0 1
4.2187 1.6781 -1.5816 0.5804 0 1
4.1840 1.8623 -1.5954 0.5754 0 1
4.1451 2.0483 -1.6107 0.5700 0 1
4.1017 2.2363 -1.6275 0.5637 0 1
4.0538 2.4263 -1.6458 0.5574 0 1
4.0011 2.6187 -1.6658 0.5507 0 1
3.9434 2.8135 -1.6875 0.5437 0 1
3.8808 3.0113 -1.7112 0.5362 0 1
3.8127 3.2120 -1.7367 0.5283 0 1
3.7388 3.4157 -1.7642 0.5201 0 1
3.6588 3.6228 -1.7937 0.5115 0 1
3.5723 3.8335 -1.8254 0.5026 0 1
3.4790 4.0479 -1.8594 0.4934 0 1
3.3785 4.2664 -1.8958 0.4839 0 1
3.2687 4.4870 -1.9339 0.4859 0 1
3.1492 4.7096 -1.9736 0.4726 0 1
3.0212 4.9365 -2.0162 0.4626 0 1
2.8842 5.1680 -2.0617 0.4524 0 1
2.7374 5.4045 -2.1105 0.4420 0 1
2.5802 5.6462 -2.1626 0.4313 0 1
2.4119 5.8934 -2.2183 0.4208 0 1
2.2315 6.1461 -2.2778 0.4098 0 1
2.0382 6.4051 -2.3415 0.3987 0 1
1.8308 6.6697 -2.4094 0.4103 0 1
1.6053 6.9273 -2.4771 0.3991 0 1
1.3658 7.1976 -2.5521 0.3665 0 1
1.1134 7.5020 -2.6420 0.3541 0 1
0.8401 7.8101 -2.7364 0.3412 0 1
0.5445 8.1191 -2.8347 0.3294 0 1
0.2260 8.4369 -2.9402 0.3201 0 1
-0.1175 8.7616 -3.0525 0.3083 0 1
-0.4879 9.0944 -3.1727 0.3153 0 1
-0.8861 9.4210 -3.2964 0.3035 0 1
-1.3189 9.7857 -3.4398 0.2805 0 1
-1.7845 10.1425 -3.5875 0.2689 0 1
-2.2889 10.5143 -3.7486 0.2503 0 1
-2.8306 10.8797 -3.9162 0.2396 0 24
-3.4415 11.3372 -4.1274 0.2273 0 1
-4.0982 11.7760 -4.3436 0.2127 0 1
-4.8006 12.1925 -4.5648 0.2022 0 24
-5.5884 12.6744 -4.8254 0.1900 0 24
-6.4615 13.1917 -5.1171 0.1840 0 1
-7.3960 13.6791 -5.4172 0.1738 0 1
-8.4221 14.1835 -5.7464 0.1658 0 1
-9.5537 14.7090 -6.1100 0.1495 0 1
-10.8383 15.3037 -6.5328 0.1388 0 1
-12.3240 15.9977 -7.0349 0.1206 0 1
-14.0510 16.7978 -7.6290 0.1094 0 1
-15.9324 17.5622 -8.2604 0.0964 0 1
-17.3930 17.6888 -8.6420 0.1015 0 2
-17.4481 16.3736 -8.3355 0.6846 0 6
-22.4013 19.3895 -10.3210 0.0850 0 2
-22.3856 17.8544 -9.9749 0.8164 0 5
-24.8165 18.2114 -10.7231 0.6046 0 21
-27.6656 18.6398 -11.6210 0.8435 0 3
-28.8179 17.7759 -11.7953 0.5016 0 3
-31.5578 17.7567 -12.6143 0.4690 0 3
-34.7120 17.7345 -13.5791 0.4357 0 3
-29.7161 13.7056 -11.3999 0.4881 0 5
-33.0903 13.6777 -12.4733 0.3719 0 5
-42.4550 13.6737 -15.5378 0.3278 0 5
-34.2784 -4.4980 -12.0436 0.1162 0 20
-25.5699 -4.4067 -9.0389 0.9880 0 20
-35.4891 -22.8745 -14.7086 0.0596 0 2
-24.6754 -17.3462 -10.5074 0.8407 0 20
-27.2070 -20.8081 -11.9321 0.0735 0 2
-23.9033 -19.8530 -10.8245 0.0810 0 2
-21.0368 -18.9510 -9.8635 0.0889 0 2
-19.4874 -19.0280 -9.4881 0.9908 0 2
-16.5259 -17.4874 -8.3818 0.0884 0 1
-14.4964 -16.6303 -7.6854 0.1160 0 1
-12.8151 -15.9527 -7.1283 0.1269 0 1
-11.3118 -15.3020 -6.6290 0.1346 0 1
-9.9644 -14.6784 -6.1803 0.1495 0 1
-8.7738 -14.1133 -5.7891 0.1596 0 1
-7.6995 -13.5726 -5.4360 0.1682 0 1
-6.7097 -13.0205 -5.1027 0.1814 0 24
-5.8536 -12.5758 -4.8323 0.1957 0 1
-5.0588 -12.1186 -4.5747 0.2073 0 1
-4.3334 -11.6800 -4.3399 0.2185 0 1
-3.6685 -11.2552 -4.1239 0.2284 0 1
-3.0602 -10.8504 -3.9273 0.2412 0 1
-2.5002 -10.4564 -3.7453 0.2472 0 1
-1.9772 -10.0363 -3.5634 0.2602 0 24
-1.5101 -9.7069 -3.4222 0.2711 0 1
-1.0715 -9.3466 -3.2773 0.2828 0 1
-0.6667 -8.9979 -3.1431 0.2949 0 1
-0.2926 -8.6619 -3.0192 0.3070 0 1
0.0535 -8.3376 -2.9046 0.3191 0 1
0.3743 -8.0245 -2.7984 0.3312 0 1
0.6721 -7.7243 -2.7010 0.3483 0 1
0.9492 -7.4347 -2.6110 0.3602 0 1
1.2070 -7.1531 -2.5271 0.3723 0 1
1.4470 -6.8778 -2.4484 0.3843 0 1
1.6706 -6.6104 -2.3752 0.3961 0 1
1.8731 -6.3294 -2.2994 0.4056 0 24
2.0737 -6.0955 -2.2430 0.4184 0 1
2.2553 -5.8475 -2.1833 0.4298 0 1
2.4250 -5.6056 -2.1276 0.4408 0 1
3.9712 -1.9250 -1.5924 0.6012 0 1
4.0145 -1.7504 -1.5803 0.6058 0 1
4.0538 -1.5769 -1.5695 0.6132 0 1
4.0898 -1.4045 -1.5604 0.6168 0 1
4.1221 -1.2328 -1.5525 0.6199 0 1
4.1505 -1.0617 -1.5459 0.6226 0 1
4.1754 -0.8910 -1.5405 0.6247 0 1
4.1966 -0.7206 -1.5364 0.6264 0 1
4.2143 -0.5504 -1.5336 0.6276 0 1
4.2284 -0.3802 -1.5319 0.6283 0 1
4.2390 -0.2099 -1.5315 0.6284 0 1
4.2474 -0.0395 -1.5327 0.6273 0 1
4.2543 0.1315 -1.5358 0.6260 0 1
4.2578 0.3031 -1.5403 0.6242 0 1
4.2577 0.4757 -1.5459 0.6219 0 1
4.2541 0.6493 -1.5528 0.6191 0 1
4.2466 0.8239 -1.5609 0.6068 0 1
4.2305 0.9987 -1.5685 0.6039 0 1
4.2107 1.1745 -1.5774 0.6005 0 1
4.1869 1.3513 -1.5875 0.5966 0 1
4.1591 1.5295 -1.5990 0.5923 0 1
4.1272 1.7089 -1.6119 0.5876 0 1
4.0911 1.8900 -1.6261 0.5825 0 1
4.0506 2.0726 -1.6418 0.5769 0 1
4.0057 2.2572 -1.6591 0.5705 0 1
3.9562 2.4437 -1.6779 0.5641 0 1
3.9019 2.6324 -1.6984 0.5573 0 1
3.8427 2.8236 -1.7207 0.5501 0 1
3.7785 3.0175 -1.7448 0.5425 0 1
3.7087 3.2140 -1.7708 0.5345 0 1
3.6330 3.4135 -1.7988 0.5262 0 1
3.5512 3.6161 -1.8288 0.5176 0 1
3.4630 3.8220 -1.8610 0.5086 0 1
3.3679 4.0314 -1.8955 0.4994 0 1
3.2657 4.2446 -1.9325 0.4935 0 1
3.1543 4.4597 -1.9710 0.4883 0 1
3.0333 4.6764 -2.0113 0.4785 0 1
2.9038 4.8971 -2.0543 0.4685 0 1
2.7652 5.1219 -2.1003 0.4582 0 1
2.6171 5.3513 -2.1495 0.4477 0 1
2.4586 5.5853 -2.2020 0.4371 0 1
2.2891 5.8242 -2.2581 0.4265 0 1
2.1076 6.0681 -2.3179 0.4155 0 1
1.9135 6.3175 -2.3818 0.4044 0 1
1.7057 6.5727 -2.4502 0.3931 0 1
1.4813 6.8249 -2.5200 0.4048 0 1
1.2420 7.0850 -2.5955 0.3719 0 1
0.9895 7.3762 -2.6854 0.3594 0 1
0.7159 7.6622 -2.7768 0.3469 0 1
0.4219 7.9553 -2.8746 0.3351 0 1
0.1056 8.2561 -2.9794 0.3259 0 1
-0.2346 8.5619 -3.0906 0.3142 0 1
-0.6008 8.8766 -3.2103 0.3025 0 1
-0.9946 9.1932 -3.3366 0.3094 0 1
-1.4193 9.5224 -3.4740 0.2866 0 1
-1.8759 9.8525 -3.6190 0.2751 0 1
-2.3684 10.1918 -3.7756 0.2637 0 1
-2.9053 10.5584 -3.9514 0.2450 0 1
-3.4884 10.9389 -4.1430 0.2353 0 1
-4.1208 11.3278 -4.3495 0.2202 0 1
-4.7955 11.6970 -4.5616 0.2091 0 24
-5.5479 12.1205 -4.8099 0.1972 0 24
-6.3801 12.5771 -5.0888 0.1910 0 1
-7.2634 12.9963 -5.3722 0.1808 0 1
-8.2325 13.4327 -5.6849 0.1676 0 1
-9.2889 13.8729 -6.0243 0.1639 0 1
-10.4566 14.3354 -6.4026 0.1461 0 1
-11.7762 14.8523 -6.8394 0.1293 0 1
-13.3103 15.4675 -7.3632 0.1165 0 1
-15.1092 16.1938 -7.9918 0.1028 0 1
-16.7299 16.5452 -8.4903 0.7470 0 2
-18.3452 16.7393 -8.9612 0.1009 0 2
-20.6204 17.3497 -9.7239 0.0930 0 2
-23.1818 17.9650 -10.5826 0.0855 0 25
-26.0708 18.5767 -11.5512 0.0783 0 25
-27.5724 18.0217 -11.8858 0.8509 0 3
-29.7285 17.7686 -12.4972 0.4885 0 3
-32.2871 17.5772 -13.2649 0.2738 0 3
-32.3384 15.9556 -13.0119 0.8539 0 3
-30.7527 13.6656 -12.1430 0.3885 0 5
-36.2283 14.3850 -14.0653 0.1973 0 21
-43.1710 15.1638 -16.5107 0.7963 0 21
-40.9481 -20.5924 -16.5387 0.0547 0 2
-36.3571 -20.1530 -14.9996 0.0603 0 2
-32.2873 -19.6329 -13.6352 0.0663 0 2
-28.6848 -19.0618 -12.4275 0.0728 0 2
-24.1018 -17.4516 -10.7372 0.5494 15 6
-22.6731 -17.8485 -10.4121 0.0869 0 2
-20.9332 -17.8866 -9.9353 0.9280 0 2
-18.3861 -17.0348 -9.0442 0.0688 0 1
-16.0785 -16.1447 -8.2217 0.1118 0 1
-14.2897 -15.5510 -7.6206 0.1227 0 1
-12.7111 -15.0005 -7.0947 0.1317 0 1
-11.2938 -14.4687 -6.6230 0.1391 0 1
-10.0152 -13.9520 -6.1972 0.1529 0 1
-8.8855 -13.4912 -5.8291 0.1625 0 1
-7.8499 -13.0299 -5.4890 0.1737 0 1
-6.9079 -12.5841 -5.1800 0.1883 0 1
-6.0548 -12.1643 -4.9030 0.1998 0 1
-5.2738 -11.7571 -4.6496 0.2104 0 1
-4.5575 -11.3620 -4.4173 0.2215 0 1
-3.8840 -10.9352 -4.1873 0.2322 0 24
-3.2922 -10.6016 -4.0057 0.2440 0 1
-2.7336 -10.2383 -3.8238 0.2498 0 1
-2.2180 -9.8853 -3.6557 0.2655 0 1
-1.7346 -9.5036 -3.4859 0.2735 0 24
-1.3007 -9.2065 -3.3550 0.2854 0 1
-0.8922 -8.8784 -3.2198 0.2970 0 1
-0.5140 -8.5601 -3.0943 0.3091 0 1
-0.1633 -8.2517 -2.9781 0.3211 0 1
0.1623 -7.9528 -2.8703 0.3332 0 1
0.4651 -7.6665 -2.7714 0.3502 0 1
0.7471 -7.3885 -2.6796 0.3621 0 1
1.0101 -7.1179 -2.5941 0.3741 0 1
1.2553 -6.8534 -2.5141 0.3861 0 1
1.4840 -6.5946 -2.4391 0.3980 0 1
1.6976 -6.3424 -2.3691 0.4097 0 1
1.8904 -6.0743 -2.2955 0.4179 0 24
2.0833 -5.8540 -2.2421 0.4318 0 1
2.2576 -5.6183 -2.1848 0.4429 0 1
2.4207 -5.3877 -2.1313 0.4540 0 1
2.5733 -5.1620 -2.0812 0.4649 0 1
2.7130 -4.9350 -2.0321 0.4594 0 1
2.8379 -4.7041 -1.9824 0.4709 0 1
2.9539 -4.4791 -1.9360 0.4822 0 1
3.0616 -4.2595 -1.8928 0.4932 0 1
3.1615 -4.0451 -1.8525 0.5039 0 1
3.2561 -3.8377 -1.8161 0.5352 0 1
3.3489 -3.6400 -1.7848 0.5446 0 1
3.4367 -3.4466 -1.7563 0.5450 0 1
3.5192 -3.2565 -1.7301 0.5532 0 1
3.5960 -3.0688 -1.7059 0.5611 0 1
3.6675 -2.8834 -1.6834 0.5686 0 1
3.7339 -2.7001 -1.6627 0.5756 0 1
3.7954 -2.5188 -1.6437 0.5823 0 1
3.8530 -2.3397 -1.6266 0.5885 0 1
3.9062 -2.1621 -1.6110 0.5943 0 1
3.9552 -1.9860 -1.5970 0.5995 0 1
3.9999 -1.8110 -1.5843 0.6043 0 1
4.0405 -1.6371 -1.5731 0.6086 0 1
4.0778 -1.4644 -1.5634 0.6156 0 1
4.1113 -1.2925 -1.5551 0.6189 0 1
4.1411 -1.1212 -1.5480 0.6217 0 1
4.1671 -0.9503 -1.5423 0.6240 0 1
4.1896 -0.7798 -1.5377 0.6259 0 1
4.2085 -0.6096 -1.5344 0.6272 0 1
4.2239 -0.4394 -1.5323 0.6281 0 1
4.2357 -0.2692 -1.5315 0.6284 0 1
4.2441 -0.0988 -1.5319 0.6276 0 1
4.2523 0.0719 -1.5346 0.6265 0 1
4.2570 0.2433 -1.5386 0.6249 0 1
4.2581 0.4155 -1.5438 0.6228 0 1
4.2558 0.5887 -1.5503 0.6202 0 1
4.2498 0.7630 -1.5580 0.6171 0 1
4.2366 0.9378 -1.5657 0.6049 0 1
4.2180 1.1132 -1.5741 0.6017 0 1
4.1956 1.2897 -1.5838 0.5980 0 1
4.1693 1.4673 -1.5949 0.5939 0 1
4.1388 1.6463 -1.6072 0.5893 0 1
4.1042 1.8268 -1.6210 0.5843 0 1
4.0652 2.0089 -1.6362 0.5789 0 1
4.0218 2.1927 -1.6529 0.5726 0 1
3.9740 2.3786 -1.6712 0.5664 0 1
3.9213 2.5665 -1.6911 0.5597 0 1
3.8638 2.7568 -1.7127 0.5527 0 1
3.8014 2.9497 -1.7362 0.5452 0 1
3.7336 3.1453 -1.7616 0.5374 0 1
3.6600 3.3438 -1.7888 0.5292 0 1
3.5804 3.5452 -1.8181 0.5206 0 1
3.4945 3.7499 -1.8496 0.5118 0 1
3.4018 3.9581 -1.8832 0.5026 0 1
3.3021 4.1699 -1.9193 0.4932 0 1
3.1945 4.3851 -1.9577 0.4916 0 1
3.0763 4.6005 -1.9970 0.4819 0 1
2.9498 4.8198 -2.0390 0.4720 0 1
2.8145 5.0432 -2.0840 0.4618 0 1
2.6697 5.2709 -2.1320 0.4514 0 1
2.5149 5.5033 -2.1833 0.4408 0 1
2.3494 5.7406 -2.2382 0.4300 0 1
2.1721 5.9826 -2.2966 0.4194 0 1
1.9825 6.2300 -2.3591 0.4083 0 1
1.7796 6.4832 -2.4259 0.3970 0 1
1.5615 6.7383 -2.4958 0.4087 0 1
1.3262 6.9890 -2.5669 0.3974 0 1
1.0795 7.2738 -2.6534 0.3637 0 1
0.8134 7.5621 -2.7444 0.3510 0 1
0.5266 7.8523 -2.8398 0.3392 0 1
0.2183 8.1510 -2.9422 0.3274 0 1
-0.1134 8.4545 -3.0510 0.3183 0 1
-0.4703 8.7660 -3.1677 0.3065 0 1
-0.8546 9.0859 -3.2930 0.3135 0 1
-1.2682 9.4096 -3.4260 0.2906 0 1
-1.7131 9.7366 -3.5673 0.2791 0 1
-2.1927 10.0727 -3.7197 0.2676 0 1
-2.7133 10.4288 -3.8884 0.2490 0 1
-3.2801 10.8054 -4.0746 0.2376 0 1
-3.8811 11.1521 -4.2608 0.2246 0 24
-4.5647 11.5933 -4.4959 0.2120 0 1
-5.2970 12.0133 -4.7375 0.2012 0 1
-6.0902 12.4335 -4.9958 0.1945 0 1
-6.9473 12.8493 -5.2708 0.1843 0 1
-7.8597 13.2363 -5.5547 0.1733 0 24
-8.9115 13.7204 -5.9034 0.1673 0 1
-10.0307 14.1634 -6.2625 0.1504 0 1
-11.2979 14.6657 -6.6801 0.1400 0 1
-12.7489 15.2412 -7.1699 0.1196 0 1
-14.3652 15.8347 -7.7146 0.1090 0 24
-16.5345 16.8157 -8.5096 0.1245 0 2
-17.4143 16.3419 -8.6172 0.6832 0 6
-19.7982 17.1364 -9.4483 0.0957 0 2
-22.2557 17.7508 -10.2721 0.0881 0 2
-24.6468 18.0869 -11.0312 0.4984 0 21
-27.5433 18.5574 -11.9839 0.8440 0 3
-28.8165 17.7750 -12.2171 0.4997 0 3
-31.5561 17.7557 -13.0653 0.4672 0 3
-28.3962 14.5077 -11.5062 0.4374 0 21
-29.7561 13.7241 -11.8240 0.3743 0 5
-33.0928 13.6788 -12.9210 0.3704 0 5
-38.8307 14.2523 -14.9255 0.1661 0 21
-42.6144 13.7250 -16.1547 0.2667 0 5
-34.2205 -4.4905 -12.4538 0.9930 0 20
-25.4752 -4.3904 -9.3279 0.9712 0 20
-37.8927 -20.3168 -15.5144 0.0583 0 2
-33.6476 -19.8210 -14.0912 0.0642 0 2
-29.8887 -19.2648 -12.8311 0.0705 0 2
-24.5342 -17.2470 -10.8214 0.8411 0 20
-23.6171 -18.0625 -10.7286 0.0843 0 2
-21.2954 -17.6870 -9.9888 0.9231 0 2
-19.3924 -17.4696 -9.4181 0.0693 0 1
-16.7668 -16.3715 -8.4558 0.0925 0 1
-14.8868 -15.7529 -7.8208 0.1176 0 1
-13.2411 -15.1902 -7.2713 0.1285 0 1
-11.7709 -14.6528 -6.7820 0.1359 0 1
-10.4448 -14.1292 -6.3401 0.1453 0 1
-9.2665 -13.6503 -5.9532 0.1591 0 1
-8.1993 -13.1892 -5.6038 0.1701 0 1
-7.2236 -12.7336 -5.2826 0.1847 0 1
-6.3429 -12.3087 -4.9965 0.1961 0 1
-5.5379 -11.8975 -4.7353 0.2066 0 1
-4.7998 -11.4980 -4.4959 0.2176 0 1
-4.1214 -11.1088 -4.2754 0.2273 0 1
-3.4973 -10.7299 -4.0722 0.2386 0 1
-2.9234 -10.3655 -3.8862 0.2458 0 1
-2.3927 -10.0065 -3.7125 0.2614 0 1
-1.8957 -9.6226 -3.5389 0.2700 0 24
-1.4503 -9.3228 -3.4045 0.2812 0 1
-1.0308 -8.9916 -3.2658 0.2929 0 1
-0.6423 -8.6697 -3.1369 0.3049 0 1
-0.2823 -8.3579 -3.0176 0.3169 0 1
0.0517 -8.0558 -2.9069 0.3290 0 1
0.3622 -7.7651 -2.8050 0.3460 0 1
0.6512 -7.4844 -2.7108 0.3580 0 1
0.9206 -7.2112 -2.6232 0.3699 0 1
1.1719 -6.9451 -2.5415 0.3819 0 1
1.4062 -6.6839 -2.4646 0.3939 0 1
1.6249 -6.4294 -2.3929 0.4057 0 1
1.8230 -6.1601 -2.3181 0.4156 0 24
2.0121 -5.9145 -2.2543 0.4249 0 24
2.1983 -5.6997 -2.2043 0.4390 0 1
2.3652 -5.4673 -2.1495 0.4502 0 1
3.8986 -1.8898 -1.6178 0.6099 0 1
3.9417 -1.7187 -1.6057 0.6145 0 1
3.9813 -1.5487 -1.5952 0.6218 0 1
4.0171 -1.3795 -1.5860 0.6254 0 1
4.0491 -1.2110 -1.5781 0.6285 0 1
4.0773 -1.0429 -1.5715 0.6312 0 1
4.1020 -0.8753 -1.5662 0.6333 0 1
4.1230 -0.7079 -1.5621 0.6350 0 1
4.1405 -0.5407 -1.5592 0.6362 0 1
4.1545 -0.3735 -1.5576 0.6368 0 1
4.1649 -0.2063 -1.5571 0.6370 0 1
4.1730 -0.0388 -1.5583 0.6359 0 1
4.1797 0.1291 -1.5615 0.6346 0 1
4.1829 0.2978 -1.5659 0.6328 0 1
4.1825 0.4673 -1.5715 0.6305 0 1
4.1786 0.6377 -1.5784 0.6278 0 1
4.1693 0.8089 -1.5859 0.6155 0 1
4.1532 0.9804 -1.5935 0.6126 0 1
4.1333 1.1529 -1.6023 0.6092 0 1
4.1095 1.3263 -1.6125 0.6054 0 1
4.0816 1.5010 -1.6239 0.6011 0 1
4.0497 1.6769 -1.6367 0.5964 0 1
4.0136 1.8542 -1.6509 0.5913 0 1
3.9732 2.0330 -1.6666 0.5857 0 1
3.9283 2.2135 -1.6837 0.5794 0 1
3.8789 2.3960 -1.7025 0.5730 0 1
3.8247 2.5803 -1.7228 0.5662 0 1
3.7658 2.7671 -1.7450 0.5591 0 1
3.7018 2.9562 -1.7690 0.5515 0 1
3.6323 3.1479 -1.7948 0.5436 0 1
3.5570 3.3421 -1.8226 0.5353 0 1
3.4758 3.5392 -1.8523 0.5267 0 1
3.3881 3.7393 -1.8842 0.5178 0 1
3.2938 3.9426 -1.9184 0.5086 0 1
3.1932 4.1504 -1.9554 0.5027 0 1
3.0832 4.3592 -1.9938 0.4970 0 1
2.9636 4.5690 -2.0336 0.4877 0 1
2.8357 4.7823 -2.0761 0.4778 0 1
2.6990 4.9992 -2.1214 0.4675 0 1
2.5529 5.2201 -2.1699 0.4571 0 1
2.3969 5.4452 -2.2216 0.4465 0 1
2.2302 5.6746 -2.2767 0.4360 0 1
2.0521 5.9081 -2.3354 0.4251 0 1
1.8617 6.1465 -2.3981 0.4139 0 1
1.6583 6.3899 -2.4651 0.4027 0 1
1.4409 6.6385 -2.5366 0.3913 0 1
1.2063 6.8809 -2.6086 0.4030 0 1
0.9596 7.1531 -2.6950 0.3684 0 1
0.6935 7.4218 -2.7834 0.3567 0 1
0.4082 7.6972 -2.8783 0.3449 0 1
0.1021 7.9797 -2.9800 0.3332 0 1
-0.2265 8.2660 -3.0878 0.3241 0 1
-0.5793 8.5584 -3.2031 0.3124 0 1
-0.9583 8.8582 -3.3270 0.3008 0 1
-1.3656 9.1625 -3.4592 0.2966 0 1
-1.8021 9.4652 -3.5979 0.2852 0 1
-2.2714 9.7745 -3.7472 0.2738 0 1
-2.7779 10.0954 -3.9098 0.2552 0 1
-3.3285 10.4375 -4.0908 0.2439 0 1
-3.9079 10.7427 -4.2686 0.2312 0 24
-4.5510 11.1005 -4.4799 0.2198 0 24
-5.2676 11.5080 -4.7260 0.2089 0 1
-6.0245 11.8762 -4.9727 0.2014 0 1
-6.8374 12.2339 -5.2333 0.1914 0 1
-7.6927 12.5520 -5.4973 0.1780 0 24
-8.6539 12.9244 -5.8081 0.1716 0 24
-9.7325 13.3428 -6.1670 0.1650 0 1
-10.8820 13.7246 -6.5404 0.1529 0 1
-12.1539 14.1238 -6.9579 0.1386 0 1
-13.6383 14.6173 -7.4651 0.1183 0 1
-15.8274 15.6526 -8.3122 0.1019 0 1
-16.7939 15.3239 -8.4893 0.8531 0 2
-18.4019 15.4831 -8.9802 0.1038 0 2
-20.4932 15.8814 -9.6813 0.0963 0 2
-22.8050 16.2497 -10.4563 0.0892 0 25
-25.3581 16.5744 -11.3122 0.0824 0 25
-25.0011 14.9430 -10.8761 0.1816 0 21
-31.2634 17.0199 -13.2919 0.0701 0 25
-32.4184 15.9950 -13.4987 0.5187 0 3
-30.8250 13.6977 -12.5957 0.3860 0 5
-37.0582 14.7145 -14.8889 0.9370 0 21
-41.5057 -16.8472 -16.7268 0.2823 0 2
-37.5951 -17.0498 -15.4146 0.0605 0 2
-33.9807 -17.0885 -14.2029 0.0656 0 2
-30.6563 -16.9930 -13.0884 0.0712 0 2
-27.6185 -16.7940 -12.0700 0.0772 0 2
-24.9173 -16.5582 -11.1715 0.5846 0 2
-23.2458 -16.8319 -10.7168 0.7354 0 2
-20.8679 -16.4274 -9.9170 0.0732 0 1
-18.3778 -15.7032 -9.0265 0.0924 0 1
-16.3283 -15.1282 -8.3119 0.1140 0 1
-14.6149 -14.6751 -7.7338 0.1254 0 1
-13.0894 -14.2448 -7.2238 0.1324 0 1
-11.7057 -13.8141 -6.7612 0.1406 0 1
-10.4508 -13.3887 -6.3422 0.1497 0 1
-9.3289 -12.9960 -5.9737 0.1635 0 1
-8.3104 -12.6181 -5.6418 0.1731 0 1
-7.3775 -12.2458 -5.3384 0.1892 0 1
-6.5204 -11.8781 -5.0598 0.1996 0 1
-5.7118 -11.4753 -4.7865 0.2100 0 24
-5.0065 -11.1613 -4.5678 0.2207 0 1
-4.3365 -10.8109 -4.3496 0.2303 0 1
-3.7178 -10.4673 -4.1478 0.2415 0 1
-3.1463 -10.1317 -3.9615 0.2525 0 1
-2.6176 -9.8038 -3.7891 0.2640 0 1
-2.1281 -9.4843 -3.6296 0.2756 0 1
-1.6735 -9.1686 -3.4802 0.2835 0 1
-1.2515 -8.8583 -3.3406 0.2954 0 1
-0.8598 -8.5555 -3.2108 0.3070 0 1
-0.4960 -8.2604 -3.0901 0.3190 0 1
-0.1578 -7.9734 -2.9779 0.3310 0 1
0.1571 -7.6974 -2.8749 0.3480 0 1
0.4507 -7.4288 -2.7791 0.3600 0 1
0.7247 -7.1667 -2.6898 0.3718 0 1
0.9807 -6.9108 -2.6064 0.3837 0 1
1.2199 -6.6603 -2.5284 0.3957 0 1
1.4434 -6.4142 -2.4550 0.4075 0 1
1.6524 -6.1735 -2.3864 0.4181 0 1
1.8411 -5.9160 -2.3136 0.4280 0 24
2.0220 -5.6818 -2.2520 0.4379 0 24
2.2020 -5.4798 -2.2052 0.4522 0 1
2.3625 -5.2580 -2.1525 0.4633 0 1
2.5129 -5.0406 -2.1032 0.4742 0 1
2.6489 -4.8184 -2.0532 0.4686 0 1
2.7725 -4.5956 -2.0042 0.4801 0 1
2.8874 -4.3781 -1.9584 0.4913 0 1
2.9941 -4.1657 -1.9156 0.5022 0 1
3.0933 -3.9578 -1.8757 0.5129 0 1
3.1898 -3.7596 -1.8411 0.5441 0 1
3.2819 -3.5672 -1.8100 0.5535 0 1
3.3679 -3.3776 -1.7811 0.5624 0 1
3.4495 -3.1920 -1.7549 0.5621 0 1
3.5258 -3.0089 -1.7308 0.5699 0 1
