ply
format ascii 1.0
element vertex 1383
property float32 x
property float32 y
property float32 z
property float32 CosAngle
property uint32 ObjIdx
property uint32 ObjTag
end_header
-40.2159 17.7219 -3.0486 0.4082 0 3
-41.6379 16.3816 -3.1039 0.9787 0 3
-35.3606 -33.0601 -3.3581 0.9443 0 20
-33.5801 -34.0281 -3.3164 0.9569 0 20
-0.6397 -44.7957 -3.1078 0.0628 0 1
0.9845 -37.9207 -2.6314 0.0726 0 1
1.7306 -26.1067 -1.8150 0.9957 0 20
2.8444 -26.6248 -1.8575 0.0993 0 2
3.4707 -23.4944 -1.6475 0.1120 0 2
3.9672 -20.9784 -1.4811 0.1245 0 2
4.2788 -18.5130 -1.3181 0.7768 0 6
4.8016 -17.5285 -1.2607 0.9339 0 2
5.1934 -16.3472 -1.1899 0.1275 0 1
5.3747 -14.8229 -1.0938 0.1476 0 1
5.5635 -13.6088 -1.0199 0.1882 0 1
5.7569 -12.6084 -0.9615 0.1981 0 1
5.9260 -11.7079 -0.9103 0.2108 0 1
6.0769 -10.8949 -0.8654 0.2217 0 1
6.2096 -10.1503 -0.8254 0.2313 0 1
6.3181 -9.4513 -0.7886 0.2356 0 1
6.4165 -8.8096 -0.7560 0.2605 0 1
6.5115 -8.2233 -0.7276 0.2707 0 1
6.5972 -7.6757 -0.7021 0.2805 0 1
6.6893 -7.1774 -0.6806 0.2996 0 1
6.7691 -6.7010 -0.6607 0.2654 0 1
6.8084 -6.2181 -0.6396 0.2742 0 1
6.8420 -5.7615 -0.6205 0.2761 0 1
6.6640 -5.1681 -0.5850 0.3162 0 25
6.2793 -4.4772 -0.5350 0.7997 14 6
6.3014 -4.1210 -0.5223 0.3310 14 6
6.6774 -3.9929 -0.5397 0.5173 14 6
6.8055 -3.7063 -0.5376 0.3441 0 25
6.8324 -3.3720 -0.5285 0.3500 0 25
6.8564 -3.0473 -0.5205 0.3554 0 25
6.8778 -2.7310 -0.5133 0.3603 0 25
6.8980 -2.4226 -0.5072 0.3629 0 2
7.1429 -2.1901 -0.5183 0.3684 0 1
7.1690 -1.8862 -0.5142 0.3726 0 1
7.1938 -1.5863 -0.5110 0.3749 0 1
3.9574 -0.7071 -0.2789 0.3091 25 14
3.9064 -0.5368 -0.2735 0.9748 25 14
3.8980 -0.3767 -0.2717 0.9815 25 14
3.8895 -0.2184 -0.2702 0.9867 25 14
3.8756 -0.0615 -0.2689 0.9844 25 14
3.8783 0.0946 -0.2691 0.9835 25 14
3.8912 0.2518 -0.2705 0.9858 25 14
3.9000 0.4104 -0.2720 0.9802 25 14
3.9089 0.5711 -0.2740 0.9730 25 14
4.0529 0.7598 -0.2861 0.3014 25 14
7.3693 1.6910 -0.5245 0.3721 0 1
7.3779 2.0085 -0.5304 0.3679 0 1
7.3840 2.3331 -0.5372 0.3634 0 1
7.3881 2.6657 -0.5449 0.3583 0 1
7.3901 3.0076 -0.5535 0.3527 0 1
7.3899 3.3601 -0.5631 0.3467 0 1
7.3874 3.7245 -0.5739 0.3402 0 1
7.3733 4.0974 -0.5852 0.3303 0 1
7.3349 4.4714 -0.5959 0.3371 0 1
7.2865 4.8544 -0.6074 0.3307 0 1
7.2337 5.2513 -0.6201 0.3239 0 1
7.1762 5.6640 -0.6342 0.3167 0 1
7.1222 6.1019 -0.6506 0.3085 0 1
7.0239 6.5256 -0.6651 0.3418 0 1
6.9040 6.9521 -0.6797 0.3344 0 1
6.7820 7.4024 -0.6964 0.3206 0 1
6.6635 7.8879 -0.7163 0.3117 0 1
6.6152 8.5023 -0.7473 0.2758 0 2
6.2466 8.7318 -0.7448 0.9750 0 2
6.0887 9.2782 -0.7698 0.2396 0 2
5.9802 9.9651 -0.8062 0.2288 0 2
5.8580 10.7160 -0.8472 0.2177 0 2
5.7194 11.5429 -0.8936 0.2064 0 2
5.5615 12.4605 -0.9466 0.1949 0 2
5.3803 13.4876 -1.0073 0.1831 0 2
5.1706 14.6486 -1.0776 0.1712 0 2
4.9258 15.9753 -1.1597 0.1590 0 2
4.6368 17.5109 -1.2566 0.1468 0 2
4.2910 19.3144 -1.3725 0.1344 0 2
3.8709 21.4695 -1.5134 0.1219 0 2
2.1896 15.7490 -1.1030 0.8177 0 9
2.4786 25.2353 -1.7590 0.9046 0 9
1.3395 23.2012 -1.6121 0.9957 0 20
0.6849 39.2803 -2.7253 0.0755 0 1
-1.0703 46.9280 -3.2562 0.0669 0 1
-29.5939 37.6173 -3.3203 0.9380 0 3
-30.5906 35.8196 -3.2676 0.6311 0 3
-30.4670 32.8976 -3.1105 0.8509 0 3
-30.6426 30.5266 -3.0005 0.6873 0 3
-30.6633 28.1825 -2.8891 0.7138 0 3
-30.6810 26.0016 -2.7899 0.7392 0 3
-30.6962 23.9612 -2.7013 0.7635 0 3
-30.7065 22.0404 -2.6220 0.7865 0 3
-30.3044 19.9551 -2.5171 0.1996 0 3
-30.0623 18.1055 -2.4344 0.2064 0 3
-29.7402 16.3186 -2.3532 0.8963 0 3
-35.6843 17.7514 -2.7648 0.4502 0 3
-39.9050 17.8863 -3.0336 0.8824 0 3
-41.3312 16.5627 -3.0888 0.9628 0 3
-35.6439 -32.9061 -3.3652 0.9423 0 20
-33.8563 -33.8780 -3.3225 0.9552 0 20
-33.4050 -36.2306 -3.4186 0.2133 0 20
-19.7412 -27.4120 -2.3434 0.9902 0 6
-0.9534 -46.3047 -3.2128 0.0515 0 1
0.7585 -38.5972 -2.6780 0.0721 0 1
1.5692 -26.1719 -1.8188 0.8124 0 20
2.7311 -27.1868 -1.8954 0.0973 0 2
3.3823 -23.9391 -1.6771 0.1100 0 2
3.8963 -21.3399 -1.5048 0.1226 0 2
4.1783 -18.6124 -1.3233 0.9811 0 6
4.7022 -17.6004 -1.2638 0.9317 0 2
5.2208 -16.7999 -1.2204 0.1759 0 2
5.3492 -15.0482 -1.1079 0.1457 0 1
5.5310 -13.7766 -1.0298 0.1864 0 1
5.7282 -12.7580 -0.9701 0.1964 0 1
5.9006 -11.8426 -0.9178 0.2091 0 1
6.0544 -11.0174 -0.8721 0.2200 0 1
6.1904 -10.2636 -0.8315 0.2297 0 1
6.3028 -9.5584 -0.7942 0.2339 0 1
6.4007 -8.9054 -0.7608 0.2589 0 1
6.4972 -8.3125 -0.7319 0.2691 0 1
6.5843 -7.7592 -0.7059 0.2790 0 1
6.6751 -7.2534 -0.6838 0.2982 0 1
6.7624 -6.7794 -0.6643 0.2640 0 1
6.8026 -6.2919 -0.6428 0.2728 0 1
6.8376 -5.8319 -0.6234 0.2813 0 1
6.6572 -5.2304 -0.5873 0.3150 0 25
6.6989 -4.8404 -0.5733 0.3226 0 25
6.2962 -4.1745 -0.5240 0.3299 14 6
6.5838 -3.9935 -0.5342 0.5227 14 6
6.8010 -3.7597 -0.5391 0.3431 0 25
6.8284 -3.4237 -0.5299 0.3491 0 25
6.8529 -3.0976 -0.5217 0.3546 0 25
6.8746 -2.7801 -0.5144 0.3596 0 25
6.8954 -2.4707 -0.5081 0.3618 0 2
7.1388 -2.2382 -0.5190 0.3679 0 1
7.1649 -1.9335 -0.5148 0.3722 0 1
7.1900 -1.6331 -0.5115 0.3746 0 1
4.0234 -0.7451 -0.2839 0.3037 25 14
3.9077 -0.5621 -0.2739 0.9736 25 14
3.8993 -0.4016 -0.2719 0.9806 25 14
3.8909 -0.2431 -0.2704 0.9860 25 14
3.8795 -0.0860 -0.2692 0.9833 25 14
3.8745 0.0700 -0.2688 0.9846 25 14
3.8898 0.2271 -0.2703 0.9865 25 14
3.8986 0.3854 -0.2718 0.9812 25 14
3.9075 0.5458 -0.2737 0.9743 25 14
3.9844 0.7210 -0.2809 0.3070 25 14
7.3678 1.6418 -0.5236 0.3727 0 1
7.3766 1.9583 -0.5294 0.3686 0 1
7.3832 2.2817 -0.5361 0.3642 0 1
7.3876 2.6130 -0.5436 0.3591 0 1
7.3900 2.9534 -0.5521 0.3536 0 1
7.3901 3.3041 -0.5616 0.3476 0 1
7.3880 3.6666 -0.5721 0.3412 0 1
7.3762 4.0384 -0.5834 0.3313 0 1
7.3421 4.4125 -0.5942 0.3380 0 1
7.2944 4.7934 -0.6055 0.3318 0 1
7.2423 5.1881 -0.6180 0.3250 0 1
7.1856 5.5982 -0.6319 0.3179 0 1
7.1309 6.0318 -0.6479 0.3098 0 1
7.0421 6.4602 -0.6629 0.3429 0 1
6.9233 6.8841 -0.6773 0.3356 0 1
6.7998 7.3285 -0.6935 0.3220 0 1
6.6827 7.8101 -0.7130 0.3132 0 1
6.6318 8.4136 -0.7432 0.2773 0 2
6.3107 8.7048 -0.7458 0.9736 0 2
1.8969 -26.1187 -2.1085 0.9764 0 20
2.6748 -23.6255 -1.9143 0.1117 0 2
3.2549 -21.1115 -1.7199 0.1244 0 2
3.7254 -19.0410 -1.5621 0.1369 0 2
4.2652 -17.9377 -1.4845 0.8897 0 2
4.6149 -16.4391 -1.3747 0.1280 0 1
4.8547 -14.9535 -1.2658 0.1479 0 1
5.0791 -13.7369 -1.1792 0.1888 0 1
5.3008 -12.7363 -1.1107 0.2004 0 1
5.4958 -11.8384 -1.0509 0.2129 0 1
5.6691 -11.0272 -0.9983 0.2229 0 1
5.8236 -10.2878 -0.9518 0.2338 0 1
5.9548 -9.5972 -0.9094 0.2369 0 1
6.0744 -8.9639 -0.8718 0.2620 0 1
6.1839 -8.3787 -0.8384 0.2724 0 1
6.2827 -7.8324 -0.8084 0.2826 0 1
6.3806 -7.3297 -0.7824 0.3022 0 1
6.4655 -6.8502 -0.7584 0.2681 0 1
6.5165 -6.3701 -0.7337 0.2772 0 1
6.5614 -5.9170 -0.7114 0.2859 0 1
6.4091 -5.3283 -0.6711 0.3205 0 2
6.4563 -4.9421 -0.6546 0.3277 0 25
6.2979 -4.4308 -0.6200 0.7436 14 6
6.2909 -4.0577 -0.6027 0.8801 14 6
6.5758 -3.8761 -0.6146 0.3490 0 25
6.6081 -3.5449 -0.6038 0.3553 0 25
6.6370 -3.2236 -0.5941 0.3611 0 25
6.6628 -2.9110 -0.5854 0.3664 0 25
6.6875 -2.6067 -0.5779 0.3690 0 2
6.8723 -2.3650 -0.5852 0.6528 0 2
6.9482 -2.0826 -0.5840 0.3792 0 1
6.9757 -1.7884 -0.5798 0.3832 0 1
7.0005 -1.4975 -0.5764 0.3855 0 1
3.9051 -0.6723 -0.3190 0.9692 25 14
3.8967 -0.5105 -0.3164 0.9773 25 14
3.8883 -0.3510 -0.3143 0.9837 25 14
3.8800 -0.1933 -0.3128 0.9886 25 14
3.8680 -0.0369 -0.3114 0.9856 25 14
3.8756 0.1190 -0.3122 0.9905 25 14
3.8844 0.2760 -0.3135 0.9863 25 14
3.8932 0.4346 -0.3154 0.9804 25 14
3.9019 0.5953 -0.3178 0.9730 25 14
4.0655 0.7888 -0.3334 0.2999 25 14
7.1677 1.6924 -0.5930 0.3816 0 1
7.1734 2.0016 -0.5996 0.3774 0 1
7.1766 2.3174 -0.6072 0.3729 0 1
7.1773 2.6409 -0.6157 0.3677 0 1
7.1756 2.9732 -0.6254 0.3620 0 1
7.1714 3.3155 -0.6361 0.3559 0 1
7.1626 3.6680 -0.6479 0.3459 0 1
7.1412 4.0276 -0.6601 0.3395 0 1
7.1043 4.3925 -0.6725 0.3464 0 1
7.0526 4.7630 -0.6852 0.3400 0 1
6.9962 5.1465 -0.6993 0.3331 0 1
6.9355 5.5453 -0.7150 0.3256 0 1
6.8775 5.9679 -0.7331 0.3175 0 1
6.7962 6.3943 -0.7513 0.3509 0 1
6.6742 6.8061 -0.7675 0.3435 0 1
6.5492 7.2394 -0.7860 0.3295 0 1
6.4271 7.7062 -0.8079 0.3205 0 1
6.3546 8.2744 -0.8400 0.2849 0 2
6.1782 8.7523 -0.8626 0.9762 0 2
5.8149 8.9840 -0.8616 0.2482 0 2
5.6975 9.6312 -0.9010 0.2374 0 2
5.5657 10.3358 -0.9452 0.2263 0 2
5.4170 11.1081 -0.9950 0.2150 0 2
5.2482 11.9606 -1.0516 0.2034 0 2
5.0554 12.9093 -1.1162 0.1916 0 2
4.8338 13.9745 -1.1905 0.1797 0 2
4.5767 15.1825 -1.2767 0.1675 0 2
4.2756 16.5684 -1.3777 0.1553 0 2
3.9187 18.1795 -1.4973 0.1429 0 2
3.4899 20.0813 -1.6411 0.1303 0 2
2.3781 17.9336 -1.4565 0.1019 0 20
2.2790 24.8102 -2.0060 0.9102 0 9
1.4481 28.1685 -2.2709 0.0300 0 20
0.3892 34.9793 -2.8165 0.0792 0 1
-1.2075 41.4707 -3.3404 0.0699 0 1
-30.2128 37.9094 -3.9030 0.9420 0 3
-30.3174 35.0497 -3.7312 0.5444 0 3
-30.4604 32.4772 -3.5850 0.6671 0 3
-30.4902 29.9940 -3.4436 0.6945 0 3
-30.5160 27.6941 -3.3179 0.7208 0 3
-30.5384 25.5515 -3.2059 0.7460 0 3
-30.2105 23.2768 -3.0706 0.6096 0 3
-30.5716 21.6527 -3.0163 0.7928 0 3
-30.5857 19.8650 -2.9364 0.8144 0 3
-30.5976 18.1659 -2.8650 0.8347 0 3
-31.2266 16.8788 -2.8579 0.5192 0 3
-35.8965 17.5754 -3.2180 0.6056 0 3
-40.2135 17.7209 -3.5382 0.4079 0 3
-42.0010 16.5245 -3.6340 0.2187 0 3
-35.2967 -33.0004 -3.8905 0.9460 0 20
-33.4062 -33.8519 -3.8292 0.8995 0 20
-33.3589 -36.6417 -3.9896 0.3753 0 20
-19.4962 -27.4350 -2.7098 0.9513 0 6
-2.5438 -46.6157 -3.7588 0.0471 0 1
-0.5477 -38.3510 -3.0881 0.0749 0 1
0.8538 -32.8858 -2.6487 0.0843 0 1
1.7318 -26.1243 -2.1080 0.9384 0 20
2.5714 -24.0698 -1.9490 0.1097 0 2
3.1721 -21.4728 -1.7476 0.1224 0 2
3.6576 -19.3413 -1.5848 0.1350 0 2
4.1653 -18.0215 -1.4892 0.8868 0 2
4.5779 -16.7118 -1.3951 0.1261 0 1
4.8220 -15.1782 -1.2822 0.1460 0 1
5.0402 -13.9007 -1.1905 0.1895 0 1
5.2680 -12.8860 -1.1209 0.1986 0 1
5.4666 -11.9728 -1.0597 0.2115 0 1
5.6432 -11.1492 -1.0061 0.2212 0 1
5.8006 -10.3995 -0.9587 0.2321 0 1
5.9366 -9.7040 -0.9159 0.2352 0 1
6.0562 -9.0595 -0.8774 0.2604 0 1
6.1675 -8.4677 -0.8434 0.2708 0 1
6.2679 -7.9157 -0.8129 0.2810 0 1
6.3648 -7.4053 -0.7862 0.3008 0 1
6.4570 -6.9281 -0.7625 0.2667 0 1
6.5089 -6.4435 -0.7374 0.2758 0 1
6.5547 -5.9864 -0.7147 0.2845 0 1
6.5893 -5.5487 -0.6936 0.2865 0 1
6.4490 -5.0014 -0.6571 0.3265 0 25
6.3004 -4.4922 -0.6230 0.5638 14 6
6.2907 -4.1140 -0.6052 0.7618 14 6
6.5704 -3.9290 -0.6164 0.3480 0 25
6.6032 -3.5962 -0.6054 0.3543 0 25
6.6327 -3.2734 -0.5955 0.3602 0 25
6.6589 -2.9595 -0.5867 0.3656 0 25
6.6823 -2.6534 -0.5789 0.3706 0 25
6.8077 -2.3909 -0.5809 0.6575 0 2
6.9440 -2.1291 -0.5848 0.3787 0 1
6.9715 -1.8343 -0.5804 0.3828 0 1
6.9968 -1.5429 -0.5769 0.3852 0 1
3.9064 -0.6979 -0.3195 0.9678 25 14
3.8980 -0.5357 -0.3168 0.9761 25 14
3.8896 -0.3759 -0.3146 0.9828 25 14
3.8813 -0.2179 -0.3130 0.9880 25 14
3.8719 -0.0614 -0.3118 0.9845 25 14
3.8742 0.0945 -0.3120 0.9910 25 14
3.8830 0.2513 -0.3133 0.9870 25 14
3.8918 0.4096 -0.3151 0.9814 25 14
3.9006 0.5699 -0.3174 0.9743 25 14
3.9964 0.7492 -0.3274 0.3054 25 14
7.1666 1.6445 -0.5920 0.3823 0 1
7.1727 1.9527 -0.5985 0.3781 0 1
7.1762 2.2674 -0.6059 0.3736 0 1
7.1773 2.5896 -0.6143 0.3685 0 1
7.1760 2.9205 -0.6238 0.3629 0 1
7.1722 3.2611 -0.6344 0.3569 0 1
7.1656 3.6127 -0.6461 0.3469 0 1
7.1447 3.9704 -0.6581 0.3405 0 1
7.1120 4.3355 -0.6706 0.3474 0 1
7.0610 4.7041 -0.6831 0.3410 0 1
7.0053 5.0855 -0.6970 0.3342 0 1
6.9447 5.4812 -0.7123 0.3270 0 1
6.8870 5.9004 -0.7302 0.3188 0 1
6.8146 6.3311 -0.7489 0.3520 0 1
6.6939 6.7405 -0.7648 0.3446 0 1
6.5675 7.1683 -0.7827 0.3308 0 1
6.4469 7.6315 -0.8043 0.3219 0 1
6.3167 8.1186 -0.8282 0.3127 0 1
6.2421 8.7255 -0.8638 0.9749 0 2
5.8406 8.9001 -0.8571 0.8586 0 2
5.7168 9.5262 -0.8945 0.2391 0 2
5.5874 10.2212 -0.9379 0.2281 0 2
5.4415 10.9821 -0.9868 0.2168 0 2
5.2761 11.8211 -1.0423 0.2052 0 2
5.0874 12.7535 -1.1055 0.1935 0 2
4.8707 13.7988 -1.1782 0.1816 0 2
4.6196 14.9824 -1.2623 0.1694 0 2
4.3261 16.3377 -1.3607 0.1572 0 2
3.9789 17.9096 -1.4771 0.1448 0 2
3.5627 19.7606 -1.6167 0.1323 0 2
1.9331 13.9043 -1.1303 0.6045 0 20
2.4256 24.6953 -1.9979 0.1071 0 2
1.3386 23.1859 -1.8699 0.9950 0 20
0.5955 34.1513 -2.7501 0.0874 0 1
-0.9200 40.3402 -3.2488 0.0719 0 1
-3.0599 48.4754 -3.9107 0.0663 0 1
-30.3797 38.6161 -3.9559 0.6046 0 3
-30.2701 35.4445 -3.7528 0.6239 0 3
-30.4554 32.8850 -3.6087 0.6627 0 3
-30.4858 30.3704 -3.4647 0.6903 0 3
-17.9962 16.5403 -1.9680 0.7609 0 22
-19.4802 16.5091 -2.0559 0.8038 0 6
-30.5548 23.8508 -3.1208 0.7663 0 3
-30.5692 21.9418 -3.0296 0.7894 0 3
-30.5837 20.1390 -2.9483 0.8111 0 3
-30.5959 18.4268 -2.8757 0.8316 0 3
-31.5445 17.3085 -2.8970 0.2017 0 3
-35.6825 17.7505 -3.2088 0.4498 0 3
-35.6309 15.9706 -3.1438 0.9658 0 3
-41.8231 16.7599 -3.6276 0.3768 0 3
-35.5793 -32.8465 -3.8987 0.9440 0 20
-33.7223 -33.7439 -3.8410 0.8967 0 20
-33.0964 -35.8959 -3.9311 0.3808 0 20
-18.1319 -27.4413 -2.6482 0.8225 0 22
-2.9586 -48.5819 -3.9188 0.0479 0 1
-0.8099 -39.3361 -3.1678 0.0730 0 1
0.6610 -33.6375 -2.7088 0.0824 0 1
1.5728 -26.2313 -2.1158 0.6243 0 20
2.4642 -24.5298 -1.9849 0.1078 0 2
3.0865 -21.8453 -1.7763 0.1204 0 2
3.5878 -19.6501 -1.6083 0.1330 0 2
4.0646 -18.1058 -1.4941 0.8840 0 2
4.5906 -17.1825 -1.4320 0.1734 0 2
4.7884 -15.4085 -1.2991 0.1441 0 1
5.0005 -14.0672 -1.2020 0.1877 0 1
5.2345 -13.0382 -1.1312 0.1968 0 1
5.4370 -12.1094 -1.0687 0.2083 0 1
5.6168 -11.2730 -1.0141 0.2194 0 1
5.7771 -10.5127 -0.9658 0.2304 0 1
5.9181 -9.8122 -0.9226 0.2335 0 1
6.0377 -9.1563 -0.8831 0.2587 0 1
6.1508 -8.5577 -0.8485 0.2692 0 1
6.2528 -7.9998 -0.8175 0.2794 0 1
6.3487 -7.4816 -0.7900 0.2993 0 1
6.4476 -7.0062 -0.7666 0.3085 0 1
6.5012 -6.5175 -0.7412 0.2744 0 1
6.5479 -6.0564 -0.7181 0.2832 0 1
6.5859 -5.6172 -0.6969 0.2851 0 1
6.4416 -5.0610 -0.6596 0.3252 0 25
6.4869 -4.6872 -0.6444 0.3329 0 25
6.2920 -4.1717 -0.6078 0.7584 14 6
6.5650 -3.9821 -0.6182 0.3470 0 25
6.5983 -3.6476 -0.6070 0.3534 0 25
6.6283 -3.3234 -0.5970 0.3593 0 25
6.6550 -3.0082 -0.5880 0.3648 0 25
6.6788 -2.7009 -0.5800 0.3698 0 25
6.7441 -2.4164 -0.5768 0.6628 0 2
6.9397 -2.1758 -0.5856 0.3782 0 1
6.9673 -1.8802 -0.5810 0.3824 0 1
6.9930 -1.5884 -0.5774 0.3848 0 1
3.9618 -0.7337 -0.3244 0.3081 25 14
3.8993 -0.5609 -0.3172 0.9749 25 14
3.8909 -0.4008 -0.3149 0.9819 25 14
3.8826 -0.2426 -0.3132 0.9873 25 14
3.8742 -0.0859 -0.3120 0.9911 25 14
3.8712 0.0700 -0.3117 0.9846 25 14
3.8816 0.2266 -0.3131 0.9878 25 14
3.8904 0.3846 -0.3148 0.9824 25 14
3.8992 0.5446 -0.3170 0.9755 25 14
3.9298 0.7111 -0.3215 0.3110 25 14
7.1655 1.5967 -0.5911 0.3829 0 1
7.1719 1.9040 -0.5974 0.3788 0 1
7.1759 2.2176 -0.6047 0.3744 0 1
7.1773 2.5386 -0.6130 0.3694 0 1
7.1764 2.8680 -0.6222 0.3638 0 1
7.1730 3.2070 -0.6326 0.3579 0 1
7.1669 3.5569 -0.6442 0.3514 0 1
7.1482 3.9135 -0.6561 0.3416 0 1
7.1196 4.2788 -0.6688 0.3483 0 1
7.0693 4.6456 -0.6811 0.3420 0 1
7.0144 5.0248 -0.6947 0.3353 0 1
6.9545 5.4181 -0.7098 0.3282 0 1
6.8963 5.8334 -0.7272 0.3201 0 1
6.8329 6.2683 -0.7466 0.3531 0 1
6.7133 6.6753 -0.7622 0.3458 0 1
6.5860 7.0980 -0.7796 0.3381 0 1
6.4664 7.5574 -0.8008 0.3234 0 1
6.3378 8.0405 -0.8243 0.3141 0 1
6.2751 8.6557 -0.8608 0.2780 0 2
1.7559 -24.1775 -2.2224 0.1095 0 2
2.4440 -21.5872 -1.9917 0.1222 0 2
3.0004 -19.4606 -1.8052 0.1348 0 2
3.6254 -18.5302 -1.7310 0.8338 0 2
3.9916 -16.7869 -1.5819 0.1265 0 1
4.2920 -15.2889 -1.4558 0.1527 0 1
4.5479 -14.0086 -1.3503 0.1900 0 1
4.8099 -13.0087 -1.2715 0.1991 0 1
5.0353 -12.0984 -1.2014 0.2108 0 1
5.2360 -11.2788 -1.1400 0.2233 0 1
5.4135 -10.5301 -1.0855 0.2345 0 1
5.5719 -9.8431 -1.0369 0.2454 0 1
5.7133 -9.2081 -0.9935 0.2616 0 1
5.8397 -8.6175 -0.9543 0.2723 0 1
5.9538 -8.0669 -0.9192 0.2827 0 1
6.0578 -7.5520 -0.8876 0.3031 0 1
6.1553 -7.0709 -0.8595 0.2692 0 1
6.2192 -6.5892 -0.8307 0.2785 0 1
6.2760 -6.1351 -0.8046 0.2875 0 1
6.3264 -5.7051 -0.7810 0.2962 0 1
6.3109 -5.2466 -0.7524 0.0931 0 2
6.2549 -4.7880 -0.7222 0.3379 0 25
6.3019 -4.4336 -0.7064 0.3454 0 25
6.3187 -4.0756 -0.6893 0.7608 14 6
6.3829 -3.7624 -0.6793 0.3592 0 25
6.4175 -3.4427 -0.6677 0.3655 0 25
6.4486 -3.1321 -0.6572 0.3713 0 25
6.4763 -2.8296 -0.6479 0.3766 0 25
6.5130 -2.5387 -0.6409 0.8100 0 2
6.7308 -2.3163 -0.6526 0.3860 0 1
6.7605 -2.0263 -0.6470 0.3906 0 1
6.7885 -1.7404 -0.6425 0.3934 0 1
4.2031 -0.8991 -0.3940 0.3241 25 14
3.8966 -0.6709 -0.3625 0.9704 25 14
3.8883 -0.5094 -0.3595 0.9784 25 14
3.8800 -0.3502 -0.3572 0.9849 25 14
3.8717 -0.1929 -0.3554 0.9898 25 14
3.8634 -0.0369 -0.3542 0.9931 25 14
3.8675 0.1187 -0.3547 0.9916 25 14
3.8763 0.2754 -0.3563 0.9874 25 14
3.8850 0.4336 -0.3584 0.9816 25 14
3.8937 0.5940 -0.3611 0.9742 25 14
4.0084 0.7777 -0.3743 0.3039 25 14
6.9752 1.6469 -0.6571 0.3918 0 1
6.9786 1.9472 -0.6642 0.3876 0 1
6.9794 2.2537 -0.6724 0.3830 0 1
6.9774 2.5673 -0.6816 0.3778 0 1
6.9727 2.8891 -0.6919 0.3722 0 1
6.9652 3.2202 -0.7035 0.3661 0 1
6.9501 3.5592 -0.7159 0.3561 0 1
6.9254 3.9059 -0.7289 0.3497 0 1
6.8939 4.2624 -0.7431 0.3566 0 1
6.8399 4.6194 -0.7567 0.3502 0 1
6.7810 4.9882 -0.7717 0.3434 0 1
6.7179 5.3713 -0.7885 0.3358 0 1
6.6563 5.7760 -0.8080 0.3277 0 1
6.5887 6.1991 -0.8294 0.3193 0 1
6.4761 6.6040 -0.8480 0.3536 0 1
6.3472 7.0161 -0.8674 0.3396 0 1
6.2235 7.4621 -0.8908 0.3307 0 1
6.0902 7.9301 -0.9167 0.3214 0 1
6.0069 8.5096 -0.9549 0.2851 0 2
5.7764 8.9246 -0.9746 0.9937 0 2
5.4551 9.2214 -0.9822 0.2477 0 2
5.3178 9.8754 -1.0283 0.2366 0 2
5.1635 10.5884 -1.0800 0.2253 0 2
4.9894 11.3708 -1.1384 0.2137 0 2
4.7916 12.2356 -1.2047 0.2020 0 2
4.5657 13.1993 -1.2804 0.1900 0 2
4.3055 14.2830 -1.3676 0.1779 0 2
4.0035 15.5141 -1.4689 0.1657 0 2
3.6492 16.9291 -1.5877 0.1533 0 2
3.2286 18.5775 -1.7287 0.1408 0 2
1.7942 13.5304 -1.2513 0.8381 0 20
2.0539 22.3594 -2.0585 0.7341 0 6
1.3254 25.7816 -2.3667 0.1028 0 2
0.3435 30.8744 -2.8307 0.0892 0 1
-1.0435 35.8379 -3.2869 0.0781 0 1
-2.9579 42.5848 -3.9135 0.0678 0 1
-30.2110 37.9072 -4.4439 0.6122 0 3
-28.4651 32.9083 -3.9890 0.6178 0 3
-30.2998 32.3060 -4.0606 0.6700 0 3
-33.1988 32.6585 -4.2694 0.7031 0 3
-18.2210 16.5361 -2.2558 0.6892 0 22
-30.3943 25.4309 -3.6332 0.7488 0 3
-30.4179 23.4367 -3.5204 0.7728 0 3
-30.4358 21.5565 -3.4192 0.7956 0 3
-30.4535 19.7791 -3.3291 0.8172 0 3
-30.4685 18.0892 -3.2485 0.8375 0 3
-32.8716 17.7680 -3.4257 0.4793 0 3
-32.9562 16.1358 -3.3640 0.4438 0 3
-40.2112 17.7198 -4.0285 0.4076 0 3
-40.5612 15.9580 -3.9960 0.8155 0 3
-45.7014 15.8888 -4.4358 0.7874 0 3
-35.4097 -33.1060 -4.4441 0.8822 0 20
-33.1986 -33.6416 -4.3331 0.8144 0 20
-32.9582 -36.2016 -4.4883 0.5331 0 20
-19.4833 -27.4168 -3.0835 0.9927 0 6
-4.6338 -48.7577 -4.4901 0.0456 0 1
-2.1451 -39.3079 -3.6090 0.0701 0 1
-0.4772 -33.4173 -3.0639 0.0829 0 1
0.7584 -29.2107 -2.6789 0.0951 0 1
1.6331 -24.6362 -2.2635 0.1075 0 2
2.3459 -21.9588 -2.0246 0.1202 0 2
2.9204 -19.7687 -1.8320 0.1328 0 2
3.5242 -18.6357 -1.7388 0.8034 0 2
3.9422 -17.0563 -1.6049 0.1303 0 1
4.2471 -15.5042 -1.4738 0.1508 0 1
4.5031 -14.1742 -1.3635 0.1882 0 1
4.7718 -13.1603 -1.2834 0.1973 0 1
5.0019 -12.2350 -1.2118 0.2090 0 1
5.2062 -11.4024 -1.1492 0.2215 0 1
5.3870 -10.6432 -1.0936 0.2327 0 1
5.5482 -9.9471 -1.0442 0.2437 0 1
5.6923 -9.3046 -1.0000 0.2599 0 1
5.8208 -8.7073 -0.9602 0.2706 0 1
5.9367 -8.1508 -0.9244 0.2811 0 1
6.0415 -7.6298 -0.8922 0.2912 0 1
6.1446 -7.1492 -0.8642 0.2677 0 1
6.2097 -6.6628 -0.8350 0.2771 0 1
6.2676 -6.2046 -0.8085 0.2861 0 1
6.3189 -5.7710 -0.7845 0.2949 0 1
6.3541 -5.3507 -0.7616 0.2968 0 1
6.2471 -4.8448 -0.7248 0.3367 0 25
6.2948 -4.4883 -0.7088 0.3443 0 25
6.3201 -4.1332 -0.6923 0.7575 14 6
6.3771 -3.8134 -0.6812 0.3582 0 25
6.4123 -3.4922 -0.6694 0.3645 0 25
6.4439 -3.1803 -0.6588 0.3704 0 25
6.4722 -2.8765 -0.6493 0.3758 0 25
6.4985 -2.5804 -0.6410 0.3784 0 2
6.7259 -2.3622 -0.6535 0.3854 0 1
6.7558 -2.0714 -0.6478 0.3902 0 1
6.7843 -1.7850 -0.6431 0.3930 0 1
6.8100 -1.5017 -0.6393 0.3953 0 1
3.8979 -0.6964 -0.3630 0.9690 25 14
3.8896 -0.5345 -0.3599 0.9773 25 14
3.8813 -0.3750 -0.3575 0.9840 25 14
3.8730 -0.2175 -0.3556 0.9891 25 14
3.8647 -0.0613 -0.3544 0.9927 25 14
3.8662 0.0943 -0.3545 0.9922 25 14
3.8749 0.2507 -0.3560 0.9882 25 14
3.8836 0.4087 -0.3580 0.9826 25 14
3.8923 0.5687 -0.3606 0.9754 25 14
3.9414 0.7389 -0.3676 0.3094 25 14
6.9744 1.6004 -0.6560 0.3924 0 1
6.9783 1.8998 -0.6630 0.3883 0 1
6.9795 2.2052 -0.6710 0.3838 0 1
6.9779 2.5177 -0.6801 0.3787 0 1
6.9736 2.8381 -0.6902 0.3731 0 1
6.9666 3.1676 -0.7016 0.3671 0 1
6.9536 3.5058 -0.7139 0.3571 0 1
6.9296 3.8508 -0.7268 0.3508 0 1
6.9017 4.2073 -0.7410 0.3440 0 1
6.8487 4.5627 -0.7544 0.3512 0 1
6.7905 4.9295 -0.7693 0.3445 0 1
6.7272 5.3095 -0.7857 0.3373 0 1
6.6664 5.7114 -0.8048 0.3290 0 1
6.5997 6.1315 -0.8259 0.3206 0 1
6.4958 6.5411 -0.8451 0.3548 0 1
6.3666 6.9490 -0.8640 0.3471 0 1
6.2435 7.3908 -0.8870 0.3321 0 1
6.1118 7.8552 -0.9124 0.3228 0 1
6.0267 8.4243 -0.9496 0.2867 0 2
5.8364 8.8937 -0.9752 0.9930 0 2
5.4753 9.1236 -0.9755 0.2494 0 2
5.3404 9.7692 -1.0207 0.2384 0 2
5.1890 10.4723 -1.0715 0.2271 0 2
5.0181 11.2431 -1.1287 0.2156 0 2
4.8243 12.0940 -1.1937 0.2038 0 2
4.6032 13.0409 -1.2679 0.1919 0 2
4.3489 14.1042 -1.3531 0.1798 0 2
4.0540 15.3101 -1.4520 0.1676 0 2
3.7087 16.6934 -1.5677 0.1552 0 2
3.2996 18.3012 -1.7049 0.1427 0 2
1.8745 13.4826 -1.2479 0.8941 0 20
2.2080 22.4800 -2.0708 0.1175 0 2
1.4597 25.2825 -2.3217 0.1048 0 2
0.5264 30.1892 -2.7681 0.0912 0 1
-0.7975 34.9678 -3.2066 0.0800 0 1
-2.6151 41.4294 -3.8057 0.0697 0 1
-30.2030 38.3914 -4.4783 0.6075 0 3
-30.1105 35.2576 -4.2507 0.9111 0 3
-30.2937 32.7105 -4.0873 0.6656 0 3
-32.7853 32.6612 -4.2426 0.7075 0 3
-17.9996 16.5434 -2.2413 0.7019 0 22
-19.4624 16.4940 -2.3388 0.8274 0 6
-30.2480 23.6112 -3.5179 0.9801 0 3
-30.4328 21.8439 -3.4343 0.7921 0 3
-30.4509 20.0516 -3.3426 0.8139 0 3
-30.4663 18.3488 -3.2605 0.8344 0 3
-30.6841 16.8365 -3.2087 0.6420 0 3
-32.9392 16.3858 -3.3728 0.1968 0 3
-39.5876 17.7441 -3.9772 0.8878 0 3
-45.7509 18.3339 -4.5186 0.9029 0 3
-45.3308 16.0812 -4.4096 0.6594 0 3
-35.7382 -32.9932 -4.4591 0.8792 0 20
-33.6785 -33.7000 -4.3679 0.8976 0 20
-32.8769 -35.6579 -4.4465 0.5381 0 20
-18.1344 -27.4450 -3.0157 0.8063 0 22
-2.4609 -40.4095 -3.7115 0.0699 0 1
-0.7040 -34.1886 -3.1350 0.0802 0 1
0.5856 -29.8018 -2.7327 0.0932 0 1
1.5088 -25.1641 -2.3111 0.0913 0 2
2.2445 -22.3423 -2.0586 0.1182 0 2
2.8378 -20.0855 -1.8597 0.1308 0 2
3.4231 -18.7481 -1.7472 0.7657 0 2
3.8899 -17.3275 -1.6281 0.1285 0 1
4.2011 -15.7246 -1.4922 0.1490 0 1
4.4608 -14.3542 -1.3780 0.1545 0 1
4.7329 -13.3145 -1.2955 0.1955 0 1
4.9677 -12.3737 -1.2224 0.2071 0 1
5.1759 -11.5279 -1.1585 0.2197 0 1
5.3601 -10.7577 -1.1019 0.2310 0 1
5.5242 -10.0524 -1.0516 0.2420 0 1
5.6709 -9.4024 -1.0066 0.2581 0 1
5.8015 -8.7981 -0.9662 0.2690 0 1
5.9193 -8.2356 -0.9298 0.2795 0 1
6.0257 -7.7093 -0.8970 0.2897 0 1
6.1329 -7.2273 -0.8690 0.3096 0 1
6.2000 -6.7371 -0.8394 0.2756 0 1
6.2589 -6.2747 -0.8125 0.2847 0 1
6.3113 -5.8375 -0.7882 0.2935 0 1
6.3498 -5.4158 -0.7651 0.2954 0 1
6.2392 -4.9020 -0.7274 0.3355 0 25
6.2877 -4.5432 -0.7112 0.3431 0 25
6.3215 -4.1913 -0.6954 0.7542 14 6
6.3712 -3.8646 -0.6832 0.3572 0 25
6.4070 -3.5419 -0.6712 0.3636 0 25
6.4392 -3.2286 -0.6604 0.3695 0 25
6.4680 -2.9236 -0.6507 0.3750 0 25
6.4946 -2.6264 -0.6422 0.3772 0 2
6.7210 -2.4082 -0.6545 0.3849 0 1
6.7511 -2.1166 -0.6486 0.3897 0 1
6.7800 -1.8297 -0.6438 0.3926 0 1
6.8062 -1.5459 -0.6399 0.3950 0 1
3.9019 -0.7226 -0.3638 0.3126 25 14
3.8909 -0.5597 -0.3604 0.9761 25 14
3.8826 -0.3999 -0.3578 0.9830 25 14
3.8743 -0.2421 -0.3559 0.9884 25 14
3.8660 -0.0857 -0.3545 0.9922 25 14
3.8648 0.0699 -0.3544 0.9926 25 14
3.8735 0.2261 -0.3557 0.9889 25 14
3.8822 0.3838 -0.3576 0.9836 25 14
3.8909 0.5435 -0.3602 0.9767 25 14
3.8997 0.7057 -0.3633 0.9682 25 14
6.9736 1.5540 -0.6550 0.3930 0 1
6.9778 1.8524 -0.6619 0.3889 0 1
6.9795 2.1569 -0.6697 0.3846 0 1
6.9783 2.4682 -0.6786 0.3795 0 1
6.9745 2.7873 -0.6886 0.3740 0 1
6.9679 3.1153 -0.6997 0.3681 0 1
6.9571 3.4527 -0.7120 0.3580 0 1
6.9336 3.7960 -0.7247 0.3518 0 1
6.9063 4.1506 -0.7387 0.3451 0 1
6.8573 4.5063 -0.7523 0.3523 0 1
6.8000 4.8712 -0.7669 0.3456 0 1
6.7375 5.2491 -0.7830 0.3384 0 1
6.6762 5.6472 -0.8017 0.3303 0 1
6.6106 6.0643 -0.8224 0.3220 0 1
6.5153 6.4785 -0.8423 0.3560 0 1
6.3874 6.8841 -0.8609 0.3483 0 1
6.2633 7.3200 -0.8832 0.3335 0 1
6.1331 7.7809 -0.9083 0.3243 0 1
5.9924 8.2658 -0.9360 0.3147 0 1
1.6105 -22.1755 -2.2871 0.2836 0 2
2.3053 -20.3621 -2.1079 0.5238 0 2
2.9367 -19.0476 -1.9825 0.1576 0 2
3.3451 -17.0972 -1.7920 0.1308 0 1
3.7044 -15.5791 -1.6472 0.1513 0 1
4.0063 -14.2713 -1.5247 0.1886 0 1
4.3079 -13.2692 -1.4350 0.2004 0 1
4.5673 -12.3525 -1.3547 0.2095 0 1
4.7962 -11.5239 -1.2840 0.2226 0 1
4.9992 -10.7687 -1.2213 0.2336 0 1
5.1799 -10.0757 -1.1654 0.2448 0 1
5.3430 -9.4387 -1.1157 0.2570 0 1
5.4895 -8.8472 -1.0710 0.2677 0 1
5.6217 -8.2957 -1.0308 0.2781 0 1
5.7398 -7.7769 -0.9942 0.2929 0 1
5.8440 -7.2855 -0.9607 0.2699 0 1
5.9215 -6.8023 -0.9277 0.2795 0 1
5.9906 -6.3470 -0.8978 0.2888 0 1
6.0523 -5.9163 -0.8706 0.2978 0 1
6.1053 -5.5057 -0.8457 0.2996 0 1
6.1530 -5.1153 -0.8231 0.3404 0 1
6.0658 -4.6432 -0.7858 0.3484 0 2
6.1149 -4.3021 -0.7691 0.3556 0 25
6.1599 -3.9732 -0.7540 0.3627 0 25
6.2006 -3.6549 -0.7404 0.3694 0 25
6.2372 -3.3460 -0.7281 0.3756 0 25
6.2702 -3.0455 -0.7170 0.3814 0 25
6.3021 -2.7535 -0.7074 0.3877 0 2
6.5124 -2.5385 -0.7190 0.8085 0 2
6.5512 -2.2545 -0.7127 0.3962 0 1
6.5823 -1.9729 -0.7068 0.4008 0 1
6.6108 -1.6948 -0.7020 0.4035 0 1
4.1435 -0.8863 -0.4359 0.3284 25 14
3.8839 -0.6687 -0.4054 0.9537 25 14
3.8761 -0.5078 -0.4021 0.9566 25 14
3.8687 -0.3492 -0.3996 0.9628 25 14
3.8611 -0.1924 -0.3977 0.9674 25 14
3.8534 -0.0368 -0.3964 0.9705 25 14
3.8583 0.1184 -0.3971 0.9688 25 14
3.8676 0.2748 -0.3988 0.9645 25 14
3.8767 0.4327 -0.4013 0.9587 25 14
3.8854 0.5928 -0.4043 0.9752 25 14
3.9592 0.7681 -0.4149 0.2854 25 14
6.7924 1.6038 -0.7179 0.4019 0 1
6.7938 1.8956 -0.7255 0.3977 0 1
6.7924 2.1933 -0.7342 0.3931 0 1
6.7880 2.4976 -0.7440 0.3880 0 1
6.7806 2.8095 -0.7550 0.3823 0 1
6.7702 3.1300 -0.7672 0.3762 0 1
6.7495 3.4565 -0.7800 0.3663 0 1
6.7220 3.7912 -0.7938 0.3599 0 1
6.6905 4.1366 -0.8091 0.3531 0 1
6.6392 4.4839 -0.8241 0.3604 0 1
6.5782 4.8391 -0.8400 0.3536 0 1
6.5130 5.2075 -0.8578 0.3460 0 1
6.4485 5.5957 -0.8782 0.3379 0 1
6.3777 6.0006 -0.9008 0.3295 0 1
6.2890 6.4132 -0.9240 0.3638 0 1
6.1583 6.8073 -0.9442 0.3559 0 1
6.0321 7.2325 -0.9688 0.3408 0 1
5.8976 7.6793 -0.9960 0.3315 0 1
5.7522 8.1488 -1.0260 0.3218 0 1
5.6571 8.7402 -1.0709 0.2851 0 2
5.3931 9.1166 -1.0896 0.9962 0 2
5.0906 9.4535 -1.1044 0.2469 0 2
4.9323 10.1143 -1.1575 0.2356 0 2
4.7544 10.8354 -1.2171 0.2241 0 2
4.5535 11.6276 -1.2845 0.2123 0 2
4.3253 12.5044 -1.3610 0.2004 0 2
4.0643 13.4826 -1.4485 0.1883 0 2
3.7635 14.5842 -1.5493 0.1760 0 2
3.4139 15.8377 -1.6665 0.1636 0 2
2.3586 13.5713 -1.4169 0.4885 0 20
1.8018 13.5880 -1.4100 0.5789 0 20
1.9256 20.9636 -2.1655 0.1259 0 2
1.2019 23.3794 -2.4081 0.1132 0 2
0.3076 27.6437 -2.8437 0.1049 0 1
-0.9229 31.6970 -3.2619 0.0921 0 1
-2.5490 36.6987 -3.7841 0.0749 0 1
-4.8188 43.7983 -4.5325 0.0639 0 1
-30.0373 37.6893 -4.9575 0.6151 0 3
-29.0612 33.5974 -4.5694 0.1098 0 3
-30.1405 32.1361 -4.5321 0.6728 0 3
-28.3771 27.9153 -4.0946 0.9730 0 3
-18.2154 16.5310 -2.5303 0.6886 0 22
-19.7520 16.5265 -2.6492 0.7238 0 22
-30.2792 23.3298 -3.9319 0.7755 0 3
-32.0064 22.6689 -4.0344 0.5803 0 3
-30.1744 19.5978 -3.7011 0.6541 0 3
-30.3402 18.0131 -3.6295 0.8401 0 3
-30.1797 16.3129 -3.5289 0.9359 0 3
-34.4570 16.8706 -3.9464 0.1870 0 3
-40.2088 17.7188 -4.5198 0.4072 0 3
-44.9571 17.6875 -4.9695 0.3703 0 3
-45.7738 15.9140 -4.9849 0.8385 0 3
-35.3657 -33.0649 -4.9802 0.8823 0 20
-33.1733 -33.6159 -4.8581 0.8141 0 20
-32.7500 -35.9729 -5.0041 0.5345 0 20
-3.8383 -40.3876 -4.1731 0.0673 0 1
-1.8642 -34.1618 -3.5192 0.0787 0 1
-0.4226 -29.5922 -3.0443 0.0891 0 1
0.6815 -26.2487 -2.7010 0.1066 0 1
1.5037 -22.6844 -2.3385 0.2272 0 2
2.1989 -20.5829 -2.1293 0.5185 0 2
2.8537 -19.3173 -2.0086 0.1545 0 2
3.2839 -17.3651 -1.8179 0.1290 0 1
3.6512 -15.7975 -1.6678 0.1494 0 1
3.9621 -14.4639 -1.5426 0.1547 0 1
4.2632 -13.4191 -1.4483 0.1986 0 1
4.5290 -12.4906 -1.3667 0.2077 0 1
4.7620 -11.6483 -1.2945 0.2208 0 1
4.9690 -10.8828 -1.2306 0.2318 0 1
5.1529 -10.1805 -1.1737 0.2430 0 1
5.3186 -9.5354 -1.1231 0.2553 0 1
5.4675 -8.9372 -1.0777 0.2660 0 1
5.6018 -8.3797 -1.0368 0.2765 0 1
5.7221 -7.8562 -0.9997 0.2913 0 1
5.8311 -7.3641 -0.9662 0.2684 0 1
5.9099 -6.8761 -0.9327 0.2780 0 1
5.9803 -6.4166 -0.9023 0.2874 0 1
6.0430 -5.9823 -0.8747 0.2964 0 1
6.0990 -5.5702 -0.8496 0.3052 0 1
6.1445 -5.1741 -0.8263 0.3391 0 1
6.0577 -4.6979 -0.7885 0.3472 0 2
6.1075 -4.3547 -0.7716 0.3545 0 25
6.1531 -4.0240 -0.7563 0.3616 0 25
6.1945 -3.7041 -0.7424 0.3684 0 25
6.2317 -3.3939 -0.7299 0.3747 0 25
6.2653 -3.0921 -0.7187 0.3806 0 25
6.2972 -2.7987 -0.7088 0.3870 0 2
6.4671 -2.5679 -0.7158 0.8122 0 2
6.5463 -2.2991 -0.7137 0.3956 0 1
6.5775 -2.0168 -0.7077 0.4003 0 1
6.6065 -1.7382 -0.7027 0.4031 0 1
4.2071 -0.9277 -0.4432 0.3230 25 14
3.8853 -0.6942 -0.4060 0.9523 25 14
3.8772 -0.5328 -0.4026 0.9556 25 14
3.8699 -0.3739 -0.3999 0.9619 25 14
3.8623 -0.2169 -0.3979 0.9667 25 14
3.8546 -0.0611 -0.3966 0.9701 25 14
3.8569 0.0940 -0.3968 0.9694 25 14
3.8662 0.2502 -0.3985 0.9653 25 14
3.8753 0.4078 -0.4008 0.9597 25 14
3.8841 0.5675 -0.4038 0.9765 25 14
3.8927 0.7298 -0.4074 0.9678 25 14
6.7919 1.5585 -0.7168 0.4025 0 1
6.7938 1.8495 -0.7243 0.3984 0 1
6.7928 2.1463 -0.7328 0.3939 0 1
6.7888 2.4495 -0.7424 0.3888 0 1
6.7820 2.7601 -0.7532 0.3832 0 1
6.7721 3.0791 -0.7652 0.3772 0 1
6.7534 3.4049 -0.7780 0.3673 0 1
6.7265 3.7380 -0.7916 0.3610 0 1
6.6957 4.0817 -0.8066 0.3542 0 1
6.6483 4.4292 -0.8217 0.3614 0 1
6.5881 4.7826 -0.8374 0.3547 0 1
6.5226 5.1481 -0.8547 0.3472 0 1
6.4591 5.5338 -0.8749 0.3392 0 1
6.3893 5.9360 -0.8971 0.3308 0 1
6.3087 6.3527 -0.9209 0.3649 0 1
6.1793 6.7446 -0.9409 0.3572 0 1
6.0523 7.1644 -0.9647 0.3422 0 1
5.9193 7.6079 -0.9915 0.3330 0 1
5.7758 8.0736 -1.0211 0.3233 0 1
5.6791 8.6542 -1.0648 0.2867 0 2
5.4527 9.0860 -1.0900 0.9958 0 2
5.1138 9.3548 -1.0967 0.2487 0 2
4.9583 10.0069 -1.1488 0.2374 0 2
4.7837 10.7179 -1.2073 0.2259 0 2
4.5867 11.4982 -1.2734 0.2142 0 2
4.3630 12.3607 -1.3484 0.2023 0 2
4.1076 13.3217 -1.4340 0.1902 0 2
3.8136 14.4024 -1.5325 0.1780 0 2
3.4724 15.6298 -1.6469 0.1656 0 2
3.0723 17.0402 -1.7811 0.1531 0 2
1.8790 13.5151 -1.4036 0.8445 0 20
2.0259 20.6259 -2.1319 0.1279 0 2
1.3293 23.0239 -2.3723 0.0997 0 2
0.4722 27.0824 -2.7862 0.1023 0 1
-0.7072 31.0082 -3.1905 0.0941 0 1
-2.2582 35.7744 -3.6872 0.0780 0 1
-4.4072 42.5226 -4.3975 0.0675 0 1
-29.8299 37.9172 -4.9626 0.3011 0 3
-28.3480 33.1938 -4.4901 0.6065 0 3
-28.4859 30.7585 -4.3124 0.2755 0 3
-32.7842 32.6601 -4.7602 0.7068 0 3
-17.9952 16.5393 -2.5141 0.7013 0 22
-32.6428 27.6642 -4.4014 0.6482 0 3
-29.3480 22.9088 -3.8297 0.4548 0 3
-30.2974 21.7467 -3.8362 0.7948 0 3
-30.1686 19.8657 -3.7156 0.8326 0 3
-30.3375 18.2712 -3.6429 0.8370 0 3
-32.3859 17.7703 -3.7999 0.4843 0 3
-34.8442 17.3335 -4.0032 0.1861 0 3
-35.6052 15.9591 -4.0136 0.8380 0 3
-44.5380 17.8478 -4.9355 0.9055 0 3
-46.2036 16.3908 -5.0429 0.2010 0 3
-35.6937 -32.9521 -4.9970 0.8793 0 20
-33.5352 -33.5566 -4.8800 0.8105 0 20
-32.6671 -35.4304 -4.9572 0.5396 0 20
-19.7685 -27.4499 -3.4796 0.8497 0 22
-18.1412 -27.4553 -3.3850 0.8548 0 22
-4.2220 -41.6351 -4.3047 0.0642 0 1
-2.1332 -35.0286 -3.6099 0.0792 0 1
-0.6221 -30.2110 -3.1083 0.0873 0 1
0.5252 -26.7281 -2.7499 0.1036 0 1
1.4049 -23.4320 -2.4146 0.1186 0 2
2.0904 -20.8083 -2.1512 0.5132 0 2
2.7684 -19.5943 -2.0356 0.1525 0 2
3.2208 -17.6403 -1.8445 0.1271 0 1
3.5966 -16.0210 -1.6890 0.1475 0 1
3.9192 -14.6696 -1.5619 0.1528 0 1
4.2176 -13.5716 -1.4619 0.1967 0 1
4.4899 -12.6310 -1.3789 0.2058 0 1
4.7272 -11.7746 -1.3051 0.2190 0 1
4.9382 -10.9984 -1.2401 0.2300 0 1
5.1254 -10.2868 -1.1822 0.2413 0 1
5.2937 -9.6330 -1.1306 0.2540 0 1
5.4452 -9.0281 -1.0845 0.2644 0 1
5.5816 -8.4647 -1.0430 0.2749 0 1
5.7041 -7.9362 -1.0053 0.2897 0 1
5.8175 -7.4429 -0.9717 0.3103 0 1
5.8981 -6.9506 -0.9377 0.2765 0 1
5.9698 -6.4869 -0.9068 0.2859 0 1
6.0337 -6.0489 -0.8788 0.2950 0 1
6.0907 -5.6335 -0.8534 0.3038 0 1
6.1359 -5.2334 -0.8296 0.3378 0 1
6.0494 -4.7529 -0.7914 0.3460 0 2
6.0999 -4.4076 -0.7741 0.3533 0 25
6.1463 -4.0751 -0.7586 0.3605 0 25
6.1883 -3.7536 -0.7445 0.3674 0 25
6.2262 -3.4419 -0.7318 0.3737 0 25
6.2602 -3.1389 -0.7204 0.3797 0 25
6.2922 -2.8441 -0.7103 0.3861 0 2
6.4255 -2.5985 -0.7130 0.8686 0 2
6.5412 -2.3438 -0.7147 0.3950 0 1
6.5727 -2.0607 -0.7085 0.3998 0 1
6.6022 -1.7817 -0.7034 0.4027 0 1
4.2729 -0.9705 -0.4507 0.3176 25 14
3.8868 -0.7198 -0.4066 0.9509 25 14
3.8784 -0.5579 -0.4031 0.9544 25 14
3.8710 -0.3987 -0.4003 0.9610 25 14
3.8635 -0.2414 -0.3982 0.9661 25 14
3.8559 -0.0855 -0.3967 0.9696 25 14
3.8554 0.0697 -0.3966 0.9698 25 14
3.8647 0.2256 -0.3982 0.9660 25 14
3.8739 0.3830 -0.4004 0.9607 25 14
3.8827 0.5423 -0.4033 0.9777 25 14
3.8913 0.7042 -0.4068 0.9692 25 14
6.7914 1.5134 -0.7157 0.4031 0 1
6.7936 1.8036 -0.7230 0.3991 0 1
6.7932 2.0994 -0.7314 0.3947 0 1
6.7897 2.4015 -0.7408 0.3896 0 1
6.7832 2.7109 -0.7514 0.3842 0 1
6.7738 3.0285 -0.7633 0.3782 0 1
6.7573 3.3536 -0.7760 0.3682 0 1
6.7310 3.6851 -0.7894 0.3620 0 1
6.7008 4.0271 -0.8042 0.3553 0 1
6.6573 4.3748 -0.8194 0.3625 0 1
6.5979 4.7265 -0.8349 0.3558 0 1
6.5332 5.0899 -0.8519 0.3486 0 1
6.4694 5.4723 -0.8716 0.3405 0 1
6.4007 5.8717 -0.8935 0.3322 0 1
6.3252 6.2894 -0.9175 0.3235 0 1
6.2002 6.6822 -0.9377 0.3584 0 1
6.0722 7.0967 -0.9607 0.3436 0 1
5.9409 7.5369 -0.9872 0.3345 0 1
5.7990 7.9990 -1.0163 0.3249 0 1
1.5544 -21.4024 -2.4479 0.1365 0 2
2.1715 -19.1803 -2.2020 0.1207 0 1
2.6796 -17.3802 -2.0061 0.1289 0 1
3.1059 -15.8750 -1.8453 0.1530 0 1
3.4612 -14.5561 -1.7068 0.1617 0 1
3.7931 -13.5118 -1.6010 0.1990 0 1
4.0902 -12.5986 -1.5110 0.2080 0 1
4.3483 -11.7604 -1.4303 0.2213 0 1
4.5783 -11.0004 -1.3592 0.2325 0 1
4.7824 -10.3017 -1.2956 0.2439 0 1
4.9658 -9.6592 -1.2390 0.2568 0 1
5.1317 -9.0653 -1.1883 0.2673 0 1
5.2807 -8.5107 -1.1426 0.2780 0 1
5.4156 -7.9916 -1.1013 0.2884 0 1
5.5384 -7.5041 -1.0639 0.3012 0 1
5.6304 -7.0193 -1.0265 0.3040 0 1
5.7107 -6.5602 -0.9922 0.3145 0 1
5.7829 -6.1269 -0.9611 0.3247 0 1
5.8477 -5.7164 -0.9329 0.3345 0 1
5.9084 -5.3282 -0.9076 0.3420 0 1
5.9679 -4.9615 -0.8853 0.3506 0 1
5.9243 -4.5349 -0.8511 0.6252 0 2
5.9388 -4.1782 -0.8283 0.3672 0 2
5.9860 -3.8610 -0.8126 0.3703 0 2
6.0284 -3.5534 -0.7983 0.3766 0 2
6.0671 -3.2548 -0.7854 0.3890 0 2
6.1009 -2.9633 -0.7737 0.3905 0 2
6.2709 -2.7398 -0.7807 0.9245 0 2
6.3469 -2.4740 -0.7771 0.4024 0 1
6.3808 -2.1959 -0.7698 0.4076 0 1
6.4129 -1.9221 -0.7637 0.4109 0 1
6.4418 -1.6515 -0.7586 0.4136 0 1
4.0854 -0.8739 -0.4766 0.3327 25 14
3.8703 -0.6663 -0.4480 0.9559 25 14
3.8613 -0.5058 -0.4442 0.9640 25 14
3.8539 -0.3479 -0.4414 0.9653 25 14
3.8464 -0.1917 -0.4393 0.9699 25 14
3.8388 -0.0367 -0.4379 0.9730 25 14
3.8438 0.1180 -0.4387 0.9713 25 14
3.8529 0.2737 -0.4406 0.9670 25 14
3.8619 0.4311 -0.4433 0.9612 25 14
3.8708 0.5905 -0.4467 0.9539 25 14
3.9119 0.7590 -0.4546 0.2885 25 14
6.6185 1.5627 -0.7758 0.4120 0 1
6.6181 1.8466 -0.7838 0.4078 0 1
6.6148 2.1360 -0.7929 0.4032 0 1
6.6081 2.4315 -0.8032 0.3981 0 1
6.5984 2.7340 -0.8148 0.3924 0 1
6.5854 3.0446 -0.8276 0.3863 0 1
6.5597 3.3593 -0.8407 0.3765 0 1
6.5297 3.6827 -0.8552 0.3701 0 1
6.4955 4.0161 -0.8712 0.3633 0 1
6.4496 4.3558 -0.8878 0.3706 0 1
6.3868 4.6983 -0.9045 0.3637 0 1
6.3199 5.0531 -0.9231 0.3561 0 1
6.2529 5.4259 -0.9444 0.3481 0 1
6.1794 5.8140 -0.9679 0.3397 0 1
6.0989 6.2194 -0.9937 0.3308 0 1
5.9813 6.6117 -1.0171 0.3660 0 1
5.8517 7.0162 -1.0422 0.3509 0 1
5.7164 7.4434 -1.0706 0.3416 0 1
5.5703 7.8911 -1.1019 0.3319 0 1
5.4124 8.3621 -1.1363 0.3218 0 1
5.3042 8.9663 -1.1884 0.2845 0 2
5.0262 9.3339 -1.2093 0.9934 0 2
4.7204 9.6798 -1.2285 0.2459 0 2
4.5402 10.3470 -1.2890 0.2344 0 2
4.3375 11.0759 -1.3569 0.2226 0 2
4.1084 11.8775 -1.4337 0.2107 0 2
3.8481 12.7656 -1.5210 0.1986 0 2
3.5502 13.7577 -1.6208 0.1864 0 2
3.2067 14.8764 -1.7360 0.1740 0 2
2.3484 13.5127 -1.5646 0.6957 0 20
1.8194 13.7201 -1.5788 0.2235 0 20
1.7765 19.3398 -2.2155 0.1364 0 2
1.1592 22.5497 -2.5758 0.1239 0 2
0.2786 25.0381 -2.8564 0.1140 0 1
-0.8273 28.4139 -3.2427 0.1019 0 1
-2.2421 32.2796 -3.6912 0.0920 0 1
-4.1333 37.5670 -4.3114 0.0711 0 1
-6.7810 44.9221 -5.1826 0.0639 0 1
-29.8652 37.4733 -5.4663 0.6179 0 3
-29.7329 31.7015 -4.9581 0.5014 0 3
-29.1584 28.6839 -4.6659 0.7029 0 3
-18.2098 16.5259 -2.8052 0.7260 0 22
-19.7499 16.5247 -2.9376 0.6892 0 22
-30.1414 23.2236 -4.3406 0.7781 0 3
-32.0051 22.6680 -4.4740 0.5797 0 3
-34.8724 22.6491 -4.7435 0.5467 0 3
-30.2127 17.9374 -4.0082 0.8426 0 3
-32.8683 17.7662 -4.2622 0.4783 0 3
-36.2407 17.7439 -4.6031 0.4428 0 3
-36.4614 16.0674 -4.5453 0.4067 0 3
-40.5451 15.9517 -4.9703 0.8205 0 3
-26.3604 -17.6820 -3.6209 0.9081 15 6
-35.5152 -33.2047 -5.5463 0.7899 0 20
-32.9313 -33.3706 -5.3483 0.7029 0 20
-32.4972 -35.6952 -5.5067 0.6744 0 20
-17.8838 -27.4406 -3.7364 0.8578 0 22
-5.6468 -41.5769 -4.7865 0.0622 0 1
-3.3254 -34.9907 -4.0096 0.0794 0 1
-1.6415 -30.0805 -3.4366 0.0853 0 1
-0.3777 -26.4499 -3.0176 0.0986 0 1
0.6190 -23.8437 -2.7209 0.1095 0 1
1.4414 -21.7438 -2.4859 0.1335 0 2
2.1194 -19.8388 -2.2760 0.0904 0 1
2.6076 -17.6512 -2.0354 0.1270 0 1
3.0452 -16.1031 -1.8695 0.1511 0 1
3.4087 -14.7480 -1.7267 0.1598 0 1
3.7428 -13.6632 -1.6161 0.1971 0 1
4.0469 -12.7382 -1.5247 0.2062 0 1
4.3097 -11.8860 -1.4423 0.2195 0 1
4.5441 -11.1152 -1.3698 0.2311 0 1
4.7519 -10.4074 -1.3051 0.2421 0 1
4.9381 -9.7562 -1.2474 0.2551 0 1
5.1069 -9.1558 -1.1959 0.2656 0 1
5.2583 -8.5952 -1.1494 0.2763 0 1
5.3953 -8.0708 -1.1075 0.2868 0 1
5.5196 -7.5782 -1.0695 0.2970 0 1
5.6171 -7.0938 -1.0322 0.3023 0 1
5.6987 -6.6304 -0.9973 0.3129 0 1
5.7721 -6.1933 -0.9658 0.3231 0 1
5.8380 -5.7793 -0.9371 0.3330 0 1
5.8986 -5.3871 -0.9113 0.3406 0 1
5.9590 -5.0179 -0.8887 0.3492 0 1
5.9461 -4.6113 -0.8584 0.5401 0 2
5.9315 -4.2292 -0.8310 0.3674 0 2
5.9789 -3.9101 -0.8150 0.3692 0 2
6.0220 -3.6010 -0.8004 0.3755 0 2
6.0613 -3.3010 -0.7873 0.3880 0 2
6.0958 -3.0084 -0.7755 0.3897 0 2
6.2390 -2.7729 -0.7788 0.9268 0 2
6.3413 -2.5180 -0.7783 0.4018 0 1
6.3756 -2.2391 -0.7709 0.4057 0 1
6.4081 -1.9648 -0.7646 0.4104 0 1
6.4375 -1.6937 -0.7594 0.4132 0 1
4.1472 -0.9145 -0.4845 0.3273 25 14
3.8717 -0.6918 -0.4487 0.9545 25 14
3.8627 -0.5308 -0.4448 0.9628 25 14
3.8550 -0.3725 -0.4418 0.9644 25 14
3.8476 -0.2161 -0.4396 0.9693 25 14
3.8400 -0.0609 -0.4381 0.9726 25 14
3.8423 0.0937 -0.4384 0.9719 25 14
3.8515 0.2492 -0.4403 0.9678 25 14
3.8605 0.4063 -0.4428 0.9622 25 14
3.8695 0.5654 -0.4461 0.9552 25 14
3.8796 0.7273 -0.4503 0.9511 25 14
4.2729 0.9805 -0.5001 0.3171 25 14
6.6184 1.8018 -0.7825 0.4084 0 1
6.6155 2.0902 -0.7914 0.4040 0 1
6.6094 2.3847 -0.8015 0.3989 0 1
6.6001 2.6861 -0.8129 0.3933 0 1
6.5877 2.9953 -0.8255 0.3873 0 1
6.5640 3.3094 -0.8386 0.3774 0 1
6.5347 3.6314 -0.8528 0.3711 0 1
6.5012 3.9631 -0.8686 0.3644 0 1
6.4590 4.3031 -0.8854 0.3716 0 1
6.3970 4.6439 -0.9018 0.3648 0 1
6.3299 4.9959 -0.9199 0.3574 0 1
6.2638 5.3665 -0.9409 0.3494 0 1
6.1914 5.7521 -0.9641 0.3410 0 1
6.1120 6.1546 -0.9895 0.3322 0 1
6.0023 6.5514 -1.0136 0.3673 0 1
5.8720 6.9509 -1.0380 0.3523 0 1
5.7383 7.3751 -1.0660 0.3431 0 1
5.5940 7.8195 -1.0968 0.3334 0 1
5.4380 8.2866 -1.1307 0.3234 0 1
5.3289 8.8797 -1.1814 0.2862 0 2
5.0832 9.2987 -1.2089 0.9938 0 2
4.7469 9.5802 -1.2197 0.2477 0 2
4.5698 10.2386 -1.2790 0.2362 0 2
4.3709 10.9572 -1.3457 0.2245 0 2
4.1463 11.7466 -1.4210 0.2126 0 2
3.8912 12.6200 -1.5065 0.2005 0 2
3.5997 13.5945 -1.6043 0.1883 0 2
3.2640 14.6916 -1.7168 0.1760 0 2
2.4624 13.6576 -1.5831 0.2467 0 20
1.8852 13.5598 -1.5617 0.6783 0 20
1.8712 19.0511 -2.1837 0.1383 0 2
1.2146 21.0369 -2.4038 0.1256 0 2
0.4283 24.5615 -2.8023 0.1126 0 1
-0.6351 27.8458 -3.1774 0.1040 0 1
-1.9966 31.6309 -3.6155 0.0950 0 1
-3.7919 36.5860 -4.1959 0.0745 0 1
-6.3048 43.6301 -5.0288 0.0650 0 1
-29.8546 37.9486 -5.5081 0.6132 0 3
-28.1177 32.9241 -4.9391 0.9566 0 3
-29.7252 32.0966 -4.9905 0.6176 0 3
-29.6929 29.5805 -4.7812 0.1163 0 3
-17.9907 16.5352 -2.7875 0.7006 0 22
-32.6416 27.6631 -4.8810 0.6474 0 3
-30.1367 23.5244 -4.3612 0.7745 0 3
-30.0136 21.5431 -4.2145 0.6962 0 3
-34.4002 22.6522 -4.6986 0.5519 0 3
-30.2096 18.1942 -4.0229 0.8395 0 3
-32.3843 17.7694 -4.2139 0.4837 0 3
-35.6768 17.7477 -4.5456 0.4484 0 3
-36.5219 16.3699 -4.5656 0.1807 0 3
-44.3644 17.7782 -5.4521 0.9079 0 3
-35.8989 -33.1415 -5.5735 0.7860 0 20
-33.3520 -33.3733 -5.3823 0.6984 0 20
-32.5103 -35.2603 -5.4711 0.6788 0 20
-19.7819 -27.4685 -3.8615 0.8161 0 22
-18.1270 -27.4338 -3.7510 0.9037 0 22
-6.1055 -42.9228 -4.9457 0.0611 0 1
-3.6365 -35.8607 -4.1118 0.0770 0 1
-1.8748 -30.7852 -3.5184 0.0834 0 1
-0.5546 -26.9359 -3.0734 0.0968 0 1
0.4761 -24.2295 -2.7645 0.1087 0 1
1.3249 -22.0973 -2.5253 0.1306 0 2
2.0125 -20.0331 -2.2968 0.1486 0 2
2.5332 -17.9298 -2.0657 0.1251 0 1
2.9827 -16.3359 -1.8943 0.1693 0 1
3.3548 -14.9441 -1.7472 0.1580 0 1
3.6915 -13.8171 -1.6315 0.1953 0 1
4.0019 -12.8776 -1.5383 0.2071 0 1
4.2704 -12.0134 -1.4545 0.2177 0 1
4.5091 -11.2315 -1.3806 0.2293 0 1
4.7209 -10.5145 -1.3148 0.2403 0 1
4.9100 -9.8544 -1.2560 0.2533 0 1
5.0817 -9.2473 -1.2037 0.2638 0 1
5.2356 -8.6805 -1.1564 0.2746 0 1
5.3747 -8.1508 -1.1138 0.2851 0 1
5.5009 -7.6535 -1.0752 0.2954 0 1
5.6034 -7.1690 -1.0380 0.3007 0 1
5.6865 -6.7012 -1.0026 0.3113 0 1
5.7611 -6.2602 -0.9705 0.3216 0 1
5.8281 -5.8428 -0.9414 0.3315 0 1
5.8890 -5.4469 -0.9151 0.3442 0 1
5.9499 -5.0748 -0.8921 0.3479 0 1
5.9739 -4.6936 -0.8667 0.5330 0 2
5.9232 -4.2799 -0.8336 0.3663 0 2
5.9717 -3.9594 -0.8174 0.3681 0 2
9.3869 -5.6938 -1.2524 0.5256 0 1
6.0551 -3.3474 -0.7893 0.3842 0 2
6.0905 -3.0538 -0.7772 0.3888 0 2
6.2086 -2.8064 -0.7772 0.9588 0 2
6.3356 -2.5621 -0.7796 0.4011 0 1
6.3705 -2.2826 -0.7720 0.4051 0 1
6.4032 -2.0076 -0.7655 0.4099 0 1
6.4331 -1.7360 -0.7601 0.4128 0 1
4.2111 -0.9565 -0.4926 0.3219 25 14
3.8731 -0.7172 -0.4493 0.9531 25 14
3.8641 -0.5559 -0.4453 0.9616 25 14
3.8562 -0.3972 -0.4422 0.9635 25 14
3.8488 -0.2405 -0.4399 0.9686 25 14
3.8412 -0.0851 -0.4383 0.9722 25 14
3.8408 0.0694 -0.4382 0.9724 25 14
3.8501 0.2247 -0.4399 0.9685 25 14
3.8591 0.3815 -0.4424 0.9632 25 14
3.8681 0.5403 -0.4455 0.9564 25 14
3.8780 0.7017 -0.4496 0.9526 25 14
4.2056 0.9372 -0.4915 0.3227 25 14
6.6185 1.7571 -0.7812 0.4091 0 1
6.6162 2.0446 -0.7900 0.4046 0 1
6.6105 2.3381 -0.7999 0.3997 0 1
6.6018 2.6384 -0.8110 0.3942 0 1
6.5899 2.9463 -0.8235 0.3883 0 1
6.5682 3.2597 -0.8365 0.3784 0 1
6.5395 3.5803 -0.8505 0.3721 0 1
6.5067 3.9104 -0.8660 0.3655 0 1
6.4682 4.2506 -0.8829 0.3726 0 1
6.4071 4.5897 -0.8991 0.3659 0 1
6.3405 4.9398 -0.9169 0.3588 0 1
6.2746 5.3075 -0.9375 0.3507 0 1
6.2032 5.6906 -0.9603 0.3423 0 1
6.1250 6.0903 -0.9853 0.3336 0 1
6.0232 6.4915 -1.0102 0.3685 0 1
5.8921 6.8861 -1.0339 0.3537 0 1
5.7599 7.3074 -1.0614 0.3445 0 1
5.6173 7.7484 -1.0918 0.3350 0 1
1.4086 -19.3949 -2.4369 0.1197 0 1
1.9969 -17.6382 -2.2245 0.1275 0 1
2.4917 -16.1616 -2.0492 0.1717 0 1
2.9051 -14.8484 -1.8960 0.1634 0 1
3.2692 -13.7486 -1.7710 0.2007 0 1
3.6010 -12.8275 -1.6696 0.2093 0 1
3.8921 -11.9885 -1.5795 0.2199 0 1
4.1495 -11.2227 -1.4994 0.2316 0 1
4.3786 -10.5206 -1.4280 0.2427 0 1
4.5832 -9.8725 -1.3640 0.2559 0 1
4.7689 -9.2763 -1.3071 0.2670 0 1
4.9359 -8.7195 -1.2556 0.2775 0 1
5.0867 -8.1981 -1.2090 0.2882 0 1
5.2236 -7.7083 -1.1669 0.2986 0 1
5.3488 -7.2473 -1.1288 0.3033 0 1
5.4419 -6.7842 -1.0899 0.3141 0 1
5.5257 -6.3477 -1.0546 0.3246 0 1
5.6012 -5.9345 -1.0226 0.3348 0 1
5.6692 -5.5419 -0.9935 0.3446 0 1
5.7338 -5.1707 -0.9676 0.3572 0 1
5.7933 -4.8162 -0.9441 0.3607 0 1
5.8494 -4.4776 -0.9231 0.3689 0 1
5.8721 -4.1313 -0.8997 0.7590 0 2
5.8679 -3.7849 -0.8750 0.8228 0 2
5.9071 -3.4819 -0.8593 0.9129 0 2
5.9820 -3.2091 -0.8507 0.9674 0 2
6.1037 -2.9646 -0.8503 0.9740 0 2
6.1461 -2.6853 -0.8405 0.4085 0 1
6.1840 -2.4105 -0.8317 0.4125 0 1
6.2190 -2.1402 -0.8242 0.4177 0 1
6.2516 -1.8737 -0.8179 0.4209 0 1
6.2808 -1.6102 -0.8125 0.4237 0 1
4.0289 -0.8618 -0.5163 0.3369 25 14
3.8568 -0.6640 -0.4904 0.9580 25 14
3.8479 -0.5041 -0.4863 0.9661 25 14
3.8391 -0.3465 -0.4831 0.9677 25 14
3.8317 -0.1909 -0.4808 0.9723 25 14
3.8242 -0.0365 -0.4793 0.9754 25 14
3.8292 0.1175 -0.4801 0.9737 25 14
3.8383 0.2727 -0.4822 0.9694 25 14
3.8472 0.4294 -0.4851 0.9636 25 14
3.8575 0.5885 -0.4890 0.9608 25 14
3.8678 0.7504 -0.4937 0.9516 25 14
4.2846 1.0117 -0.5517 0.3154 25 14
6.4509 1.8000 -0.8393 0.4178 0 1
6.4458 2.0814 -0.8488 0.4132 0 1
6.4372 2.3686 -0.8596 0.4081 0 1
6.4253 2.6623 -0.8716 0.4025 0 1
6.4078 2.9625 -0.8847 0.3925 0 1
6.3798 3.2672 -0.8982 0.3866 0 1
6.3477 3.5800 -0.9133 0.3802 0 1
6.3111 3.9021 -0.9299 0.3734 0 1
6.2699 4.2344 -0.9481 0.3662 0 1
6.2058 4.5651 -0.9654 0.3738 0 1
6.1375 4.9072 -0.9847 0.3662 0 1
6.0683 5.2658 -1.0069 0.3582 0 1
5.9926 5.6383 -1.0311 0.3498 0 1
5.9098 6.0265 -1.0577 0.3410 0 1
5.8138 6.4265 -1.0860 0.3761 0 1
5.6813 6.8119 -1.1116 0.3609 0 1
5.5455 7.2210 -1.1410 0.3516 0 1
5.3992 7.6487 -1.1733 0.3420 0 1
5.2385 8.0935 -1.2082 0.3251 0 1
5.0708 8.5718 -1.2481 0.3067 0 1
4.9478 9.1883 -1.3078 0.2837 0 2
4.6668 9.5697 -1.3342 0.9756 0 2
4.3439 9.8998 -1.3548 0.2446 0 2
4.1405 10.5731 -1.4230 0.2329 0 2
3.9119 11.3092 -1.4996 0.2210 0 2
3.6534 12.1195 -1.5863 0.2089 0 2
3.3594 13.0181 -1.6848 0.1967 0 2
3.0228 14.0230 -1.7977 0.1844 0 2
2.3423 13.4775 -1.7143 0.8534 0 20
2.1119 15.9265 -2.0133 0.3487 0 9
1.6485 17.9461 -2.2584 0.1467 0 2
1.0685 20.7843 -2.6081 0.1343 0 2
0.2545 22.8718 -2.8664 0.1208 0 1
-0.7489 25.7207 -3.2246 0.1118 0 1
-2.0111 28.9546 -3.6372 0.1033 0 1
-3.6109 32.8193 -4.1376 0.0858 0 1
-5.7937 38.3817 -4.8643 0.0708 0 1
-8.8376 45.9388 -5.8624 0.0602 0 1
-17.0481 46.5588 -6.2134 0.8103 0 15
-18.6373 36.5353 -5.1398 0.3729 0 6
-29.6946 37.2592 -5.9707 0.6206 0 3
-29.8258 31.8006 -5.4636 0.6782 0 3
-28.0840 27.6270 -4.9368 0.9758 0 3
-18.2029 16.5197 -3.0805 0.6230 0 22
-19.7670 16.5390 -3.2298 0.7416 0 22
-28.2705 21.7821 -4.4724 0.7399 0 3
-28.4031 20.1168 -4.3617 0.8034 0 3
-34.8709 22.6481 -5.2107 0.5460 0 3
-30.0860 17.8621 -4.3847 0.8450 0 3
-32.6123 17.6278 -4.6457 0.4186 0 3
-36.2388 17.7430 -5.0564 0.4423 0 3
-40.2041 17.7167 -5.5057 0.4062 0 3
-44.9513 17.6853 -6.0534 0.3694 0 3
-35.7104 -33.3871 -6.1263 0.6732 0 20
-32.9303 -33.3696 -5.8751 0.7020 0 20
-32.2782 -35.4546 -6.0085 0.7945 0 20
-19.5228 -27.4725 -4.2235 0.6867 0 22
-7.5814 -42.8225 -5.4498 0.0597 0 1
-4.8490 -35.7033 -4.5153 0.0767 0 1
-2.9203 -30.7277 -3.8680 0.0832 0 1
-1.4578 -26.7139 -3.3527 0.0949 0 1
-0.3417 -23.9292 -2.9990 0.1090 0 1
0.5635 -21.7040 -2.7208 0.1162 0 24
1.3059 -19.6999 -2.4741 0.1217 0 1
1.9118 -17.8955 -2.2554 0.1320 0 1
2.4156 -16.3521 -2.0714 0.1698 0 1
2.8459 -15.0489 -1.9193 0.1614 0 1
3.2140 -13.9059 -1.7886 0.1987 0 1
3.5515 -12.9650 -1.6846 0.2075 0 1
3.8489 -12.1150 -1.5930 0.2180 0 1
4.1111 -11.3382 -1.5114 0.2298 0 1
4.3445 -10.6270 -1.4387 0.2409 0 1
4.5525 -9.9707 -1.3736 0.2524 0 1
4.7411 -9.3669 -1.3156 0.2653 0 1
4.9109 -8.8044 -1.2634 0.2758 0 1
5.0640 -8.2777 -1.2160 0.2865 0 1
5.2030 -7.7832 -1.1732 0.2970 0 1
5.3309 -7.3192 -1.1347 0.3098 0 1
5.4280 -6.8550 -1.0957 0.3125 0 1
5.5132 -6.4145 -1.0599 0.3230 0 1
5.5899 -5.9978 -1.0274 0.3332 0 1
5.6590 -5.6022 -0.9979 0.3431 0 1
5.7240 -5.2277 -0.9715 0.3557 0 1
5.7839 -4.8705 -0.9476 0.3593 0 1
5.8410 -4.5298 -0.9263 0.3676 0 1
5.8754 -4.1892 -0.9043 0.7551 0 2
5.8670 -3.8369 -0.8785 0.8195 0 2
5.8982 -3.5270 -0.8612 0.9109 0 2
5.9677 -3.2500 -0.8516 0.9485 0 2
6.0823 -3.0018 -0.8500 0.9732 0 2
6.1399 -2.7288 -0.8420 0.4078 0 1
6.1783 -2.4533 -0.8330 0.4118 0 1
6.2136 -2.1823 -0.8253 0.4171 0 1
6.2467 -1.9153 -0.8188 0.4204 0 1
6.2765 -1.6514 -0.8133 0.4233 0 1
4.0889 -0.9016 -0.5247 0.3315 25 14
3.8582 -0.6893 -0.4911 0.9566 25 14
3.8493 -0.5290 -0.4869 0.9649 25 14
3.8403 -0.3711 -0.4835 0.9717 25 14
3.8329 -0.2152 -0.4811 0.9717 25 14
3.8254 -0.0607 -0.4794 0.9750 25 14
3.8278 0.0933 -0.4798 0.9742 25 14
3.8369 0.2483 -0.4818 0.9702 25 14
3.8458 0.4047 -0.4846 0.9646 25 14
3.8559 0.5634 -0.4883 0.9621 25 14
3.8662 0.7248 -0.4929 0.9531 25 14
4.2169 0.9676 -0.5422 0.3209 25 14
6.4514 1.7563 -0.8379 0.4185 0 1
