ply
format ascii 1.0
element vertex 1588
property float32 x
property float32 y
property float32 z
property float32 I
end_header
10.2834 11.3335 0.6363 0.9406
6.4538 9.1120 0.4643 0.9563
8.0711 14.9277 0.7056 0.9343
8.0080 18.1629 0.8253 0.9236
7.8104 19.8387 0.8865 0.9182
1.8556 13.7793 0.5781 0.9459
-0.7116 26.4050 1.0983 0.8996
-32.2961 37.5481 2.0593 0.8201
-30.4158 32.6135 1.8543 0.8365
-32.2494 29.4379 1.8156 0.8396
-32.2111 27.1119 1.7506 0.8449
-32.1763 24.9440 1.6928 0.8496
-32.1447 22.9121 1.6413 0.8538
-32.0864 19.1835 1.5544 0.8610
-32.6505 17.7800 1.5458 0.8617
-33.9409 16.7506 1.5737 0.8594
9.8464 1.6144 0.3042 0.9609
9.8940 2.0336 0.3079 0.9604
10.0094 2.9120 0.3178 0.9591
10.0744 3.3756 0.3239 0.9584
10.1441 3.8590 0.3308 0.9575
10.1911 4.3534 0.3378 0.9566
10.0522 6.9469 0.3725 0.9523
9.9490 7.4838 0.3795 0.9514
10.0204 8.1882 0.3945 0.9495
9.5452 8.4620 0.3888 0.9502
9.5954 9.2212 0.4057 0.9481
9.6526 10.0530 0.4248 0.9458
9.7181 10.9717 0.4468 0.9430
9.7934 11.9954 0.4721 0.9399
9.8808 13.1475 0.5013 0.9363
8.8548 13.9965 0.5049 0.9359
8.1252 15.4679 0.5326 0.9325
8.0692 18.9122 0.6268 0.9210
7.9354 27.3204 0.8672 0.8924
2.3393 14.3065 0.4419 0.9436
1.1284 13.7846 0.4216 0.9462
-32.1886 36.5289 1.4842 0.8230
-31.1492 32.6081 1.3747 0.8349
-32.1081 31.0146 1.3608 0.8364
-32.0138 24.2097 1.2235 0.8516
-31.9386 18.5796 1.1264 0.8625
-33.5897 17.7732 1.1584 0.8589
-35.1404 -33.3676 1.4772 0.8237
8.7901 -36.8876 1.1559 0.8592
8.2224 -29.2392 0.9259 0.8855
9.6405 -29.6529 0.9505 0.8827
10.4211 -28.1520 0.9151 0.8868
10.4656 -20.3437 0.6974 0.9125
10.1391 -17.9016 0.6271 0.9210
10.1363 -16.3292 0.5859 0.9260
10.3057 -13.9598 0.5289 0.9329
10.2354 -12.7579 0.4986 0.9366
10.0671 -10.6658 0.4471 0.9430
9.7360 -7.4547 0.3738 0.9521
9.7008 -6.8273 0.3616 0.9536
9.6255 -6.2114 0.3492 0.9552
9.3770 -5.0337 0.3244 0.9583
8.9520 -4.3516 0.3034 0.9609
9.3042 -3.2063 0.3000 0.9614
9.2914 -2.7895 0.2957 0.9619
9.2886 -2.3862 0.2923 0.9623
9.6141 -2.0619 0.2997 0.9614
4.0350 -0.5311 0.1241 0.9838
3.9699 -0.2005 0.1212 0.9842
3.9634 -0.0407 0.1208 0.9843
3.9797 0.1192 0.1214 0.9842
4.0097 0.2817 0.1225 0.9840
9.8795 1.9076 0.3067 0.9605
9.9912 2.7774 0.3161 0.9593
10.1954 4.6997 0.3422 0.9561
10.2033 5.2104 0.3492 0.9552
10.0826 6.7909 0.3706 0.9525
9.5624 8.2748 0.3855 0.9507
9.5798 8.9880 0.4004 0.9488
9.6348 9.7968 0.4189 0.9465
9.7698 11.6781 0.4641 0.9409
9.8534 12.7892 0.4921 0.9374
6.4563 9.1155 0.3405 0.9563
8.7165 14.6789 0.5204 0.9340
8.1321 15.0406 0.5212 0.9339
8.1077 16.5530 0.5619 0.9289
8.0789 18.3237 0.6105 0.9230
3.1297 14.3828 0.4487 0.9428
-32.1584 34.4821 1.4373 0.8280
-31.8065 22.6711 1.1907 0.8553
-31.9678 20.9010 1.1643 0.8583
-30.0019 16.3377 1.0414 0.8722
-35.0763 17.3110 1.1924 0.8551
9.5762 2.3731 0.1913 0.9613
9.6275 2.8009 0.1945 0.9607
9.6817 3.2441 0.1980 0.9600
9.7391 3.7049 0.2021 0.9592
9.7928 4.1833 0.2065 0.9583
9.7916 4.6566 0.2103 0.9575
9.7915 5.1489 0.2146 0.9567
9.5653 7.1951 0.2321 0.9532
9.3188 8.2613 0.2415 0.9514
9.2297 11.3049 0.2831 0.9433
9.2789 12.3466 0.2995 0.9401
8.1678 17.1939 0.3692 0.9267
8.1432 19.0856 0.4025 0.9203
8.6361 22.7310 0.4716 0.9073
11.6570 47.1282 0.9416 0.8235
2.2682 13.8716 0.2726 0.9453
-31.9116 28.4363 0.8290 0.8428
-33.6834 27.6687 0.8454 0.8400
-29.9584 22.6554 0.7285 0.8605
-31.8383 22.1235 0.7519 0.8563
-31.7997 18.4987 0.7135 0.8631
-30.7949 16.2943 0.6757 0.8699
-36.3044 17.3795 0.7806 0.8513
-35.0416 -33.2737 0.9372 0.8242
-34.5963 -35.6022 0.9628 0.8199
8.8042 -36.9466 0.7366 0.8590
9.8702 -23.6925 0.4978 0.9024
9.5993 -18.6599 0.4070 0.9195
9.5006 -16.7743 0.3739 0.9258
9.5795 -11.0033 0.2830 0.9433
9.4491 -9.2373 0.2563 0.9485
9.3757 -8.4560 0.2449 0.9507
9.3101 -7.1286 0.2274 0.9542
9.0148 -5.3167 0.2030 0.9590
9.0003 -4.8315 0.1981 0.9600
8.6682 -4.2136 0.1869 0.9622
8.9574 -3.0868 0.1838 0.9628
8.9499 -2.6870 0.1812 0.9633
8.9459 -2.2982 0.1791 0.9637
9.2676 -1.9876 0.1838 0.9628
3.9733 -0.5229 0.0777 0.9841
3.9531 -0.3594 0.0770 0.9842
3.9011 -0.0400 0.0757 0.9845
4.2234 0.6406 0.0828 0.9831
9.4813 1.8307 0.1873 0.9621
9.6119 2.6720 0.1935 0.9609
9.7216 3.5656 0.2008 0.9594
9.7919 4.5137 0.2091 0.9578
9.7914 5.0001 0.2132 0.9570
9.7921 5.5074 0.2179 0.9560
9.7023 6.5348 0.2269 0.9543
9.5972 7.0407 0.2309 0.9535
9.1079 8.5452 0.2422 0.9513
9.1394 9.2931 0.2528 0.9492
9.1753 10.1122 0.2648 0.9468
9.2634 12.0235 0.2944 0.9411
8.8701 13.6558 0.3158 0.9369
8.7163 14.6785 0.3311 0.9340
8.8727 22.5371 0.4698 0.9076
8.3876 24.1049 0.4950 0.9029
-32.0152 37.2216 0.9522 0.8217
-32.0033 31.6629 0.8732 0.8352
-31.8934 26.8445 0.8085 0.8464
-35.6747 27.6561 0.8755 0.8348
-34.6616 22.6623 0.8032 0.8473
-32.6473 17.7782 0.7210 0.8618
-35.9803 17.7571 0.7782 0.8517
9.2299 2.2872 0.0790 0.9627
9.2739 2.6980 0.0803 0.9621
9.4110 4.0202 0.0851 0.9599
9.4047 5.4388 0.0903 0.9575
9.2102 6.9280 0.0958 0.9549
8.6852 8.3465 0.1001 0.9530
8.6966 9.0574 0.1044 0.9510
8.7111 9.8348 0.1092 0.9488
8.7275 10.6898 0.1147 0.9463
8.7931 13.8988 0.1367 0.9363
8.4791 14.6766 0.1409 0.9344
8.2526 15.7104 0.1475 0.9315
8.1515 19.1051 0.1726 0.9203
8.9245 36.0807 0.3089 0.8618
2.9480 14.3745 0.1220 0.9430
1.9644 23.9960 0.2001 0.9082
-30.0786 31.4873 0.3619 0.8401
-30.1227 29.0967 0.3481 0.8458
-31.7511 28.2934 0.3535 0.8436
-30.0764 22.7446 0.3134 0.8600
-30.2314 21.0069 0.3060 0.8631
-29.8368 17.3569 0.2869 0.8710
-31.8380 16.8463 0.2994 0.8658
-36.8136 17.6232 0.3392 0.8494
8.3071 -34.8609 0.2979 0.8664
8.9754 -27.6073 0.2413 0.8904
8.9632 -21.5152 0.1937 0.9110
8.9096 -19.1767 0.1757 0.9189
8.8658 -17.2340 0.1611 0.9254
9.1038 -13.4296 0.1348 0.9372
9.0227 -9.5592 0.1093 0.9488
8.9680 -8.7670 0.1042 0.9511
8.9446 -8.0671 0.1001 0.9530
8.9226 -6.8319 0.0934 0.9560
8.8732 -6.2449 0.0902 0.9575
8.6432 -3.7799 0.0784 0.9630
8.6392 -3.3714 0.0771 0.9636
3.9048 0.1169 0.0325 0.9845
3.9301 0.2761 0.0327 0.9844
3.9560 0.4383 0.0331 0.9842
9.3059 2.9947 0.0812 0.9617
9.3532 3.4305 0.0828 0.9609
9.3978 3.8821 0.0845 0.9601
9.4215 4.3430 0.0862 0.9594
9.4068 5.2907 0.0897 0.9577
9.1391 7.2873 0.0971 0.9543
9.1575 7.9245 0.1007 0.9527
8.6927 8.8389 0.1030 0.9516
8.7223 10.4260 0.1130 0.9471
6.4285 9.0763 0.0924 0.9565
8.2568 15.2712 0.1443 0.9329
8.8984 22.6024 0.2019 0.9074
8.1513 26.8582 0.2333 0.8938
3.2408 14.8936 0.1267 0.9409
1.2936 24.1747 0.2012 0.9077
-31.8305 37.0068 0.4057 0.8226
-30.0926 32.2670 0.3667 0.8382
-31.7370 26.7129 0.3448 0.8471
-35.6734 27.6550 0.3752 0.8348
-30.2433 19.7735 0.3003 0.8654
-35.9784 17.7561 0.3335 0.8517
-37.6126 16.7180 0.3421 0.8482
4.2787 0.7015 -0.0120 0.9828
8.9078 2.2074 -0.0254 0.9640
8.9453 2.6025 -0.0258 0.9634
9.0205 3.4316 -0.0267 0.9621
9.0743 4.3155 -0.0278 0.9606
9.0607 4.7646 -0.0284 0.9599
8.9905 6.2132 -0.0303 0.9572
8.8806 6.6801 -0.0308 0.9565
8.5922 8.2572 -0.0330 0.9535
8.2865 8.6302 -0.0331 0.9533
6.7883 9.0326 -0.0313 0.9558
8.2491 14.2785 -0.0457 0.9362
8.2389 15.6843 -0.0491 0.9316
8.2269 17.3183 -0.0531 0.9262
8.1944 21.5685 -0.0639 0.9118
8.1438 28.0377 -0.0809 0.8898
8.1064 32.7731 -0.0935 0.8737
2.9845 14.5527 -0.0412 0.9423
0.0191 14.9052 -0.0413 0.9421
-31.3997 30.3303 -0.1209 0.8398
-31.3600 27.9448 -0.1164 0.8453
-33.6809 27.6667 -0.1208 0.8400
-31.3089 19.9391 -0.1028 0.8620
-31.2974 18.2066 -0.1003 0.8652
-31.2865 16.5544 -0.0981 0.8680
-34.1278 -35.1201 -0.1357 0.8221
8.1671 -25.1209 -0.0732 0.8997
8.1904 -22.1258 -0.0654 0.9099
8.3413 -16.2143 -0.0505 0.9297
8.5913 -15.1688 -0.0483 0.9326
8.5677 -12.6388 -0.0423 0.9408
8.5890 -11.6344 -0.0401 0.9438
8.6032 -10.7234 -0.0381 0.9465
8.5674 -9.0769 -0.0346 0.9513
8.5552 -7.7159 -0.0319 0.9550
8.5606 -7.1183 -0.0308 0.9564
6.2182 -4.3763 -0.0211 0.9700
6.3585 -4.1031 -0.0210 0.9702
8.3294 -4.9124 -0.0268 0.9621
8.3328 -4.0505 -0.0257 0.9636
8.3342 -3.6447 -0.0252 0.9643
8.3354 -3.2528 -0.0248 0.9648
8.3374 -2.5031 -0.0241 0.9658
8.6461 -1.8543 -0.0245 0.9652
3.9195 -0.1980 -0.0109 0.9844
3.8938 -0.0400 -0.0108 0.9845
3.9015 0.1168 -0.0108 0.9845
3.9268 0.2759 -0.0109 0.9844
3.9510 0.4377 -0.0110 0.9842
4.0111 0.6084 -0.0112 0.9839
8.8644 1.7116 -0.0250 0.9645
8.8968 2.0919 -0.0253 0.9641
9.0104 3.3048 -0.0266 0.9623
9.0448 3.7363 -0.0271 0.9616
9.0782 4.1848 -0.0277 0.9608
9.0336 5.5701 -0.0294 0.9584
8.9138 6.5394 -0.0306 0.9567
8.7098 7.5370 -0.0319 0.9550
8.2835 9.1294 -0.0342 0.9519
8.2787 9.8958 -0.0357 0.9497
6.4281 9.0757 -0.0308 0.9565
8.2307 16.8041 -0.0518 0.9279
8.1794 23.5066 -0.0690 0.9052
8.1188 31.2147 -0.0894 0.8790
8.3349 47.4014 -0.1333 0.8249
1.2041 22.5025 -0.0624 0.9138
-31.6479 36.7945 -0.1345 0.8235
-35.6720 27.6539 -0.1250 0.8348
-31.3124 20.4725 -0.1036 0.8610
-31.3008 18.7138 -0.1010 0.8643
-31.2897 17.0389 -0.0987 0.8672
8.5469 1.7567 -0.1209 0.9657
8.6714 2.9055 -0.1267 0.9641
8.6983 3.3090 -0.1289 0.9635
8.7255 3.7273 -0.1314 0.9628
8.7348 4.5932 -0.1367 0.9613
8.6886 5.5021 -0.1425 0.9597
8.6612 5.9856 -0.1458 0.9588
8.5738 6.4493 -0.1486 0.9580
8.4673 6.9191 -0.1515 0.9572
8.3662 7.4168 -0.1549 0.9563
8.3716 8.0451 -0.1608 0.9546
7.8934 8.9117 -0.1649 0.9535
6.7660 9.0030 -0.1560 0.9559
6.4494 9.3409 -0.1572 0.9556
7.7838 12.3034 -0.2017 0.9434
7.5865 17.7810 -0.2678 0.9256
7.5114 19.7708 -0.2930 0.9189
7.4189 22.1732 -0.3239 0.9107
7.3032 25.1436 -0.3627 0.9006
7.1539 28.9226 -0.4127 0.8876
1.9249 15.7154 -0.2193 0.9386
2.0704 25.2914 -0.3515 0.9035
1.0636 25.6267 -0.3553 0.9025
-31.4750 38.7540 -0.6916 0.8190
-31.4351 28.0118 -0.5833 0.8450
-33.6796 27.6656 -0.6038 0.8400
-31.4175 23.7588 -0.5457 0.8542
6.6016 -42.6601 -0.5980 0.8414
7.1167 -29.8653 -0.4253 0.8844
7.4934 -20.2430 -0.2990 0.9173
8.0478 -12.9648 -0.2114 0.9408
8.1676 -10.1805 -0.1808 0.9491
8.1709 -9.3853 -0.1724 0.9514
8.1815 -8.6680 -0.1651 0.9534
8.2484 -6.8587 -0.1486 0.9580
6.2348 -4.3880 -0.1056 0.9700
8.0244 -4.7325 -0.1291 0.9634
8.0572 -2.7766 -0.1181 0.9665
8.3657 -1.7941 -0.1185 0.9664
3.9387 -0.3581 -0.0548 0.9843
3.9158 -0.1978 -0.0543 0.9844
3.9234 0.2756 -0.0545 0.9844
8.5709 1.6549 -0.1209 0.9657
8.6297 2.3989 -0.1241 0.9648
8.6619 2.7874 -0.1261 0.9643
8.6902 3.1873 -0.1282 0.9636
8.7173 3.6010 -0.1307 0.9630
8.7449 4.0311 -0.1334 0.9622
8.7405 4.4634 -0.1360 0.9615
8.6695 5.8392 -0.1448 0.9590
8.6073 6.3145 -0.1479 0.9582
8.4965 6.7749 -0.1505 0.9575
8.3969 7.2662 -0.1538 0.9566
8.1488 8.2858 -0.1610 0.9546
7.7575 13.0639 -0.2105 0.9410
7.6653 15.6497 -0.2414 0.9327
7.6063 17.2518 -0.2612 0.9274
7.5354 19.1402 -0.2850 0.9210
7.2027 27.6926 -0.3964 0.8918
7.0209 32.2655 -0.4574 0.8763
2.4623 14.0036 -0.1970 0.9447
2.1039 15.6238 -0.2184 0.9389
2.5556 27.2068 -0.3785 0.8964
1.4693 27.4583 -0.3809 0.8958
0.1958 14.7682 -0.2046 0.9426
-31.5324 36.6602 -0.6699 0.8241
-31.4570 33.7300 -0.6389 0.8315
-16.5321 16.3563 -0.3222 0.9112
-32.8751 27.6708 -0.5953 0.8421
-34.6572 22.6594 -0.5736 0.8473
-39.8876 17.7292 -0.6047 0.8398
-40.4138 16.0506 -0.6024 0.8403
4.0292 0.6606 -0.1018 0.9838
8.3032 1.7066 -0.2114 0.9667
8.3265 2.0634 -0.2139 0.9663
8.3533 2.4302 -0.2170 0.9658
8.3772 2.8070 -0.2203 0.9653
8.4188 3.5963 -0.2283 0.9640
8.4050 4.8606 -0.2421 0.9619
8.3739 5.3028 -0.2472 0.9611
8.2874 6.2339 -0.2586 0.9594
8.1779 6.6826 -0.2634 0.9586
7.9644 7.6538 -0.2755 0.9568
7.9637 8.2941 -0.2868 0.9550
7.5398 8.5124 -0.2836 0.9555
7.5028 9.1898 -0.2959 0.9536
7.2998 12.6354 -0.3639 0.9433
7.2290 13.7617 -0.3877 0.9397
7.1464 15.0438 -0.4153 0.9355
7.0491 16.5215 -0.4480 0.9306
6.6199 22.7911 -0.5919 0.9094
6.1195 29.8387 -0.7596 0.8853
5.7396 35.1011 -0.8870 0.8673
1.9365 15.8097 -0.3972 0.9383
1.9729 24.1004 -0.6030 0.9078
0.7080 17.0576 -0.4258 0.9340
-31.5294 35.7808 -1.1893 0.8263
-33.8128 32.6612 -1.1724 0.8285
-33.6784 27.6646 -1.0869 0.8400
-30.2970 22.9115 -0.9473 0.8590
-31.2650 21.7252 -0.9495 0.8587
-31.2559 18.1824 -0.9018 0.8653
-33.8131 16.1868 -0.9349 0.8607
-41.1887 17.7198 -1.1182 0.8358
-34.9631 -33.1992 -1.2024 0.8246
-33.8094 -34.7925 -1.2099 0.8236
5.0582 -44.4403 -1.1154 0.8361
5.6413 -36.4544 -0.9199 0.8628
6.3481 -26.6400 -0.6830 0.8962
6.9056 -18.6551 -0.4961 0.9235
7.0262 -16.8657 -0.4556 0.9295
7.5202 -16.1864 -0.4451 0.9311
7.5680 -12.1919 -0.3579 0.9442
7.7450 -9.6537 -0.3087 0.9517
7.7977 -8.2614 -0.2833 0.9556
7.8234 -7.6481 -0.2728 0.9572
7.8518 -7.0816 -0.2637 0.9586
6.2515 -4.3997 -0.1906 0.9699
6.3290 -4.0841 -0.1878 0.9703
7.7875 -3.0390 -0.2085 0.9671
7.7959 -2.6865 -0.2056 0.9675
8.0855 -2.0772 -0.2082 0.9671
3.9303 -0.3573 -0.0984 0.9843
3.9121 -0.1976 -0.0977 0.9844
3.8865 -0.0399 -0.0969 0.9846
3.8949 0.1166 -0.0972 0.9845
3.9201 0.2754 -0.0980 0.9844
3.9343 0.4359 -0.0987 0.9843
3.9435 0.5982 -0.0995 0.9842
8.2962 1.6019 -0.2107 0.9668
8.3196 1.9562 -0.2131 0.9664
8.3920 3.0779 -0.2229 0.9649
8.4126 3.4752 -0.2270 0.9642
8.4385 4.3092 -0.2363 0.9628
8.3834 5.1692 -0.2456 0.9614
8.3150 6.1001 -0.2572 0.9596
8.2078 6.5447 -0.2618 0.9589
8.1056 7.0142 -0.2673 0.9580
7.9977 7.5037 -0.2735 0.9571
7.5142 8.9819 -0.2920 0.9542
7.2512 13.4113 -0.3802 0.9408
6.9700 17.7041 -0.4745 0.9267
6.6754 21.9954 -0.5732 0.9121
6.2120 28.5481 -0.7286 0.8897
2.1028 15.6154 -0.3929 0.9389
2.1942 23.3593 -0.5851 0.9104
1.4343 26.8046 -0.6694 0.8982
-31.5301 36.6576 -1.2058 0.8241
-31.2864 33.5471 -1.1440 0.8323
-33.0174 32.6663 -1.1583 0.8304
-30.2893 27.6487 -1.0227 0.8487
-32.8739 27.6698 -1.0716 0.8420
-33.8309 16.6963 -0.9408 0.8599
-41.9184 16.6482 -1.1248 0.8349
8.0856 2.3523 -0.3034 0.9669
8.1022 2.7148 -0.3079 0.9664
8.1179 3.0882 -0.3129 0.9658
8.1466 3.8743 -0.3250 0.9645
8.1482 4.2847 -0.3317 0.9638
8.1168 4.6940 -0.3378 0.9632
8.0421 5.5578 -0.3522 0.9616
7.9999 6.0176 -0.3607 0.9607
7.6894 7.3895 -0.3842 0.9582
7.4270 8.3851 -0.4036 0.9562
7.1673 8.7788 -0.4083 0.9557
6.7107 8.9294 -0.4025 0.9563
6.4941 9.4058 -0.4118 0.9553
6.9818 11.0359 -0.4705 0.9491
6.8112 12.9664 -0.5277 0.9431
6.7057 14.1162 -0.5631 0.9394
6.5826 15.4280 -0.6044 0.9351
6.2637 18.7206 -0.7113 0.9240
6.0531 20.8396 -0.7819 0.9168
5.7926 23.4188 -0.8692 0.9080
5.4629 26.6374 -0.9797 0.8969
2.2596 13.8187 -0.5045 0.9455
1.7533 14.3146 -0.5196 0.9439
0.0192 15.0195 -0.5412 0.9417
-19.0624 36.5156 -1.4842 0.8480
-31.1238 30.0637 -1.5591 0.8410
-33.6772 27.6636 -1.5703 0.8399
-31.1227 18.1050 -1.2973 0.8658
-35.1682 16.8355 -1.4048 0.8555
-41.1863 17.7187 -1.6155 0.8357
-35.0150 -33.2485 -1.7398 0.8243
3.3936 -46.3216 -1.6735 0.8304
5.7291 -24.0421 -0.8905 0.9058
6.9210 -14.8967 -0.5918 0.9364
7.1091 -12.5518 -0.5197 0.9439
7.2040 -11.6055 -0.4922 0.9468
7.2872 -10.7498 -0.4679 0.9493
7.4544 -8.5623 -0.4090 0.9556
7.4958 -7.9416 -0.3935 0.9572
7.5569 -7.3875 -0.3808 0.9586
7.6005 -6.3199 -0.3562 0.9612
7.4951 -4.0235 -0.3065 0.9665
7.5117 -3.6514 -0.3009 0.9671
7.5617 -2.2702 -0.2845 0.9689
3.9305 -0.5173 -0.1428 0.9843
3.8829 -0.0399 -0.1399 0.9846
3.8916 0.1165 -0.1403 0.9845
3.9168 0.2752 -0.1415 0.9844
3.9260 0.4349 -0.1423 0.9843
8.0582 1.8947 -0.2983 0.9674
8.0790 2.2458 -0.3021 0.9670
8.0974 2.6057 -0.3065 0.9665
8.1284 3.3577 -0.3169 0.9654
8.1426 3.7535 -0.3230 0.9647
7.9380 6.3295 -0.3658 0.9602
7.8337 6.7789 -0.3733 0.9594
7.7235 7.2463 -0.3816 0.9585
7.5790 8.3530 -0.4064 0.9559
7.1829 8.5859 -0.4033 0.9562
6.4985 9.1751 -0.4051 0.9560
7.0035 10.7821 -0.4632 0.9498
6.9272 11.6656 -0.4888 0.9471
6.6214 15.0180 -0.5914 0.9364
6.4833 16.4678 -0.6377 0.9316
5.5699 25.5973 -0.9439 0.9005
5.1742 29.4264 -1.0765 0.8873
1.4335 26.7904 -0.9666 0.8982
-0.4164 15.4500 -0.5569 0.9400
-31.1122 36.1718 -1.7191 0.8262
-31.1215 30.7906 -1.5774 0.8393
-31.1249 22.1853 -1.3772 0.8581
-31.1232 18.6077 -1.3065 0.8649
-36.1307 19.6751 -1.4823 0.8482
-35.4041 17.4728 -1.4225 0.8538
-39.9069 17.7377 -1.5735 0.8396
3.9294 0.6443 -0.1877 0.9842
7.8021 1.6036 -0.3754 0.9686
7.8174 1.9372 -0.3796 0.9683
7.8320 2.2786 -0.3844 0.9679
7.8445 2.6285 -0.3899 0.9674
7.8556 2.9884 -0.3961 0.9669
7.8652 3.3599 -0.4031 0.9663
7.8735 3.7444 -0.4109 0.9657
7.8475 4.5383 -0.4273 0.9643
7.8077 4.9443 -0.4356 0.9637
7.7172 5.8050 -0.4551 0.9621
7.6545 6.2549 -0.4659 0.9612
7.5477 6.6911 -0.4754 0.9604
7.3170 7.6205 -0.4979 0.9586
6.7085 8.9264 -0.5263 0.9563
2.2787 13.9359 -0.6655 0.9450
2.5445 20.7733 -0.9864 0.9196
2.5086 30.6442 -1.4491 0.8842
0.0185 14.4338 -0.6803 0.9438
-19.0690 36.5281 -1.9421 0.8479
-29.8662 39.9530 -2.3510 0.8189
-30.9537 32.4035 -2.1120 0.8357
-30.9639 29.9093 -2.0290 0.8416
-29.1972 23.9836 -1.7808 0.8596
-30.0030 22.6891 -1.7729 0.8602
-30.9858 21.5311 -1.7784 0.8598
-30.9906 18.0281 -1.6898 0.8663
-30.8139 16.3044 -1.6431 0.8697
-37.0666 17.7443 -1.9368 0.8483
-40.2694 17.3243 -2.0661 0.8390
2.8677 -39.1426 -1.8498 0.8546
3.7382 -32.8434 -1.5579 0.8760
4.8464 -24.7021 -1.1864 0.9041
5.5191 -19.6263 -0.9609 0.9216
6.2026 -16.7558 -0.8421 0.9310
6.3713 -15.2938 -0.7809 0.9358
6.4688 -13.9233 -0.7236 0.9404
6.6134 -12.8555 -0.6814 0.9438
6.7354 -11.8920 -0.6441 0.9467
7.0819 -8.8272 -0.5334 0.9557
7.1417 -8.2032 -0.5126 0.9574
7.3526 -6.6313 -0.4667 0.9611
7.3998 -6.1530 -0.4536 0.9622
7.1443 -5.4703 -0.4241 0.9646
6.2852 -4.4234 -0.3622 0.9697
6.3126 -4.0735 -0.3541 0.9704
7.2294 -4.2637 -0.3956 0.9669
7.2906 -3.1884 -0.3750 0.9686
7.3207 -2.5228 -0.3649 0.9695
7.6235 -1.6350 -0.3675 0.9693
4.0201 -0.6945 -0.1923 0.9838
3.9220 -0.5162 -0.1864 0.9843
3.9135 -0.3558 -0.1852 0.9844
3.8793 -0.0398 -0.1828 0.9846
3.9087 0.2746 -0.1847 0.9844
3.9177 0.4340 -0.1858 0.9843
3.9267 0.5956 -0.1872 0.9842
7.8280 2.1761 -0.3829 0.9680
7.8524 2.8800 -0.3942 0.9671
7.8625 3.2479 -0.4009 0.9665
7.8588 4.4200 -0.4250 0.9645
7.8199 4.8218 -0.4330 0.9639
7.7317 5.6722 -0.4519 0.9623
7.6817 6.1252 -0.4631 0.9614
7.5801 6.5595 -0.4725 0.9607
7.0807 8.4638 -0.5201 0.9568
6.4722 11.9706 -0.6414 0.9470
6.2184 14.1039 -0.7265 0.9401
6.0598 15.3921 -0.7796 0.9359
5.8730 16.8781 -0.8423 0.9309
5.6501 18.6171 -0.9170 0.9250
5.3804 20.6862 -1.0074 0.9180
4.6282 26.3210 -1.2596 0.8985
2.0185 21.4889 -1.0173 0.9172
-29.2435 33.9992 -2.1136 0.8356
-30.9829 24.0188 -1.8477 0.8547
-30.9847 22.0853 -1.7933 0.8587
-35.9798 19.5929 -1.9309 0.8487
-36.0491 16.0230 -1.8593 0.8539
-44.5564 17.6959 -2.2595 0.8253
3.9211 0.6429 -0.2314 0.9842
7.5888 1.8806 -0.4554 0.9692
7.5992 2.2108 -0.4610 0.9688
7.6192 3.2548 -0.4826 0.9673
7.5964 4.3930 -0.5111 0.9655
7.5533 4.7832 -0.5207 0.9648
7.0756 7.3691 -0.5950 0.9599
6.5046 8.6551 -0.6306 0.9575
6.4217 9.3009 -0.6583 0.9557
6.3288 10.0036 -0.6895 0.9537
6.1047 11.6214 -0.7646 0.9488
5.9687 12.5646 -0.8102 0.9458
5.8122 13.6225 -0.8626 0.9424
5.4185 16.1945 -0.9946 0.9339
5.1670 17.7892 -1.0789 0.9285
4.8652 19.6693 -1.1801 0.9220
4.4967 21.9262 -1.3036 0.9142
4.0380 24.6951 -1.4574 0.9046
-30.5499 31.9807 -2.5759 0.8376
-18.5423 16.5230 -1.4465 0.9053
-29.3110 22.1658 -2.1404 0.8631
-29.1604 20.2627 -2.0682 0.8674
-30.8595 17.9518 -2.0794 0.8667
-35.8311 18.9591 -2.3611 0.8501
1.9238 -26.2597 -1.5336 0.8999
4.4105 -18.5087 -1.1082 0.9266
5.1075 -18.1625 -1.0989 0.9272
5.9317 -14.2385 -0.8984 0.9401
6.1089 -13.1486 -0.8444 0.9436
6.5244 -10.5107 -0.7205 0.9516
6.7088 -9.0876 -0.6579 0.9557
6.7877 -8.4605 -0.6318 0.9575
6.8658 -7.8863 -0.6090 0.9590
6.9460 -7.3591 -0.5894 0.9603
7.0271 -6.8695 -0.5724 0.9614
7.1133 -5.9148 -0.5388 0.9636
6.3644 -4.4792 -0.4533 0.9693
6.3445 -4.0941 -0.4398 0.9702
6.7753 -3.9958 -0.4581 0.9690
7.1058 -2.4487 -0.4378 0.9703
7.4047 -1.5880 -0.4411 0.9701
3.9136 -0.5151 -0.2299 0.9843
3.9051 -0.3550 -0.2284 0.9844
3.8757 -0.0398 -0.2257 0.9846
3.8850 0.1163 -0.2264 0.9845
7.5854 1.7836 -0.4538 0.9693
7.6052 2.4474 -0.4653 0.9685
7.6216 3.5133 -0.4888 0.9669
7.5665 4.6655 -0.5177 0.9650
7.3449 6.3559 -0.5657 0.9618
7.1127 7.2324 -0.5908 0.9602
6.9633 8.3234 -0.6321 0.9575
6.6230 8.5963 -0.6320 0.9575
6.0112 12.2726 -0.7959 0.9467
5.8612 13.2939 -0.8462 0.9434
5.6878 14.4474 -0.9043 0.9397
5.4855 15.7645 -0.9722 0.9353
4.1860 23.8061 -1.4078 0.9077
2.7550 20.4585 -1.2023 0.9206
1.2415 23.2011 -1.3532 0.9111
0.6136 46.2815 -2.6958 0.8307
-29.8012 37.6047 -2.7946 0.8251
-30.7645 35.7675 -2.7478 0.8278
-30.3105 29.9881 -2.4834 0.8430
-29.7765 27.1806 -2.3482 0.8508
-29.6316 24.9408 -2.2558 0.8563
-29.1460 22.5948 -2.1479 0.8626
-29.9193 16.2927 -1.9842 0.8724
-44.5535 17.6947 -2.7921 0.8252
3.9127 0.6415 -0.2750 0.9842
7.3735 1.8272 -0.5270 0.9700
7.3811 2.1474 -0.5333 0.9696
7.3895 2.8111 -0.5485 0.9688
7.3838 3.8828 -0.5787 0.9671
7.3611 4.2570 -0.5899 0.9665
7.3151 4.6323 -0.6006 0.9659
7.2650 5.0207 -0.6126 0.9652
7.2103 5.4237 -0.6259 0.9645
6.9747 6.7027 -0.6710 0.9620
6.6760 8.1770 -0.7323 0.9586
6.4875 8.6323 -0.7491 0.9576
6.0455 9.5559 -0.7844 0.9557
5.9317 10.2674 -0.8226 0.9536
5.6572 11.9089 -0.9146 0.9485
5.4904 12.8681 -0.9705 0.9454
5.2984 13.9459 -1.0349 0.9419
5.0755 15.1692 -1.1096 0.9379
4.5039 18.2090 -1.3012 0.9275
4.1308 20.1418 -1.4263 0.9209
2.5164 20.5445 -1.4358 0.9204
0.0539 42.0870 -2.9196 0.8447
-30.5713 37.6412 -3.3639 0.8233
-30.6282 32.0627 -3.0759 0.8371
-30.6871 25.2075 -2.7549 0.8528
-30.2085 19.2383 -2.4844 0.8662
-40.9480 19.6024 -3.1493 0.8336
-40.2433 17.3131 -3.0391 0.8389
-46.1279 17.6833 -3.4270 0.8203
-35.0147 -33.2482 -3.3496 0.8240
-33.2442 -34.2107 -3.3091 0.8259
-0.3153 -43.3744 -3.0090 0.8404
1.2151 -36.8849 -2.5601 0.8625
2.9633 -26.0351 -1.8177 0.9003
3.5636 -23.0281 -1.6165 0.9108
4.0415 -20.5998 -1.4563 0.9193
4.3846 -18.3998 -1.3121 0.9270
5.2272 -16.0783 -1.1728 0.9345
5.5973 -13.4358 -1.0097 0.9433
5.7865 -12.4547 -0.9527 0.9464
5.9521 -11.5701 -0.9026 0.9492
6.1000 -10.7702 -0.8586 0.9516
6.2294 -10.0353 -0.8194 0.9537
6.3338 -9.3434 -0.7830 0.9557
6.5259 -8.1341 -0.7234 0.9590
6.7036 -7.1022 -0.6775 0.9616
6.7758 -6.6239 -0.6573 0.9627
6.8143 -6.1458 -0.6366 0.9639
6.8444 -5.6912 -0.6175 0.9649
6.6708 -5.1077 -0.5828 0.9669
6.2797 -4.4195 -0.5327 0.9697
6.2876 -4.0574 -0.5191 0.9704
6.8100 -3.6557 -0.5362 0.9695
6.8364 -3.3232 -0.5273 0.9700
6.8809 -2.6852 -0.5124 0.9708
6.9005 -2.3780 -0.5063 0.9712
7.1730 -1.8427 -0.5137 0.9707
7.1974 -1.5436 -0.5106 0.9709
3.9052 -0.5140 -0.2732 0.9843
3.8968 -0.3543 -0.2714 0.9844
3.8721 -0.0397 -0.2686 0.9846
3.8818 0.1162 -0.2694 0.9845
3.9101 0.5931 -0.2743 0.9843
4.1138 0.7943 -0.2906 0.9833
7.3708 1.7331 -0.5253 0.9701
7.3888 2.7100 -0.5459 0.9689
7.3905 3.0529 -0.5547 0.9684
7.3872 3.7723 -0.5754 0.9673
7.3712 4.1458 -0.5867 0.9667
7.3292 4.5192 -0.5973 0.9661
7.1693 5.7166 -0.6361 0.9639
7.1156 6.1575 -0.6528 0.9630
7.0099 6.5769 -0.6668 0.9622
6.8892 7.0050 -0.6816 0.9614
6.1987 8.7519 -0.7440 0.9579
5.3585 13.6109 -1.0147 0.9430
5.1455 14.7876 -1.0861 0.9392
4.6022 17.6942 -1.2683 0.9293
4.2496 19.5297 -1.3865 0.9230
3.8205 21.7274 -1.5304 0.9153
2.3761 25.2962 -1.7625 0.9031
-30.5612 38.5637 -3.4134 0.8209
-30.5932 35.5683 -3.2545 0.8285
-30.6445 30.3186 -2.9904 0.8413
-30.6649 27.9915 -2.8802 0.8466
-30.6974 23.7975 -2.6944 0.8558
-30.7075 21.8878 -2.6159 0.8597
-29.9244 16.2955 -2.3637 0.8723
-35.9650 17.7496 -2.7822 0.8515
3.9044 0.6402 -0.3186 0.9842
4.1962 0.8625 -0.3449 0.9830
7.1698 1.7767 -0.5947 0.9708
7.1748 2.0874 -0.6016 0.9705
7.1772 2.4049 -0.6094 0.9701
7.1773 2.7304 -0.6183 0.9697
7.1750 3.0650 -0.6282 0.9692
7.1700 3.4099 -0.6392 0.9686
7.1351 4.1263 -0.6636 0.9675
7.0383 4.8640 -0.6888 0.9663
6.8615 6.0828 -0.7383 0.9639
6.7651 6.5012 -0.7554 0.9630
6.3940 7.8317 -0.8140 0.9602
6.0734 8.7964 -0.8606 0.9580
5.7862 9.1459 -0.8714 0.9575
5.5296 10.5267 -0.9574 0.9534
5.3762 11.3174 -1.0088 0.9510
5.0025 13.1672 -1.1341 0.9450
4.7728 14.2647 -1.2111 0.9414
4.1922 16.9487 -1.4057 0.9323
3.8195 18.6239 -1.5307 0.9265
2.2099 13.5152 -1.1026 0.9465
2.1528 17.5758 -1.4257 0.9314
1.3046 31.4340 -2.5331 0.8814
0.0466 36.3834 -2.9294 0.8642
-30.3961 37.4255 -3.8819 0.8241
-30.5908 34.7156 -3.7254 0.8305
-30.4676 31.8946 -3.5513 0.8378
-30.4964 29.4577 -3.4138 0.8435
-30.5214 27.1976 -3.2915 0.8487
-30.5430 25.0891 -3.1824 0.8533
-30.5616 23.1115 -3.0850 0.8575
-30.5750 21.2457 -2.9977 0.8612
-30.5886 19.4803 -2.9198 0.8646
-30.6089 17.8060 -2.8511 0.8675
-31.4531 16.6426 -2.8651 0.8669
-40.7828 19.5234 -3.6404 0.8341
-34.9517 -33.1884 -3.8806 0.8241
-19.1982 -27.4526 -2.6972 0.8742
-2.1212 -44.6523 -3.5992 0.8358
2.6845 -23.5853 -1.9112 0.9091
3.2622 -21.0808 -1.7175 0.9180
4.2729 -17.9313 -1.4841 0.9287
5.0815 -13.7274 -1.1785 0.9430
5.4974 -11.8324 -1.0505 0.9490
5.6704 -11.0225 -0.9980 0.9515
5.8247 -10.2841 -0.9516 0.9537
6.3810 -7.3294 -0.7824 0.9618
6.4092 -5.3294 -0.6711 0.9671
6.4564 -4.9436 -0.6547 0.9679
6.2980 -4.4324 -0.6201 0.9696
6.6628 -2.9138 -0.5855 0.9712
6.6875 -2.6097 -0.5780 0.9716
7.0005 -1.5013 -0.5765 0.9717
3.8968 -0.5129 -0.3165 0.9844
3.8885 -0.3535 -0.3144 0.9845
3.8801 -0.1960 -0.3128 0.9845
3.8684 -0.0397 -0.3115 0.9846
3.8755 0.1161 -0.3122 0.9846
3.8842 0.2729 -0.3135 0.9845
3.8930 0.4313 -0.3154 0.9844
3.9018 0.5918 -0.3177 0.9843
7.1736 1.9941 -0.5995 0.9706
7.1759 2.9643 -0.6251 0.9693
7.1718 3.3060 -0.6358 0.9688
7.1634 3.6580 -0.6476 0.9682
7.1061 4.3816 -0.6722 0.9671
7.0545 4.7514 -0.6848 0.9664
6.8005 6.3804 -0.7508 0.9633
6.5537 7.2229 -0.7853 0.9616
6.3591 8.2538 -0.8389 0.9590
6.1943 8.7456 -0.8629 0.9579
5.8196 8.9594 -0.8602 0.9580
5.7029 9.6038 -0.8993 0.9562
5.2562 11.9217 -1.0490 0.9491
5.0648 12.8649 -1.1132 0.9460
4.8448 13.9234 -1.1870 0.9426
4.2912 16.4985 -1.3726 0.9339
3.9376 18.0960 -1.4911 0.9284
3.5132 19.9801 -1.6334 0.9218
2.3912 17.7568 -1.4426 0.9306
2.3283 24.7871 -2.0045 0.9049
0.4599 34.6892 -2.7932 0.8700
-30.4582 32.6590 -3.5956 0.8359
-29.5867 22.9365 -3.0141 0.8605
-30.5705 21.7901 -3.0226 0.8601
-30.5847 19.9968 -2.9421 0.8636
-42.0192 16.6882 -3.6402 0.8341
6.9766 1.7289 -0.6589 0.9715
6.9793 2.3386 -0.6748 0.9709
6.9712 2.9780 -0.6950 0.9700
6.9630 3.3114 -0.7069 0.9695
6.9441 3.6516 -0.7193 0.9690
6.8802 4.3569 -0.7466 0.9678
6.7647 5.0885 -0.7760 0.9666
6.7024 5.4769 -0.7935 0.9658
6.3160 7.1307 -0.8733 0.9625
5.4216 9.3843 -0.9936 0.9574
5.1214 10.7810 -1.0942 0.9532
4.7375 12.4697 -1.2229 0.9478
4.5038 13.4606 -1.3013 0.9446
3.9204 15.8497 -1.4969 0.9365
3.5514 17.3165 -1.6206 0.9315
1.8323 22.3831 -2.0589 0.9137
-1.4527 37.3059 -3.4227 0.8607
-3.5330 44.5602 -4.0980 0.8356
-28.3514 37.9265 -4.3411 0.8268
-30.2226 37.2119 -4.3949 0.8248
-30.3084 31.7279 -4.0226 0.8384
-30.3999 24.9715 -3.6067 0.8538
-30.2957 22.9104 -3.4822 0.8585
-30.4400 21.1519 -3.3983 0.8617
-30.5693 17.7830 -3.2422 0.8676
-33.1370 17.5336 -3.4370 0.8602
-37.0585 17.7405 -3.7667 0.8479
-35.0096 -33.2433 -4.4260 0.8237
-32.7606 -33.7131 -4.3097 0.8279
-20.9036 -27.4705 -3.1647 0.8705
-4.0860 -46.4881 -4.2783 0.8291
-1.8111 -38.1253 -3.4992 0.8579
-0.2370 -32.6058 -2.9893 0.8772
0.9486 -28.7938 -2.6412 0.8907
1.7681 -24.1334 -2.2184 0.9074
2.4532 -21.5535 -1.9887 0.9166
3.6339 -18.5221 -1.7304 0.9270
4.2953 -15.2743 -1.4546 0.9383
5.4148 -10.5257 -1.0852 0.9536
5.7142 -9.2054 -0.9933 0.9574
5.8404 -8.6156 -0.9542 0.9591
5.9543 -8.0656 -0.9191 0.9605
6.0582 -7.5512 -0.8875 0.9619
6.2195 -6.5894 -0.8307 0.9643
6.3266 -5.7060 -0.7811 0.9664
6.3170 -5.2526 -0.7532 0.9675
6.3187 -4.0775 -0.6894 0.9702
6.3829 -3.7644 -0.6794 0.9707
6.4175 -3.4450 -0.6678 0.9712
6.4763 -2.8323 -0.6480 0.9720
4.2085 -0.9026 -0.3946 0.9829
3.8968 -0.6732 -0.3625 0.9842
3.8719 -0.1956 -0.3554 0.9845
3.8635 -0.0397 -0.3542 0.9846
3.8674 0.1158 -0.3547 0.9846
3.8935 0.5906 -0.3610 0.9843
6.9753 1.6401 -0.6569 0.9716
6.9777 2.5592 -0.6814 0.9706
6.9657 3.2110 -0.7032 0.9697
6.9510 3.5496 -0.7155 0.9691
6.9265 3.8957 -0.7285 0.9686
6.8957 4.2519 -0.7427 0.9680
6.7832 4.9763 -0.7713 0.9668
6.7200 5.3584 -0.7880 0.9661
6.6587 5.7621 -0.8073 0.9652
6.4808 6.5898 -0.8473 0.9636
6.3517 7.0004 -0.8666 0.9627
6.2286 7.4452 -0.8899 0.9618
5.3241 9.8471 -1.0263 0.9560
5.1708 10.5568 -1.0777 0.9539
4.3187 14.2300 -1.3633 0.9420
3.6679 16.8563 -1.5815 0.9331
3.2513 18.4904 -1.7212 0.9274
2.1369 22.7491 -2.0948 0.9123
1.3706 25.6147 -2.3517 0.9021
0.4062 30.6408 -2.8093 0.8842
-0.9577 35.5355 -3.2590 0.8669
-2.8360 42.1746 -3.8752 0.8438
-30.0385 37.9041 -4.4339 0.8234
-30.2971 32.4863 -4.0725 0.8366
-33.0107 32.6597 -4.2572 0.8298
-18.1184 16.5388 -2.2490 0.9062
-30.4344 21.6931 -3.4264 0.8606
-30.4522 19.9101 -3.3355 0.8640
-30.4674 18.2156 -3.2543 0.8671
-39.8715 17.7220 -4.0001 0.8392
6.7940 1.9766 -0.7278 0.9719
6.7917 2.2757 -0.7368 0.9716
6.7865 2.5817 -0.7469 0.9712
6.7783 2.8956 -0.7582 0.9708
6.7671 3.2182 -0.7708 0.9703
6.7427 3.5457 -0.7836 0.9698
6.7142 3.8828 -0.7978 0.9693
6.6810 4.2308 -0.8134 0.9687
6.5613 4.9355 -0.8446 0.9675
6.4968 5.3089 -0.8630 0.9668
6.4307 5.7009 -0.8840 0.9660
6.2558 6.5153 -0.9291 0.9643
6.1254 6.9156 -0.9503 0.9635
5.8612 7.7990 -1.0035 0.9615
5.7130 8.2744 -1.0343 0.9604
5.6203 8.8838 -1.0813 0.9586
5.0520 9.6175 -1.1175 0.9573
3.9930 13.7471 -1.4725 0.9441
3.2074 15.6395 -1.6422 0.9378
1.7614 21.5163 -2.2207 0.9169
1.0535 25.3821 -2.6132 0.9029
0.0366 28.5630 -2.9381 0.8915
-3.0336 38.2619 -3.9481 0.8570
-5.5055 45.9214 -4.7575 0.8303
-30.0507 37.0002 -4.9031 0.8256
-30.2461 31.6626 -4.5042 0.8386
-33.8048 32.6534 -4.8346 0.8278
-20.0919 16.5042 -2.6746 0.9007
-32.6174 22.6649 -4.0856 0.8524
-30.5679 17.7822 -3.6377 0.8674
-41.1716 17.7124 -4.6104 0.8351
-6.2372 -48.5119 -5.0312 0.8215
-1.5783 -33.2248 -3.4215 0.8748
-0.2103 -28.9331 -2.9762 0.8902
2.9441 -19.0249 -1.9803 0.9255
3.3502 -17.0761 -1.7900 0.9324
3.7086 -15.5631 -1.6457 0.9377
4.0101 -14.2600 -1.5237 0.9422
4.5697 -12.3448 -1.3540 0.9484
5.1812 -10.0716 -1.1651 0.9555
5.9218 -6.8020 -0.9277 0.9644
6.0525 -5.9168 -0.8706 0.9665
6.1150 -4.3036 -0.7692 0.9704
6.2006 -3.6569 -0.7405 0.9715
6.2372 -3.3482 -0.7282 0.9719
6.6107 -1.6983 -0.7021 0.9729
4.1488 -0.8898 -0.4365 0.9831
3.8840 -0.6710 -0.4054 0.9843
3.8536 -0.0395 -0.3964 0.9846
3.8674 0.2717 -0.3988 0.9845
3.8852 0.5893 -0.4042 0.9843
3.9486 0.7624 -0.4137 0.9840
6.7927 2.1859 -0.7340 0.9717
6.7811 2.8012 -0.7547 0.9709
6.7708 3.1211 -0.7669 0.9705
6.7231 3.7813 -0.7934 0.9695
6.6917 4.1261 -0.8087 0.9689
6.6413 4.4731 -0.8237 0.9683
6.5805 4.8276 -0.8395 0.9677
6.5153 5.1951 -0.8572 0.9670
5.7584 8.1301 -1.0248 0.9607
5.6630 8.7183 -1.0694 0.9591
5.0971 9.4272 -1.1024 0.9578
4.7629 10.8027 -1.2144 0.9536
4.3365 12.4626 -1.3573 0.9483
3.4323 15.7735 -1.6605 0.9372
1.8271 13.5679 -1.4082 0.9464
1.9588 20.8531 -2.1545 0.9192
1.2437 23.2421 -2.3942 0.9107
0.3640 27.4582 -2.8247 0.8955
-2.4458 36.3716 -3.7498 0.8637
-28.2857 32.8856 -4.4619 0.8399
-32.8654 27.6627 -4.4188 0.8414
-30.2773 23.4718 -3.9407 0.8572
-30.1701 19.7256 -3.7079 0.8651
3.8737 0.6351 -0.4478 0.9843
6.6189 1.6402 -0.7779 0.9729
6.6135 2.2160 -0.7957 0.9723
6.6060 2.5131 -0.8063 0.9719
6.5954 2.8174 -0.8182 0.9715
6.5522 3.4455 -0.8445 0.9706
6.5212 3.7712 -0.8593 0.9701
6.3694 4.7912 -0.9092 0.9684
6.0768 6.3288 -1.0009 0.9653
5.8176 7.1257 -1.0494 0.9636
4.9333 9.3914 -1.2101 0.9582
4.4912 10.5262 -1.3055 0.9550
4.2824 11.2717 -1.3755 0.9526
3.4691 14.0252 -1.6482 0.9435
1.6217 19.8106 -2.2675 0.9231
0.9618 23.1732 -2.6458 0.9109
0.0330 25.7940 -2.9425 0.9014
-1.1397 29.2688 -3.3414 0.8888
-4.6970 39.1779 -4.5013 0.8531
-28.3060 27.3419 -4.4894 0.8535
-20.0731 16.4888 -2.9634 0.9007
-29.9714 22.6652 -4.2866 0.8596
-32.6160 22.6639 -4.5308 0.8522
-35.0570 22.3261 -4.7413 0.8459
-33.5678 17.7615 -4.3323 0.8582
-41.1692 17.7114 -5.1126 0.8349
-46.1093 17.6762 -5.6332 0.8197
-35.0496 -33.2813 -5.5137 0.8232
-32.4808 -36.2312 -5.5508 0.8221
-0.1887 -25.9547 -2.9609 0.9008
3.7968 -13.5016 -1.5999 0.9451
4.0931 -12.5900 -1.5102 0.9481
4.7840 -10.2970 -1.2952 0.9553
5.1327 -9.0624 -1.1881 0.9589
5.4163 -7.9899 -1.1011 0.9619
5.5389 -7.5029 -1.0639 0.9632
5.6308 -7.0185 -1.0265 0.9644
5.7110 -6.5599 -0.9922 0.9656
5.9086 -5.3289 -0.9077 0.9685
5.9680 -4.9625 -0.8854 0.9692
5.9246 -4.5364 -0.8512 0.9704
6.0284 -3.5554 -0.7984 0.9722
6.1009 -2.9656 -0.7738 0.9731
6.3468 -2.4768 -0.7772 0.9729
3.8614 -0.5082 -0.4443 0.9844
3.8465 -0.1943 -0.4394 0.9846
3.8389 -0.0394 -0.4379 0.9847
3.8527 0.2707 -0.4406 0.9846
3.8618 0.4278 -0.4432 0.9845
3.9016 0.7533 -0.4533 0.9841
6.6187 1.5563 -0.7756 0.9730
6.6151 2.1288 -0.7927 0.9724
6.6086 2.4238 -0.8030 0.9721
6.5989 2.7259 -0.8145 0.9717
6.5861 3.0360 -0.8273 0.9712
6.5607 3.3503 -0.8404 0.9708
6.5309 3.6732 -0.8548 0.9703
6.3222 5.0412 -0.9224 0.9680
6.2555 5.4132 -0.9437 0.9672
6.1021 6.2048 -0.9928 0.9656
5.9864 6.5977 -1.0163 0.9648
5.7219 7.4268 -1.0695 0.9630
5.3109 8.9438 -1.1866 0.9590
4.3473 11.0422 -1.3538 0.9533
4.1197 11.8395 -1.4300 0.9508
2.3845 13.5606 -1.5707 0.9461
1.8372 13.6426 -1.5703 0.9461
1.8078 19.2454 -2.2051 0.9251
1.1998 22.4225 -2.5615 0.9136
0.3299 24.8794 -2.8384 0.9047
-4.0098 37.2116 -4.2695 0.8601
-29.8606 37.6796 -5.4844 0.8240
-32.3908 37.6583 -5.6664 0.8187
-29.7240 31.8717 -4.9716 0.8391
-28.2227 27.9226 -4.5290 0.8523
-18.1094 16.5306 -2.7971 0.9060
-29.2122 22.6461 -4.2165 0.8617
-34.6437 22.6506 -4.7217 0.8465
-30.2112 18.0624 -4.0154 0.8679
-32.6281 17.7677 -4.2382 0.8611
-35.9574 17.7458 -4.5742 0.8509
-44.2177 17.5613 -5.4274 0.8257
3.8603 0.6329 -0.4902 0.9844
6.4529 1.5991 -0.8331 0.9736
6.4345 2.4478 -0.8627 0.9726
6.4217 2.7432 -0.8751 0.9722
6.4009 3.0441 -0.8882 0.9718
6.3718 3.3506 -0.9022 0.9714
6.3385 3.6656 -0.9176 0.9709
6.3008 3.9900 -0.9346 0.9704
6.1200 5.0010 -0.9904 0.9686
5.9718 5.7389 -1.0379 0.9672
5.7785 6.5239 -1.0921 0.9655
5.5088 7.3301 -1.1491 0.9637
5.3595 7.7624 -1.1821 0.9627
5.0279 8.7028 -1.2595 0.9603
4.9028 9.3333 -1.3212 0.9584
4.5772 9.6354 -1.3368 0.9579
4.2946 10.0656 -1.3714 0.9568
4.0854 10.7532 -1.4415 0.9547
3.5833 12.3366 -1.6099 0.9495
2.9313 14.2931 -1.8284 0.9429
2.1969 13.4352 -1.7060 0.9466
2.0580 16.8014 -2.1212 0.9340
0.8846 21.3137 -2.6732 0.9176
0.0301 23.5289 -2.9486 0.9095
-9.7266 48.0521 -6.1438 0.8207
-15.4332 46.5213 -6.1423 0.8207
-31.2067 32.6682 -5.6616 0.8335
-29.8908 28.8727 -5.2079 0.8457
-18.5485 16.5286 -3.1134 0.9047
-20.0826 16.4965 -3.2569 0.9005
-28.4093 19.7408 -4.3353 0.8698
-34.9072 22.2306 -5.1862 0.8463
-30.2768 17.6128 -4.3895 0.8683
-30.2852 16.0246 -4.2938 0.8710
-37.0524 17.7376 -5.1479 0.8474
-38.6172 16.6135 -5.2682 0.8441
-46.1063 17.6751 -6.1879 0.8195
-2.6304 -29.9267 -3.7648 0.8859
-1.2405 -26.1134 -3.2761 0.9000
-0.1709 -23.5155 -2.9470 0.9096
2.9100 -14.8326 -1.8942 0.9409
4.3806 -10.5152 -1.4275 0.9551
4.5848 -9.8682 -1.3636 0.9571
4.9370 -8.7168 -1.2554 0.9604
5.3493 -7.2461 -1.1287 0.9643
5.5260 -6.3474 -1.0546 0.9666
5.7339 -5.1714 -0.9676 0.9694
5.8494 -4.4788 -0.9232 0.9707
5.8679 -3.7866 -0.8752 0.9722
5.9813 -3.2108 -0.8507 0.9730
6.2189 -2.1431 -0.8243 0.9738
6.2807 -1.6135 -0.8126 0.9742
4.0338 -0.8651 -0.5170 0.9835
3.8569 -0.6663 -0.4905 0.9843
3.8319 -0.1935 -0.4808 0.9847
3.8243 -0.0392 -0.4793 0.9847
3.8291 0.1147 -0.4801 0.9847
3.8470 0.4262 -0.4850 0.9845
3.8675 0.7468 -0.4936 0.9842
6.4462 2.0744 -0.8486 0.9731
6.4377 2.3612 -0.8593 0.9727
6.4259 2.6545 -0.8713 0.9724
6.4088 2.9542 -0.8843 0.9720
6.3809 3.2585 -0.8979 0.9715
6.3489 3.5708 -0.9128 0.9711
6.3125 3.8923 -0.9294 0.9705
6.2715 4.2240 -0.9476 0.9700
6.0710 5.2535 -1.0061 0.9682
5.8189 6.4131 -1.0852 0.9657
5.5511 7.2051 -1.1398 0.9640
3.6663 12.0803 -1.5820 0.9504
3.0403 13.9721 -1.7919 0.9440
2.1300 15.8170 -2.0000 0.9377
-1.9348 28.7724 -3.6138 0.8903
-3.5090 32.5644 -4.1045 0.8763
-5.6504 38.0188 -4.8167 0.8565
-16.9056 46.5233 -6.2031 0.8191
-33.0074 32.6564 -5.8187 0.8293
-19.6471 16.5368 -3.2182 0.9017
-28.2699 21.9157 -4.4826 0.8657
-28.4010 20.2437 -4.3707 0.8688
-30.0843 17.9865 -4.3925 0.8682
-39.8646 17.7189 -5.4669 0.8387
-40.0997 15.9259 -5.4070 0.8404
-24.5805 -4.5936 -3.1337 0.9041
3.8470 0.6308 -0.5325 0.9844
6.2901 1.8300 -0.8948 0.9739
6.2825 2.1051 -0.9050 0.9736
6.2712 2.3857 -0.9165 0.9733
6.2565 2.6726 -0.9293 0.9729
6.2315 2.9635 -0.9425 0.9725
6.2006 3.2606 -0.9569 0.9721
6.0161 4.5254 -1.0283 0.9701
5.9468 4.8595 -1.0490 0.9695
5.7950 5.5690 -1.0978 0.9681
5.6134 6.3375 -1.1564 0.9664
5.4859 6.7194 -1.1848 0.9656
5.1940 7.5227 -1.2486 0.9638
5.0300 7.9507 -1.2850 0.9627
4.6835 8.9159 -1.3756 0.9602
4.2252 9.9029 -1.4706 0.9575
2.7693 13.5032 -1.8828 0.9459
1.3990 17.0902 -2.3421 0.9331
0.8187 19.7263 -2.6967 0.9234
-0.9403 24.1479 -3.3008 0.9070
-8.2200 40.6087 -5.6591 0.8460
-29.5441 36.3766 -6.4009 0.8276
-29.6189 33.6127 -6.1192 0.8345
-31.2056 32.6671 -6.1706 0.8333
-29.7422 28.7292 -5.6481 0.8462
-18.5595 16.5384 -3.3955 0.9045
-20.1095 16.5187 -3.5546 0.9003
-29.8744 22.5919 -5.1159 0.8597
-29.6622 20.6114 -4.9336 0.8643
-29.8265 18.9950 -4.8299 0.8670
-28.2360 16.4257 -4.4618 0.8764
-33.8954 17.9349 -5.2378 0.8566
-35.1616 16.8324 -5.3246 0.8544
-32.5378 -33.4839 -6.3772 0.8282
-8.9587 -42.3912 -5.9180 0.8395
-6.0015 -35.3716 -4.9004 0.8652
-2.3292 -26.5001 -3.6335 0.8982
-0.1558 -21.4290 -2.9270 0.9171
0.6421 -19.4924 -2.6639 0.9243
1.8592 -16.3350 -2.2456 0.9358
2.7460 -13.9963 -1.9482 0.9440
3.1098 -13.0502 -1.8324 0.9473
3.4305 -12.1988 -1.7308 0.9501
3.7157 -11.4290 -1.6415 0.9526
4.1971 -10.0747 -1.4907 0.9569
4.4022 -9.4752 -1.4271 0.9587
4.5879 -8.9183 -1.3699 0.9603
5.0459 -7.4435 -1.2283 0.9643
5.2655 -6.5632 -1.1493 0.9666
5.3521 -6.1477 -1.1133 0.9676
5.4304 -5.7533 -1.0806 0.9686
5.5024 -5.3790 -1.0510 0.9694
5.5694 -5.0231 -1.0244 0.9702
5.6302 -4.6816 -1.0001 0.9709
5.7405 -4.0401 -0.9588 0.9721
5.7960 -3.7401 -0.9422 0.9725
5.8521 -3.4514 -0.9280 0.9729
5.9903 -2.6197 -0.8930 0.9740
6.0647 -2.0900 -0.8762 0.9744
6.0976 -1.8307 -0.8696 0.9746
6.1272 -1.5741 -0.8641 0.9748
3.9778 -0.8531 -0.5557 0.9837
3.8434 -0.6640 -0.5327 0.9844
3.8173 -0.1928 -0.5221 0.9847
3.8440 0.5831 -0.5310 0.9844
3.8541 0.7442 -0.5361 0.9843
4.2079 0.9894 -0.5904 0.9827
6.2851 2.0226 -0.9018 0.9737
6.2749 2.3015 -0.9129 0.9734
6.2612 2.5864 -0.9253 0.9730
6.2102 3.1713 -0.9524 0.9722
6.1379 3.7847 -0.9849 0.9713
6.0947 4.1050 -1.0037 0.9708
5.8194 5.4599 -1.0899 0.9683
5.6426 6.2188 -1.1469 0.9667
5.5253 6.6045 -1.1761 0.9658
5.3893 6.9950 -1.2061 0.9650
5.2405 7.3990 -1.2384 0.9641
4.9093 8.2674 -1.3133 0.9619
4.7385 8.7639 -1.3608 0.9606
4.5949 9.3811 -1.4268 0.9587
4.3289 9.8184 -1.4656 0.9576
3.9812 10.1125 -1.4844 0.9571
3.7439 10.7594 -1.5560 0.9550
2.8754 13.2145 -1.8472 0.9469
2.3680 13.4672 -1.8677 0.9463
1.0262 19.1781 -2.6232 0.9254
0.2776 20.9393 -2.8603 0.9189
-0.6292 23.3480 -3.1902 0.9100
-4.9201 33.1046 -4.5714 0.8736
-16.8931 46.4892 -6.7561 0.8190
-29.5198 37.2496 -6.4918 0.8254
-29.4855 34.2805 -6.1761 0.8331
-29.6659 31.8094 -5.9410 0.8390
-27.9341 27.6371 -5.3673 0.8533
-18.1186 16.5390 -3.3508 0.9057
-29.6579 21.1396 -4.9746 0.8633
-28.2495 16.8895 -4.4956 0.8756
-35.9535 17.7439 -5.4763 0.8506
-39.8622 17.7179 -5.9583 0.8385
-45.2534 15.8986 -6.5514 0.8240
-24.4889 -4.5765 -3.4028 0.9043
6.1375 1.7856 -0.9453 0.9745
6.1284 2.0535 -0.9559 0.9742
6.1155 2.3265 -0.9677 0.9739
5.9593 3.7738 -1.0432 0.9719
5.7827 4.7254 -1.1045 0.9703
5.7087 5.0609 -1.1283 0.9696
5.6278 5.4084 -1.1544 0.9689
5.4430 6.1451 -1.2141 0.9674
5.3307 6.5292 -1.2466 0.9665
5.1897 6.9054 -1.2775 0.9657
4.5283 8.6205 -1.4401 0.9614
4.1656 9.7631 -1.5698 0.9580
3.2482 11.1828 -1.7222 0.9540
2.9554 11.9485 -1.8204 0.9514
2.6238 12.7939 -1.9315 0.9486
1.8117 14.7907 -2.2038 0.9415
1.3088 15.9877 -2.3724 0.9372
0.0256 19.9659 -2.9528 0.9224
-3.2642 27.2270 -4.0555 0.8950
-4.9204 30.5827 -4.5811 0.8823
-7.0994 35.0729 -5.2923 0.8653
-28.3554 37.9319 -7.0041 0.8257
-29.3781 36.1722 -6.8917 0.8283
-29.4598 33.4321 -6.5901 0.8351
-29.5946 28.5867 -6.0853 0.8467
-18.5563 16.5355 -3.6759 0.9044
-20.1226 16.5294 -3.8513 0.9001
-29.7401 22.4903 -5.5144 0.8600
-32.6119 22.6611 -5.8732 0.8517
-39.1656 16.8494 -6.3056 0.8416
-28.0582 7.0294 -4.2779 0.8896
-25.9442 -17.7009 -4.6450 0.8807
-32.6040 -33.5520 -6.9191 0.8276
-10.9870 -43.3051 -6.6075 0.8347
-5.2640 -31.0252 -4.6540 0.8805
-0.1428 -19.6420 -2.9050 0.9236
0.5945 -18.0446 -2.6701 0.9296
1.2091 -16.5038 -2.4473 0.9353
1.7495 -15.3712 -2.2880 0.9394
3.5516 -10.9244 -1.6989 0.9546
4.0285 -9.6700 -1.5493 0.9585
4.5857 -8.0965 -1.3761 0.9631
4.8794 -7.1979 -1.2861 0.9654
5.0011 -6.7743 -1.2453 0.9665
5.2690 -5.5823 -1.1353 0.9694
5.4137 -4.8826 -1.0782 0.9710
5.4763 -4.5537 -1.0533 0.9716
5.5862 -3.9315 -1.0103 0.9728
5.7018 -3.3627 -0.9790 0.9736
5.7994 -2.8190 -0.9537 0.9743
5.8418 -2.5548 -0.9430 0.9745
5.9176 -2.0392 -0.9257 0.9750
5.9508 -1.7866 -0.9189 0.9752
3.8106 0.2677 -0.5649 0.9847
3.8207 0.4233 -0.5685 0.9846
3.8308 0.5811 -0.5730 0.9845
4.1402 0.9735 -0.6290 0.9829
6.1044 2.5216 -0.9768 0.9736
6.0124 3.3816 -1.0202 0.9725
5.9272 3.9921 -1.0569 0.9715
5.8739 4.3093 -1.0774 0.9710
5.7314 4.9597 -1.1210 0.9698
5.6527 5.3035 -1.1463 0.9691
5.5667 5.6603 -1.1741 0.9684
5.2327 6.7918 -1.2680 0.9659
4.9246 7.5816 -1.3370 0.9641
4.7523 8.0030 -1.3765 0.9631
4.5818 8.4742 -1.4247 0.9618
4.2290 9.5918 -1.5503 0.9585
3.9825 10.1156 -1.6078 0.9570
3.6346 10.4454 -1.6357 0.9563
3.0464 11.7126 -1.7899 0.9522
1.4667 15.6145 -2.3194 0.9386
0.9567 17.8789 -2.6480 0.9302
-4.3823 29.4860 -4.4087 0.8864
-6.3793 33.5789 -5.0549 0.8709
-12.9766 47.2288 -7.2437 0.8203
-29.3516 37.0374 -6.9891 0.8261
-29.4366 34.2236 -6.6762 0.8332
-29.5111 31.6435 -6.3992 0.8395
-33.0051 32.6542 -6.8665 0.8288
-19.6269 16.5198 -3.7940 0.9015
-29.5609 22.9165 -5.5317 0.8596
-31.8000 22.6665 -5.7754 0.8539
-35.9516 17.7429 -5.9293 0.8503
-39.8599 17.7169 -6.4511 0.8383
-40.0889 15.9216 -6.3794 0.8399
-27.9879 5.0078 -4.2050 0.8914
3.8240 0.6270 -0.6171 0.9844
5.9917 1.7432 -0.9937 0.9750
5.9464 2.5402 -1.0297 0.9741
5.9168 2.8139 -1.0433 0.9738
5.8445 3.3799 -1.0751 0.9730
5.8014 3.6738 -1.0934 0.9726
5.5517 4.9217 -1.1814 0.9704
5.4694 5.2561 -1.2079 0.9697
4.8906 7.0833 -1.3707 0.9657
4.7281 7.4735 -1.4082 0.9648
4.5538 7.8822 -1.4495 0.9638
3.9782 9.3239 -1.6142 0.9598
3.7877 9.9695 -1.6982 0.9577
2.8223 11.4101 -1.8717 0.9535
2.1264 13.0044 -2.0983 0.9480
1.2723 15.5419 -2.4831 0.9388
0.0237 18.5390 -2.9521 0.9277
-0.7955 20.4302 -3.2557 0.9205
-2.9806 24.8615 -3.9872 0.9036
-4.4262 27.5109 -4.4371 0.8933
-6.2555 30.9038 -5.0208 0.8801
-8.6933 35.5363 -5.8255 0.8623
-12.1159 42.1155 -6.9783 0.8374
-28.1392 31.9335 -6.7775 0.8416
-29.4480 28.4451 -6.5196 0.8472
-20.1235 16.5302 -4.1469 0.8999
-29.6065 22.3893 -5.9107 0.8604
-32.6105 22.6601 -6.3234 0.8514
-34.4627 21.9476 -6.5061 0.8475
-30.6734 16.2301 -5.5259 0.8689
-39.6526 18.9823 -7.0004 0.8369
-41.1593 17.7071 -7.1348 0.8340
-46.0971 17.6715 -7.8612 0.8188
-20.2538 -4.8905 -3.3178 0.9191
-35.7139 -33.9121 -7.8423 0.8192
-32.4814 -33.4259 -7.4217 0.8280
-17.7393 -45.8625 -7.8302 0.8194
-13.1213 -44.1848 -7.3395 0.8297
-9.2792 -36.5739 -6.0084 0.8583
-6.6480 -31.4572 -5.1198 0.8779
-3.0900 -24.0337 -3.8585 0.9065
-1.9048 -21.6720 -3.4643 0.9157
-0.9385 -19.7559 -3.1494 0.9230
-0.1327 -18.2523 -2.9065 0.9287
1.6438 -14.4425 -2.3146 0.9428
2.0913 -13.5141 -2.1775 0.9461
2.8244 -11.8526 -1.9402 0.9518
3.1285 -11.1251 -1.8402 0.9543
3.4010 -10.4611 -1.7516 0.9564
3.6486 -9.8565 -1.6736 0.9583
3.8729 -9.2965 -1.6037 0.9600
4.2602 -8.2813 -1.4830 0.9630
4.5814 -7.3804 -1.3832 0.9654
4.7231 -6.9673 -1.3403 0.9665
4.9429 -6.1611 -1.2578 0.9685
5.1174 -5.4217 -1.1872 0.9703
5.3302 -4.4322 -1.1039 0.9723
5.3886 -4.1260 -1.0807 0.9729
5.4427 -3.8305 -1.0598 0.9734
5.5602 -3.2792 -1.0279 0.9742
5.6592 -2.7509 -1.0020 0.9748
5.7024 -2.4938 -0.9911 0.9751
5.7774 -1.9909 -0.9731 0.9756
5.8104 -1.7444 -0.9660 0.9757
3.8297 -0.5041 -0.6151 0.9845
3.8159 -0.3469 -0.6101 0.9846
3.8210 0.5796 -0.6154 0.9845
3.8313 0.7398 -0.6214 0.9843
4.0743 0.9580 -0.6665 0.9832
5.9261 2.7317 -1.0391 0.9739
5.8935 3.0095 -1.0537 0.9736
5.8565 3.2939 -1.0699 0.9732
5.8148 3.5854 -1.0878 0.9727
5.7160 4.1934 -1.1289 0.9717
5.6481 4.5037 -1.1503 0.9712
5.4067 5.4976 -1.2278 0.9693
5.3105 5.8528 -1.2584 0.9685
5.2059 6.2227 -1.2919 0.9677
5.0846 6.5995 -1.3266 0.9668
4.9368 6.9701 -1.3601 0.9660
4.7778 7.3556 -1.3967 0.9651
4.0432 9.1704 -1.5959 0.9602
2.9287 11.2602 -1.8527 0.9540
2.5929 11.9161 -1.9419 0.9518
2.2404 12.7416 -2.0601 0.9489
1.8393 13.6584 -2.1945 0.9457
0.8958 16.7411 -2.6696 0.9343
-0.5343 19.8272 -3.1584 0.9228
-2.5996 24.1252 -3.8638 0.9064
-29.1848 36.8268 -7.4824 0.8267
-29.3574 31.4787 -6.8541 0.8400
-34.4506 22.5243 -6.5543 0.8464
-39.8575 17.7158 -6.9455 0.8381
-44.5279 17.6845 -7.6292 0.8236
-27.9500 8.5741 -4.6554 0.8883
3.8317 0.6282 -0.6625 0.9844
3.8396 0.7892 -0.6688 0.9842
5.8571 1.4514 -1.0296 0.9758
5.8404 1.9570 -1.0509 0.9753
5.8011 2.4781 -1.0763 0.9747
5.6956 3.2938 -1.1226 0.9737
5.6511 3.5786 -1.1412 0.9732
5.5462 4.1719 -1.1841 0.9722
5.4014 4.7884 -1.2316 0.9711
5.3174 5.1100 -1.2583 0.9705
4.9014 6.5218 -1.3920 0.9674
4.7511 6.8813 -1.4267 0.9666
4.5897 7.2547 -1.4647 0.9658
3.8450 9.0116 -1.6717 0.9610
3.3715 10.0766 -1.8129 0.9578
2.0736 12.6817 -2.1925 0.9492
0.6629 15.9729 -2.7276 0.9372
-1.6483 20.7894 -3.5582 0.9189
-4.0364 25.0881 -4.3356 0.9020
-5.6172 27.7504 -4.8308 0.8915
-14.1236 42.5738 -7.6532 0.8336
-23.1618 40.3293 -7.9350 0.8280
-29.0500 35.7682 -7.8620 0.8295
-29.3024 28.3044 -6.9511 0.8476
-29.3676 26.1694 -6.7114 0.8525
-20.1176 16.5253 -4.4420 0.8997
-29.4737 22.2888 -6.3048 0.8608
-29.3737 20.4110 -6.1029 0.8649
-35.4503 16.9706 -6.7059 0.8526
-32.5198 -33.4653 -7.9617 0.8275
-15.2397 -44.6567 -8.0508 0.8257
-5.8432 -27.6494 -4.8217 0.8917
-2.7974 -21.7577 -3.7428 0.9148
-0.8713 -18.3417 -3.1330 0.9282
-0.1231 -16.9281 -2.8883 0.9336
0.5177 -15.7141 -2.6826 0.9382
1.5605 -13.7102 -2.3543 0.9455
2.6985 -11.3242 -1.9862 0.9539
3.7283 -8.9495 -1.6542 0.9614
3.9297 -8.4582 -1.5913 0.9629
4.2797 -7.5563 -1.4817 0.9654
4.4342 -7.1434 -1.4345 0.9665
4.6935 -6.3576 -1.3483 0.9684
4.7953 -5.9770 -1.3074 0.9694
4.9741 -5.2699 -1.2364 0.9710
5.2493 -4.0193 -1.1280 0.9735
5.3696 -3.4650 -1.0904 0.9744
5.4265 -3.2004 -1.0749 0.9748
5.4786 -2.9410 -1.0609 0.9751
5.5700 -2.4359 -1.0373 0.9756
5.6457 -1.9456 -1.0189 0.9761
5.6780 -1.7047 -1.0115 0.9762
5.7068 -1.4661 -1.0053 0.9764
3.8351 -0.5048 -0.6600 0.9844
3.8324 -0.3484 -0.6566 0.9845
3.8061 -0.0391 -0.6494 0.9847
3.8326 0.7400 -0.6660 0.9843
4.0103 0.9430 -0.7029 0.9834
5.8534 1.6271 -1.0366 0.9756
5.8443 1.8807 -1.0475 0.9754
5.8300 2.1383 -1.0595 0.9751
5.8094 2.3998 -1.0724 0.9748
5.7079 3.2103 -1.1173 0.9738
5.6649 3.4930 -1.1355 0.9734
5.5632 4.0813 -1.1772 0.9724
5.2540 5.3424 -1.2785 0.9701
5.1569 5.6835 -1.3094 0.9693
5.0512 6.0378 -1.3431 0.9686
4.9408 6.4129 -1.3813 0.9677
4.7970 6.7728 -1.4161 0.9669
4.1107 8.3926 -1.5945 0.9628
3.6865 9.3638 -1.7170 0.9600
3.4473 9.9072 -1.7898 0.9583
2.5679 11.8013 -2.0607 0.9522
1.7948 13.3280 -2.2945 0.9469
1.3728 14.6144 -2.5045 0.9422
0.2236 16.8621 -2.8773 0.9339
-0.4961 18.4082 -3.1419 0.9280
-1.3621 20.2561 -3.4639 0.9209
-2.3861 22.1433 -3.8000 0.9136
-6.9620 30.0120 -5.2566 0.8825
-9.4588 34.4258 -6.0914 0.8651
-28.9065 39.6508 -8.3721 0.8195
-19.6054 16.5018 -4.3723 0.9012
-29.4616 22.8395 -6.3603 0.8596
-29.7432 17.7826 -5.9126 0.8688
-39.4844 19.4865 -7.5126 0.8364
-39.4684 17.5429 -7.3693 0.8392
-44.5250 17.6834 -8.1740 0.8233
-24.2420 -4.5303 -4.2078 0.9048
3.8329 0.6284 -0.7071 0.9843
4.2162 1.0448 -0.7907 0.9825
5.6890 2.1642 -1.1081 0.9756
5.6622 2.4188 -1.1209 0.9753
5.6305 2.6777 -1.1350 0.9750
5.4003 4.0621 -1.2302 0.9729
5.2578 4.6611 -1.2791 0.9718
5.1730 4.9713 -1.3061 0.9713
4.8725 5.9680 -1.4026 0.9692
4.7586 6.3319 -1.4419 0.9683
4.2864 7.4194 -1.5599 0.9658
3.9234 8.2590 -1.6645 0.9635
3.7197 8.7181 -1.7255 0.9622
3.4940 9.1966 -1.7910 0.9608
2.9848 10.2761 -1.9480 0.9574
2.7164 10.9819 -2.0595 0.9550
2.3908 11.6578 -2.1664 0.9528
0.6234 15.0195 -2.7366 0.9407
-0.6859 17.6134 -3.2089 0.9308
-1.5266 19.2543 -3.5162 0.9245
-2.5139 20.9685 -3.8446 0.9177
-3.6920 22.9477 -4.2313 0.9098
-5.1095 25.2422 -4.6884 0.9006
-28.7722 38.4895 -8.7482 0.8225
-28.8878 35.5684 -8.3416 0.8300
-28.9893 32.8981 -7.9824 0.8367
-28.9619 27.9754 -7.3304 0.8490
-20.0844 16.4981 -4.7317 0.8997
-29.3415 22.1889 -6.6969 0.8611
-30.5577 17.7763 -6.4357 0.8661
-31.6597 16.7519 -6.5206 0.8645
-39.3367 18.8311 -7.9393 0.8375
-27.7537 9.3786 -5.3331 0.8877
-27.7309 8.1448 -5.2615 0.8891
-31.4114 -17.9152 -6.5830 0.8633
-31.2672 -34.8775 -8.5272 0.8266
-16.5959 -42.9064 -8.3749 0.8294
-12.7465 -37.3510 -7.1846 0.8518
-9.5155 -32.0426 -6.0850 0.8729
-7.0920 -27.9531 -5.2500 0.8894
-5.1922 -24.5689 -4.5715 0.9029
