ply
format ascii 1.0
element vertex 1391
property float32 x
property float32 y
property float32 z
property float32 CosAngle
property uint32 ObjIdx
property uint32 ObjTag
end_header
1.9375 4.6736 -2.3507 0.5061 0 24
1.7862 4.8514 -2.4020 0.4953 0 24
1.6340 5.0560 -2.4687 0.4843 0 1
1.4621 5.2346 -2.5252 0.4735 0 1
1.2801 5.4144 -2.5850 0.4626 0 1
1.0874 5.5951 -2.6483 0.4515 0 1
0.8836 5.7779 -2.7158 0.4405 0 1
0.6663 5.9489 -2.7813 0.4272 0 24
0.4393 6.1476 -2.8636 0.4185 0 1
0.1972 6.3327 -2.9437 0.4071 0 1
-0.0591 6.5181 -3.0286 0.3957 0 1
-0.3306 6.7035 -3.1184 0.3843 0 1
-0.6181 6.8889 -3.2136 0.3721 0 1
-0.9226 7.0737 -3.3144 0.3608 0 1
-1.2444 7.2538 -3.4195 0.3535 0 1
-1.5842 7.4288 -3.5292 0.3425 0 1
-1.9434 7.6009 -3.6451 0.3316 0 1
-2.3228 7.7692 -3.7676 0.3208 0 1
-2.7237 7.9329 -3.8970 0.3102 0 1
-3.1469 8.0909 -4.0335 0.2997 0 1
-3.5934 8.2420 -4.1776 0.2896 0 1
-4.0642 8.3847 -4.3292 0.2794 0 1
-4.5622 8.5213 -4.4909 0.2666 0 1
-5.0873 8.6477 -4.6616 0.2568 0 1
-5.6401 8.7614 -4.8413 0.2473 0 1
-6.2156 8.8521 -5.0255 0.2433 0 1
-6.8158 8.9216 -5.2164 0.2344 0 1
-7.4431 8.9708 -5.4159 0.2257 0 1
-8.1030 9.0037 -5.6280 0.2092 0 1
-8.8100 9.0312 -5.8620 0.2008 0 1
-9.5476 9.0307 -6.1060 0.1928 0 1
-10.3158 8.9999 -6.3606 0.1838 0 1
-11.1173 8.9383 -6.6278 0.1764 0 1
-11.9448 8.8372 -6.9036 0.1693 0 1
-12.7996 8.6960 -7.1897 0.1623 0 1
-13.6746 8.5078 -7.4828 0.1560 0 1
-14.5713 8.2724 -7.7851 0.1490 0 1
-15.4992 7.9931 -8.1025 0.1405 0 1
-16.4219 7.6497 -8.4172 0.1358 0 1
-17.3301 7.2399 -8.7263 0.1313 0 1
-18.2178 6.7642 -9.0290 0.1268 0 1
-19.0629 6.2182 -9.3163 0.1240 0 1
-19.8279 5.5967 -9.5724 0.1207 0 1
-16.1979 3.8764 -7.7384 0.9647 26 14
-16.2067 3.1958 -7.6750 0.9845 26 14
-16.2461 2.5299 -7.6393 0.9928 26 14
-19.2112 2.2050 -8.9845 0.9485 26 14
-22.3219 1.6565 -10.3998 0.1124 0 1
-22.4778 0.7615 -10.4497 0.1092 0 1
-22.5268 -0.1429 -10.4667 0.1090 0 1
-22.4275 -1.0447 -10.4316 0.1095 0 1
-22.1915 -1.9301 -10.3496 0.1102 0 1
-21.7703 -2.7790 -10.1970 0.6079 0 2
-21.1465 -3.5683 -9.9640 0.9849 0 2
-20.7918 -4.3746 -9.8718 0.1202 0 1
-20.1597 -5.0957 -9.6612 0.1239 0 1
-19.4546 -5.7587 -9.4267 0.1270 0 1
-18.6893 -6.3597 -9.1724 0.1274 0 1
-17.8642 -6.8920 -8.8964 0.1314 0 1
-16.9952 -7.3545 -8.6040 0.1351 0 1
-16.0984 -7.7490 -8.3011 0.1384 0 1
-15.1749 -8.0712 -7.9858 0.1438 0 1
-14.2508 -8.3312 -7.6697 0.1501 0 1
-13.2918 -8.5053 -7.3318 0.1553 0 24
-12.4410 -8.6849 -7.0495 0.1631 0 1
-11.5896 -8.8040 -6.7623 0.1753 0 1
-10.7688 -8.8853 -6.4867 0.1826 0 1
-9.9783 -8.9309 -6.2219 0.1978 0 1
-9.2404 -8.9650 -5.9818 0.2058 0 1
-8.5302 -8.9691 -5.7510 0.2140 0 1
-7.8483 -8.9463 -5.5294 0.2226 0 1
-7.1888 -8.8915 -5.3125 0.2285 0 1
-6.5596 -8.8158 -5.1055 0.2374 0 1
-5.9610 -8.7226 -4.9087 0.2469 0 1
-5.3919 -8.6138 -4.7216 0.2561 0 1
-4.8510 -8.4905 -4.5433 0.2652 0 1
-4.3381 -8.3557 -4.3743 0.2754 0 1
-3.8406 -8.1863 -4.2013 0.2851 0 24
-3.3931 -8.0600 -4.0632 0.2965 0 1
-2.9574 -7.8987 -3.9187 0.3057 0 1
-2.5456 -7.7320 -3.7822 0.3168 0 1
-2.1495 -7.5366 -3.6413 0.3292 0 24
-1.7894 -7.3877 -3.5318 0.3392 0 1
-1.4431 -7.2145 -3.4184 0.3534 0 1
-1.1159 -7.0395 -3.3115 0.3648 0 1
-0.8064 -6.8603 -3.2094 0.3754 0 1
-0.5141 -6.6803 -3.1130 0.3871 0 1
-0.2380 -6.4999 -3.0220 0.3986 0 1
0.0228 -6.3195 -2.9362 0.4103 0 1
0.2692 -6.1394 -2.8552 0.4219 0 1
0.5019 -5.9598 -2.7788 0.4335 0 1
0.7218 -5.7807 -2.7067 0.4435 0 1
0.9267 -5.5847 -2.6303 0.4567 0 24
1.1258 -5.4245 -2.5741 0.4665 0 1
1.3109 -5.2466 -2.5126 0.4781 0 1
1.4856 -5.0697 -2.4546 0.4894 0 1
1.6506 -4.8943 -2.3998 0.5005 0 1
1.7972 -4.6965 -2.3364 0.5083 0 24
1.9414 -4.5201 -2.2856 0.5194 0 24
2.0874 -4.3671 -2.2489 0.5153 0 1
2.2123 -4.1870 -2.2002 0.5267 0 1
2.3293 -4.0094 -2.1544 0.5379 0 1
2.4403 -3.8367 -2.1126 0.5712 0 1
2.5473 -3.6703 -2.0758 0.5813 0 1
2.6480 -3.5056 -2.0412 0.5911 0 1
2.7426 -3.3425 -2.0089 0.6007 0 1
2.8314 -3.1809 -1.9786 0.6099 0 1
2.9146 -3.0207 -1.9503 0.6187 0 1
2.9926 -2.8618 -1.9239 0.6272 0 1
3.0656 -2.7042 -1.8993 0.6353 0 1
3.1337 -2.5478 -1.8765 0.6430 0 1
3.1971 -2.3925 -1.8553 0.6504 0 1
3.2558 -2.2381 -1.8357 0.6535 0 1
3.3109 -2.0851 -1.8179 0.6644 0 1
3.3626 -1.9334 -1.8022 0.6702 0 1
3.4105 -1.7825 -1.7880 0.6682 0 1
3.4550 -1.6325 -1.7755 0.6730 0 1
3.4957 -1.4829 -1.7643 0.6772 0 1
3.5325 -1.3336 -1.7543 0.6810 0 1
3.5656 -1.1847 -1.7457 0.6844 0 1
3.5951 -1.0360 -1.7383 0.6873 0 1
3.6210 -0.8875 -1.7322 0.6898 0 1
3.6434 -0.7392 -1.7273 0.6917 0 1
3.6623 -0.5908 -1.7236 0.6932 0 1
3.6777 -0.4425 -1.7211 0.6942 0 1
3.6897 -0.2941 -1.7197 0.6948 0 1
3.6982 -0.1455 -1.7196 0.6948 0 1
3.7044 0.0032 -1.7211 0.6934 0 1
3.7086 0.1524 -1.7246 0.6921 0 1
3.7093 0.3022 -1.7291 0.6800 0 1
3.7030 0.4521 -1.7333 0.6784 0 1
3.6930 0.6024 -1.7385 0.6763 0 1
3.6795 0.7532 -1.7450 0.6738 0 1
3.6623 0.9044 -1.7527 0.6709 0 1
3.6413 1.0562 -1.7616 0.6675 0 1
3.6166 1.2087 -1.7717 0.6637 0 1
3.5881 1.3618 -1.7831 0.6594 0 1
3.5556 1.5156 -1.7958 0.6548 0 1
3.5190 1.6703 -1.8098 0.6497 0 1
3.4784 1.8257 -1.8252 0.6442 0 1
3.4335 1.9821 -1.8420 0.6383 0 1
3.3842 2.1395 -1.8602 0.6321 0 1
3.3307 2.2981 -1.8801 0.6250 0 1
3.2731 2.4583 -1.9019 0.6225 0 1
3.2108 2.6199 -1.9254 0.6149 0 1
3.1436 2.7828 -1.9506 0.6070 0 1
3.0711 2.9471 -1.9776 0.5987 0 1
2.9932 3.1129 -2.0065 0.5901 0 1
2.9096 3.2803 -2.0372 0.5812 0 1
2.8200 3.4492 -2.0700 0.5720 0 1
2.7243 3.6198 -2.1050 0.5625 0 1
2.6216 3.7915 -2.1417 0.5573 0 1
2.5099 3.9613 -2.1789 0.5477 0 1
2.3911 4.1325 -2.2183 0.5380 0 1
2.2650 4.3050 -2.2602 0.5280 0 1
-3.1422 7.8246 -4.0319 0.3070 0 1
-3.5733 7.9572 -4.1709 0.2969 0 1
-4.0264 8.0804 -4.3169 0.2869 0 1
-4.5029 8.1941 -4.4708 0.2742 0 1
-5.0048 8.2986 -4.6339 0.2645 0 1
-5.5312 8.3893 -4.8049 0.2551 0 1
-6.0793 8.4598 -4.9813 0.2482 0 1
-6.6482 8.5078 -5.1629 0.2424 0 1
-7.2390 8.5333 -5.3508 0.2339 0 1
-7.8523 8.5356 -5.5458 0.2257 0 1
-8.5080 8.5330 -5.7618 0.2092 0 1
-9.1911 8.5051 -5.9878 0.2013 0 1
-9.8979 8.4466 -6.2219 0.1936 0 1
-10.6296 8.3566 -6.4653 0.1851 0 1
-11.3818 8.2297 -6.7161 0.1782 0 1
-12.1539 8.0645 -6.9746 0.1712 0 1
-12.9383 7.8548 -7.2375 0.1651 0 1
-13.7341 7.5999 -7.5056 0.1582 0 1
-14.5371 7.2969 -7.7777 0.1527 0 1
-15.3437 6.9443 -8.0533 0.1454 0 1
-16.1296 6.5322 -8.3211 0.1402 0 1
-16.8809 6.0587 -8.5760 0.1354 0 1
-17.5929 5.5267 -8.8176 0.1317 0 1
-18.2446 4.9351 -9.0375 0.1295 0 1
-16.1451 3.6777 -7.9178 0.9568 26 14
-16.1530 3.0022 -7.8561 0.9786 26 14
-16.2957 2.3555 -7.8730 0.5113 26 14
-20.0486 2.0794 -9.6380 0.1222 0 1
-20.2619 1.2811 -9.7079 0.1216 0 1
-20.3667 0.4672 -9.7412 0.1218 0 1
-20.3599 -0.3517 -9.7369 0.1219 0 1
-20.2500 -1.1652 -9.6989 0.1224 0 1
-20.0276 -1.9626 -9.6224 0.1245 0 1
-19.7048 -2.7345 -9.5125 0.1259 0 1
-19.2993 -3.4740 -9.3766 0.1294 0 1
-18.8144 -4.1738 -9.2151 0.1316 0 1
-18.2493 -4.8257 -9.0261 0.1330 0 1
-17.6184 -5.4253 -8.8149 0.1359 0 1
-16.9333 -5.9695 -8.5853 0.1396 0 1
-16.2001 -6.4542 -8.3385 0.1425 0 1
-15.4348 -6.8805 -8.0805 0.1470 0 1
-14.6304 -7.2404 -7.8056 0.1507 0 1
-13.8181 -7.5444 -7.5280 0.1557 0 1
-13.0013 -7.7927 -7.2480 0.1617 0 1
-12.1962 -7.9935 -6.9728 0.1729 0 1
-11.4218 -8.1605 -6.7123 0.1808 0 1
-10.6632 -8.2856 -6.4571 0.1879 0 1
-9.9290 -8.3765 -6.2116 0.2029 0 1
-9.2355 -8.4496 -5.9855 0.2105 0 1
-8.5636 -8.4920 -5.7668 0.2185 0 1
-7.9145 -8.5061 -5.5557 0.2268 0 1
-7.2834 -8.4877 -5.3480 0.2320 0 1
-6.6771 -8.4457 -5.1481 0.2410 0 1
-6.0975 -8.3845 -4.9573 0.2503 0 1
-5.5442 -8.3062 -4.7752 0.2592 0 1
-5.0155 -8.2108 -4.6007 0.2681 0 1
-4.5124 -8.1023 -4.4346 0.2781 0 1
-4.0341 -7.9824 -4.2766 0.2865 0 1
-3.5799 -7.8527 -4.1267 0.2969 0 1
-3.1492 -7.7153 -3.9847 0.3078 0 1
-2.7304 -7.5427 -3.8357 0.3193 0 24
-2.3520 -7.4160 -3.7201 0.3297 0 1
-1.9787 -7.2365 -3.5873 0.3424 0 24
-1.6380 -7.1010 -3.4846 0.3550 0 1
-1.3095 -6.9403 -3.3772 0.3663 0 1
-0.9984 -6.7761 -3.2751 0.3767 0 1
-0.7037 -6.6083 -3.1777 0.3882 0 1
-0.4248 -6.4392 -3.0857 0.3997 0 1
-0.1610 -6.2692 -2.9987 0.4113 0 1
0.0887 -6.0988 -2.9165 0.4229 0 1
0.3249 -5.9282 -2.8389 0.4344 0 1
0.5483 -5.7573 -2.7654 0.4444 0 1
0.7575 -5.5702 -2.6880 0.4576 0 24
0.9597 -5.4161 -2.6301 0.4674 0 1
1.1488 -5.2464 -2.5681 0.4787 0 1
1.3274 -5.0758 -2.5087 0.4902 0 1
1.4961 -4.9061 -2.4526 0.5014 0 1
1.6556 -4.7375 -2.3997 0.5125 0 1
1.7966 -4.5455 -2.3371 0.5205 0 24
1.9363 -4.3757 -2.2880 0.5325 0 24
2.0760 -4.2239 -2.2505 0.5272 0 1
2.1970 -4.0502 -2.2032 0.5385 0 1
2.3109 -3.8794 -2.1592 0.5721 0 1
2.4214 -3.7165 -2.1210 0.5824 0 1
2.5254 -3.5551 -2.0852 0.5924 0 1
2.6233 -3.3951 -2.0516 0.6021 0 1
2.7153 -3.2365 -2.0201 0.6115 0 1
2.8017 -3.0791 -1.9906 0.6206 0 1
2.8828 -2.9230 -1.9631 0.6293 0 1
2.9587 -2.7681 -1.9374 0.6376 0 1
3.0297 -2.6142 -1.9135 0.6456 0 1
3.0960 -2.4614 -1.8913 0.6532 0 1
3.1575 -2.3094 -1.8705 0.6566 0 1
3.2143 -2.1582 -1.8513 0.6635 0 1
3.2686 -2.0089 -1.8345 0.6741 0 1
3.3189 -1.8603 -1.8193 0.6797 0 1
3.3652 -1.7122 -1.8054 0.6849 0 1
3.4078 -1.5648 -1.7931 0.6822 0 1
3.4471 -1.4180 -1.7823 0.6863 0 1
3.4826 -1.2715 -1.7728 0.6900 0 1
3.5145 -1.1252 -1.7645 0.6932 0 1
3.5428 -0.9791 -1.7575 0.6960 0 1
3.5675 -0.8332 -1.7518 0.6983 0 1
3.5887 -0.6873 -1.7472 0.7001 0 1
3.6065 -0.5414 -1.7438 0.7015 0 1
3.6208 -0.3956 -1.7416 0.7023 0 1
3.6317 -0.2496 -1.7406 0.7027 0 1
3.6392 -0.1034 -1.7408 0.7027 0 1
3.6448 0.0430 -1.7430 0.7011 0 1
3.6479 0.1899 -1.7467 0.6996 0 1
3.6453 0.3371 -1.7505 0.6877 0 1
3.6379 0.4846 -1.7549 0.6860 0 1
3.6270 0.6324 -1.7605 0.6838 0 1
3.6125 0.7807 -1.7672 0.6812 0 1
3.5943 0.9294 -1.7752 0.6781 0 1
3.5724 1.0787 -1.7844 0.6746 0 1
3.5467 1.2286 -1.7948 0.6707 0 1
3.5172 1.3791 -1.8065 0.6664 0 1
3.4838 1.5302 -1.8194 0.6616 0 1
3.4463 1.6821 -1.8337 0.6565 0 1
3.4047 1.8348 -1.8494 0.6509 0 1
3.3589 1.9884 -1.8664 0.6450 0 1
3.3089 2.1429 -1.8850 0.6495 0 1
3.2550 2.2989 -1.9055 0.6362 0 1
3.1967 2.4560 -1.9276 0.6289 0 1
3.1335 2.6144 -1.9514 0.6212 0 1
3.0654 2.7739 -1.9768 0.6132 0 1
2.9920 2.9348 -2.0040 0.6049 0 1
2.9133 3.0969 -2.0331 0.5962 0 1
2.8289 3.2605 -2.0641 0.5873 0 1
2.7387 3.4254 -2.0971 0.5780 0 1
2.6422 3.5919 -2.1322 0.5685 0 1
2.5384 3.7584 -2.1686 0.5634 0 1
2.4263 3.9237 -2.2059 0.5539 0 1
2.3073 4.0901 -2.2455 0.5441 0 1
2.1810 4.2575 -2.2874 0.5342 0 1
2.0470 4.4260 -2.3318 0.5246 0 1
1.9050 4.5953 -2.3787 0.5142 0 1
1.7452 4.7399 -2.4152 0.5043 0 24
1.5955 4.9368 -2.4808 0.4930 0 1
1.4269 5.1086 -2.5363 0.4827 0 1
1.2486 5.2810 -2.5948 0.4718 0 1
1.0600 5.4541 -2.6567 0.4608 0 1
0.8608 5.6289 -2.7228 0.4498 0 1
0.6502 5.8046 -2.7929 0.4385 0 1
0.4266 5.9693 -2.8616 0.4258 0 24
0.1917 6.1563 -2.9451 0.4166 0 1
-0.0575 6.3314 -3.0276 0.4053 0 1
-0.3209 6.5060 -3.1147 0.3939 0 1
-0.5993 6.6796 -3.2068 0.3826 0 1
-0.8937 6.8521 -3.3042 0.3705 0 1
-1.2046 7.0215 -3.4065 0.3623 0 1
-1.5320 7.1836 -3.5122 0.3523 0 1
-1.8772 7.3421 -3.6237 0.3415 0 1
-2.2412 7.4961 -3.7411 0.3308 0 1
-2.6247 7.6448 -3.8649 0.3202 0 1
-3.0287 7.7872 -3.9953 0.3098 0 1
-3.4540 7.9221 -4.1325 0.2997 0 1
-3.9010 8.0479 -4.2765 0.2896 0 1
-4.3707 8.1636 -4.4278 0.2797 0 1
-4.8660 8.2714 -4.5888 0.2671 0 1
-5.3857 8.3661 -4.7576 0.2576 0 1
-5.9282 8.4428 -4.9329 0.2506 0 1
-6.4916 8.4972 -5.1131 0.2448 0 1
-7.0761 8.5286 -5.2990 0.2362 0 1
-7.6834 8.5374 -5.4921 0.2279 0 1
-8.3265 8.5356 -5.7018 0.2114 0 1
-9.0030 8.5157 -5.9256 0.2034 0 1
-9.7034 8.4656 -6.1574 0.1956 0 1
-10.4283 8.3843 -6.3982 0.1870 0 1
-11.1757 8.2682 -6.6473 0.1800 0 1
-11.9423 8.1135 -6.9036 0.1729 0 1
-12.7243 7.9165 -7.1658 0.1667 0 1
-13.5157 7.6731 -7.4316 0.1598 0 1
-14.3192 7.3846 -7.7038 0.1542 0 1
-15.1268 7.0464 -7.9794 0.1467 0 1
-15.9183 6.6501 -8.2491 0.1419 0 1
-16.6810 6.1936 -8.5083 0.1380 0 1
-17.3482 5.6589 -8.7255 0.1326 0 24
-18.0748 5.1018 -8.9804 0.1303 0 1
-16.1469 3.8642 -7.9389 0.9476 26 14
-16.1435 3.1833 -7.8679 0.9771 26 14
-16.1695 2.5180 -7.8249 0.9709 26 14
-19.2828 2.2133 -9.2809 0.4510 26 14
-20.2137 1.5000 -9.6921 0.1218 0 1
-20.3496 0.6894 -9.7361 0.1218 0 1
-20.3724 -0.1292 -9.7416 0.1218 0 1
-20.2906 -0.9452 -9.7128 0.1222 0 1
-20.0985 -1.7480 -9.6467 0.1242 0 1
-19.8017 -2.5277 -9.5453 0.1255 0 1
-19.4170 -3.2765 -9.4158 0.1288 0 1
-18.9540 -3.9879 -9.2616 0.1310 0 1
-18.4098 -4.6534 -9.0798 0.1322 0 1
-17.7961 -5.2677 -8.8745 0.1350 0 1
-17.1241 -5.8271 -8.6493 0.1385 0 1
-16.4035 -6.3284 -8.4071 0.1413 0 1
-15.6452 -6.7703 -8.1514 0.1458 0 1
-14.8503 -7.1482 -7.8807 0.1492 0 1
-14.0395 -7.4673 -7.6037 0.1546 0 1
-13.2227 -7.7302 -7.3238 0.1600 0 1
-12.4121 -7.9424 -7.0461 0.1663 0 1
-11.6310 -8.1195 -6.7827 0.1777 0 1
-10.8675 -8.2555 -6.5258 0.1860 0 1
-10.1233 -8.3527 -6.2756 0.1933 0 1
-9.4219 -8.4329 -6.0463 0.2084 0 1
-8.7440 -8.4833 -5.8255 0.2163 0 1
-8.0887 -8.5049 -5.6123 0.2245 0 1
-7.4528 -8.4954 -5.4038 0.2300 0 1
-6.8393 -8.4592 -5.2015 0.2385 0 1
-6.2524 -8.4029 -5.0083 0.2477 0 1
-5.6921 -8.3291 -4.8239 0.2572 0 1
-5.1567 -8.2382 -4.6473 0.2654 0 1
-4.6467 -8.1330 -4.4789 0.2754 0 1
-4.1617 -8.0160 -4.3188 0.2837 0 1
-3.7010 -7.8888 -4.1667 0.2940 0 1
-3.2643 -7.7542 -4.0230 0.3049 0 1
-2.8391 -7.5829 -3.8717 0.3164 0 24
-2.4553 -7.4579 -3.7544 0.3267 0 1
-2.0827 -7.3021 -3.6309 0.3378 0 1
-1.7304 -7.1442 -3.5149 0.3519 0 1
-1.3971 -6.9843 -3.4058 0.3632 0 1
-1.0814 -6.8215 -3.3025 0.3735 0 1
-0.7822 -6.6540 -3.2036 0.3851 0 1
-0.4991 -6.4853 -3.1102 0.3966 0 1
-0.2312 -6.3155 -3.0219 0.4081 0 1
0.0222 -6.1452 -2.9384 0.4197 0 1
0.2619 -5.9746 -2.8596 0.4313 0 1
0.4888 -5.8038 -2.7850 0.4412 0 1
0.7034 -5.6328 -2.7143 0.4527 0 1
0.9064 -5.4623 -2.6476 0.4643 0 1
1.0984 -5.2924 -2.5846 0.4756 0 1
1.2798 -5.1221 -2.5245 0.4871 0 1
1.4512 -4.9521 -2.4675 0.4984 0 1
1.6131 -4.7833 -2.4138 0.5095 0 1
1.7661 -4.6154 -2.3630 0.5204 0 1
1.9104 -4.4481 -2.3148 0.5125 0 1
2.0417 -4.2715 -2.2638 0.5241 0 1
2.1649 -4.0972 -2.2158 0.5354 0 1
2.2803 -3.9252 -2.1706 0.5466 0 1
2.3920 -3.7607 -2.1312 0.5797 0 1
2.4977 -3.5989 -2.0947 0.5897 0 1
2.5973 -3.4385 -2.0605 0.5995 0 1
2.6908 -3.2795 -2.0284 0.6090 0 1
2.7788 -3.1218 -1.9984 0.6182 0 1
2.8613 -2.9653 -1.9704 0.6270 0 1
2.9386 -2.8101 -1.9442 0.6354 0 1
3.0109 -2.6559 -1.9198 0.6435 0 1
3.0784 -2.5029 -1.8971 0.6512 0 1
3.1413 -2.3507 -1.8761 0.6547 0 1
3.1993 -2.1992 -1.8564 0.6616 0 1
3.2543 -2.0494 -1.8389 0.6724 0 1
3.3056 -1.9006 -1.8233 0.6782 0 1
3.3530 -1.7524 -1.8091 0.6836 0 1
3.3965 -1.6048 -1.7962 0.6810 0 1
3.4368 -1.4579 -1.7851 0.6852 0 1
3.4733 -1.3113 -1.7752 0.6890 0 1
3.5062 -1.1649 -1.7666 0.6924 0 1
3.5354 -1.0188 -1.7593 0.6953 0 1
3.5611 -0.8728 -1.7532 0.6977 0 1
3.5833 -0.7270 -1.7483 0.6997 0 1
3.6020 -0.5811 -1.7446 0.7011 0 1
3.6172 -0.4352 -1.7421 0.7021 0 1
3.6290 -0.2893 -1.7408 0.7027 0 1
3.6375 -0.1431 -1.7407 0.7027 0 1
3.6434 0.0032 -1.7422 0.7014 0 1
3.6474 0.1499 -1.7456 0.7000 0 1
3.6467 0.2971 -1.7495 0.6881 0 1
3.6403 0.4445 -1.7536 0.6865 0 1
3.6303 0.5922 -1.7589 0.6844 0 1
3.6168 0.7404 -1.7653 0.6819 0 1
3.5996 0.8890 -1.7729 0.6790 0 1
3.5787 1.0381 -1.7818 0.6756 0 1
3.5541 1.1878 -1.7918 0.6718 0 1
3.5256 1.3381 -1.8032 0.6676 0 1
3.4933 1.4891 -1.8158 0.6630 0 1
3.4569 1.6408 -1.8297 0.6579 0 1
3.4164 1.7932 -1.8450 0.6525 0 1
3.3718 1.9465 -1.8617 0.6466 0 1
3.3228 2.1007 -1.8797 0.6404 0 1
3.2701 2.2563 -1.8997 0.6381 0 1
3.2130 2.4132 -1.9214 0.6309 0 1
3.1512 2.5712 -1.9447 0.6233 0 1
3.0844 2.7304 -1.9697 0.6154 0 1
3.0125 2.8909 -1.9965 0.6072 0 1
2.9353 3.0527 -2.0250 0.5986 0 1
2.8524 3.2159 -2.0555 0.5897 0 1
2.7638 3.3804 -2.0879 0.5806 0 1
2.6691 3.5465 -2.1224 0.5711 0 1
2.5678 3.7136 -2.1589 0.5660 0 1
2.4575 3.8787 -2.1956 0.5565 0 1
2.3403 4.0447 -2.2345 0.5468 0 1
2.2160 4.2119 -2.2757 0.5369 0 1
-3.0263 7.5361 -3.9944 0.3170 0 1
-3.4372 7.6542 -4.1269 0.3068 0 1
-3.8679 7.7624 -4.2657 0.2970 0 1
-4.3191 7.8596 -4.4111 0.2872 0 1
-4.7920 7.9457 -4.5639 0.2748 0 1
-5.2877 8.0200 -4.7249 0.2654 0 1
-5.8042 8.0771 -4.8921 0.2586 0 1
-6.3387 8.1117 -5.0635 0.2498 0 1
-6.8922 8.1245 -5.2403 0.2444 0 1
-7.4631 8.1125 -5.4218 0.2362 0 1
-8.0564 8.0801 -5.6122 0.2197 0 1
-8.6852 8.0370 -5.8202 0.2119 0 1
-9.3329 7.9645 -6.0347 0.2042 0 1
-9.9978 7.8599 -6.2551 0.1970 0 1
-10.6796 7.7220 -6.4821 0.1889 0 1
-11.3757 7.5481 -6.7149 0.1819 0 1
-12.0810 7.3344 -6.9514 0.1757 0 1
-12.7885 7.0766 -7.1889 0.1690 0 1
-13.5025 6.7776 -7.4309 0.1635 0 1
-14.2045 6.4288 -7.6688 0.1577 0 1
-14.8878 6.0293 -7.9004 0.1511 0 1
-15.5487 5.5805 -8.1253 0.1469 0 1
-16.1645 5.0780 -8.3336 0.1441 0 1
-16.7305 4.5256 -8.5247 0.1409 0 1
-17.1723 3.9117 -8.6626 0.1381 0 24
-17.6747 3.2850 -8.8422 0.1356 0 1
-16.3570 2.3644 -8.1289 0.7451 26 14
-18.2994 1.8980 -9.0489 0.1338 0 1
-18.4858 1.1688 -9.1105 0.1333 0 1
-18.5778 0.4262 -9.1400 0.1329 0 1
-18.5769 -0.3209 -9.1385 0.1330 0 1
-18.4848 -1.0636 -9.1069 0.1341 0 1
-18.2996 -1.7933 -9.0439 0.1351 0 1
-18.0289 -2.5019 -8.9526 0.1364 0 1
-17.6801 -3.1825 -8.8358 0.1388 0 1
-17.2005 -3.8158 -8.6658 0.1404 0 24
-16.7712 -4.4348 -8.5325 0.1437 0 1
-16.2202 -4.9947 -8.3477 0.1466 0 1
-15.6169 -5.5054 -8.1446 0.1495 0 1
-14.9705 -5.9644 -7.9262 0.1536 0 1
-14.2872 -6.3690 -7.6938 0.1563 0 1
-13.5763 -6.7187 -7.4506 0.1614 0 1
-12.8531 -7.0176 -7.2028 0.1665 0 1
-12.1290 -7.2698 -6.9552 0.1774 0 1
-11.4225 -7.4864 -6.7174 0.1836 0 1
-10.6624 -7.6180 -6.4454 0.1985 0 24
-10.0357 -7.7981 -6.2511 0.2046 0 1
-9.3836 -7.9164 -6.0384 0.2118 0 1
-8.7464 -8.0022 -5.8308 0.2193 0 1
-8.1262 -8.0583 -5.6289 0.2272 0 1
-7.5208 -8.0829 -5.4304 0.2308 0 1
-6.9326 -8.0790 -5.2361 0.2393 0 1
-6.3668 -8.0533 -5.0494 0.2482 0 1
-5.8042 -7.9813 -4.8539 0.2574 0 24
-5.3032 -7.9451 -4.6984 0.2668 0 1
-4.8046 -7.8655 -4.5334 0.2765 0 1
-4.3289 -7.7728 -4.3760 0.2864 0 1
-3.8642 -7.6461 -4.2138 0.2981 0 24
-3.4334 -7.5313 -4.0711 0.3072 0 24
-3.0338 -7.4326 -3.9486 0.3178 0 1
-2.6426 -7.3002 -3.8186 0.3286 0 1
-2.2713 -7.1616 -3.6954 0.3396 0 1
-1.9133 -6.9972 -3.5680 0.3523 0 24
-1.5856 -6.8741 -3.4699 0.3647 0 1
-1.2690 -6.7252 -3.3662 0.3760 0 1
-0.9683 -6.5719 -3.2673 0.3863 0 1
-0.6831 -6.4149 -3.1730 0.3978 0 1
-0.4127 -6.2560 -3.0838 0.4092 0 1
-0.1565 -6.0958 -2.9992 0.4207 0 1
0.0863 -5.9346 -2.9193 0.4322 0 1
0.3163 -5.7724 -2.8434 0.4422 0 1
0.5342 -5.6096 -2.7716 0.4536 0 1
0.7407 -5.4466 -2.7036 0.4652 0 1
0.9362 -5.2838 -2.6393 0.4765 0 1
1.1214 -5.1212 -2.5786 0.4878 0 1
1.2965 -4.9576 -2.5204 0.4992 0 1
1.4620 -4.7944 -2.4654 0.5104 0 1
1.6187 -4.6319 -2.4133 0.5214 0 1
1.7668 -4.4702 -2.3642 0.5322 0 1
1.9041 -4.3030 -2.3144 0.5245 0 1
2.0245 -4.1191 -2.2575 0.5531 0 24
2.1506 -3.9648 -2.2185 0.5471 0 1
2.2649 -3.8023 -2.1768 0.5806 0 1
2.3741 -3.6439 -2.1391 0.5909 0 1
2.4769 -3.4868 -2.1037 0.6008 0 1
2.5737 -3.3309 -2.0704 0.6105 0 1
2.6647 -3.1762 -2.0392 0.6198 0 1
2.7503 -3.0226 -2.0100 0.6288 0 1
2.8306 -2.8701 -1.9827 0.6375 0 1
2.9058 -2.7186 -1.9572 0.6458 0 1
2.9762 -2.5681 -1.9335 0.6537 0 1
3.0418 -2.4183 -1.9113 0.6575 0 1
3.1026 -2.2693 -1.8906 0.6647 0 1
3.1593 -2.1213 -1.8717 0.6759 0 1
3.2132 -1.9749 -1.8551 0.6820 0 1
3.2631 -1.8290 -1.8399 0.6876 0 1
3.3090 -1.6837 -1.8261 0.6928 0 1
3.3511 -1.5388 -1.8137 0.6976 0 1
3.3894 -1.3943 -1.8027 0.7018 0 1
3.4247 -1.2503 -1.7932 0.6979 0 1
3.4563 -1.1066 -1.7850 0.7011 0 1
3.4843 -0.9630 -1.7780 0.7039 0 1
3.5088 -0.8195 -1.7723 0.7061 0 1
3.5299 -0.6760 -1.7677 0.7080 0 1
3.5474 -0.5326 -1.7644 0.7093 0 1
3.5616 -0.3891 -1.7622 0.7102 0 1
3.5723 -0.2455 -1.7612 0.7106 0 1
3.5797 -0.1017 -1.7614 0.7105 0 1
3.5852 0.0423 -1.7635 0.7089 0 1
3.5880 0.1868 -1.7672 0.6969 0 1
3.5841 0.3315 -1.7704 0.6957 0 1
3.5767 0.4764 -1.7748 0.6940 0 1
3.5658 0.6218 -1.7803 0.6918 0 1
3.5513 0.7675 -1.7870 0.6892 0 1
3.5331 0.9136 -1.7949 0.6862 0 1
3.5113 1.0603 -1.8041 0.6827 0 1
3.4857 1.2074 -1.8144 0.6788 0 1
3.4563 1.3552 -1.8260 0.6745 0 1
3.4230 1.5036 -1.8389 0.6698 0 1
3.3858 1.6526 -1.8531 0.6646 0 1
3.3444 1.8023 -1.8686 0.6591 0 1
3.2994 1.9531 -1.8858 0.6642 0 1
3.2505 2.1051 -1.9048 0.6575 0 1
3.1962 2.2573 -1.9246 0.6444 0 1
3.1383 2.4112 -1.9466 0.6371 0 1
3.0756 2.5660 -1.9701 0.6295 0 1
3.0080 2.7220 -1.9953 0.6216 0 1
2.9353 2.8791 -2.0223 0.6133 0 1
2.8572 3.0373 -2.0510 0.6047 0 1
2.7737 3.1968 -2.0817 0.5958 0 1
2.6843 3.3575 -2.1143 0.5866 0 1
2.5889 3.5194 -2.1490 0.5771 0 1
2.4866 3.6817 -2.1852 0.5721 0 1
2.3759 3.8423 -2.2220 0.5626 0 1
2.2585 4.0037 -2.2610 0.5529 0 1
2.1341 4.1659 -2.3022 0.5430 0 1
1.9898 4.3024 -2.3315 0.5345 0 24
1.8518 4.4669 -2.3784 0.5240 0 24
1.7147 4.6571 -2.4409 0.5127 0 1
1.5584 4.8220 -2.4925 0.5021 0 1
1.3930 4.9873 -2.5469 0.4918 0 1
1.2183 5.1528 -2.6043 0.4809 0 1
1.0337 5.3185 -2.6649 0.4700 0 1
0.8389 5.4859 -2.7296 0.4590 0 1
0.6332 5.6534 -2.7981 0.4478 0 1
0.4160 5.8208 -2.8703 0.4365 0 1
0.1862 5.9790 -2.9422 0.4239 0 24
-0.0558 6.1533 -3.0267 0.4148 0 1
-0.3116 6.3179 -3.1113 0.4035 0 1
-0.5815 6.4810 -3.2005 0.3922 0 1
-0.8663 6.6421 -3.2946 0.3810 0 1
-1.1667 6.8009 -3.3939 0.3691 0 1
-1.4825 6.9517 -3.4961 0.3621 0 1
-1.8147 7.0978 -3.6034 0.3514 0 1
-2.1643 7.2388 -3.7162 0.3407 0 1
-2.5318 7.3741 -3.8348 0.3301 0 1
-2.9180 7.5025 -3.9594 0.3198 0 1
-3.3235 7.6230 -4.0903 0.3096 0 1
-3.7488 7.7340 -4.2273 0.2997 0 1
-4.1944 7.8344 -4.3709 0.2899 0 1
-4.6610 7.9230 -4.5213 0.2774 0 1
-5.1508 8.0013 -4.6804 0.2679 0 1
-5.6624 8.0642 -4.8465 0.2587 0 1
-6.1914 8.1042 -5.0162 0.2522 0 1
-6.7403 8.1238 -5.1920 0.2466 0 1
-7.3061 8.1182 -5.3719 0.2384 0 1
-7.8902 8.0882 -5.5576 0.2304 0 1
-8.5123 8.0515 -5.7630 0.2140 0 1
-9.1549 7.9871 -5.9757 0.2063 0 1
-9.8156 7.8917 -6.1947 0.1990 0 1
-10.4928 7.7630 -6.4198 0.1907 0 1
-11.1849 7.5989 -6.6509 0.1836 0 1
-11.8889 7.3968 -6.8870 0.1774 0 1
-12.5959 7.1509 -7.1241 0.1716 0 1
-13.3090 6.8636 -7.3654 0.1650 0 1
-14.0154 6.5287 -7.6048 0.1590 0 1
-14.7031 6.1424 -7.8375 0.1523 0 1
-15.3202 5.6883 -8.0380 0.1478 0 24
-16.0020 5.2198 -8.2788 0.1451 0 1
-16.5819 4.6804 -8.4745 0.1417 0 1
-17.1060 4.0938 -8.6513 0.1386 0 1
-17.5629 3.4632 -8.8047 0.1361 0 1
-17.9423 2.7941 -8.9314 0.1353 0 1
-18.2338 2.0929 -9.0273 0.1339 0 1
-18.4447 1.3687 -9.0970 0.1335 0 1
-18.5621 0.6288 -9.1351 0.1330 0 1
-18.5856 -0.1179 -9.1416 0.1329 0 1
-18.5194 -0.8627 -9.1187 0.1339 0 1
-18.3588 -1.5967 -9.0640 0.1348 0 1
-18.1100 -2.3117 -8.9798 0.1360 0 1
-17.7820 -3.0006 -8.8698 0.1377 0 1
-17.3217 -3.6445 -8.7063 0.1397 0 24
-16.9113 -4.2746 -8.5795 0.1429 0 1
-16.3752 -4.8472 -8.3996 0.1457 0 1
-15.7865 -5.3719 -8.2019 0.1484 0 1
-15.1495 -5.8446 -7.9866 0.1524 0 1
-14.4777 -6.2651 -7.7591 0.1550 0 1
-13.7709 -6.6286 -7.5171 0.1600 0 1
-13.0511 -6.9416 -7.2707 0.1649 0 1
-12.3226 -7.2040 -7.0207 0.1708 0 1
-11.6142 -7.4318 -6.7819 0.1819 0 1
-10.8457 -7.5712 -6.5057 0.1933 0 24
-10.2206 -7.7641 -6.3130 0.1953 0 1
-9.5260 -7.8598 -6.0744 0.2093 0 24
-8.9180 -7.9819 -5.8867 0.2172 0 1
-8.2930 -8.0458 -5.6832 0.2250 0 1
-7.6597 -8.0539 -5.4668 0.2320 0 24
-7.0903 -8.0823 -5.2882 0.2370 0 1
-6.5184 -8.0623 -5.0994 0.2457 0 1
-5.9691 -8.0222 -4.9182 0.2548 0 1
-5.4427 -7.9642 -4.7446 0.2642 0 1
-4.9379 -7.8885 -4.5775 0.2738 0 1
-4.4560 -7.7992 -4.4180 0.2837 0 1
-3.9966 -7.6980 -4.2662 0.2938 0 1
-3.5485 -7.5637 -4.1093 0.3047 0 24
-3.1436 -7.4675 -3.9851 0.3149 0 1
-2.7470 -7.3368 -3.8533 0.3257 0 1
-2.3703 -7.1998 -3.7283 0.3366 0 1
-2.0068 -7.0362 -3.5988 0.3493 0 24
-1.6746 -6.9140 -3.4990 0.3617 0 1
-1.3534 -6.7660 -3.3938 0.3729 0 1
-1.0485 -6.6143 -3.2939 0.3832 0 1
-0.7591 -6.4578 -3.1982 0.3946 0 1
-0.4848 -6.2994 -3.1075 0.4060 0 1
-0.2248 -6.1395 -3.0218 0.4176 0 1
0.0216 -5.9785 -2.9406 0.4291 0 1
0.2550 -5.8166 -2.8637 0.4390 0 1
0.4762 -5.6538 -2.7907 0.4505 0 1
0.6838 -5.4758 -2.7142 0.4637 0 24
0.8841 -5.3280 -2.6564 0.4735 0 1
1.0721 -5.1654 -2.5948 0.4847 0 1
1.2498 -5.0021 -2.5360 0.4962 0 1
1.4179 -4.8387 -2.4800 0.5073 0 1
1.5769 -4.6760 -2.4272 0.5184 0 1
1.7274 -4.5141 -2.3773 0.5293 0 1
1.8583 -4.3267 -2.3161 0.5380 0 24
1.9900 -4.1633 -2.2697 0.5502 0 24
2.1189 -4.0103 -2.2309 0.5441 0 1
2.2341 -3.8456 -2.1875 0.5778 0 1
2.3450 -3.6869 -2.1491 0.5881 0 1
2.4495 -3.5294 -2.1131 0.5981 0 1
2.5479 -3.3732 -2.0792 0.6079 0 1
2.6405 -3.2181 -2.0475 0.6173 0 1
2.7276 -3.0643 -2.0178 0.6264 0 1
2.8093 -2.9114 -1.9899 0.6351 0 1
2.8859 -2.7597 -1.9640 0.6435 0 1
2.9575 -2.6089 -1.9398 0.6516 0 1
3.0245 -2.4590 -1.9173 0.6554 0 1
3.0865 -2.3097 -1.8961 0.6627 0 1
3.1441 -2.1613 -1.8766 0.6696 0 1
3.1990 -2.0146 -1.8595 0.6804 0 1
3.2499 -1.8686 -1.8439 0.6861 0 1
3.2969 -1.7231 -1.8297 0.6914 0 1
3.3400 -1.5781 -1.8170 0.6963 0 1
3.3794 -1.4335 -1.8055 0.7007 0 1
3.4155 -1.2894 -1.7956 0.6970 0 1
3.4481 -1.1456 -1.7871 0.7003 0 1
3.4771 -1.0020 -1.7798 0.7032 0 1
3.5025 -0.8585 -1.7737 0.7056 0 1
3.5245 -0.7150 -1.7689 0.7075 0 1
3.5430 -0.5716 -1.7652 0.7090 0 1
3.5581 -0.4281 -1.7627 0.7100 0 1
3.5698 -0.2845 -1.7614 0.7105 0 1
3.5780 -0.1408 -1.7612 0.7106 0 1
3.5838 0.0031 -1.7627 0.7092 0 1
3.5876 0.1475 -1.7661 0.7079 0 1
3.5855 0.2921 -1.7694 0.6961 0 1
3.5791 0.4370 -1.7735 0.6945 0 1
3.5691 0.5822 -1.7787 0.6924 0 1
3.5556 0.7278 -1.7851 0.6899 0 1
3.5384 0.8739 -1.7927 0.6870 0 1
3.5176 1.0204 -1.8015 0.6837 0 1
3.4931 1.1674 -1.8115 0.6799 0 1
3.4647 1.3150 -1.8227 0.6757 0 1
3.4325 1.4632 -1.8353 0.6711 0 1
3.3963 1.6120 -1.8491 0.6661 0 1
3.3561 1.7616 -1.8643 0.6606 0 1
3.3119 1.9120 -1.8810 0.6660 0 1
3.2642 2.0637 -1.8995 0.6595 0 1
3.2112 2.2157 -1.9189 0.6463 0 1
3.1545 2.3692 -1.9404 0.6391 0 1
3.0931 2.5238 -1.9635 0.6316 0 1
3.0268 2.6795 -1.9883 0.6238 0 1
2.9555 2.8362 -2.0148 0.6156 0 1
2.8790 2.9942 -2.0430 0.6070 0 1
2.7969 3.1533 -2.0732 0.5982 0 1
2.7092 3.3137 -2.1052 0.5891 0 1
2.6155 3.4753 -2.1393 0.5797 0 1
2.5156 3.6381 -2.1755 0.5701 0 1
2.4067 3.7985 -2.2118 0.5652 0 1
2.2911 3.9597 -2.2501 0.5556 0 1
2.1686 4.1218 -2.2908 0.5457 0 1
-2.9176 7.2652 -3.9592 0.3270 0 1
-3.3097 7.3703 -4.0857 0.3169 0 1
-3.7199 7.4653 -4.2179 0.3072 0 1
-4.1484 7.5490 -4.3559 0.2974 0 1
-4.5956 7.6201 -4.5000 0.2879 0 1
-5.0624 7.6783 -4.6508 0.2757 0 1
-5.5494 7.7225 -4.8089 0.2666 0 1
-6.0522 7.7451 -4.9706 0.2602 0 1
-6.5715 7.7465 -5.1370 0.2518 0 1
-7.1070 7.7255 -5.3084 0.2466 0 1
-7.6551 7.6776 -5.4827 0.2388 0 1
-8.2274 7.6133 -5.6686 0.2224 0 1
-8.8237 7.5299 -5.8660 0.2148 0 1
-9.4335 7.4162 -6.0681 0.2077 0 1
-10.0532 7.2691 -6.2736 0.2009 0 1
-10.6841 7.0892 -6.4840 0.1926 0 1
-11.3223 6.8737 -6.6981 0.1864 0 1
-11.9601 6.6182 -6.9123 0.1814 0 1
-12.5930 6.3211 -7.1254 0.1736 0 1
-13.1715 5.9612 -7.3111 0.1679 0 24
-13.8235 5.5983 -7.5420 0.1644 0 1
-14.3989 5.1679 -7.7362 0.1603 0 1
-14.9447 4.6948 -7.9216 0.1551 0 1
-15.4419 4.1770 -8.0895 0.1520 0 1
-15.8886 3.6193 -8.2406 0.1492 0 1
-16.2687 3.0237 -8.3678 0.1481 0 1
-16.5196 2.3879 -8.4407 0.1462 0 24
-16.8200 1.7445 -8.5514 0.1448 0 1
-16.9829 1.0738 -8.6053 0.1439 0 1
-17.0025 0.3900 -8.6003 0.1440 0 24
-17.0662 -0.2948 -8.6316 0.1440 0 1
-16.9883 -0.9775 -8.6051 0.1444 0 1
-16.7655 -1.6430 -8.5188 0.1457 0 24
-16.5972 -2.3032 -8.4735 0.1474 0 1
-16.2957 -2.9333 -8.3730 0.1492 0 1
-15.9276 -3.5334 -8.2503 0.1514 0 1
-15.4991 -4.0984 -8.1072 0.1544 0 1
-15.0134 -4.6231 -7.9440 0.1567 0 1
-14.4767 -5.1035 -7.7624 0.1588 0 1
-13.8994 -5.5376 -7.5661 0.1621 0 1
-13.2870 -5.9231 -7.3565 0.1667 0 1
-12.6546 -6.2625 -7.1401 0.1722 0 1
-12.0127 -6.5587 -6.9212 0.1823 0 1
-11.3739 -6.8173 -6.7058 0.1881 0 1
-10.7341 -7.0352 -6.4901 0.1943 0 1
-10.0979 -7.2146 -6.2759 0.2009 0 1
-9.4880 -7.3725 -6.0762 0.2152 0 1
-8.8880 -7.4982 -5.8804 0.2224 0 1
-8.2685 -7.5649 -5.6673 0.2288 0 24
-7.6956 -7.6313 -5.4806 0.2366 0 24
-7.1552 -7.6900 -5.3118 0.2412 0 1
-6.6071 -7.6996 -5.1307 0.2497 0 1
-6.0780 -7.6880 -4.9560 0.2585 0 1
-5.5503 -7.6321 -4.7721 0.2681 0 24
-5.0617 -7.5834 -4.6107 0.2779 0 24
-4.5935 -7.5199 -4.4561 0.2882 0 24
-4.1579 -7.4657 -4.3214 0.2966 0 1
-3.7283 -7.3773 -4.1800 0.3092 0 1
-3.3184 -7.2790 -4.0454 0.3172 0 1
-2.9254 -7.1671 -3.9147 0.3278 0 1
-2.5512 -7.0477 -3.7903 0.3385 0 1
-2.1954 -6.9222 -3.6723 0.3524 0 1
-1.8574 -6.7931 -3.5613 0.3633 0 1
-1.5360 -6.6591 -3.4559 0.3744 0 1
-1.2304 -6.5208 -3.3557 0.3856 0 1
-0.9397 -6.3777 -3.2600 0.3959 0 1
-0.6634 -6.2306 -3.1686 0.4072 0 1
-0.4012 -6.0812 -3.0819 0.4186 0 1
-0.1522 -5.9300 -2.9997 0.4301 0 1
0.0840 -5.7770 -2.9217 0.4400 0 1
0.3081 -5.6227 -2.8477 0.4514 0 1
0.5207 -5.4677 -2.7775 0.4628 0 1
0.7224 -5.3122 -2.7111 0.4744 0 1
0.9137 -5.1565 -2.6482 0.4856 0 1
1.0950 -5.0006 -2.5887 0.4968 0 1
1.2667 -4.8437 -2.5318 0.5081 0 1
1.4291 -4.6865 -2.4777 0.5192 0 1
1.5830 -4.5299 -2.4266 0.5302 0 1
1.7287 -4.3737 -2.3782 0.5409 0 1
1.8548 -4.1917 -2.3180 0.5506 0 24
1.9826 -4.0339 -2.2730 0.5616 0 24
2.1060 -3.8825 -2.2336 0.5786 0 1
2.2203 -3.7274 -2.1940 0.5890 0 1
2.3281 -3.5734 -2.1567 0.5992 0 1
2.4297 -3.4204 -2.1216 0.6091 0 1
2.5254 -3.2684 -2.0887 0.6187 0 1
2.6155 -3.1175 -2.0578 0.6280 0 1
2.7002 -2.9675 -2.0289 0.6369 0 1
2.7797 -2.8185 -2.0018 0.6456 0 1
2.8542 -2.6703 -1.9766 0.6538 0 1
2.9239 -2.5230 -1.9530 0.6579 0 1
2.9887 -2.3761 -1.9308 0.6654 0 1
3.0490 -2.2301 -1.9103 0.6726 0 1
3.1056 -2.0852 -1.8917 0.6838 0 1
3.1591 -1.9416 -1.8751 0.6899 0 1
3.2086 -1.7985 -1.8601 0.6955 0 1
3.2541 -1.6558 -1.8464 0.7006 0 1
3.2959 -1.5134 -1.8340 0.7053 0 1
3.3339 -1.3714 -1.8230 0.7096 0 1
3.3683 -1.2297 -1.8133 0.7134 0 1
3.3994 -1.0883 -1.8050 0.7089 0 1
3.4272 -0.9472 -1.7981 0.7117 0 1
3.4515 -0.8061 -1.7924 0.7139 0 1
3.4723 -0.6650 -1.7878 0.7157 0 1
3.4897 -0.5239 -1.7845 0.7171 0 1
3.5037 -0.3828 -1.7823 0.7179 0 1
3.5143 -0.2415 -1.7814 0.7183 0 1
3.5215 -0.1000 -1.7815 0.7183 0 1
3.5268 0.0416 -1.7836 0.7167 0 1
3.5282 0.1837 -1.7866 0.7048 0 1
3.5243 0.3259 -1.7898 0.7036 0 1
3.5169 0.4685 -1.7942 0.7019 0 1
3.5060 0.6113 -1.7997 0.6997 0 1
3.4915 0.7546 -1.8064 0.6971 0 1
3.4734 0.8982 -1.8142 0.6941 0 1
3.4516 1.0423 -1.8233 0.6907 0 1
3.4261 1.1868 -1.8336 0.6868 0 1
3.3969 1.3319 -1.8451 0.6825 0 1
3.3638 1.4775 -1.8579 0.6778 0 1
3.3267 1.6238 -1.8720 0.6842 0 1
3.2865 1.7711 -1.8879 0.6784 0 1
3.2421 1.9192 -1.9053 0.6722 0 1
3.1934 2.0681 -1.9239 0.6656 0 1
3.1389 2.2169 -1.9433 0.6525 0 1
3.0814 2.3674 -1.9650 0.6453 0 1
3.0192 2.5189 -1.9884 0.6377 0 1
2.9521 2.6714 -2.0133 0.6298 0 1
2.8800 2.8249 -2.0400 0.6216 0 1
2.8027 2.9793 -2.0685 0.6130 0 1
2.7199 3.1349 -2.0988 0.6042 0 1
2.6315 3.2914 -2.1310 0.5951 0 1
2.5372 3.4491 -2.1653 0.5856 0 1
2.4363 3.6072 -2.2012 0.5807 0 1
2.3271 3.7633 -2.2375 0.5712 0 1
2.2113 3.9200 -2.2760 0.5616 0 1
2.0886 4.0773 -2.3166 0.5517 0 1
1.9469 4.2096 -2.3454 0.5433 0 24
1.8111 4.3687 -2.3915 0.5328 0 24
1.6673 4.5284 -2.4403 0.5222 0 24
1.5226 4.7112 -2.5038 0.5111 0 1
1.3604 4.8703 -2.5572 0.5008 0 1
1.1891 5.0293 -2.6134 0.4900 0 1
1.0084 5.1883 -2.6728 0.4793 0 1
0.8179 5.3485 -2.7361 0.4682 0 1
0.6170 5.5084 -2.8030 0.4571 0 1
0.4050 5.6677 -2.8734 0.4458 0 1
0.1815 5.8263 -2.9477 0.4346 0 1
-0.0542 5.9769 -3.0226 0.4226 0 24
-0.3028 6.1384 -3.1079 0.4130 0 1
-0.5645 6.2918 -3.1945 0.4018 0 1
-0.8403 6.4427 -3.2856 0.3907 0 1
-1.1307 6.5907 -3.3816 0.3796 0 1
-1.4357 6.7321 -3.4809 0.3722 0 1
-1.7557 6.8668 -3.5842 0.3612 0 1
-2.0917 6.9962 -3.6926 0.3506 0 1
-2.4443 7.1192 -3.8064 0.3401 0 1
-2.8140 7.2351 -3.9257 0.3297 0 1
-3.2013 7.3427 -4.0507 0.3196 0 1
-3.6066 7.4406 -4.1814 0.3098 0 1
-4.0301 7.5274 -4.3178 0.3000 0 1
-4.4722 7.6021 -4.4602 0.2905 0 1
-4.9333 7.6634 -4.6089 0.2782 0 1
-5.4152 7.7121 -4.7654 0.2691 0 1
-5.9141 7.7412 -4.9264 0.2625 0 1
-6.4287 7.7482 -5.0913 0.2540 0 1
-6.9601 7.7338 -5.2615 0.2458 0 1
-7.5047 7.6931 -5.4348 0.2409 0 1
-8.0678 7.6311 -5.6158 0.2245 0 1
-8.6600 7.5554 -5.8117 0.2168 0 1
-9.2666 7.4503 -6.0128 0.2096 0 1
-9.8840 7.3126 -6.2175 0.2027 0 1
-10.5110 7.1411 -6.4260 0.1948 0 1
-11.1487 6.9363 -6.6399 0.1881 0 1
-11.7868 6.6916 -6.8541 0.1830 0 1
-12.4206 6.4055 -7.0671 0.1750 0 1
-13.0500 6.0790 -7.2801 0.1699 0 1
-13.6621 5.7075 -7.4875 0.1656 0 1
-14.2456 5.2893 -7.6844 0.1614 0 1
-14.7998 4.8276 -7.8723 0.1550 0 1
-15.2550 4.3059 -8.0157 0.1527 0 24
-15.7727 3.7747 -8.2014 0.1499 0 1
-16.1722 3.1890 -8.3356 0.1486 0 1
-16.5026 2.5699 -8.4458 0.1467 0 1
-16.7624 1.9240 -8.5323 0.1457 0 1
-16.9465 1.2576 -8.5933 0.1441 0 1
-17.0512 0.5777 -8.6276 0.1435 0 1
-17.0733 -0.1083 -8.6340 0.1439 0 1
-17.0175 -0.7927 -8.6150 0.1442 0 1
-16.8809 -1.4682 -8.5688 0.1450 0 1
-16.6668 -2.1275 -8.4967 0.1466 0 1
-16.3845 -2.7648 -8.4026 0.1487 0 1
-16.0338 -3.3735 -8.2857 0.1508 0 1
-15.6215 -3.9486 -8.1481 0.1533 0 1
-15.1510 -4.4848 -7.9904 0.1566 0 1
-14.6267 -4.9773 -7.8131 0.1593 0 1
-14.0597 -5.4242 -7.6207 0.1618 0 1
-13.4077 -5.8021 -7.3878 0.1662 0 24
-12.8281 -6.1748 -7.1995 0.1708 0 1
-12.1856 -6.4812 -6.9796 0.1807 0 1
-11.4893 -6.7168 -6.7301 0.1822 0 24
-10.9079 -6.9799 -6.5487 0.1925 0 1
-10.2702 -7.1695 -6.3339 0.1991 0 1
-9.6527 -7.3327 -6.1300 0.2133 0 1
-9.0501 -7.4672 -5.9333 0.2204 0 1
-8.4268 -7.5422 -5.7189 0.2267 0 24
-7.8498 -7.6158 -5.5308 0.2343 0 24
-7.3074 -7.6834 -5.3621 0.2390 0 1
-6.7543 -7.6992 -5.1793 0.2474 0 1
-6.2200 -7.6931 -5.0028 0.2561 0 1
-5.7061 -7.6686 -4.8337 0.2670 0 1
-5.1925 -7.5982 -4.6539 0.2754 0 24
-4.7187 -7.5385 -4.4974 0.2854 0 24
-4.2783 -7.4882 -4.3612 0.2939 0 1
-3.8318 -7.3806 -4.2053 0.3056 0 24
-3.4280 -7.3069 -4.0815 0.3166 0 1
-3.0303 -7.1983 -3.9496 0.3249 0 1
-2.6511 -7.0809 -3.8235 0.3356 0 1
-2.2902 -6.9565 -3.7036 0.3464 0 1
-1.9414 -6.8067 -3.5794 0.3593 0 24
-1.6218 -6.6959 -3.4840 0.3714 0 1
-1.3120 -6.5588 -3.3824 0.3826 0 1
-1.0173 -6.4172 -3.2857 0.3928 0 1
-0.7371 -6.2708 -3.1929 0.4042 0 1
-0.4711 -6.1220 -3.1050 0.4155 0 1
-0.2186 -5.9712 -3.0216 0.4270 0 1
0.0210 -5.8187 -2.9425 0.4369 0 1
0.2484 -5.6648 -2.8674 0.4483 0 1
0.4629 -5.4960 -2.7891 0.4616 0 24
0.6686 -5.3545 -2.7288 0.4713 0 1
0.8627 -5.1988 -2.6650 0.4826 0 1
1.0467 -5.0429 -2.6045 0.4938 0 1
1.2209 -4.8864 -2.5470 0.5051 0 1
1.3858 -4.7292 -2.4921 0.5162 0 1
1.5420 -4.5724 -2.4402 0.5272 0 1
1.6899 -4.4161 -2.3911 0.5380 0 1
1.8188 -4.2347 -2.3306 0.5472 0 24
1.9486 -4.0767 -2.2850 0.5588 0 24
2.0744 -3.9261 -2.2455 0.5527 0 1
2.1899 -3.7695 -2.2045 0.5862 0 1
2.2994 -3.6151 -2.1666 0.5965 0 1
2.4027 -3.4619 -2.1310 0.6064 0 1
2.4999 -3.3097 -2.0975 0.6161 0 1
2.5915 -3.1584 -2.0660 0.6255 0 1
2.6777 -3.0082 -2.0366 0.6345 0 1
2.7586 -2.8589 -2.0090 0.6432 0 1
2.8345 -2.7105 -1.9833 0.6516 0 1
2.9055 -2.5630 -1.9593 0.6596 0 1
2.9715 -2.4160 -1.9367 0.6634 0 1
3.0330 -2.2697 -1.9157 0.6707 0 1
3.0904 -2.1244 -1.8964 0.6821 0 1
3.1450 -1.9806 -1.8795 0.6883 0 1
3.1955 -1.8373 -1.8640 0.6940 0 1
3.2421 -1.6945 -1.8500 0.6993 0 1
3.2849 -1.5521 -1.8372 0.7041 0 1
3.3240 -1.4100 -1.8259 0.7085 0 1
3.3593 -1.2682 -1.8158 0.7124 0 1
3.3912 -1.1267 -1.8071 0.7081 0 1
3.4200 -0.9855 -1.7998 0.7110 0 1
3.4452 -0.8444 -1.7938 0.7134 0 1
3.4670 -0.7034 -1.7889 0.7153 0 1
3.4853 -0.5623 -1.7853 0.7167 0 1
3.5002 -0.4211 -1.7828 0.7177 0 1
3.5118 -0.2799 -1.7815 0.7183 0 1
3.5199 -0.1385 -1.7814 0.7183 0 1
3.5255 0.0031 -1.7828 0.7170 0 1
3.5287 0.1451 -1.7859 0.7051 0 1
3.5257 0.2872 -1.7888 0.7040 0 1
3.5193 0.4297 -1.7929 0.7024 0 1
3.5093 0.5725 -1.7981 0.7003 0 1
3.4958 0.7156 -1.8044 0.6979 0 1
3.4787 0.8591 -1.8120 0.6950 0 1
3.4579 1.0030 -1.8207 0.6916 0 1
3.4334 1.1475 -1.8307 0.6879 0 1
3.4052 1.2924 -1.8418 0.6837 0 1
3.3732 1.4379 -1.8543 0.6791 0 1
3.3372 1.5839 -1.8680 0.6741 0 1
3.2978 1.7310 -1.8835 0.6800 0 1
3.2546 1.8789 -1.9004 0.6740 0 1
3.2072 2.0276 -1.9188 0.6675 0 1
3.1538 2.1761 -1.9376 0.6544 0 1
3.0975 2.3264 -1.9590 0.6473 0 1
3.0365 2.4777 -1.9819 0.6398 0 1
2.9708 2.6299 -2.0064 0.6320 0 1
2.9001 2.7830 -2.0326 0.6239 0 1
2.8242 2.9372 -2.0606 0.6154 0 1
2.7430 3.0925 -2.0904 0.6066 0 1
2.6561 3.2488 -2.1221 0.5976 0 1
2.5635 3.4061 -2.1558 0.5882 0 1
2.4647 3.5646 -2.1915 0.5786 0 1
2.3574 3.7208 -2.2275 0.5738 0 1
2.2435 3.8773 -2.2653 0.5642 0 1
2.1227 4.0345 -2.3054 0.5544 0 1
-2.8152 7.0104 -3.9260 0.3369 0 1
-3.1901 7.1039 -4.0470 0.3269 0 1
-3.5813 7.1872 -4.1731 0.3172 0 1
-3.9890 7.2589 -4.3044 0.3076 0 1
-4.4134 7.3179 -4.4411 0.2981 0 1
-4.8545 7.3628 -4.5832 0.2888 0 1
-5.3127 7.3931 -4.7312 0.2769 0 1
-5.7877 7.4066 -4.8849 0.2705 0 1
-6.2751 7.3971 -5.0411 0.2622 0 1
-6.7766 7.3663 -5.2017 0.2541 0 1
-7.2909 7.3123 -5.3663 0.2463 0 1
-7.8145 7.2313 -5.5331 0.2418 0 1
-8.3623 7.1362 -5.7131 0.2254 0 1
-8.9242 7.0158 -5.8994 0.2183 0 1
-9.4930 6.8641 -6.0880 0.2115 0 1
-10.0672 6.6799 -6.2788 0.2083 0 1
-10.6480 6.4644 -6.4735 0.1980 0 1
-11.2272 6.2126 -6.6684 0.1922 0 1
-11.7438 5.8948 -6.8288 0.1839 0 24
-12.3515 5.5901 -7.0457 0.1823 0 1
-12.8942 5.2219 -7.2296 0.1748 0 1
-13.3601 4.7951 -7.3767 0.1709 0 24
-13.8391 4.3475 -7.5385 0.1674 0 24
-14.3304 3.8763 -7.7150 0.1656 0 1
-14.7213 3.3534 -7.8464 0.1601 0 1
-15.0628 2.7995 -7.9620 0.1578 0 1
-15.2828 2.2091 -8.0248 0.1572 0 24
-15.5512 1.6129 -8.1251 0.1559 0 1
-15.6959 0.9924 -8.1733 0.1554 0 1
-15.7105 0.3604 -8.1667 0.1549 0 24
-15.7706 -0.2724 -8.1970 0.1550 0 1
-15.7036 -0.9036 -8.1745 0.1555 0 1
-15.5653 -1.5254 -8.1279 0.1567 0 1
-15.3041 -2.1238 -8.0296 0.1579 0 24
-15.0950 -2.7172 -7.9708 0.1597 0 1
-14.7707 -3.2768 -7.8628 0.1619 0 1
-14.3908 -3.8054 -7.7358 0.1621 0 1
-13.9541 -4.2969 -7.5878 0.1660 0 1
-13.4731 -4.7497 -7.4242 0.1697 0 1
-12.9544 -5.1611 -7.2469 0.1730 0 1
-12.4071 -5.5308 -7.0594 0.1775 0 1
-11.8509 -5.8648 -6.8717 0.1873 0 1
-11.2798 -6.1586 -6.6788 0.1930 0 1
-10.7003 -6.4135 -6.4832 0.1988 0 1
-10.1174 -6.6310 -6.2865 0.2050 0 1
-9.5174 -6.7999 -6.0788 0.2181 0 24
-8.9914 -6.9867 -5.9176 0.2237 0 1
-8.4353 -7.1163 -5.7353 0.2309 0 1
-7.8880 -7.2168 -5.5561 0.2383 0 1
-7.3474 -7.2860 -5.3774 0.2435 0 1
-6.8199 -7.3297 -5.2030 0.2516 0 1
-6.3079 -7.3509 -5.0338 0.2620 0 1
-5.7937 -7.3283 -4.8548 0.2693 0 24
-5.3336 -7.3342 -4.7128 0.2779 0 1
-4.8705 -7.2968 -4.5592 0.2873 0 1
-4.4253 -7.2445 -4.4117 0.2969 0 1
-3.9989 -7.1802 -4.2711 0.3092 0 1
-3.5906 -7.1048 -4.1370 0.3192 0 1
-3.1990 -7.0171 -4.0077 0.3272 0 1
-2.8234 -6.9173 -3.8827 0.3377 0 1
-2.4650 -6.8095 -3.7636 0.3484 0 1
-2.1239 -6.6970 -3.6512 0.3621 0 1
-1.7988 -6.5786 -3.5443 0.3731 0 1
-1.4889 -6.4548 -3.4426 0.3841 0 1
-1.1937 -6.3264 -3.3458 0.3952 0 1
-0.9124 -6.1926 -3.2529 0.4054 0 1
-0.6447 -6.0546 -3.1643 0.4166 0 1
-0.3901 -5.9140 -3.0801 0.4280 0 1
-0.1482 -5.7708 -3.0000 0.4379 0 1
0.0818 -5.6257 -2.9239 0.4493 0 1
0.3003 -5.4791 -2.8517 0.4606 0 1
0.5078 -5.3314 -2.7832 0.4720 0 1
0.7048 -5.1829 -2.7183 0.4834 0 1
0.8919 -5.0338 -2.6567 0.4946 0 1
1.0695 -4.8842 -2.5984 0.5057 0 1
1.2379 -4.7336 -2.5427 0.5170 0 1
1.3973 -4.5823 -2.4896 0.5280 0 1
1.5485 -4.4311 -2.4394 0.5389 0 1
1.6914 -4.2793 -2.3913 0.5304 0 1
1.8161 -4.1040 -2.3323 0.5592 0 24
1.9420 -3.9513 -2.2880 0.5712 0 24
2.0642 -3.8053 -2.2498 0.5870 0 1
2.1769 -3.6546 -2.2107 0.5974 0 1
2.2834 -3.5047 -2.1738 0.6075 0 1
2.3838 -3.3557 -2.1391 0.6173 0 1
2.4784 -3.2076 -2.1066 0.6269 0 1
2.5675 -3.0603 -2.0760 0.6361 0 1
2.6513 -2.9138 -2.0473 0.6450 0 1
2.7301 -2.7682 -2.0205 0.6536 0 1
2.8039 -2.6232 -1.9954 0.6580 0 1
2.8726 -2.4787 -1.9718 0.6659 0 1
2.9368 -2.3349 -1.9498 0.6734 0 1
2.9966 -2.1918 -1.9294 0.6805 0 1
3.0532 -2.0500 -1.9112 0.6916 0 1
3.1062 -1.9091 -1.8948 0.6976 0 1
3.1553 -1.7686 -1.8798 0.7032 0 1
3.2005 -1.6284 -1.8662 0.7083 0 1
3.2419 -1.4886 -1.8539 0.7130 0 1
3.2796 -1.3491 -1.8429 0.7173 0 1
3.3137 -1.2098 -1.8333 0.7210 0 1
3.3443 -1.0707 -1.8249 0.7243 0 1
3.3714 -0.9318 -1.8178 0.7272 0 1
3.3954 -0.7930 -1.8120 0.7216 0 1
3.4160 -0.6542 -1.8075 0.7234 0 1
3.4332 -0.5154 -1.8042 0.7247 0 1
3.4470 -0.3766 -1.8020 0.7256 0 1
3.4575 -0.2376 -1.8011 0.7260 0 1
3.4646 -0.0984 -1.8012 0.7259 0 1
3.4696 0.0410 -1.8033 0.7243 0 1
3.4698 0.1806 -1.8057 0.7127 0 1
3.4658 0.3205 -1.8088 0.7114 0 1
3.4584 0.4607 -1.8132 0.7097 0 1
3.4475 0.6011 -1.8186 0.7076 0 1
3.4330 0.7419 -1.8253 0.7050 0 1
3.4150 0.8831 -1.8331 0.7020 0 1
3.3933 1.0246 -1.8421 0.6986 0 1
3.3679 1.1666 -1.8523 0.6947 0 1
3.3388 1.3091 -1.8637 0.6904 0 1
3.3065 1.4524 -1.8768 0.6974 0 1
3.2704 1.5963 -1.8912 0.6920 0 1
3.2303 1.7408 -1.9070 0.6863 0 1
3.1862 1.8861 -1.9242 0.6802 0 1
3.1376 2.0320 -1.9426 0.6736 0 1
3.0830 2.1774 -1.9615 0.6606 0 1
3.0259 2.3248 -1.9830 0.6534 0 1
2.9641 2.4731 -2.0062 0.6459 0 1
2.8976 2.6221 -2.0309 0.6380 0 1
2.8262 2.7721 -2.0573 0.6298 0 1
2.7496 2.9229 -2.0855 0.6213 0 1
2.6677 3.0746 -2.1154 0.6125 0 1
2.5802 3.2273 -2.1473 0.6034 0 1
2.4870 3.3808 -2.1811 0.5941 0 1
2.3875 3.5349 -2.2168 0.5892 0 1
2.2797 3.6867 -2.2526 0.5798 0 1
2.1655 3.8388 -2.2905 0.5702 0 1
2.0446 3.9914 -2.3306 0.5604 0 1
1.9054 4.1198 -2.3589 0.5520 0 24
1.7717 4.2737 -2.4043 0.5416 0 24
1.6303 4.4280 -2.4522 0.5310 0 24
1.4880 4.6043 -2.5146 0.5200 0 1
1.3288 4.7575 -2.5671 0.5098 0 1
1.1609 4.9103 -2.6222 0.4990 0 1
0.9840 5.0630 -2.6804 0.4884 0 1
0.7977 5.2164 -2.7424 0.4774 0 1
0.6014 5.3691 -2.8077 0.4663 0 1
0.3945 5.5209 -2.8765 0.4551 0 1
0.1766 5.6715 -2.9489 0.4439 0 1
-0.0528 5.8204 -3.0249 0.4336 0 1
-0.2940 5.9610 -3.1016 0.4216 0 24
-0.5484 6.1114 -3.1887 0.4113 0 1
-0.8155 6.2528 -3.2770 0.4002 0 1
-1.0964 6.3910 -3.3698 0.3892 0 1
-1.3912 6.5234 -3.4664 0.3796 0 1
-1.6998 6.6481 -3.5661 0.3713 0 1
-2.0231 6.7667 -3.6704 0.3607 0 1
-2.3618 6.8788 -3.7797 0.3500 0 1
-2.7161 6.9834 -3.8940 0.3397 0 1
-3.0866 7.0794 -4.0136 0.3296 0 1
-3.4733 7.1657 -4.1383 0.3199 0 1
-3.8765 7.2406 -4.2682 0.3102 0 1
-4.2964 7.3032 -4.4034 0.3006 0 1
-4.7329 7.3521 -4.5440 0.2913 0 1
-5.1862 7.3860 -4.6902 0.2793 0 1
-5.6576 7.4055 -4.8431 0.2705 0 1
-6.1412 7.4017 -4.9982 0.2644 0 1
-6.6389 7.3769 -5.1576 0.2562 0 1
-7.1499 7.3294 -5.3212 0.2484 0 1
-7.6714 7.2562 -5.4876 0.2438 0 1
-8.2112 7.1638 -5.6630 0.2275 0 1
-8.7706 7.0515 -5.8484 0.2202 0 1
-9.3379 6.9085 -6.0365 0.2133 0 1
-9.9105 6.7331 -6.2266 0.2094 0 1
-10.4898 6.5263 -6.4204 0.1996 0 1
-11.0703 6.2848 -6.6156 0.1937 0 1
-11.6444 6.0052 -6.8088 0.1882 0 1
-12.2026 5.6842 -6.9958 0.1836 0 1
-12.7488 5.3260 -7.1803 0.1760 0 1
-13.2720 4.9278 -7.3574 0.1722 0 1
-13.7625 4.4892 -7.5231 0.1684 0 1
-14.2165 4.0128 -7.6768 0.1664 0 1
-14.6190 3.4986 -7.8118 0.1608 0 1
-14.9755 2.9530 -7.9325 0.1584 0 1
-15.2140 2.3692 -8.0018 0.1576 0 24
-15.5000 1.7791 -8.1080 0.1562 0 1
-15.6637 1.1624 -8.1626 0.1552 0 1
-15.7557 0.5338 -8.1927 0.1551 0 1
-15.7764 -0.1000 -8.1990 0.1550 0 1
-15.7289 -0.7327 -8.1830 0.1553 0 1
-15.6098 -1.3576 -8.1428 0.1564 0 1
-15.4217 -1.9686 -8.0795 0.1576 0 1
-15.1731 -2.5604 -7.9968 0.1591 0 1
-14.8645 -3.1275 -7.8940 0.1612 0 1
-14.4468 -3.6517 -7.7439 0.1625 0 24
-14.0782 -4.1672 -7.6300 0.1651 0 1
-13.6075 -4.6304 -7.4698 0.1687 0 1
-13.0991 -5.0536 -7.2965 0.1718 0 1
-12.5580 -5.4344 -7.1111 0.1763 0 1
-12.0040 -5.7781 -6.9234 0.1865 0 1
-11.4362 -6.0826 -6.7316 0.1915 0 1
-10.8583 -6.3479 -6.5365 0.1972 0 1
-10.2759 -6.5755 -6.3400 0.2032 0 1
-9.7052 -6.7751 -6.1510 0.2172 0 1
-9.1436 -6.9459 -5.9674 0.2239 0 1
-8.5857 -7.0840 -5.7846 0.2289 0 1
-8.0358 -7.1923 -5.6045 0.2362 0 1
-7.4933 -7.2699 -5.4257 0.2413 0 1
-6.9619 -7.3201 -5.2499 0.2494 0 1
-6.4453 -7.3470 -5.0792 0.2578 0 1
-5.9460 -7.3543 -4.9148 0.2684 0 1
-5.4626 -7.3415 -4.7556 0.2754 0 1
-4.9946 -7.3085 -4.6004 0.2847 0 1
-4.5445 -7.2601 -4.4512 0.2942 0 1
-4.1129 -7.1987 -4.3086 0.3065 0 1
-3.6999 -7.1264 -4.1729 0.3165 0 1
-3.3041 -7.0427 -4.0428 0.3243 0 1
-2.9238 -6.9452 -3.9161 0.3348 0 1
-2.5608 -6.8395 -3.7954 0.3455 0 1
-2.2150 -6.7281 -3.6811 0.3592 0 1
-1.8856 -6.6113 -3.5728 0.3701 0 1
-1.5717 -6.4889 -3.4697 0.3811 0 1
-1.2725 -6.3617 -3.3716 0.3922 0 1
-0.9875 -6.2295 -3.2778 0.4023 0 1
-0.7161 -6.0924 -3.1879 0.4135 0 1
-0.4581 -5.9525 -3.1026 0.4249 0 1
-0.2127 -5.8099 -3.0214 0.4348 0 1
0.0204 -5.6653 -2.9442 0.4462 0 1
0.2414 -5.5066 -2.8644 0.4595 0 24
0.4524 -5.3717 -2.8015 0.4689 0 1
0.6523 -5.2234 -2.7356 0.4804 0 1
0.8420 -5.0744 -2.6731 0.4916 0 1
1.0222 -4.9249 -2.6140 0.5027 0 1
1.1930 -4.7747 -2.5577 0.5140 0 1
1.3548 -4.6234 -2.5038 0.5251 0 1
1.5082 -4.4722 -2.4527 0.5360 0 1
1.6536 -4.3212 -2.4045 0.5467 0 1
1.7805 -4.1456 -2.3447 0.5564 0 24
1.9085 -3.9927 -2.2998 0.5673 0 24
2.0324 -3.8464 -2.2608 0.5841 0 1
2.1469 -3.6955 -2.2211 0.5946 0 1
2.2550 -3.5454 -2.1836 0.6047 0 1
2.3570 -3.3961 -2.1484 0.6147 0 1
2.4532 -3.2478 -2.1152 0.6243 0 1
2.5438 -3.1003 -2.0841 0.6336 0 1
2.6290 -2.9536 -2.0549 0.6426 0 1
2.7091 -2.8077 -2.0276 0.6513 0 1
2.7843 -2.6626 -2.0021 0.6596 0 1
2.8544 -2.5179 -1.9781 0.6637 0 1
2.9198 -2.3739 -1.9556 0.6714 0 1
2.9808 -2.2306 -1.9348 0.6786 0 1
3.0381 -2.0884 -1.9159 0.6899 0 1
3.0922 -1.9474 -1.8991 0.6961 0 1
3.1423 -1.8067 -1.8837 0.7017 0 1
3.1885 -1.6665 -1.8697 0.7070 0 1
3.2310 -1.5266 -1.8571 0.7118 0 1
3.2697 -1.3870 -1.8458 0.7161 0 1
3.3048 -1.2477 -1.8358 0.7200 0 1
3.3364 -1.1085 -1.8271 0.7235 0 1
3.3644 -0.9695 -1.8196 0.7265 0 1
3.3892 -0.8307 -1.8134 0.7210 0 1
3.4107 -0.6919 -1.8086 0.7230 0 1
3.4289 -0.5532 -1.8050 0.7244 0 1
3.4436 -0.4143 -1.8025 0.7254 0 1
3.4550 -0.2754 -1.8012 0.7259 0 1
3.4630 -0.1363 -1.8011 0.7260 0 1
3.4684 0.0030 -1.8025 0.7247 0 1
3.4703 0.1426 -1.8050 0.7129 0 1
3.4673 0.2825 -1.8079 0.7118 0 1
3.4608 0.4226 -1.8119 0.7102 0 1
3.4508 0.5629 -1.8170 0.7082 0 1
3.4373 0.7036 -1.8234 0.7057 0 1
3.4202 0.8447 -1.8309 0.7028 0 1
3.3996 0.9861 -1.8395 0.6995 0 1
3.3752 1.1280 -1.8494 0.6958 0 1
3.3471 1.2703 -1.8605 0.6916 0 1
3.3156 1.4133 -1.8731 0.6987 0 1
3.2806 1.5571 -1.8872 0.6935 0 1
3.2416 1.7015 -1.9026 0.6879 0 1
3.1986 1.8466 -1.9194 0.6819 0 1
3.1515 1.9924 -1.9376 0.6754 0 1
3.0983 2.1378 -1.9562 0.6689 0 1
3.0419 2.2846 -1.9770 0.6554 0 1
2.9814 2.4327 -1.9997 0.6480 0 1
2.9162 2.5815 -2.0240 0.6402 0 1
2.8461 2.7312 -2.0500 0.6321 0 1
2.7709 2.8818 -2.0776 0.6237 0 1
2.6905 3.0333 -2.1071 0.6150 0 1
2.6046 3.1857 -2.1385 0.6059 0 1
2.5129 3.3389 -2.1717 0.5967 0 1
2.4153 3.4931 -2.2070 0.5871 0 1
2.3097 3.6454 -2.2427 0.5824 0 1
2.1972 3.7974 -2.2800 0.5729 0 1
2.0782 3.9499 -2.3195 0.5631 0 1
-2.7188 6.7702 -3.8948 0.3472 0 1
-3.0775 6.8532 -4.0105 0.3368 0 1
-3.4512 6.9261 -4.1311 0.3273 0 1
-3.8397 6.9872 -4.2562 0.3176 0 1
-4.2432 7.0357 -4.3862 0.3082 0 1
-4.6615 7.0702 -4.5209 0.2991 0 1
-5.0943 7.0891 -4.6603 0.2901 0 1
-5.5416 7.0917 -4.8046 0.2785 0 1
-6.0013 7.0743 -4.9524 0.2725 0 1
-6.4719 7.0351 -5.1031 0.2645 0 1
-6.9532 6.9736 -5.2571 0.2567 0 1
-7.4436 6.8881 -5.4140 0.2493 0 1
-7.9425 6.7779 -5.5741 0.2389 0 1
-8.4641 6.6541 -5.7476 0.2317 0 1
-8.9911 6.5011 -5.9231 0.2248 0 1
-9.5206 6.3173 -6.0996 0.2183 0 1
-10.0454 6.0986 -6.2736 0.2129 0 1
-10.5719 5.8500 -6.4502 0.2029 0 1
-11.0913 5.5673 -6.6251 0.1975 0 1
-11.5400 5.2228 -6.7621 0.1906 0 24
-12.0764 4.8908 -6.9556 0.1886 0 1
-12.5365 4.4995 -7.1105 0.1820 0 1
-12.9689 4.0741 -7.2569 0.1785 0 1
-13.3651 3.6152 -7.3913 0.1753 0 1
-13.7155 3.1243 -7.5095 0.1737 0 1
-14.0149 2.6048 -7.6099 0.1714 0 1
-14.2612 2.0615 -7.6924 0.1694 0 1
-14.4487 1.4986 -7.7547 0.1681 0 1
-14.5764 0.9216 -7.7971 0.1659 0 1
-14.5891 0.3347 -7.7903 0.1658 0 24
-14.6455 -0.2530 -7.8196 0.1660 0 1
-14.5862 -0.8393 -7.7996 0.1664 0 1
-14.4645 -1.4175 -7.7587 0.1674 0 1
-14.2824 -1.9820 -7.6977 0.1687 0 1
-14.0405 -2.5274 -7.6159 0.1681 0 1
-13.7480 -3.0499 -7.5177 0.1703 0 1
-13.3604 -3.5329 -7.3775 0.1736 0 24
-13.0208 -4.0095 -7.2732 0.1760 0 1
-12.5889 -4.4380 -7.1259 0.1796 0 1
-12.1256 -4.8309 -6.9680 0.1893 0 1
-11.6453 -5.1913 -6.8065 0.1937 0 1
-11.1421 -5.5140 -6.6367 0.1980 0 1
-10.6233 -5.8001 -6.4614 0.2034 0 1
-10.0954 -6.0509 -6.2833 0.2095 0 1
-9.5420 -6.2539 -6.0905 0.2220 0 24
-9.0555 -6.4699 -5.9413 0.2276 0 1
-8.5359 -6.6327 -5.7708 0.2343 0 1
-8.0204 -6.7663 -5.6018 0.2414 0 1
-7.5086 -6.8697 -5.4329 0.2461 0 1
-7.0043 -6.9457 -5.2660 0.2539 0 1
-6.5121 -6.9988 -5.1035 0.2639 0 1
-6.0331 -7.0307 -4.9457 0.2724 0 1
-5.5677 -7.0424 -4.7925 0.2791 0 1
-5.1142 -7.0325 -4.6420 0.2881 0 1
-4.6764 -7.0061 -4.4968 0.2974 0 1
-4.2552 -6.9661 -4.3577 0.3095 0 1
-3.8389 -6.8929 -4.2119 0.3187 0 24
-3.4613 -6.8489 -4.0966 0.3292 0 1
-3.0866 -6.7706 -3.9723 0.3371 0 1
-2.7272 -6.6816 -3.8526 0.3476 0 1
-2.3840 -6.5858 -3.7391 0.3611 0 1
-2.0563 -6.4836 -3.6311 0.3719 0 1
-1.7431 -6.3749 -3.5281 0.3827 0 1
-1.4441 -6.2606 -3.4299 0.3937 0 1
-1.1588 -6.1412 -3.3363 0.4047 0 1
-0.8864 -6.0159 -3.2462 0.4147 0 1
-0.6268 -5.8864 -3.1602 0.4245 0 1
-0.3796 -5.7535 -3.0782 0.4358 0 1
