ply
format ascii 1.0
element vertex 1371
property float32 x
property float32 y
property float32 z
property float32 CosAngle
property uint32 ObjIdx
property uint32 ObjTag
end_header
3.8214 0.3745 -0.8764 0.9875 25 14
3.8255 0.5311 -0.8815 0.9736 25 14
3.8263 0.6892 -0.8874 0.9671 25 14
3.8903 0.8637 -0.9096 0.6353 25 14
5.2399 1.3869 -1.2372 0.5095 0 1
5.2279 1.6115 -1.2486 0.5048 0 1
5.2086 1.8382 -1.2607 0.4925 0 1
5.1805 2.0663 -1.2730 0.4878 0 1
5.1483 2.2978 -1.2868 0.4822 0 1
5.1118 2.5330 -1.3021 0.4766 0 1
5.0706 2.7722 -1.3190 0.4705 0 1
5.0246 3.0158 -1.3375 0.4639 0 1
4.9734 3.2644 -1.3578 0.4570 0 1
4.9168 3.5183 -1.3800 0.4497 0 1
4.8549 3.7785 -1.4041 0.4420 0 1
4.7872 4.0455 -1.4306 0.4338 0 1
4.7127 4.3194 -1.4591 0.4375 0 1
4.6236 4.5936 -1.4876 0.4291 0 1
4.5271 4.8752 -1.5185 0.4204 0 1
4.4226 5.1650 -1.5520 0.4113 0 1
4.3107 5.4649 -1.5887 0.4001 0 1
4.1921 5.7786 -1.6294 0.3901 0 1
4.0634 6.1038 -1.6736 0.3798 0 1
3.9236 6.4417 -1.7215 0.3692 0 1
3.7581 6.7690 -1.7671 0.3978 0 1
3.5789 7.1059 -1.8160 0.3772 0 1
3.3931 7.4715 -1.8729 0.3657 0 1
3.1920 7.8537 -1.9350 0.3540 0 1
2.9705 8.2457 -2.0004 0.3343 0 1
2.7322 8.6632 -2.0733 0.3052 0 1
2.4779 9.1215 -2.1574 0.3164 0 1
2.1957 9.5939 -2.2464 0.3039 0 1
1.8865 10.0960 -2.3442 0.2890 0 1
1.5479 10.6400 -2.4541 0.2761 0 1
1.1693 11.1806 -2.5658 0.2639 0 24
0.7600 11.8697 -2.7147 0.2405 0 1
0.2976 12.5660 -2.8689 0.2276 0 1
-0.2210 13.3263 -3.0421 0.2146 0 1
-0.8062 14.1678 -3.2389 0.1945 0 1
-1.4782 15.1744 -3.4799 0.1735 0 1
-2.2389 16.1960 -3.7318 0.1622 0 24
-3.1313 17.4426 -4.0448 0.1537 0 1
-4.1515 18.7505 -4.3833 0.1455 0 1
-5.3405 20.2258 -4.7746 0.1314 0 1
-6.7324 21.8869 -5.2265 0.1238 0 1
-8.3891 23.8159 -5.7632 0.1093 0 1
-10.4524 26.2503 -6.4490 0.0988 0 1
-13.0643 29.3176 -7.3259 0.0869 0 1
-16.5384 33.4258 -8.5120 0.0816 0 2
-15.6570 28.6788 -7.4577 0.5241 0 15
-15.8630 26.4643 -7.0423 0.5725 0 15
-17.0761 26.0496 -7.1093 0.7632 0 15
-29.2801 37.6670 -10.8892 0.7740 0 3
-28.3113 33.5419 -10.0183 0.6619 0 3
-23.1431 25.2801 -7.8227 0.7175 0 5
-28.5360 28.7561 -9.2466 0.7172 0 3
-28.6822 26.6655 -8.9386 0.6688 0 3
-27.8675 23.8908 -8.3780 0.8613 0 3
-28.7840 22.7319 -8.3715 0.7921 0 3
-28.8495 20.9549 -8.1384 0.8148 0 3
-28.9076 19.2687 -7.9294 0.8362 0 3
-29.1560 17.7823 -7.7947 0.5134 0 3
-31.5393 17.5345 -8.2364 0.4740 0 3
-34.6924 17.4981 -8.8685 0.3336 0 3
-38.6648 17.5869 -9.6950 0.5285 0 3
-43.4400 17.6849 -10.7051 0.3738 0 3
-27.3065 9.8551 -6.6260 0.9289 0 22
-27.3477 7.4463 -6.4692 0.9685 0 22
-32.9308 -32.9485 -11.1769 0.9558 0 20
-31.1539 -33.7875 -11.0269 0.9071 0 20
-30.6889 -36.0964 -11.3677 0.3853 0 20
-28.5985 -36.5201 -11.1293 0.6491 0 20
-28.0218 -38.9144 -11.5056 0.6176 0 20
-26.0140 -39.3769 -11.3233 0.9499 0 9
-21.8462 -36.1526 -10.1349 0.0614 0 2
-17.3293 -31.4740 -8.6206 0.0721 0 2
-14.3587 -28.7614 -7.7129 0.0711 0 1
-11.5124 -25.5885 -6.7323 0.0916 0 1
-9.2471 -22.9840 -5.9442 0.1006 0 24
-7.4468 -20.9020 -5.3238 0.1158 0 24
-5.9919 -19.2347 -4.8338 0.1272 0 1
-4.7738 -17.8212 -4.4266 0.1452 0 1
-3.7482 -16.6472 -4.0942 0.1595 0 1
-2.8608 -15.6145 -3.8088 0.1748 0 1
-2.0845 -14.6920 -3.5604 0.1878 0 1
-1.4013 -13.8711 -3.3451 0.2063 0 1
-0.7942 -13.1289 -3.1558 0.2175 0 1
-0.2507 -12.4354 -2.9843 0.2293 0 1
0.2367 -11.7733 -2.8254 0.2318 0 1
0.6741 -11.1531 -2.6809 0.2434 0 1
1.0679 -10.5765 -2.5505 0.2559 0 1
1.4231 -10.0335 -2.4314 0.2709 0 1
1.7395 -9.4971 -2.3166 0.2814 0 24
2.0381 -9.0541 -2.2267 0.2954 0 1
2.3057 -8.6090 -2.1384 0.3089 0 1
2.5508 -8.1897 -2.0581 0.3210 0 1
2.7755 -7.7917 -1.9845 0.3329 0 1
2.9833 -7.4161 -1.9179 0.3479 0 1
3.1741 -7.0560 -1.8564 0.3585 0 1
3.3500 -6.7110 -1.7997 0.3698 0 1
3.5135 -6.3821 -1.7480 0.3774 0 1
3.6655 -6.0666 -1.7006 0.3879 0 1
3.8014 -5.7548 -1.6548 0.3882 0 1
3.9199 -5.4442 -1.6096 0.4028 0 1
4.0299 -5.1466 -1.5684 0.4134 0 1
4.1287 -4.8567 -1.5294 0.4134 0 1
4.2188 -4.5759 -1.4933 0.4234 0 1
4.3014 -4.3041 -1.4600 0.4330 0 1
4.3769 -4.0405 -1.4292 0.4423 0 1
4.4508 -3.7885 -1.4024 0.4691 0 1
4.5251 -3.5478 -1.3796 0.4769 0 1
4.5937 -3.3120 -1.3588 0.4842 0 1
4.6576 -3.0809 -1.3399 0.4911 0 1
4.7172 -2.8543 -1.3229 0.4974 0 1
4.7720 -2.6311 -1.3075 0.5033 0 1
4.8223 -2.4110 -1.2936 0.5087 0 1
4.8682 -2.1937 -1.2812 0.5137 0 1
4.9100 -1.9788 -1.2701 0.5181 0 1
4.9477 -1.7660 -1.2605 0.5221 0 1
4.9816 -1.5551 -1.2521 0.5256 0 1
5.0116 -1.3456 -1.2450 0.5286 0 1
3.8967 -0.8798 -0.9585 0.5961 25 14
3.8252 -0.7031 -0.9332 0.9724 25 14
3.8202 -0.5443 -0.9258 0.9801 25 14
3.8150 -0.3877 -0.9201 0.9863 25 14
3.8097 -0.2327 -0.9158 0.9909 25 14
3.8043 -0.0789 -0.9130 0.9939 25 14
3.8048 0.0743 -0.9131 0.9938 25 14
3.8103 0.2281 -0.9159 0.9908 25 14
3.8156 0.3830 -0.9201 0.9862 25 14
3.8208 0.5396 -0.9258 0.9801 25 14
3.8244 0.6982 -0.9328 0.9647 25 14
3.9014 0.8758 -0.9594 0.5956 25 14
5.1308 1.3709 -1.2742 0.5186 0 1
5.1178 1.5907 -1.2859 0.5139 0 1
5.0950 1.8115 -1.2974 0.5018 0 1
5.0661 2.0345 -1.3099 0.4970 0 1
5.0332 2.2606 -1.3238 0.4915 0 1
4.9959 2.4902 -1.3393 0.4858 0 1
4.9539 2.7235 -1.3564 0.4797 0 1
4.9071 2.9610 -1.3751 0.4732 0 1
4.8551 3.2030 -1.3956 0.4662 0 1
4.7977 3.4501 -1.4179 0.4589 0 1
4.7350 3.7030 -1.4422 0.4512 0 1
4.6665 3.9623 -1.4688 0.4430 0 1
4.5915 4.2282 -1.4976 0.4345 0 1
4.5044 4.4962 -1.5270 0.4383 0 1
4.4076 4.7689 -1.5581 0.4296 0 1
4.3029 5.0491 -1.5917 0.4205 0 1
4.1906 5.3385 -1.6284 0.4092 0 1
4.0719 5.6407 -1.6692 0.3992 0 1
3.9431 5.9534 -1.7133 0.3889 0 1
3.8036 6.2777 -1.7611 0.3784 0 1
3.6487 6.6085 -1.8112 0.4069 0 1
3.4695 6.9293 -1.8593 0.3862 0 1
3.2852 7.2793 -1.9162 0.3748 0 1
3.0847 7.6412 -1.9771 0.3546 0 1
2.8639 8.0089 -2.0408 0.3436 0 1
2.6257 8.3941 -2.1102 0.3144 0 1
2.3807 8.8460 -2.1980 0.3018 0 1
2.1039 9.2932 -2.2862 0.3130 0 1
1.8010 9.7653 -2.3825 0.3004 0 1
1.4698 10.2727 -2.4899 0.2853 0 1
1.1025 10.7864 -2.6015 0.2810 0 24
0.7026 11.3929 -2.7387 0.2444 0 1
0.2559 11.9972 -2.8792 0.2444 0 24
-0.2410 12.7308 -3.0551 0.2191 0 1
-0.7995 13.4904 -3.2425 0.2064 0 1
-1.4308 14.3384 -3.4573 0.1831 0 1
-2.1518 15.3010 -3.7073 0.1732 0 1
-2.9761 16.3569 -3.9890 0.1611 0 1
-3.9203 17.5115 -4.3056 0.1528 0 1
-5.0029 18.7684 -4.6604 0.1435 0 1
-6.2662 20.2023 -5.0750 0.1315 0 1
-7.6946 21.6816 -5.5200 0.1169 0 24
-9.5368 23.7880 -6.1491 0.1076 0 1
-11.7579 26.2200 -6.8946 0.0967 0 1
-14.4376 29.0082 -7.7744 0.0935 0 24
-15.6169 28.4463 -7.7861 0.5054 0 15
-15.7890 26.2011 -7.3397 0.6397 0 15
-17.1712 26.0609 -7.4881 0.7326 0 15
-27.0083 37.6038 -11.1084 0.8970 0 3
-29.4206 37.6648 -11.4672 0.7706 0 3
-28.1649 33.2100 -10.4478 0.6655 0 3
-22.9925 24.9974 -8.1490 0.7204 0 5
-23.0824 23.1514 -7.8439 0.7037 0 5
-23.1524 21.4233 -7.5683 0.6917 0 5
-26.8662 22.9231 -8.4736 0.9948 0 3
-28.6572 22.5227 -8.7452 0.7950 0 3
-28.5843 20.6598 -8.4621 0.7417 0 3
-28.7863 19.0904 -8.2875 0.8389 0 3
-29.0251 17.6091 -8.1455 0.6679 0 3
-32.1244 17.7612 -8.8073 0.4764 0 3
-35.3763 17.7390 -9.4952 0.4419 0 3
-38.8128 17.5443 -10.2196 0.8446 0 3
-43.4224 17.5590 -11.2380 0.5643 0 3
-27.2052 9.7464 -6.9337 0.9290 0 22
-27.1833 8.5206 -6.8351 0.9969 0 6
-27.2440 7.3493 -6.7704 0.9604 0 22
-30.7357 -18.4970 -8.6069 0.8385 0 22
-33.0309 -32.8938 -11.1847 0.9551 0 20
-31.2656 -33.7491 -11.0383 0.9061 0 20
-30.6106 -35.8334 -11.3075 0.3874 0 20
-23.8359 -30.2915 -9.2482 0.6620 0 20
-28.0336 -38.7386 -11.4731 0.6194 0 20
-25.3297 -38.1459 -10.9864 0.8892 0 9
-22.1552 -36.4702 -10.2385 0.0607 0 2
-17.5578 -31.7126 -8.6972 0.0715 0 2
-14.5674 -29.0088 -7.7885 0.0699 0 1
-11.6562 -25.7465 -6.7810 0.0909 0 1
-9.4124 -23.2372 -6.0154 0.0985 0 1
-7.5413 -21.0111 -5.3561 0.1150 0 24
-6.0709 -19.3284 -4.8609 0.1264 0 1
-4.8394 -17.8978 -4.4485 0.1445 0 1
-3.8043 -16.7128 -4.1125 0.1587 0 1
-2.9093 -15.6716 -3.8244 0.1741 0 1
-2.1271 -14.7432 -3.5740 0.1871 0 1
-1.4388 -13.9157 -3.3566 0.2056 0 1
-0.8278 -13.1710 -3.1664 0.2168 0 1
-0.2808 -12.4744 -2.9938 0.2286 0 1
0.2098 -11.8108 -2.8342 0.2311 0 1
0.6499 -11.1881 -2.6889 0.2427 0 1
1.0460 -10.6090 -2.5578 0.2551 0 1
1.4033 -10.0639 -2.4380 0.2702 0 1
1.7216 -9.5255 -2.3225 0.2805 0 24
2.0154 -9.0524 -2.2251 0.2930 0 24
2.2907 -8.6342 -2.1433 0.3082 0 1
2.5371 -8.2135 -2.0626 0.3203 0 1
2.7629 -7.8144 -1.9887 0.3322 0 1
2.9716 -7.4376 -1.9217 0.3472 0 1
3.1634 -7.0765 -1.8598 0.3578 0 1
3.3401 -6.7308 -1.8028 0.3692 0 1
3.5043 -6.4008 -1.7509 0.3768 0 1
3.6570 -6.0847 -1.7033 0.3873 0 1
3.7943 -5.7733 -1.6576 0.3876 0 1
3.9132 -5.4619 -1.6121 0.4022 0 1
4.0237 -5.1637 -1.5707 0.4128 0 1
4.1232 -4.8734 -1.5316 0.4128 0 1
4.2138 -4.5921 -1.4954 0.4228 0 1
4.2968 -4.3198 -1.4619 0.4325 0 1
4.3727 -4.0557 -1.4310 0.4418 0 1
4.4463 -3.8027 -1.4038 0.4687 0 1
4.5209 -3.5617 -1.3809 0.4764 0 1
4.5899 -3.3256 -1.3599 0.4838 0 1
4.6539 -3.0942 -1.3409 0.4907 0 1
4.7138 -2.8674 -1.3238 0.4970 0 1
4.7690 -2.6440 -1.3083 0.5029 0 1
4.8195 -2.4238 -1.2943 0.5084 0 1
4.8657 -2.2063 -1.2818 0.5134 0 1
4.9077 -1.9913 -1.2707 0.5179 0 1
4.9457 -1.7784 -1.2610 0.5219 0 1
4.9797 -1.5673 -1.2526 0.5254 0 1
5.0100 -1.3578 -1.2454 0.5284 0 1
3.9064 -0.8916 -0.9614 0.5943 25 14
3.8255 -0.7125 -0.9336 0.9719 25 14
3.8205 -0.5535 -0.9262 0.9797 25 14
3.8153 -0.3967 -0.9204 0.9859 25 14
3.8101 -0.2417 -0.9160 0.9906 25 14
3.8046 -0.0879 -0.9131 0.9938 25 14
3.8045 0.0653 -0.9130 0.9939 25 14
3.8100 0.2191 -0.9157 0.9910 25 14
3.8153 0.3739 -0.9198 0.9865 25 14
3.8205 0.5304 -0.9254 0.9805 25 14
3.8243 0.6889 -0.9324 0.9651 25 14
3.8919 0.8641 -0.9565 0.5974 25 14
5.1315 1.3582 -1.2736 0.5189 0 1
5.1187 1.5778 -1.2852 0.5142 0 1
5.0966 1.7986 -1.2967 0.5021 0 1
5.0679 2.0214 -1.3091 0.4973 0 1
5.0352 2.2473 -1.3230 0.4918 0 1
4.9982 2.4767 -1.3384 0.4861 0 1
4.9565 2.7098 -1.3553 0.4800 0 1
4.9099 2.9470 -1.3740 0.4735 0 1
4.8583 3.1888 -1.3943 0.4666 0 1
4.8012 3.4356 -1.4165 0.4593 0 1
4.7388 3.6881 -1.4408 0.4516 0 1
4.6707 3.9470 -1.4672 0.4435 0 1
4.5961 4.2125 -1.4959 0.4350 0 1
4.5098 4.4805 -1.5253 0.4388 0 1
4.4134 4.7528 -1.5562 0.4301 0 1
4.3092 5.0325 -1.5896 0.4211 0 1
4.1973 5.3212 -1.6261 0.4098 0 1
4.0790 5.6228 -1.6667 0.3998 0 1
3.9509 5.9349 -1.7106 0.3895 0 1
3.8120 6.2585 -1.7582 0.3790 0 1
3.6589 6.5903 -1.8086 0.4075 0 1
3.4798 6.9093 -1.8562 0.3869 0 1
3.2964 7.2584 -1.9127 0.3755 0 1
3.0971 7.6203 -1.9736 0.3553 0 1
2.8773 7.9870 -2.0369 0.3442 0 1
2.6397 8.3697 -2.1057 0.3330 0 1
2.3956 8.8189 -2.1926 0.3026 0 1
2.1208 9.2665 -2.2808 0.3138 0 1
1.8194 9.7370 -2.3766 0.3011 0 1
1.4900 10.2421 -2.4833 0.2860 0 1
1.1247 10.7541 -2.5943 0.2818 0 24
0.7272 11.3570 -2.7305 0.2473 0 1
0.2832 11.9591 -2.8702 0.2452 0 24
-0.2104 12.6886 -3.0448 0.2198 0 1
-0.7651 13.4442 -3.2309 0.2072 0 1
-1.3916 14.2853 -3.4437 0.1838 0 1
-2.1072 15.2429 -3.6921 0.1739 0 1
-2.9248 16.2920 -3.9715 0.1618 0 1
-3.8618 17.4420 -4.2862 0.1535 0 1
-4.9353 18.6912 -4.6383 0.1442 0 1
-6.1875 20.1152 -5.0495 0.1322 0 1
-7.5991 21.5731 -5.4878 0.1176 0 24
-9.4215 23.6612 -6.1106 0.1082 0 1
-11.6149 26.0649 -6.8466 0.0973 0 1
-14.3110 28.9240 -7.7428 0.0870 0 1
-15.6031 28.5800 -7.8126 0.4289 0 15
-15.7704 26.3099 -7.3598 0.5871 0 15
-17.0751 26.0480 -7.4729 0.7382 0 15
-27.8551 38.9756 -11.4942 0.6049 0 3
-29.2792 37.6658 -11.4465 0.7720 0 3
-28.1572 33.3594 -10.4740 0.6638 0 3
-22.9710 25.0921 -8.1622 0.7680 0 5
-23.0768 23.2547 -7.8606 0.6944 0 5
-23.1512 21.5235 -7.5844 0.6789 0 5
-32.2574 27.6542 -10.1944 0.6381 0 3
-28.6530 22.6284 -8.7601 0.7936 0 3
-28.5985 20.7725 -8.4808 0.1562 0 3
-28.7829 19.1856 -8.2995 0.8377 0 3
-29.1546 17.7815 -8.1935 0.5121 0 3
-31.9491 17.7624 -8.7707 0.4784 0 3
-35.1726 17.7404 -9.4517 0.4439 0 3
-38.4002 17.4665 -10.1218 0.3892 0 3
-43.4372 17.6838 -11.2526 0.3729 0 3
-27.2070 9.8192 -6.9400 0.9281 0 22
-27.2381 7.4164 -6.7732 0.9904 0 22
-33.0501 -33.0678 -11.7668 0.8892 0 20
-31.1161 -33.7465 -11.5529 0.9077 0 20
-28.6271 -33.6713 -11.1233 0.6794 0 20
-23.6830 -30.2431 -9.6678 0.8946 0 20
-27.5237 -38.2226 -11.8546 0.7738 0 9
-22.7783 -34.4790 -10.4005 0.8339 0 9
-18.5675 -30.7268 -9.0357 0.0720 0 2
-15.6954 -28.5064 -8.1902 0.0700 0 1
-12.5213 -25.0811 -7.0554 0.0945 0 24
-10.2603 -22.8056 -6.2940 0.0976 0 24
-8.3573 -20.7725 -5.6353 0.1135 0 24
-6.8301 -19.1710 -5.1221 0.1256 0 1
-5.5385 -17.7792 -4.6868 0.1435 0 1
-4.4515 -16.6183 -4.3300 0.1577 0 1
-3.5136 -15.6052 -4.0259 0.1731 0 1
-2.6941 -14.7046 -3.7625 0.1859 0 1
-1.9714 -13.8948 -3.5321 0.1995 0 1
-1.3312 -13.1774 -3.3334 0.2165 0 1
-0.7565 -12.5057 -3.1532 0.2270 0 1
-0.2390 -11.8566 -2.9847 0.2296 0 1
0.2262 -11.2472 -2.8313 0.2411 0 1
0.6454 -10.6781 -2.6924 0.2536 0 1
1.0246 -10.1470 -2.5668 0.2660 0 1
1.3684 -9.6479 -2.4525 0.2805 0 1
1.6810 -9.1777 -2.3483 0.2930 0 1
1.9594 -8.7045 -2.2456 0.3043 0 24
2.2277 -8.3178 -2.1672 0.3189 0 1
2.4676 -7.9227 -2.0885 0.3309 0 1
2.6890 -7.5488 -2.0168 0.3461 0 1
2.8932 -7.1922 -1.9511 0.3568 0 1
3.0812 -6.8494 -1.8903 0.3683 0 1
3.2548 -6.5204 -1.8342 0.3796 0 1
3.4155 -6.2040 -1.7824 0.3906 0 1
3.5658 -5.9017 -1.7354 0.3977 0 1
3.6988 -5.5993 -1.6890 0.3979 0 1
3.8178 -5.3024 -1.6445 0.4125 0 1
3.9252 -5.0130 -1.6024 0.4127 0 1
4.0236 -4.7330 -1.5635 0.4230 0 1
4.1139 -4.4621 -1.5275 0.4330 0 1
4.1967 -4.1994 -1.4942 0.4426 0 1
4.2726 -3.9442 -1.4635 0.4519 0 1
4.3506 -3.7033 -1.4379 0.4786 0 1
4.4249 -3.4692 -1.4151 0.4863 0 1
4.4935 -3.2397 -1.3942 0.4936 0 1
4.5572 -3.0146 -1.3752 0.5005 0 1
4.6169 -2.7936 -1.3581 0.5068 0 1
4.6717 -2.5758 -1.3427 0.5127 0 1
4.7219 -2.3608 -1.3287 0.5181 0 1
4.7679 -2.1485 -1.3162 0.5231 0 1
4.8097 -1.9383 -1.3051 0.5275 0 1
4.8474 -1.7302 -1.2954 0.5315 0 1
4.8812 -1.5237 -1.2870 0.5349 0 1
4.9112 -1.3187 -1.2799 0.5379 0 1
3.8993 -0.8804 -1.0061 0.5941 25 14
3.8319 -0.7044 -0.9806 0.8948 25 14
3.8226 -0.5446 -0.9718 0.9029 25 14
3.8136 -0.3875 -0.9648 0.9095 25 14
3.8050 -0.2324 -0.9594 0.9146 25 14
3.7981 -0.0788 -0.9561 0.9928 25 14
3.7988 0.0742 -0.9563 0.9927 25 14
3.8042 0.2277 -0.9592 0.9897 25 14
3.8095 0.3824 -0.9636 0.9851 25 14
3.8146 0.5387 -0.9696 0.9790 25 14
3.8213 0.6976 -0.9776 0.8975 25 14
3.9063 0.8769 -1.0076 0.5933 25 14
5.0262 1.3429 -1.3094 0.5280 0 1
5.0122 1.5579 -1.3210 0.5156 0 1
4.9870 1.7732 -1.3321 0.5113 0 1
4.9578 1.9910 -1.3446 0.5065 0 1
4.9244 2.2117 -1.3586 0.5010 0 1
4.8866 2.4357 -1.3742 0.4953 0 1
4.8442 2.6632 -1.3913 0.4892 0 1
4.7970 2.8945 -1.4101 0.4827 0 1
4.7446 3.1301 -1.4306 0.4758 0 1
4.6867 3.3704 -1.4529 0.4685 0 1
4.6237 3.6160 -1.4773 0.4608 0 1
4.5549 3.8675 -1.5039 0.4526 0 1
4.4796 4.1252 -1.5327 0.4441 0 1
4.3955 4.3876 -1.5631 0.4480 0 1
4.2989 4.6514 -1.5941 0.4393 0 1
4.1946 4.9220 -1.6276 0.4302 0 1
4.0825 5.2008 -1.6641 0.4189 0 1
3.9643 5.4916 -1.7046 0.4089 0 1
3.8362 5.7920 -1.7485 0.3987 0 1
3.6977 6.1030 -1.7960 0.3882 0 1
3.5476 6.4254 -1.8473 0.3774 0 1
3.3756 6.7416 -1.8976 0.4063 0 1
3.1935 7.0761 -1.9539 0.3845 0 1
2.9931 7.4142 -2.0124 0.3645 0 1
2.7762 7.7635 -2.0751 0.3535 0 1
2.5422 8.1270 -2.1432 0.3423 0 1
2.2987 8.5411 -2.2261 0.3118 0 1
2.0340 8.9843 -2.3184 0.3229 0 1
1.7387 9.4275 -2.4127 0.3103 0 1
1.4164 9.8995 -2.5169 0.2952 0 1
1.0636 10.4061 -2.6327 0.2822 0 1
0.6737 10.9237 -2.7545 0.2695 0 1
0.2452 11.4930 -2.8933 0.2577 0 24
-0.2297 12.1321 -3.0540 0.2293 0 1
-0.7565 12.7657 -3.2186 0.2218 0 24
-1.3534 13.5636 -3.4307 0.2050 0 1
-2.0237 14.3901 -3.6574 0.1811 0 1
-2.7884 15.3254 -3.9205 0.1713 0 1
-3.6602 16.3495 -4.2168 0.1633 0 1
-4.6490 17.4409 -4.5429 0.1526 0 1
-5.7865 18.6557 -4.9160 0.1400 0 1
-7.0982 20.0011 -5.3416 0.1307 0 1
-8.6529 21.5833 -5.8525 0.1151 0 1
-10.5596 23.5478 -6.4952 0.1048 0 1
-12.8819 25.8824 -7.2764 0.0981 0 1
-15.5945 28.4054 -8.1557 0.0922 0 1
-15.7349 26.1114 -7.6728 0.8518 0 15
-17.1846 26.0813 -7.8610 0.7269 0 15
-26.1005 36.3398 -11.2607 0.6070 0 3
-27.8655 35.6740 -11.3930 0.6384 0 3
-28.0120 33.0297 -10.9001 0.6673 0 3
-22.8606 24.8541 -8.4991 0.6429 0 5
-22.9794 23.0481 -8.1914 0.6954 0 5
-29.9022 27.6691 -10.2535 0.6637 0 3
-27.7521 23.6790 -9.1817 0.9273 0 3
-28.5269 22.4203 -9.1318 0.7964 0 3
-31.3528 22.6608 -9.7363 0.5736 0 3
-33.2757 22.0676 -10.0492 0.8402 0 3
-29.3061 17.7796 -8.6271 0.5088 0 3
-28.9376 15.9993 -8.3222 0.9949 0 3
-33.5312 16.8138 -9.4408 0.9903 0 3
-39.1835 17.7118 -10.8225 0.4056 0 3
-43.7172 17.6782 -11.8684 0.3698 0 3
-27.1305 9.7197 -7.2533 0.9540 0 22
-27.0976 8.4937 -7.1472 0.8258 0 6
-27.1420 7.3218 -7.0754 0.9614 0 22
-46.6208 8.6264 -11.9329 0.9495 0 22
-30.6054 -18.4186 -8.9902 0.7942 0 22
-33.1656 -33.0279 -11.7803 0.8882 0 20
-31.2266 -33.7071 -11.5645 0.9068 0 20
-28.6397 -33.5263 -11.0976 0.6809 0 20
-23.7419 -30.1721 -9.6629 0.9472 0 20
-27.5278 -38.0396 -11.8178 0.4838 0 9
-22.8276 -34.3779 -10.3861 0.8069 0 9
-18.8013 -30.9493 -9.1141 0.0714 0 2
-15.9141 -28.7438 -8.2691 0.0694 0 1
-12.7504 -25.3905 -7.1509 0.0870 0 1
-10.3861 -22.9411 -6.3381 0.0961 0 24
-8.4570 -20.8785 -5.6695 0.1126 0 24
-6.9135 -19.2620 -5.1507 0.1249 0 1
-5.6076 -17.8533 -4.7098 0.1432 0 1
-4.5107 -16.6821 -4.3494 0.1570 0 1
-3.5648 -15.6606 -4.0423 0.1724 0 1
-2.7390 -14.7545 -3.7769 0.1852 0 1
-2.0112 -13.9400 -3.5448 0.1988 0 1
-1.3666 -13.2175 -3.3444 0.2158 0 1
-0.7884 -12.5440 -3.1634 0.2263 0 1
-0.2677 -11.8936 -2.9942 0.2288 0 1
0.2004 -11.2817 -2.8399 0.2404 0 1
0.6221 -10.7102 -2.7001 0.2528 0 1
1.0034 -10.1770 -2.5738 0.2652 0 1
1.3492 -9.6763 -2.4589 0.2798 0 1
1.6636 -9.2044 -2.3541 0.2923 0 1
1.9435 -8.7295 -2.2509 0.3025 0 24
2.2130 -8.3415 -2.1720 0.3182 0 1
2.4542 -7.9452 -2.0929 0.3302 0 1
2.6765 -7.5700 -2.0208 0.3454 0 1
2.8818 -7.2127 -1.9548 0.3562 0 1
3.0706 -6.8690 -1.8937 0.3677 0 1
3.2451 -6.5393 -1.8373 0.3789 0 1
3.4064 -6.2221 -1.7853 0.3900 0 1
3.5574 -5.9190 -1.7381 0.3971 0 1
3.6916 -5.6171 -1.6917 0.3973 0 1
3.8111 -5.3194 -1.6470 0.4119 0 1
3.9192 -5.0296 -1.6048 0.4121 0 1
4.0181 -4.7491 -1.5657 0.4224 0 1
4.1088 -4.4777 -1.5295 0.4324 0 1
4.1921 -4.2145 -1.4961 0.4421 0 1
4.2684 -3.9589 -1.4652 0.4514 0 1
4.3461 -3.7171 -1.4393 0.4782 0 1
4.4207 -3.4828 -1.4164 0.4859 0 1
4.4896 -3.2530 -1.3954 0.4932 0 1
4.5536 -3.0276 -1.3763 0.5002 0 1
4.6135 -2.8064 -1.3591 0.5065 0 1
4.6686 -2.5884 -1.3435 0.5123 0 1
4.7191 -2.3733 -1.3295 0.5178 0 1
4.7653 -2.1608 -1.3169 0.5228 0 1
4.8073 -1.9505 -1.3057 0.5272 0 1
4.8453 -1.7423 -1.2959 0.5312 0 1
4.8793 -1.5357 -1.2874 0.5347 0 1
4.9096 -1.3306 -1.2802 0.5377 0 1
3.9089 -0.8922 -1.0091 0.5923 25 14
3.8325 -0.7138 -0.9812 0.8943 25 14
3.8231 -0.5539 -0.9723 0.9025 25 14
3.8141 -0.3966 -0.9651 0.9092 25 14
3.8055 -0.2414 -0.9597 0.9143 25 14
3.7984 -0.0877 -0.9563 0.9927 25 14
3.7984 0.0652 -0.9561 0.9928 25 14
3.8039 0.2187 -0.9590 0.9899 25 14
3.8092 0.3733 -0.9633 0.9854 25 14
3.8143 0.5296 -0.9692 0.9794 25 14
3.8209 0.6882 -0.9771 0.8980 25 14
3.8968 0.8652 -1.0046 0.5950 25 14
5.0269 1.3305 -1.3087 0.5283 0 1
5.0134 1.5454 -1.3204 0.5236 0 1
4.9886 1.7605 -1.3314 0.5115 0 1
4.9596 1.9782 -1.3439 0.5068 0 1
4.9264 2.1988 -1.3578 0.5013 0 1
4.8890 2.4225 -1.3732 0.4956 0 1
4.8468 2.6498 -1.3903 0.4896 0 1
4.7999 2.8809 -1.4089 0.4831 0 1
4.7478 3.1163 -1.4293 0.4762 0 1
4.6903 3.3562 -1.4516 0.4689 0 1
4.6275 3.6015 -1.4758 0.4612 0 1
4.5591 3.8527 -1.5023 0.4531 0 1
4.4842 4.1099 -1.5309 0.4446 0 1
4.4009 4.3724 -1.5614 0.4485 0 1
4.3048 4.6358 -1.5922 0.4398 0 1
4.2009 4.9060 -1.6256 0.4307 0 1
4.0891 5.1841 -1.6618 0.4195 0 1
3.9714 5.4744 -1.7022 0.4095 0 1
3.8440 5.7742 -1.7459 0.3993 0 1
3.7061 6.0845 -1.7931 0.3888 0 1
3.5567 6.4062 -1.8442 0.3780 0 1
3.3863 6.7236 -1.8947 0.4069 0 1
3.2045 7.0562 -1.9505 0.3852 0 1
3.0052 7.3943 -2.0088 0.3651 0 1
2.7893 7.7427 -2.0713 0.3541 0 1
2.5563 8.1053 -2.1390 0.3429 0 1
2.3133 8.5156 -2.2209 0.3125 0 1
2.0504 8.9592 -2.3132 0.3237 0 1
1.7566 9.4009 -2.4070 0.3110 0 1
1.4360 9.8710 -2.5105 0.2960 0 1
1.0851 10.3756 -2.6256 0.2830 0 1
0.6975 10.8936 -2.7474 0.2702 0 1
0.2714 11.4588 -2.8848 0.2585 0 24
-0.2006 12.0938 -3.0442 0.2300 0 1
-0.7242 12.7264 -3.2082 0.2255 0 24
-1.3169 13.5190 -3.4186 0.2057 0 1
-1.9821 14.3380 -3.6430 0.1818 0 1
-2.7411 15.2687 -3.9043 0.1720 0 1
-3.6066 16.2892 -4.1990 0.1624 0 1
-4.5876 17.3744 -4.5227 0.1533 0 1
-5.7151 18.5796 -4.8924 0.1407 0 1
-7.0161 19.9180 -5.3149 0.1313 0 1
-8.5521 21.4779 -5.8184 0.1158 0 1
-10.4372 23.4222 -6.4538 0.1054 0 1
-12.7362 25.7412 -7.2283 0.0988 0 1
-15.4270 28.2575 -8.1028 0.0928 0 1
-15.7103 26.2096 -7.6908 0.6073 0 15
-17.0890 26.0693 -7.8453 0.7408 0 15
-26.1064 36.5288 -11.3003 0.2938 0 3
-27.8564 35.8355 -11.4237 0.6367 0 3
-28.0040 33.1778 -10.9272 0.6656 0 3
-22.8614 24.9724 -8.5211 0.6760 0 5
-22.9781 23.1554 -8.2103 0.6978 0 5
-29.7627 27.6701 -10.2279 0.6653 0 3
-26.7370 22.9216 -8.8636 0.9577 0 3
-28.5224 22.5254 -9.1473 0.7951 0 3
-31.1997 22.6619 -9.7053 0.5754 0 3
-28.5260 19.0143 -8.6283 0.8654 0 3
-28.8869 17.6182 -8.5159 0.9981 0 3
-31.9475 17.7615 -9.1997 0.4771 0 3
-35.1707 17.7394 -9.9141 0.4428 0 3
-38.2599 17.4027 -10.5787 0.6246 0 3
-43.4283 17.6801 -11.8013 0.3719 0 3
-27.1248 9.7896 -7.2579 0.9534 0 22
-27.0836 8.5592 -7.1488 0.5776 0 6
-27.1327 7.3877 -7.0775 0.9850 0 22
-33.0018 -33.0196 -12.3013 0.8899 0 20
-28.9949 -31.4459 -11.2708 0.7077 0 20
-28.0876 -33.0367 -11.4261 0.6795 0 20
-23.6205 -30.1632 -10.0950 0.9435 0 20
-22.8596 -31.7456 -10.3080 0.7047 0 9
-19.6866 -29.7992 -9.4109 0.0722 0 2
-16.5645 -27.4121 -8.4394 0.5641 0 2
-13.6512 -24.7937 -7.4580 0.0873 0 1
-11.2131 -22.4605 -6.6149 0.1033 0 24
-9.2475 -20.5543 -5.9390 0.1110 0 24
-7.6600 -19.0392 -5.4076 0.1242 0 1
-6.2975 -17.6762 -4.9445 0.1424 0 1
-5.1533 -16.5427 -4.5656 0.1562 0 1
-4.1668 -15.5552 -4.2433 0.1715 0 1
-3.3059 -14.6827 -3.9657 0.1834 0 1
-2.5461 -13.8969 -3.7228 0.1976 0 1
-1.8713 -13.1889 -3.5101 0.2147 0 1
-1.2675 -12.5464 -3.3228 0.2268 0 1
-0.7210 -11.9185 -3.1463 0.2274 0 1
-0.2282 -11.3209 -2.9837 0.2397 0 1
0.2164 -10.7625 -2.8365 0.2513 0 1
0.6189 -10.2395 -2.7030 0.2637 0 1
0.9846 -9.7510 -2.5825 0.2780 0 1
1.3175 -9.2890 -2.4721 0.2906 0 1
1.6210 -8.8503 -2.3708 0.3030 0 1
1.8922 -8.4058 -2.2704 0.3194 0 24
2.1544 -8.0442 -2.1944 0.3288 0 1
2.3897 -7.6726 -2.1175 0.3441 0 1
2.6073 -7.3194 -2.0474 0.3559 0 1
2.8079 -6.9802 -1.9825 0.3666 0 1
2.9931 -6.6536 -1.9224 0.3781 0 1
3.1644 -6.3394 -1.8670 0.3893 0 1
3.3232 -6.0364 -1.8157 0.4003 0 1
3.4709 -5.7446 -1.7685 0.4074 0 1
3.6017 -5.4524 -1.7219 0.4010 0 1
3.7179 -5.1637 -1.6766 0.4118 0 1
3.8248 -4.8848 -1.6348 0.4224 0 1
3.9231 -4.6149 -1.5960 0.4326 0 1
4.0135 -4.3532 -1.5602 0.4425 0 1
4.0965 -4.0991 -1.5270 0.4522 0 1
4.1743 -3.8535 -1.4970 0.4800 0 1
4.2543 -3.6213 -1.4721 0.4881 0 1
4.3284 -3.3937 -1.4493 0.4958 0 1
4.3970 -3.1701 -1.4283 0.5030 0 1
4.4606 -2.9507 -1.4093 0.5099 0 1
4.5202 -2.7351 -1.3921 0.5162 0 1
4.5749 -2.5224 -1.3766 0.5220 0 1
4.6252 -2.3124 -1.3626 0.5274 0 1
4.6711 -2.1048 -1.3500 0.5324 0 1
4.7128 -1.8993 -1.3389 0.5368 0 1
4.7505 -1.6956 -1.3291 0.5408 0 1
4.7842 -1.4935 -1.3206 0.5442 0 1
4.8142 -1.2926 -1.3135 0.5472 0 1
3.9109 -0.8830 -1.0565 0.7380 25 14
3.8395 -0.7058 -1.0287 0.8905 25 14
3.8301 -0.5457 -1.0194 0.8986 25 14
3.8210 -0.3883 -1.0120 0.9052 25 14
3.8135 -0.2329 -1.0067 0.8582 25 14
3.8080 -0.0790 -1.0036 0.8609 25 14
3.8066 0.0743 -1.0032 0.8612 25 14
3.8095 0.2280 -1.0056 0.9109 25 14
3.8156 0.3830 -1.0105 0.9066 25 14
3.8221 0.5398 -1.0171 0.9006 25 14
3.8289 0.6990 -1.0256 0.8932 25 14
3.9113 0.8781 -1.0563 0.5908 25 14
4.9252 1.3159 -1.3433 0.5373 0 1
4.9085 1.5256 -1.3544 0.5250 0 1
4.8830 1.7362 -1.3656 0.5207 0 1
4.8534 1.9491 -1.3781 0.5159 0 1
4.8196 2.1647 -1.3922 0.5104 0 1
4.7815 2.3833 -1.4078 0.5048 0 1
4.7387 2.6052 -1.4249 0.4987 0 1
4.6911 2.8306 -1.4437 0.4922 0 1
4.6384 3.0601 -1.4642 0.4853 0 1
4.5802 3.2938 -1.4866 0.4780 0 1
4.5170 3.5325 -1.5110 0.4703 0 1
4.4479 3.7767 -1.5375 0.4622 0 1
4.3724 4.0264 -1.5662 0.4537 0 1
4.2901 4.2824 -1.5973 0.4449 0 1
4.1950 4.5389 -1.6286 0.4489 0 1
4.0911 4.8005 -1.6620 0.4398 0 1
3.9793 5.0693 -1.6981 0.4286 0 1
3.8616 5.3495 -1.7385 0.4186 0 1
3.7345 5.6384 -1.7820 0.4084 0 1
3.5970 5.9368 -1.8291 0.3979 0 1
3.4483 6.2455 -1.8799 0.3871 0 1
3.2874 6.5657 -1.9348 0.3761 0 1
3.1043 6.8783 -1.9885 0.3851 0 1
2.9062 7.1991 -2.0457 0.3743 0 1
2.6932 7.5315 -2.1076 0.3633 0 1
2.4638 7.8764 -2.1746 0.3521 0 1
2.2217 8.2550 -2.2526 0.3216 0 1
1.9646 8.6778 -2.3445 0.3090 0 1
1.6802 9.1105 -2.4411 0.3202 0 1
1.3665 9.5506 -2.5422 0.3051 0 1
1.0244 10.0231 -2.6548 0.2922 0 1
0.6475 10.4995 -2.7719 0.2796 0 1
0.2348 11.0081 -2.9013 0.2541 0 1
-0.2193 11.5843 -3.0530 0.2394 0 1
-0.7216 12.1757 -3.2139 0.2346 0 24
-1.2853 12.8811 -3.4110 0.2152 0 1
-1.9125 13.5993 -3.6187 0.2029 0 1
-2.6214 14.4077 -3.8588 0.1792 0 1
-3.4277 15.3110 -4.1343 0.1696 0 1
-4.3376 16.2724 -4.4375 0.1620 0 1
-5.3714 17.3174 -4.7776 0.1515 0 1
-6.5485 18.4522 -5.1593 0.1397 0 1
-7.8687 19.6272 -5.5719 0.1232 0 24
-9.5639 21.3274 -6.1590 0.1144 0 1
-11.5621 23.2308 -6.8376 0.1039 0 1
-13.9351 25.3828 -7.6300 0.0972 0 1
-16.7466 27.7902 -8.5495 0.5569 0 2
-19.5650 29.6941 -9.3701 0.0725 0 2
-24.1396 33.6097 -10.9037 0.0623 0 25
-27.4777 35.1775 -11.7619 0.5032 0 3
-27.8600 32.8504 -11.3499 0.6690 0 3
-22.7241 24.7057 -8.8450 0.7534 0 5
-22.8503 22.9186 -8.5278 0.6967 0 5
-22.9495 21.2357 -8.2389 0.7364 0 5
-23.0360 19.6550 -7.9792 0.8167 0 5
-28.3970 22.3182 -9.5170 0.7978 0 3
-31.3515 22.6599 -10.1930 0.5720 0 3
-33.1321 21.9724 -10.4756 0.8415 0 3
-26.8809 16.3082 -8.2847 0.9982 0 3
-32.3824 17.9039 -9.7501 0.8802 0 3
-35.3723 17.7370 -10.4268 0.4395 0 3
-39.1811 17.7108 -11.3300 0.4045 0 3
-43.3316 17.5223 -12.3161 0.9769 0 3
-27.0292 9.6834 -7.5655 0.9507 0 22
-27.0640 7.3008 -7.3863 0.9702 0 22
-46.4361 8.5922 -12.4436 0.9937 0 22
-33.1162 -32.9787 -12.3150 0.8889 0 20
-29.1339 -31.4481 -11.2960 0.7062 0 20
-28.0975 -32.8916 -11.3987 0.6809 0 20
-23.7711 -30.2091 -10.1290 0.0570 0 20
-23.9834 -33.1417 -10.7796 0.9892 0 9
-19.9227 -30.0031 -9.4900 0.0716 0 2
-16.5791 -27.2912 -8.4142 0.5658 0 2
-13.8111 -24.9453 -7.5133 0.0866 0 1
-11.3348 -22.5716 -6.6554 0.1022 0 24
-9.3519 -20.6566 -5.9749 0.1100 0 24
-7.7475 -19.1267 -5.4377 0.1235 0 1
-6.3699 -17.7474 -4.9685 0.1417 0 1
-5.2153 -16.6042 -4.5860 0.1555 0 1
-4.2205 -15.6088 -4.2606 0.1708 0 1
-3.3533 -14.7314 -3.9810 0.1827 0 1
-2.5880 -13.9408 -3.7362 0.1969 0 1
-1.9085 -13.2278 -3.5216 0.2140 0 1
-1.3010 -12.5826 -3.3332 0.2261 0 1
-0.7513 -11.9548 -3.1563 0.2266 0 1
-0.2556 -11.3546 -2.9927 0.2390 0 1
0.1917 -10.7941 -2.8447 0.2505 0 1
0.5965 -10.2691 -2.7105 0.2630 0 1
0.9642 -9.7787 -2.5892 0.2773 0 1
1.2989 -9.3154 -2.4783 0.2898 0 1
1.6041 -8.8752 -2.3765 0.3023 0 1
1.8766 -8.4290 -2.2754 0.3183 0 24
2.1401 -8.0665 -2.1991 0.3281 0 1
2.3765 -7.6936 -2.1218 0.3434 0 1
2.5951 -7.3396 -2.0513 0.3552 0 1
2.7967 -6.9996 -1.9862 0.3659 0 1
2.9827 -6.6723 -1.9258 0.3774 0 1
3.1548 -6.3574 -1.8701 0.3887 0 1
3.3143 -6.0538 -1.8186 0.3997 0 1
3.4626 -5.7612 -1.7712 0.4068 0 1
3.5945 -5.4695 -1.7246 0.4106 0 1
3.7114 -5.1803 -1.6792 0.4112 0 1
3.8188 -4.9008 -1.6371 0.4217 0 1
3.9176 -4.6304 -1.5982 0.4320 0 1
4.0084 -4.3682 -1.5622 0.4420 0 1
4.0918 -4.1137 -1.5289 0.4516 0 1
4.1695 -3.8672 -1.4985 0.4795 0 1
4.2498 -3.6347 -1.4735 0.4876 0 1
4.3243 -3.4068 -1.4506 0.4953 0 1
4.3931 -3.1831 -1.4295 0.5026 0 1
4.4570 -2.9633 -1.4103 0.5095 0 1
4.5168 -2.7476 -1.3931 0.5158 0 1
4.5719 -2.5348 -1.3775 0.5217 0 1
4.6224 -2.3246 -1.3633 0.5271 0 1
4.6685 -2.1169 -1.3507 0.5321 0 1
4.7105 -1.9112 -1.3395 0.5366 0 1
4.7484 -1.7074 -1.3296 0.5405 0 1
4.7824 -1.5052 -1.3211 0.5440 0 1
4.8125 -1.3043 -1.3139 0.5470 0 1
3.9156 -0.8937 -1.0583 0.7367 25 14
3.8401 -0.7152 -1.0293 0.8900 25 14
3.8306 -0.5550 -1.0199 0.8982 25 14
3.8216 -0.3974 -1.0124 0.9048 25 14
3.8139 -0.2419 -1.0070 0.8580 25 14
3.8083 -0.0880 -1.0037 0.8608 25 14
3.8065 0.0654 -1.0032 0.8613 25 14
3.8092 0.2190 -1.0054 0.9111 25 14
3.8153 0.3739 -1.0101 0.9068 25 14
3.8217 0.5306 -1.0167 0.9010 25 14
3.8285 0.6896 -1.0250 0.8937 25 14
3.9018 0.8663 -1.0532 0.5926 25 14
4.9259 1.3038 -1.3427 0.5375 0 1
4.9098 1.5134 -1.3538 0.5252 0 1
4.8846 1.7238 -1.3649 0.5209 0 1
4.8552 1.9366 -1.3774 0.5162 0 1
4.8217 2.1520 -1.3913 0.5107 0 1
4.7838 2.3704 -1.4068 0.5051 0 1
4.7413 2.5921 -1.4239 0.4990 0 1
4.6940 2.8174 -1.4426 0.4926 0 1
4.6416 3.0466 -1.4630 0.4857 0 1
4.5838 3.2800 -1.4852 0.4784 0 1
4.5208 3.5185 -1.5095 0.4708 0 1
4.4521 3.7623 -1.5359 0.4627 0 1
4.3770 4.0117 -1.5645 0.4542 0 1
4.2951 4.2673 -1.5954 0.4454 0 1
4.2008 4.5238 -1.6267 0.4494 0 1
4.0974 4.7851 -1.6600 0.4404 0 1
3.9859 5.0532 -1.6959 0.4291 0 1
3.8688 5.3329 -1.7360 0.4192 0 1
3.7421 5.6212 -1.7794 0.4090 0 1
3.6053 5.9191 -1.8262 0.3985 0 1
3.4573 6.2272 -1.8768 0.3878 0 1
3.2972 6.5467 -1.9315 0.3768 0 1
3.1154 6.8599 -1.9853 0.3857 0 1
2.9182 7.1801 -2.0423 0.3750 0 1
2.7061 7.5118 -2.1039 0.3640 0 1
2.4776 7.8559 -2.1705 0.3528 0 1
2.2360 8.2310 -2.2475 0.3224 0 1
1.9802 8.6525 -2.3389 0.3098 0 1
1.6977 9.0856 -2.4355 0.3209 0 1
1.3855 9.5239 -2.5360 0.3059 0 1
1.0453 9.9947 -2.6480 0.2930 0 1
0.6705 10.4716 -2.7649 0.2803 0 1
0.2599 10.9758 -2.8929 0.2549 0 1
-0.1915 11.5493 -3.0437 0.2402 0 1
-0.6909 12.1403 -3.2041 0.2351 0 24
-1.2509 12.8410 -3.3996 0.2160 0 1
-1.8739 13.5557 -3.6059 0.2036 0 1
-2.5774 14.3570 -3.8435 0.1799 0 1
-3.3778 15.2559 -4.1173 0.1703 0 1
-4.2693 16.1686 -4.4064 0.1617 0 24
-5.3072 17.2537 -4.7566 0.1522 0 1
-6.4753 18.3827 -5.1356 0.1404 0 1
-7.8217 19.6434 -5.5713 0.1294 0 1
-9.4591 21.2271 -6.1235 0.1150 0 1
-11.4351 23.1114 -6.7945 0.1045 0 1
-13.7855 25.2507 -7.5806 0.0979 0 1
-16.7185 27.8915 -8.5686 0.0929 0 2
-19.3343 29.4944 -9.2928 0.0731 0 2
-23.8361 33.3521 -10.8020 0.0629 0 25
-27.6980 35.6316 -11.8920 0.6385 0 3
-27.8516 32.9973 -11.3780 0.6674 0 3
-22.7133 24.8106 -8.8634 0.7052 0 5
-22.8478 23.0240 -8.5470 0.6952 0 5
-29.7616 27.6690 -10.7077 0.6635 0 3
-23.0235 19.7380 -7.9909 0.8155 0 5
-28.3924 22.4226 -9.5331 0.7965 0 3
-31.1983 22.6609 -10.1605 0.5738 0 3
-28.4598 18.9702 -9.0124 0.1014 0 3
-29.1518 17.7798 -8.9975 0.5093 0 3
-28.8111 16.0178 -8.6861 0.7695 0 3
-33.3849 16.8387 -9.8526 0.7933 0 3
-38.9409 17.7124 -11.2725 0.4065 0 3
-43.0737 17.5358 -12.2545 0.9822 0 3
-27.0255 9.7538 -7.5708 0.9734 0 22
-26.9740 8.5246 -7.4542 0.9983 0 6
-27.0556 7.3667 -7.3887 0.9911 0 22
-31.4322 -31.4491 -12.2447 0.6787 0 20
-28.6133 -31.0320 -11.6241 0.7040 0 20
-27.9453 -32.8694 -11.8810 0.6810 0 20
-23.2738 -29.7205 -10.3955 0.9955 0 9
-20.6661 -28.6993 -9.7392 0.0727 0 2
-17.1037 -25.8895 -8.5450 0.0828 0 2
-14.6717 -24.2797 -7.8122 0.0779 0 1
-12.0816 -21.9430 -6.8982 0.1026 0 24
-10.1437 -20.3186 -6.2540 0.1125 0 1
-8.4651 -18.8155 -5.6818 0.1248 0 1
-7.0467 -17.5149 -5.1991 0.1411 0 1
-5.8489 -16.4169 -4.7993 0.1550 0 1
-4.8171 -15.4635 -4.4603 0.1666 0 1
-3.9176 -14.6248 -4.1695 0.1821 0 1
-3.1222 -13.8668 -3.9143 0.1958 0 1
-2.4133 -13.1723 -3.6878 0.2129 0 1
-1.7807 -12.5504 -3.4908 0.2249 0 1
-1.2078 -11.9556 -3.3092 0.2258 0 1
-0.6880 -11.3735 -3.1378 0.2375 0 1
-0.2183 -10.8283 -2.9826 0.2490 0 1
0.2074 -10.3153 -2.8413 0.2614 0 1
0.5944 -9.8349 -2.7133 0.2757 0 1
0.9474 -9.3834 -2.5972 0.2880 0 1
1.2699 -8.9539 -2.4905 0.3005 0 1
1.5649 -8.5436 -2.3919 0.3129 0 1
1.8299 -8.1289 -2.2946 0.3298 0 24
2.0855 -7.7869 -2.2200 0.3420 0 1
2.3165 -7.4375 -2.1452 0.3540 0 1
2.5300 -7.1024 -2.0763 0.3657 0 1
2.7270 -6.7791 -2.0123 0.3764 0 1
2.9094 -6.4676 -1.9530 0.3878 0 1
3.0785 -6.1671 -1.8982 0.3990 0 1
3.2353 -5.8768 -1.8474 0.4100 0 1
3.3810 -5.5957 -1.8004 0.4204 0 1
3.5067 -5.3086 -1.7521 0.4106 0 1
3.6224 -5.0310 -1.7072 0.4214 0 1
3.7289 -4.7623 -1.6657 0.4319 0 1
3.8270 -4.5018 -1.6272 0.4421 0 1
3.9173 -4.2489 -1.5915 0.4521 0 1
4.0004 -4.0029 -1.5585 0.4616 0 1
4.0819 -3.7682 -1.5299 0.4894 0 1
4.1617 -3.5425 -1.5050 0.4974 0 1
4.2356 -3.3209 -1.4822 0.5051 0 1
4.3040 -3.1031 -1.4612 0.5124 0 1
4.3675 -2.8890 -1.4421 0.5192 0 1
4.4269 -2.6786 -1.4249 0.5255 0 1
4.4816 -2.4710 -1.4093 0.5313 0 1
4.5317 -2.2657 -1.3953 0.5367 0 1
4.5776 -2.0627 -1.3827 0.5416 0 1
4.6192 -1.8616 -1.3715 0.5460 0 1
4.6569 -1.6622 -1.3617 0.5500 0 1
4.6905 -1.4642 -1.3532 0.5534 0 1
4.7204 -1.2674 -1.3460 0.5564 0 1
3.9217 -0.8854 -1.1072 0.7338 25 14
3.8484 -0.7074 -1.0776 0.7514 25 14
3.8404 -0.5472 -1.0683 0.8428 25 14
3.8336 -0.3895 -1.0612 0.8484 25 14
3.8274 -0.2338 -1.0560 0.8526 25 14
3.8218 -0.0793 -1.0527 0.8552 25 14
3.8204 0.0746 -1.0523 0.8556 25 14
3.8223 0.2288 -1.0545 0.8538 25 14
3.8248 0.3839 -1.0586 0.8505 25 14
3.8297 0.5409 -1.0651 0.8962 25 14
3.8367 0.7004 -1.0740 0.8887 25 14
4.0114 0.9005 -1.1322 0.0581 25 14
4.8276 1.2899 -1.3761 0.5465 0 1
4.8084 1.4945 -1.3867 0.5343 0 1
4.7827 1.7005 -1.3979 0.5300 0 1
4.7528 1.9087 -1.4104 0.5253 0 1
4.7186 2.1193 -1.4245 0.5198 0 1
4.6802 2.3328 -1.4401 0.5141 0 1
4.6371 2.5493 -1.4573 0.5081 0 1
4.5892 2.7692 -1.4761 0.5016 0 1
4.5362 2.9927 -1.4966 0.4947 0 1
4.4779 3.2202 -1.5189 0.4875 0 1
4.4145 3.4524 -1.5433 0.4798 0 1
4.3452 3.6895 -1.5698 0.4717 0 1
4.2696 3.9318 -1.5984 0.4633 0 1
4.1873 4.1798 -1.6293 0.4545 0 1
4.0953 4.4311 -1.6616 0.4584 0 1
3.9920 4.6842 -1.6949 0.4494 0 1
3.8806 4.9436 -1.7307 0.4401 0 1
3.7636 5.2137 -1.7708 0.4282 0 1
3.6374 5.4918 -1.8140 0.4180 0 1
3.5011 5.7785 -1.8606 0.4076 0 1
3.3539 6.0745 -1.9109 0.3968 0 1
3.1948 6.3806 -1.9651 0.3831 0 1
3.0186 6.6886 -2.0208 0.3948 0 1
2.8238 6.9950 -2.0774 0.3841 0 1
2.6146 7.3117 -2.1384 0.3731 0 1
2.3896 7.6394 -2.2043 0.3620 0 1
2.1492 7.9859 -2.2775 0.3315 0 1
1.8980 8.3838 -2.3672 0.3189 0 1
1.6236 8.8035 -2.4652 0.3062 0 1
1.3200 9.2253 -2.5664 0.3173 0 1
0.9879 9.6652 -2.6755 0.3021 0 1
0.6232 10.1047 -2.7880 0.2896 0 1
0.2253 10.5605 -2.9089 0.2776 0 1
-0.2099 11.0838 -3.0529 0.2517 0 1
-0.6894 11.6326 -3.2091 0.2440 0 24
-1.2234 12.2604 -3.3931 0.2245 0 1
-1.8054 12.8373 -3.5700 0.2151 0 24
-2.4754 13.6049 -3.8081 0.2009 0 1
-3.2207 14.3863 -4.0599 0.1799 0 1
-4.0631 15.2427 -4.3442 0.1689 0 1
-4.9929 16.0973 -4.6413 0.1611 0 24
-6.0799 17.1317 -5.0061 0.1531 0 1
-7.2870 18.1764 -5.3928 0.1422 0 1
-8.7176 19.4401 -5.8672 0.1207 0 1
-10.4478 20.9919 -6.4573 0.1120 0 1
-12.5167 22.7992 -7.1625 0.1064 0 1
-14.8670 24.6711 -7.9323 0.1067 0 1
-17.0077 25.8128 -8.5128 0.0831 0 2
-20.5449 28.6047 -9.6986 0.0730 0 2
-25.0726 32.0984 -11.2165 0.0631 0 25
-27.7087 32.6720 -11.7974 0.6707 0 3
-22.6154 24.5875 -9.1997 0.6602 0 5
-22.7083 22.7762 -8.8571 0.7252 0 5
-22.8455 21.1394 -8.5715 0.7552 0 5
-22.9544 19.5854 -8.3096 0.7730 0 5
-23.0230 18.0946 -8.0640 0.8050 0 5
-23.0482 16.6585 -7.8314 0.8228 0 5
-28.4151 18.8442 -9.3895 0.8426 0 3
-29.3033 17.7778 -9.4387 0.5059 0 3
-32.2486 17.8299 -10.1478 0.8812 0 3
-33.5117 16.8040 -10.3239 0.6051 0 3
-37.2905 16.8561 -11.2697 0.8532 0 3
-43.7114 17.6758 -12.9844 0.3677 0 3
-26.9019 9.6378 -7.8695 0.9410 0 22
-26.9461 7.2690 -7.6858 0.9098 0 22
-46.2866 8.5646 -12.9631 0.9732 0 22
-24.7136 -17.7281 -8.3758 0.9235 15 6
-31.5824 -31.4513 -12.2744 0.6771 0 20
-28.7491 -31.0328 -11.6497 0.7025 0 20
-27.9554 -32.7252 -11.8526 0.6826 0 20
-23.3938 -29.7296 -10.4179 0.7638 0 9
-20.9013 -28.8827 -9.8181 0.0721 0 2
-17.2897 -26.0379 -8.6073 0.0822 0 2
-14.8535 -24.4507 -7.8785 0.0772 0 1
-12.2063 -22.0467 -6.9398 0.1019 0 24
-10.2497 -20.4107 -6.2898 0.1118 0 1
-8.5548 -18.8961 -5.7122 0.1242 0 1
-7.1221 -17.5828 -5.2242 0.1404 0 1
-5.9134 -16.4756 -4.8205 0.1543 0 1
-4.8737 -15.5165 -4.4789 0.1659 0 1
-3.9671 -14.6716 -4.1855 0.1811 0 1
-3.1661 -13.9093 -3.9284 0.1951 0 1
-2.4523 -13.2100 -3.7000 0.2122 0 1
-1.8158 -12.5854 -3.5017 0.2242 0 1
-1.2397 -11.9904 -3.3196 0.2251 0 1
-0.7169 -11.4064 -3.1474 0.2368 0 1
-0.2444 -10.8593 -2.9913 0.2483 0 1
0.1837 -10.3443 -2.8491 0.2607 0 1
0.5728 -9.8620 -2.7204 0.2750 0 1
0.9277 -9.4090 -2.6037 0.2873 0 1
1.2519 -8.9785 -2.4965 0.2998 0 1
1.5484 -8.5670 -2.3975 0.3122 0 1
1.8146 -8.1505 -2.2995 0.3290 0 24
2.0714 -7.8078 -2.2245 0.3413 0 1
2.3035 -7.4575 -2.1494 0.3533 0 1
2.5180 -7.1215 -2.0801 0.3650 0 1
2.7160 -6.7976 -2.0159 0.3757 0 1
2.8991 -6.4854 -1.9563 0.3871 0 1
3.0689 -6.1844 -1.9013 0.3983 0 1
3.2265 -5.8935 -1.8503 0.4093 0 1
3.3728 -5.6119 -1.8031 0.4200 0 1
3.4997 -5.3251 -1.7548 0.4100 0 1
3.6159 -5.0469 -1.7097 0.4208 0 1
3.7229 -4.7777 -1.6680 0.4313 0 1
3.8215 -4.5168 -1.6293 0.4416 0 1
3.9123 -4.2635 -1.5935 0.4515 0 1
3.9957 -4.0171 -1.5603 0.4611 0 1
4.0771 -3.7815 -1.5314 0.4889 0 1
4.1572 -3.5555 -1.5064 0.4970 0 1
4.2315 -3.3337 -1.4835 0.5047 0 1
4.3002 -3.1157 -1.4624 0.5120 0 1
4.3639 -2.9014 -1.4431 0.5189 0 1
4.4236 -2.6908 -1.4259 0.5251 0 1
4.4785 -2.4830 -1.4102 0.5310 0 1
4.5289 -2.2776 -1.3960 0.5364 0 1
4.5750 -2.0745 -1.3834 0.5414 0 1
4.6169 -1.8733 -1.3721 0.5458 0 1
4.6548 -1.6738 -1.3622 0.5498 0 1
4.6887 -1.4757 -1.3536 0.5532 0 1
4.7188 -1.2789 -1.3464 0.5562 0 1
4.0555 -0.9257 -1.1456 0.0574 25 14
3.8491 -0.7169 -1.0782 0.7422 25 14
3.8408 -0.5564 -1.0687 0.8424 25 14
3.8340 -0.3987 -1.0615 0.8481 25 14
3.8277 -0.2428 -1.0562 0.8524 25 14
3.8221 -0.0883 -1.0528 0.8551 25 14
3.8203 0.0656 -1.0522 0.8556 25 14
3.8222 0.2198 -1.0543 0.8539 25 14
3.8246 0.3748 -1.0583 0.8507 25 14
3.8294 0.5317 -1.0647 0.8965 25 14
3.8362 0.6910 -1.0734 0.8892 25 14
3.9097 0.8680 -1.1029 0.7366 25 14
4.8283 1.2779 -1.3754 0.5468 0 1
4.8098 1.4826 -1.3860 0.5345 0 1
4.7843 1.6884 -1.3972 0.5303 0 1
4.7546 1.8964 -1.4097 0.5256 0 1
4.7207 2.1069 -1.4236 0.5204 0 1
4.6825 2.3202 -1.4391 0.5145 0 1
4.6398 2.5366 -1.4562 0.5084 0 1
4.5922 2.7563 -1.4749 0.5020 0 1
4.5395 2.9795 -1.4953 0.4951 0 1
4.4814 3.2068 -1.5175 0.4879 0 1
4.4183 3.4387 -1.5418 0.4802 0 1
4.3494 3.6755 -1.5682 0.4722 0 1
4.2742 3.9175 -1.5967 0.4638 0 1
4.1923 4.1651 -1.6274 0.4550 0 1
4.1011 4.4165 -1.6598 0.4589 0 1
3.9982 4.6693 -1.6929 0.4499 0 1
3.8873 4.9282 -1.7286 0.4407 0 1
3.7707 5.1977 -1.7684 0.4288 0 1
3.6450 5.4753 -1.8114 0.4186 0 1
3.5093 5.7615 -1.8578 0.4082 0 1
3.3628 6.0570 -1.9078 0.3975 0 1
3.2045 6.3626 -1.9618 0.3837 0 1
3.0296 6.6710 -2.0177 0.3955 0 1
2.8356 6.9769 -2.0740 0.3847 0 1
2.6272 7.2929 -2.1347 0.3738 0 1
2.4032 7.6200 -2.2003 0.3626 0 1
2.1632 7.9633 -2.2725 0.3322 0 1
1.9133 8.3600 -2.3618 0.3197 0 1
1.6403 8.7784 -2.4593 0.3070 0 1
1.3385 9.2006 -2.5604 0.3181 0 1
1.0080 9.6388 -2.6689 0.3029 0 1
0.6453 10.0789 -2.7813 0.2903 0 1
0.2495 10.5332 -2.9015 0.2783 0 1
-0.1833 11.0520 -3.0440 0.2524 0 1
-0.6610 11.6152 -3.2038 0.2377 0 1
-1.1907 12.2235 -3.3821 0.2252 0 1
-1.7693 12.7990 -3.5582 0.2150 0 24
-2.4348 13.5626 -3.7947 0.2016 0 1
-3.1746 14.3382 -4.0442 0.1806 0 1
-4.0111 15.1908 -4.3267 0.1696 0 1
-4.9347 16.0426 -4.6222 0.1618 0 24
-6.0143 17.0739 -4.9851 0.1538 0 1
-7.2121 18.1125 -5.3688 0.1428 0 1
-8.6251 19.3555 -5.8355 0.1214 0 1
-10.3381 20.8944 -6.4198 0.1126 0 1
-12.3899 22.6945 -7.1205 0.1070 0 1
-14.7293 24.5729 -7.8896 0.1073 0 1
-16.8253 25.6670 -8.4516 0.0837 0 2
-20.3147 28.4250 -9.6215 0.0735 0 2
-24.7742 31.8704 -11.1165 0.0637 0 25
-27.4665 32.5410 -11.7268 0.5863 0 3
-22.6185 24.7071 -9.2246 0.6217 0 5
-22.7026 22.8777 -8.8758 0.7236 0 5
-22.8399 21.2340 -8.5881 0.7591 0 5
-22.9466 19.6721 -8.3235 0.8043 0 5
-23.0183 18.1785 -8.0773 0.8167 0 5
-23.0445 16.7384 -7.8436 0.8211 0 5
-32.9844 21.9861 -10.9164 0.8414 0 3
-26.7585 16.3200 -8.6313 0.9439 0 3
-32.2452 17.9270 -10.1600 0.8802 0 3
-38.0650 19.1992 -11.7405 0.8976 0 3
-38.9385 17.7113 -11.7803 0.4053 0 3
-43.4225 17.6778 -12.9110 0.3698 0 3
-26.8992 9.7081 -7.8753 0.9403 0 22
-26.8851 8.4965 -7.7647 0.8269 0 6
-26.9529 7.3388 -7.6927 0.9090 0 22
-24.6010 -17.7350 -8.7144 0.7062 15 6
-33.6540 -31.0643 -13.1602 0.6468 0 20
-31.0330 -31.0497 -12.6142 0.6748 0 20
-28.1552 -30.5353 -11.9348 0.9984 0 9
-24.4857 -28.8001 -10.8622 0.9153 0 9
-21.4889 -27.4412 -10.0151 0.0735 0 2
-17.9634 -24.9460 -8.8332 0.0833 0 2
-15.6670 -23.7148 -8.1671 0.0694 0 1
-12.9511 -21.4323 -7.1956 0.1008 0 1
-10.9419 -19.8731 -6.5188 0.1117 0 1
-9.2431 -18.5145 -5.9462 0.1226 0 1
-7.7843 -17.3022 -5.4517 0.1335 0 1
-6.5354 -16.2440 -5.0312 0.1489 0 1
-5.4633 -15.3346 -4.6776 0.1652 0 1
-4.5257 -14.5281 -4.3724 0.1806 0 1
-3.6966 -13.8001 -4.1052 0.1947 0 1
-2.9570 -13.1330 -3.8682 0.2061 0 1
-2.2952 -12.5276 -3.6597 0.2232 0 1
-1.6966 -11.9577 -3.4704 0.2292 0 1
-1.1519 -11.4030 -3.2933 0.2360 0 1
-0.6577 -10.8732 -3.1301 0.2477 0 1
-0.2091 -10.3731 -2.9813 0.2591 0 1
0.1991 -9.9026 -2.8460 0.2734 0 1
0.5718 -9.4600 -2.7232 0.2857 0 1
0.9128 -9.0404 -2.6109 0.2980 0 1
1.2255 -8.6403 -2.5076 0.3105 0 1
1.5122 -8.2558 -2.4117 0.3228 0 1
1.7765 -7.8917 -2.3244 0.3364 0 1
2.0154 -7.5253 -2.2386 0.3510 0 24
2.2472 -7.2151 -2.1714 0.3637 0 1
2.4566 -6.8965 -2.1036 0.3745 0 1
2.6502 -6.5882 -2.0405 0.3861 0 1
2.8298 -6.2906 -1.9821 0.3975 0 1
2.9965 -6.0030 -1.9279 0.4086 0 1
3.1515 -5.7245 -1.8777 0.4195 0 1
3.2942 -5.4521 -1.8304 0.4150 0 1
3.4161 -5.1714 -1.7809 0.4202 0 1
3.5311 -4.9042 -1.7365 0.4310 0 1
3.6371 -4.6451 -1.6952 0.4414 0 1
3.7350 -4.3935 -1.6570 0.4516 0 1
3.8251 -4.1489 -1.6215 0.4615 0 1
3.9081 -3.9106 -1.5886 0.4711 0 1
3.9930 -3.6861 -1.5615 0.4987 0 1
4.0725 -3.4665 -1.5367 0.5068 0 1
4.1462 -3.2507 -1.5139 0.5144 0 1
4.2144 -3.0385 -1.4929 0.5216 0 1
4.2777 -2.8296 -1.4737 0.5285 0 1
4.3369 -2.6242 -1.4566 0.5347 0 1
4.3915 -2.4213 -1.4410 0.5405 0 1
4.4415 -2.2206 -1.4269 0.5459 0 1
4.4872 -2.0220 -1.4142 0.5508 0 1
4.5288 -1.8251 -1.4030 0.5552 0 1
4.5663 -1.6299 -1.3932 0.5591 0 1
4.5999 -1.4359 -1.3847 0.5626 0 1
4.6296 -1.2431 -1.3774 0.5655 0 1
4.1868 -0.9453 -1.2333 0.6740 25 14
3.8728 -0.7119 -1.1315 0.7356 25 14
3.8624 -0.5503 -1.1211 0.7513 25 14
3.8533 -0.3916 -1.1129 0.7568 25 14
3.8452 -0.2349 -1.1070 0.7609 25 14
3.8381 -0.0796 -1.1031 0.7635 25 14
3.8359 0.0749 -1.1024 0.7640 25 14
3.8376 0.2297 -1.1047 0.7624 25 14
3.8401 0.3855 -1.1090 0.7595 25 14
3.8437 0.5428 -1.1154 0.7551 25 14
3.8510 0.7030 -1.1248 0.7513 25 14
4.1449 0.9305 -1.2207 0.6810 25 14
4.7332 1.2647 -1.4078 0.5557 0 1
4.7117 1.4645 -1.4178 0.5436 0 1
4.6858 1.6660 -1.4290 0.5393 0 1
4.6556 1.8696 -1.4416 0.5346 0 1
4.6212 2.0755 -1.4557 0.5294 0 1
4.5825 2.2841 -1.4713 0.5235 0 1
4.5392 2.4955 -1.4884 0.5174 0 1
4.4911 2.7100 -1.5072 0.5110 0 1
4.4379 2.9278 -1.5277 0.5041 0 1
4.3794 3.1494 -1.5500 0.4969 0 1
4.3159 3.3753 -1.5744 0.4892 0 1
4.2466 3.6057 -1.6008 0.4811 0 1
4.1710 3.8410 -1.6293 0.4727 0 1
4.0888 4.0814 -1.6600 0.4640 0 1
3.9995 4.3274 -1.6932 0.4549 0 1
3.8970 4.5728 -1.7264 0.4589 0 1
3.7864 4.8235 -1.7620 0.4497 0 1
3.6699 5.0839 -1.8017 0.4378 0 1
3.5447 5.3518 -1.8445 0.4276 0 1
3.4096 5.6275 -1.8907 0.4172 0 1
3.2639 5.9116 -1.9404 0.4065 0 1
3.1059 6.2031 -1.9934 0.3928 0 1
2.9349 6.5031 -2.0501 0.3823 0 1
2.7455 6.8010 -2.1075 0.3938 0 1
2.5400 7.1031 -2.1676 0.3829 0 1
2.3194 7.4150 -2.2325 0.3718 0 1
2.0824 7.7375 -2.3024 0.3605 0 1
1.8355 8.1075 -2.3886 0.3288 0 1
1.5679 8.5017 -2.4841 0.3161 0 1
1.2758 8.9170 -2.5884 0.3034 0 1
0.9536 9.3301 -2.6949 0.3120 0 1
0.6004 9.7364 -2.8030 0.2996 0 1
0.2167 10.1595 -2.9200 0.2876 0 1
-0.2011 10.6233 -3.0531 0.2618 0 1
-0.6598 11.1330 -3.2046 0.2544 0 24
-1.1667 11.6922 -3.3764 0.2347 0 1
-1.7179 12.2153 -3.5445 0.2259 0 24
-2.3477 12.9031 -3.7685 0.2112 0 1
-3.0398 13.5783 -3.9982 0.1990 0 1
-3.8158 14.3150 -4.2570 0.1793 0 1
-4.6912 15.1245 -4.5502 0.1724 0 1
-5.6504 15.9216 -4.8545 0.1614 0 24
-6.7641 16.8721 -5.2232 0.1521 0 1
-8.0014 17.8430 -5.6190 0.1414 0 1
-9.4955 19.0786 -6.1236 0.1178 0 1
-11.2995 20.5821 -6.7468 0.1113 0 1
-13.3814 22.2058 -7.4497 0.1045 0 1
-15.6621 23.7705 -8.1797 0.1076 0 1
-17.8678 24.8774 -8.8011 0.0836 0 2
-21.3697 27.3579 -9.9751 0.0738 0 2
-25.7868 30.4059 -11.4560 0.0643 0 25
-22.5283 24.4928 -9.5623 0.6741 0 5
-22.6198 22.6874 -9.2057 0.7539 0 5
-17.8631 16.5290 -6.9932 0.6849 0 6
-22.7927 19.4475 -8.6094 0.7714 0 5
-22.8681 17.9728 -8.3576 0.7690 0 5
-31.3488 22.6579 -11.1145 0.5685 0 3
-26.6625 17.6819 -9.1930 0.7055 0 3
-29.3019 17.7770 -9.8481 0.5043 0 3
-32.1231 17.7605 -10.5473 0.8817 0 3
-37.9139 19.0114 -12.1873 0.8995 0 3
-42.7532 19.3254 -13.4817 0.9155 0 3
-43.7084 17.6746 -13.5474 0.3666 0 3
-26.8349 7.2390 -7.9865 0.9627 0 22
-46.1009 8.5302 -13.4717 0.9744 0 22
-24.6278 -17.6666 -8.7092 0.9999 15 6
-33.8140 -31.0652 -13.1942 0.6452 0 20
-31.1799 -31.0505 -12.6442 0.6732 0 20
-23.6825 -25.5637 -10.0133 0.9334 0 20
-24.4440 -28.6146 -10.8139 0.7552 0 9
-21.7201 -27.6026 -10.0926 0.0729 0 2
-18.1486 -25.0789 -8.8953 0.0827 0 2
-15.8653 -23.8928 -8.2412 0.0688 0 1
-13.0133 -21.4215 -7.2022 0.1019 0 24
-11.0498 -19.9578 -6.5551 0.1110 0 1
-9.3351 -18.5895 -5.9773 0.1220 0 1
-7.8635 -17.3690 -5.4786 0.1347 0 1
-6.6034 -16.3023 -5.0541 0.1482 0 1
-5.5220 -15.3851 -4.6970 0.1645 0 1
-4.5772 -14.5727 -4.3891 0.1799 0 1
-3.7423 -13.8405 -4.1198 0.1940 0 1
-2.9980 -13.1707 -3.8813 0.2054 0 1
-2.3319 -12.5615 -3.6711 0.2225 0 1
-1.7299 -11.9902 -3.4810 0.2285 0 1
-1.1823 -11.4346 -3.3032 0.2353 0 1
-0.6852 -10.9032 -3.1392 0.2470 0 1
-0.2341 -10.4015 -2.9896 0.2584 0 1
0.1763 -9.9292 -2.8536 0.2727 0 1
0.5509 -9.4852 -2.7301 0.2850 0 1
0.8937 -9.0643 -2.6172 0.2973 0 1
1.2080 -8.6633 -2.5135 0.3097 0 1
1.4961 -8.2778 -2.4171 0.3221 0 1
1.7616 -7.9125 -2.3293 0.3357 0 1
2.0017 -7.5449 -2.2430 0.3504 0 24
2.2345 -7.2340 -2.1756 0.3630 0 1
2.4449 -6.9148 -2.1075 0.3738 0 1
2.6393 -6.6058 -2.0441 0.3854 0 1
2.8197 -6.3077 -1.9853 0.3968 0 1
2.9872 -6.0196 -1.9310 0.4080 0 1
3.1428 -5.7405 -1.8805 0.4189 0 1
3.2868 -5.4688 -1.8334 0.4143 0 1
3.4092 -5.1874 -1.7837 0.4258 0 1
3.5246 -4.9195 -1.7390 0.4303 0 1
3.6312 -4.6600 -1.6976 0.4408 0 1
3.7295 -4.4080 -1.6591 0.4510 0 1
3.8201 -4.1630 -1.6235 0.4609 0 1
3.9035 -3.9243 -1.5905 0.4705 0 1
3.9882 -3.6990 -1.5630 0.4982 0 1
4.0680 -3.4792 -1.5381 0.5063 0 1
4.1420 -3.2632 -1.5152 0.5140 0 1
4.2106 -3.0508 -1.4941 0.5212 0 1
4.2741 -2.8417 -1.4748 0.5281 0 1
4.3336 -2.6361 -1.4575 0.5344 0 1
4.3884 -2.4330 -1.4418 0.5402 0 1
4.4387 -2.2322 -1.4276 0.5456 0 1
4.4847 -2.0335 -1.4149 0.5505 0 1
4.5265 -1.8366 -1.4036 0.5550 0 1
4.5642 -1.6412 -1.3937 0.5589 0 1
4.5980 -1.4472 -1.3851 0.5624 0 1
4.6280 -1.2543 -1.3778 0.5654 0 1
4.1875 -0.9558 -1.2342 0.6735 25 14
3.8738 -0.7215 -1.1323 0.7351 25 14
3.8630 -0.5597 -1.1216 0.7509 25 14
3.8538 -0.4007 -1.1133 0.7565 25 14
3.8457 -0.2440 -1.1073 0.7607 25 14
3.8385 -0.0887 -1.1033 0.7634 25 14
3.8359 0.0659 -1.1024 0.7640 25 14
3.8374 0.2206 -1.1045 0.7626 25 14
3.8400 0.3763 -1.1087 0.7597 25 14
3.8434 0.5336 -1.1150 0.7554 25 14
3.8482 0.6932 -1.1236 0.7408 25 14
4.1447 0.9202 -1.2200 0.6813 25 14
4.7340 1.2530 -1.4071 0.5559 0 1
4.7131 1.4528 -1.4172 0.5438 0 1
4.6874 1.6542 -1.4283 0.5396 0 1
4.6575 1.8577 -1.4408 0.5349 0 1
4.6233 2.0635 -1.4548 0.5297 0 1
4.5849 2.2718 -1.4703 0.5238 0 1
4.5419 2.4831 -1.4874 0.5178 0 1
4.4940 2.6974 -1.5061 0.5114 0 1
4.4412 2.9150 -1.5265 0.5045 0 1
4.3830 3.1363 -1.5487 0.4973 0 1
4.3198 3.3620 -1.5729 0.4897 0 1
4.2508 3.5922 -1.5992 0.4816 0 1
4.1756 3.8271 -1.6276 0.4732 0 1
4.0938 4.0672 -1.6582 0.4645 0 1
4.0049 4.3129 -1.6912 0.4554 0 1
3.9032 4.5583 -1.7244 0.4595 0 1
3.7931 4.8087 -1.7599 0.4502 0 1
3.6770 5.0685 -1.7993 0.4384 0 1
3.5522 5.3360 -1.8419 0.4282 0 1
3.4178 5.6112 -1.8879 0.4178 0 1
3.2727 5.8948 -1.9374 0.4071 0 1
3.1155 6.1859 -1.9902 0.3935 0 1
2.9453 6.4853 -2.0467 0.3829 0 1
2.7571 6.7837 -2.1041 0.3945 0 1
2.5524 7.0852 -2.1640 0.3835 0 1
2.3327 7.3965 -2.2285 0.3724 0 1
2.0967 7.7183 -2.2982 0.3611 0 1
1.8504 8.0851 -2.3833 0.3295 0 1
1.5842 8.4781 -2.4783 0.3169 0 1
1.2936 8.8922 -2.5820 0.3041 0 1
0.9732 9.3054 -2.6884 0.3127 0 1
0.6219 9.7124 -2.7965 0.3003 0 1
0.2400 10.1343 -2.9129 0.2883 0 1
-0.1757 10.5941 -3.0446 0.2625 0 1
-0.6321 11.1084 -3.1971 0.2500 0 1
-1.1321 11.6215 -3.3552 0.2413 0 24
-1.6839 12.1812 -3.5335 0.2266 0 24
-2.3096 12.8653 -3.7559 0.2119 0 1
-2.9973 13.5374 -3.9841 0.1997 0 1
-3.7679 14.2698 -4.2409 0.1800 0 1
-4.6377 15.0771 -4.5327 0.1731 0 1
-5.5902 15.8701 -4.8348 0.1615 0 24
-6.6967 16.8182 -5.2016 0.1527 0 1
-7.8869 17.6989 -5.5678 0.1344 0 24
-9.4010 19.0004 -6.0914 0.1184 0 1
-11.1872 20.4914 -6.7085 0.1119 0 1
-13.2519 22.1082 -7.4065 0.1051 0 1
-15.5258 23.6846 -8.1376 0.1081 0 1
-17.6860 24.7467 -8.7402 0.0842 0 2
-21.1432 27.1994 -9.8992 0.0744 0 2
-25.4980 30.2089 -11.3591 0.0648 0 25
-22.5235 24.6033 -9.5847 0.7281 0 5
-22.6109 22.7853 -9.2238 0.7524 0 5
