ply
format ascii 1.0
element vertex 1385
property float32 x
property float32 y
property float32 z
property float32 CosAngle
property uint32 ObjIdx
property uint32 ObjTag
end_header
-3.6718 -13.7781 -4.0972 0.1950 0 1
-2.9362 -13.1139 -3.8615 0.2065 0 1
-2.2780 -12.5118 -3.6543 0.2235 0 1
-1.6823 -11.9437 -3.4658 0.2295 0 1
-1.1401 -11.3906 -3.2894 0.2363 0 1
-0.6480 -10.8625 -3.1268 0.2479 0 1
-0.2013 -10.3642 -2.9787 0.2593 0 1
0.2054 -9.8953 -2.8440 0.2736 0 1
0.5767 -9.4540 -2.7216 0.2859 0 1
0.9166 -9.0357 -2.6097 0.2982 0 1
1.2283 -8.6366 -2.5067 0.3106 0 1
1.5141 -8.2532 -2.4111 0.3229 0 1
1.7777 -7.8900 -2.3240 0.3365 0 1
2.0160 -7.5245 -2.2384 0.3510 0 24
2.2473 -7.2150 -2.1714 0.3637 0 1
2.4562 -6.8971 -2.1038 0.3745 0 1
2.6494 -6.5894 -2.0408 0.3860 0 1
2.8287 -6.2925 -1.9824 0.3974 0 1
2.9951 -6.0055 -1.9284 0.4085 0 1
3.1498 -5.7275 -1.8782 0.4194 0 1
3.2925 -5.4559 -1.8311 0.4148 0 1
3.4142 -5.1756 -1.7816 0.4263 0 1
3.5291 -4.9088 -1.7372 0.4308 0 1
3.6351 -4.6502 -1.6960 0.4412 0 1
3.7329 -4.3990 -1.6578 0.4514 0 1
3.8230 -4.1548 -1.6224 0.4613 0 1
3.9060 -3.9169 -1.5895 0.4708 0 1
3.9906 -3.6926 -1.5623 0.4985 0 1
4.0701 -3.4733 -1.5375 0.5065 0 1
4.1438 -3.2579 -1.5146 0.5142 0 1
4.2120 -3.0460 -1.4936 0.5214 0 1
4.2753 -2.8375 -1.4744 0.5282 0 1
4.3346 -2.6324 -1.4572 0.5345 0 1
4.3892 -2.4299 -1.4416 0.5403 0 1
4.4393 -2.2296 -1.4275 0.5457 0 1
4.4852 -2.0313 -1.4148 0.5506 0 1
4.5268 -1.8348 -1.4035 0.5550 0 1
4.5644 -1.6399 -1.3937 0.5589 0 1
4.5982 -1.4463 -1.3851 0.5624 0 1
4.6281 -1.2539 -1.3778 0.5654 0 1
4.1875 -0.9558 -1.2342 0.6735 25 14
3.8738 -0.7219 -1.1323 0.7351 25 14
3.8631 -0.5604 -1.1216 0.7509 25 14
3.8539 -0.4018 -1.1134 0.7565 25 14
3.8457 -0.2454 -1.1073 0.7606 25 14
3.8386 -0.0904 -1.1033 0.7634 25 14
3.8359 0.0638 -1.1024 0.7640 25 14
3.8374 0.2182 -1.1044 0.7626 25 14
3.8399 0.3735 -1.1086 0.7597 25 14
3.8433 0.5304 -1.1148 0.7555 25 14
3.8479 0.6895 -1.1233 0.7410 25 14
4.0460 0.8940 -1.1906 0.0575 25 14
4.7343 1.2475 -1.4068 0.5560 0 1
4.7138 1.4469 -1.4169 0.5439 0 1
4.6883 1.6478 -1.4279 0.5397 0 1
4.6586 1.8507 -1.4404 0.5350 0 1
4.6246 2.0560 -1.4543 0.5299 0 1
4.5864 2.2638 -1.4697 0.5240 0 1
4.5437 2.4744 -1.4867 0.5180 0 1
4.4962 2.6881 -1.5052 0.5116 0 1
4.4437 2.9051 -1.5255 0.5048 0 1
4.3859 3.1257 -1.5476 0.4977 0 1
4.3230 3.3506 -1.5716 0.4901 0 1
4.2545 3.5801 -1.5977 0.4821 0 1
4.1798 3.8142 -1.6260 0.4737 0 1
4.0986 4.0535 -1.6564 0.4650 0 1
4.0104 4.2983 -1.6892 0.4560 0 1
3.9097 4.5432 -1.7223 0.4600 0 1
3.8003 4.7927 -1.7575 0.4508 0 1
3.6848 5.0512 -1.7966 0.4390 0 1
3.5610 5.3175 -1.8389 0.4289 0 1
3.4275 5.5916 -1.8845 0.4186 0 1
3.2836 5.8739 -1.9337 0.4079 0 1
3.1277 6.1639 -1.9861 0.3943 0 1
2.9588 6.4619 -2.0422 0.3838 0 1
2.7727 6.7602 -2.0995 0.3953 0 1
2.5696 7.0603 -2.1589 0.3844 0 1
2.3517 7.3700 -2.2229 0.3734 0 1
2.1177 7.6902 -2.2920 0.3621 0 1
1.8728 8.0513 -2.3753 0.3306 0 1
1.6092 8.4417 -2.4694 0.3180 0 1
1.3217 8.8528 -2.5720 0.3053 0 1
1.0048 9.2653 -2.6779 0.3140 0 1
0.6573 9.6723 -2.7857 0.3015 0 1
0.2795 10.0914 -2.9008 0.2895 0 1
-0.1316 10.5435 -3.0299 0.2638 0 1
-0.5826 11.0533 -3.1805 0.2513 0 1
-1.0766 11.5647 -3.3374 0.2432 0 24
-1.6291 12.1768 -3.5301 0.2254 0 1
-2.2379 12.7938 -3.7321 0.2132 0 1
-2.9156 13.4587 -3.9570 0.2011 0 1
-3.6740 14.1809 -4.2094 0.1814 0 1
-4.5302 14.9795 -4.4968 0.1698 0 1
-5.4865 15.8190 -4.8111 0.1631 0 1
-6.5572 16.7062 -5.1570 0.1540 0 1
-7.7632 17.6586 -5.5428 0.1433 0 1
-9.1987 18.8326 -6.0225 0.1198 0 1
-10.9381 20.2848 -6.6221 0.1044 0 1
-12.9655 21.8917 -7.3109 0.1064 0 1
-15.2185 23.4901 -8.0425 0.1094 0 1
-17.2714 24.4479 -8.6012 0.0856 0 2
-20.6195 26.8319 -9.7236 0.0757 0 2
-24.8210 29.7459 -11.1322 0.0661 0 25
-22.4985 24.8608 -9.6346 0.7017 0 5
-22.5888 23.0299 -9.2694 0.7466 0 5
-27.9970 26.3391 -11.0454 0.0393 0 3
-22.7963 19.7822 -8.6729 0.6494 0 5
-22.8614 18.2821 -8.4113 0.6963 0 5
-22.9343 16.8762 -8.1820 0.8034 0 5
-28.1439 19.0161 -9.7600 0.9779 0 3
-26.8056 16.5841 -9.0574 0.8159 0 3
-32.9728 18.6115 -10.8797 0.8782 0 3
-37.8999 19.4286 -12.2379 0.8957 0 3
-37.9044 17.5459 -12.0020 0.8475 0 3
-42.6152 17.6847 -13.2578 0.3746 0 3
-26.8330 7.5086 -8.0065 0.9603 0 22
-46.1247 8.9906 -13.5031 0.9686 0 22
-46.0997 7.0774 -13.4017 0.9982 0 22
0.3486 -9.3431 -2.7991 0.2887 0 1
0.6941 -8.9422 -2.6852 0.3009 0 1
1.0116 -8.5601 -2.5805 0.3131 0 1
1.3037 -8.1925 -2.4835 0.3255 0 1
1.5730 -7.8411 -2.3942 0.3426 0 1
1.8172 -7.4857 -2.3061 0.3539 0 24
2.0536 -7.1872 -2.2378 0.3665 0 1
2.2679 -6.8784 -2.1683 0.3783 0 1
2.4664 -6.5792 -2.1035 0.3889 0 1
2.6506 -6.2898 -2.0434 0.4004 0 1
2.8219 -6.0096 -1.9876 0.4116 0 1
2.9812 -5.7380 -1.9359 0.4226 0 1
3.1295 -5.4741 -1.8877 0.4331 0 1
3.2594 -5.2044 -1.8384 0.4291 0 1
3.3763 -4.9385 -1.7910 0.4404 0 1
3.4862 -4.6837 -1.7480 0.4446 0 1
3.5882 -4.4370 -1.7084 0.4549 0 1
3.6825 -4.1969 -1.6716 0.4649 0 1
3.7694 -3.9630 -1.6374 0.4746 0 1
3.8556 -3.7406 -1.6083 0.5029 0 1
3.9382 -3.5250 -1.5823 0.5111 0 1
4.0150 -3.3131 -1.5584 0.5190 0 1
4.0861 -3.1046 -1.5364 0.5264 0 1
4.1520 -2.8993 -1.5161 0.5334 0 1
4.2134 -2.6971 -1.4977 0.5400 0 1
4.2706 -2.4978 -1.4812 0.5461 0 1
4.3232 -2.3007 -1.4661 0.5517 0 1
4.3714 -2.1056 -1.4526 0.5569 0 1
4.4154 -1.9123 -1.4405 0.5616 0 1
4.4552 -1.7206 -1.4298 0.5658 0 1
4.4911 -1.5302 -1.4204 0.5695 0 1
4.5231 -1.3409 -1.4124 0.5728 0 1
4.5514 -1.1526 -1.4056 0.5786 0 1
3.9151 -0.8257 -1.1979 0.7326 25 14
3.8936 -0.6591 -1.1822 0.7398 25 14
3.8835 -0.4979 -1.1722 0.7462 25 14
3.8745 -0.3393 -1.1644 0.7512 25 14
3.8648 -0.1825 -1.1583 0.7924 25 14
3.8548 -0.0270 -1.1541 0.7954 25 14
3.8588 0.1280 -1.1559 0.7941 25 14
3.8623 0.2837 -1.1594 0.7544 25 14
3.8653 0.4406 -1.1647 0.7510 25 14
3.8693 0.5993 -1.1722 0.7462 25 14
3.8870 0.7631 -1.1859 0.7400 25 14
4.1815 0.9968 -1.2869 0.6708 25 14
4.6337 1.3033 -1.4411 0.5554 0 1
4.6103 1.4990 -1.4514 0.5514 0 1
4.5829 1.6964 -1.4630 0.5470 0 1
4.5512 1.8958 -1.4760 0.5422 0 1
4.5153 2.0975 -1.4905 0.5369 0 1
4.4751 2.3016 -1.5066 0.5309 0 1
4.4302 2.5085 -1.5242 0.5247 0 1
4.3805 2.7183 -1.5434 0.5182 0 1
4.3258 2.9312 -1.5644 0.5113 0 1
4.2658 3.1478 -1.5872 0.5040 0 1
4.2007 3.3685 -1.6120 0.4962 0 1
4.1297 3.5934 -1.6389 0.4881 0 1
4.0525 3.8227 -1.6678 0.4796 0 1
3.9686 4.0569 -1.6991 0.4708 0 1
3.8777 4.2964 -1.7327 0.4616 0 1
3.7747 4.5360 -1.7667 0.4657 0 1
3.6631 4.7800 -1.8029 0.4544 0 1
3.5455 5.0330 -1.8431 0.4444 0 1
3.4189 5.2927 -1.8864 0.4342 0 1
3.2826 5.5596 -1.9329 0.4238 0 1
3.1351 5.8327 -1.9825 0.4102 0 1
2.9758 6.1130 -2.0354 0.3995 0 1
2.8041 6.4017 -2.0923 0.3890 0 1
2.6172 6.6944 -2.1519 0.4005 0 1
2.4120 6.9845 -2.2122 0.3896 0 1
2.1921 7.2834 -2.2771 0.3785 0 1
1.9561 7.5918 -2.3471 0.3672 0 1
1.7097 7.9435 -2.4326 0.3353 0 1
1.4436 8.3183 -2.5275 0.3227 0 1
1.1537 8.7119 -2.6310 0.3100 0 1
0.8358 9.1102 -2.7389 0.3185 0 1
0.4875 9.4908 -2.8451 0.3066 0 1
0.1102 9.8879 -2.9604 0.2946 0 1
-0.2994 10.3132 -3.0889 0.2687 0 1
-0.7476 10.7862 -3.2369 0.2616 0 24
-1.2410 11.3022 -3.4040 0.2438 0 1
-1.7746 11.7787 -3.5661 0.2329 0 24
-2.3807 12.3982 -3.7796 0.2145 0 1
-3.0291 12.9439 -3.9798 0.2037 0 24
-3.7808 13.6585 -4.2428 0.1908 0 1
-4.6076 14.3731 -4.5187 0.1754 0 1
-5.5316 15.1356 -4.8245 0.1689 0 1
-6.5421 15.8899 -5.1445 0.1596 0 24
-7.6527 16.6542 -5.4871 0.1495 0 24
-9.0252 17.7277 -5.9555 0.1329 0 1
-10.6066 18.9143 -6.4921 0.1105 0 1
-12.5376 20.3923 -7.1666 0.1127 0 1
-14.6452 21.8062 -7.8640 0.1152 0 1
-16.7549 22.9034 -8.4957 0.6308 0 2
-19.2809 24.2491 -9.2749 0.0824 0 2
-22.8508 26.4818 -10.4717 0.0730 0 25
-24.3696 26.0491 -10.6793 0.7085 0 21
-22.5282 22.2207 -9.4733 0.7293 0 5
-22.6524 20.6155 -9.1697 0.7686 0 5
-22.7306 19.0753 -8.8838 0.7478 0 5
-22.8101 17.6306 -8.6310 0.7967 0 5
-31.8765 22.6533 -11.7076 0.5605 0 3
-28.1830 18.3710 -10.0717 0.8485 0 3
-27.3578 16.3063 -9.5349 0.9975 0 3
-31.0280 16.8433 -10.5696 0.4379 0 3
-37.7717 18.5805 -12.6022 0.9033 0 3
-42.5939 18.8677 -13.9469 0.9190 0 3
-45.8903 8.1594 -13.9541 0.9942 0 6
-24.4913 -17.7615 -9.0574 0.7056 15 6
-33.4873 -31.0696 -13.6759 0.6457 0 20
-28.7828 -28.9408 -12.2198 0.1644 0 9
-23.5563 -25.6698 -10.4305 0.4058 0 20
-21.9271 -25.9106 -10.1620 0.0752 0 2
-18.5302 -23.7703 -9.0232 0.0847 0 2
-16.5646 -23.1059 -8.5114 0.0240 0 1
-13.5909 -20.6625 -7.4041 0.1009 0 1
-11.5934 -19.2692 -6.7325 0.1135 0 1
-9.8968 -18.0530 -6.1636 0.1228 0 1
-8.4254 -16.9503 -5.6669 0.1387 0 1
-7.1592 -15.9832 -5.2432 0.1484 0 1
-6.0582 -15.1259 -4.8781 0.1647 0 1
-5.0938 -14.3642 -4.5627 0.1798 0 1
-4.2389 -13.6736 -4.2858 0.1936 0 1
-3.4655 -13.0040 -4.0290 0.2031 0 24
-2.7899 -12.4604 -3.8228 0.2219 0 1
-2.1692 -11.9141 -3.6255 0.2278 0 1
-1.6042 -11.3894 -3.4434 0.2344 0 1
-1.0895 -10.8848 -3.2750 0.2458 0 1
-0.6206 -10.4019 -3.1197 0.2572 0 1
-0.1931 -9.9449 -2.9779 0.2714 0 1
0.1969 -9.4839 -2.8399 0.2803 0 24
0.5554 -9.1049 -2.7309 0.2959 0 1
0.8841 -8.7153 -2.6226 0.3081 0 1
1.1864 -8.3427 -2.5228 0.3205 0 1
1.4646 -7.9835 -2.4300 0.3342 0 1
1.7221 -7.6434 -2.3456 0.3497 0 1
1.9550 -7.2968 -2.2616 0.3609 0 24
2.1816 -7.0042 -2.1963 0.3735 0 1
2.3865 -6.7013 -2.1297 0.3842 0 1
2.5764 -6.4078 -2.0676 0.3957 0 1
2.7529 -6.1239 -2.0101 0.4070 0 1
2.9170 -5.8488 -1.9567 0.4181 0 1
3.0697 -5.5818 -1.9071 0.4287 0 1
3.2084 -5.3166 -1.8590 0.4243 0 1
3.3293 -5.0469 -1.8101 0.4358 0 1
3.4417 -4.7873 -1.7652 0.4403 0 1
3.5472 -4.5378 -1.7243 0.4507 0 1
3.6446 -4.2950 -1.6864 0.4608 0 1
3.7345 -4.0586 -1.6512 0.4707 0 1
3.8198 -3.8305 -1.6195 0.4994 0 1
3.9049 -3.6133 -1.5928 0.5078 0 1
3.9841 -3.3999 -1.5680 0.5158 0 1
4.0575 -3.1901 -1.5452 0.5234 0 1
4.1255 -2.9835 -1.5242 0.5306 0 1
4.1885 -2.7799 -1.5050 0.5374 0 1
4.2476 -2.5796 -1.4878 0.5437 0 1
4.3021 -2.3816 -1.4721 0.5494 0 1
4.3520 -2.1857 -1.4580 0.5548 0 1
4.3978 -1.9917 -1.4453 0.5597 0 1
4.4393 -1.7994 -1.4341 0.5641 0 1
4.4768 -1.6084 -1.4241 0.5680 0 1
4.5104 -1.4187 -1.4156 0.5715 0 1
4.5402 -1.2301 -1.4082 0.5745 0 1
4.2815 -0.9772 -1.3148 0.3408 25 14
3.8990 -0.7266 -1.1874 0.7280 25 14
3.8875 -0.5640 -1.1760 0.7438 25 14
3.8781 -0.4044 -1.1673 0.7493 25 14
3.8692 -0.2469 -1.1607 0.7908 25 14
3.8588 -0.0909 -1.1556 0.7943 25 14
3.8566 0.0641 -1.1548 0.7949 25 14
3.8614 0.2195 -1.1579 0.7554 25 14
3.8640 0.3758 -1.1623 0.7526 25 14
3.8675 0.5337 -1.1688 0.7483 25 14
3.8729 0.6940 -1.1779 0.7338 25 14
4.1798 0.9236 -1.2815 0.6736 25 14
4.6422 1.2232 -1.4372 0.5569 0 1
4.6204 1.4182 -1.4470 0.5531 0 1
4.5947 1.6149 -1.4580 0.5489 0 1
4.5648 1.8135 -1.4705 0.5443 0 1
4.5306 2.0142 -1.4844 0.5392 0 1
4.4922 2.2172 -1.4998 0.5333 0 1
4.4493 2.4230 -1.5167 0.5273 0 1
4.4016 2.6315 -1.5353 0.5209 0 1
4.3489 2.8431 -1.5555 0.5142 0 1
4.2911 3.0581 -1.5775 0.5070 0 1
4.2282 3.2771 -1.6015 0.4994 0 1
4.1597 3.5003 -1.6276 0.4914 0 1
4.0850 3.7277 -1.6556 0.4831 0 1
4.0039 3.9599 -1.6859 0.4744 0 1
3.9160 4.1971 -1.7185 0.4654 0 1
3.8185 4.4372 -1.7526 0.4695 0 1
3.7098 4.6786 -1.7876 0.4603 0 1
3.5950 4.9281 -1.8262 0.4486 0 1
3.4722 5.1849 -1.8682 0.4385 0 1
3.3400 5.4488 -1.9133 0.4281 0 1
3.1974 5.7196 -1.9617 0.4145 0 1
3.0428 5.9966 -2.0132 0.4039 0 1
2.8764 6.2819 -2.0684 0.3935 0 1
2.6970 6.5756 -2.1278 0.3825 0 1
2.4982 6.8640 -2.1868 0.3941 0 1
2.2845 7.1592 -2.2498 0.3831 0 1
2.0553 7.4636 -2.3176 0.3719 0 1
1.8130 7.7942 -2.3957 0.3404 0 1
1.5559 8.1618 -2.4875 0.3279 0 1
1.2761 8.5474 -2.5873 0.3152 0 1
0.9710 8.9531 -2.6961 0.3025 0 1
0.6342 9.3322 -2.8003 0.3115 0 1
0.2692 9.7223 -2.9118 0.2995 0 1
-0.1265 10.1300 -3.0330 0.2876 0 1
-0.5582 10.5920 -3.1754 0.2614 0 1
-1.0300 11.0639 -3.3266 0.2528 0 24
-1.5528 11.6068 -3.5058 0.2312 0 1
-2.1270 12.1599 -3.6957 0.2193 0 1
-2.7485 12.6872 -3.8864 0.2098 0 24
-3.4673 13.3830 -4.1389 0.1956 0 1
-4.2549 14.0692 -4.4004 0.1802 0 1
-5.1400 14.8197 -4.6960 0.1735 0 1
-6.1211 15.5953 -5.0157 0.1647 0 1
-7.2086 16.3970 -5.3624 0.1538 0 1
-8.4497 17.2990 -5.7638 0.1373 0 1
-9.9133 18.3842 -6.2531 0.1198 0 1
-11.7060 19.7652 -6.8772 0.1044 0 1
-13.7502 21.2237 -7.5709 0.1067 0 1
-15.9149 22.5277 -8.2576 0.1097 0 1
-18.0101 23.4364 -8.8488 0.0864 0 2
-21.2897 25.5139 -9.9483 0.0768 0 2
-24.3346 26.8897 -10.8574 0.7116 0 21
-22.4944 22.9336 -9.6173 0.7174 0 5
-22.6158 21.2765 -9.2961 0.7846 0 5
-22.7131 19.7099 -9.0032 0.8201 0 5
-22.7643 18.2045 -8.7264 0.8090 0 5
-22.8412 16.8077 -8.4901 0.8210 0 5
-28.0712 18.9670 -10.1425 0.4041 0 3
-28.7386 17.7800 -10.1173 0.5098 0 3
-28.4449 16.0558 -9.7788 0.4588 0 3
-33.0869 16.9614 -11.1313 0.8965 0 3
-36.4019 16.8504 -12.0090 0.5505 0 3
-42.6124 17.6836 -13.8122 0.3734 0 3
-45.9363 8.9538 -14.0112 0.9564 0 22
-45.9783 7.0587 -13.9263 0.9921 0 22
0.3358 -9.0002 -2.8055 0.2987 0 1
0.6696 -8.6269 -2.6953 0.3109 0 1
0.9773 -8.2696 -2.5939 0.3230 0 1
1.2612 -7.9255 -2.4998 0.3369 0 1
1.5193 -7.5733 -2.4061 0.3520 0 24
1.7678 -7.2822 -2.3342 0.3644 0 1
1.9881 -6.9578 -2.2541 0.3754 0 24
2.2039 -6.6842 -2.1924 0.3870 0 1
2.3987 -6.3986 -2.1286 0.3986 0 1
2.5799 -6.1219 -2.0694 0.4100 0 1
2.7486 -5.8535 -2.0143 0.4212 0 1
2.9057 -5.5926 -1.9632 0.4319 0 1
3.0521 -5.3387 -1.9156 0.4426 0 1
3.1786 -5.0754 -1.8654 0.4385 0 1
3.2948 -4.8192 -1.8184 0.4498 0 1
3.4022 -4.5709 -1.7749 0.4540 0 1
3.5038 -4.3325 -1.7357 0.4643 0 1
3.5976 -4.1002 -1.6991 0.4743 0 1
3.6850 -3.8742 -1.6655 0.5035 0 1
3.7733 -3.6607 -1.6376 0.5121 0 1
3.8555 -3.4509 -1.6118 0.5203 0 1
3.9318 -3.2445 -1.5879 0.5281 0 1
4.0027 -3.0413 -1.5659 0.5356 0 1
4.0683 -2.8409 -1.5457 0.5426 0 1
4.1295 -2.6434 -1.5273 0.5492 0 1
4.1864 -2.4486 -1.5107 0.5552 0 1
4.2388 -2.2558 -1.4957 0.5608 0 1
4.2869 -2.0649 -1.4822 0.5660 0 1
4.3307 -1.8757 -1.4701 0.5706 0 1
4.3704 -1.6878 -1.4594 0.5748 0 1
4.4062 -1.5012 -1.4500 0.5785 0 1
4.4381 -1.3157 -1.4419 0.5818 0 1
4.4667 -1.1312 -1.4353 0.5875 0 1
3.9358 -0.8301 -1.2529 0.7154 25 14
3.9186 -0.6634 -1.2380 0.7326 25 14
3.9079 -0.5011 -1.2273 0.7756 25 14
3.8958 -0.3412 -1.2182 0.7814 25 14
3.8847 -0.1834 -1.2114 0.7857 25 14
3.8746 -0.0272 -1.2069 0.7886 25 14
3.8788 0.1287 -1.2089 0.7874 25 14
3.8847 0.2854 -1.2133 0.7845 25 14
3.8899 0.4434 -1.2195 0.7437 25 14
3.8941 0.6032 -1.2275 0.7389 25 14
3.9034 0.7663 -1.2391 0.7234 25 14
4.2789 1.0200 -1.3702 0.3391 25 14
4.5434 1.2779 -1.4702 0.5645 0 1
4.5199 1.4696 -1.4805 0.5606 0 1
4.4923 1.6629 -1.4921 0.5562 0 1
4.4605 1.8580 -1.5051 0.5514 0 1
4.4244 2.0552 -1.5196 0.5461 0 1
4.3840 2.2548 -1.5356 0.5401 0 1
4.3390 2.4568 -1.5532 0.5340 0 1
4.2892 2.6616 -1.5724 0.5274 0 1
4.2344 2.8693 -1.5933 0.5205 0 1
4.1745 3.0804 -1.6160 0.5132 0 1
4.1094 3.2953 -1.6408 0.5055 0 1
4.0385 3.5140 -1.6675 0.4974 0 1
3.9614 3.7368 -1.6963 0.4890 0 1
3.8777 3.9641 -1.7273 0.4802 0 1
3.7872 4.1961 -1.7607 0.4711 0 1
3.6874 4.4311 -1.7957 0.4752 0 1
3.5765 4.6669 -1.8315 0.4638 0 1
3.4598 4.9114 -1.8714 0.4539 0 1
3.3344 5.1619 -1.9142 0.4438 0 1
3.1992 5.4182 -1.9600 0.4302 0 1
3.0530 5.6799 -2.0086 0.4198 0 1
2.8958 5.9487 -2.0609 0.4092 0 1
2.7268 6.2251 -2.1169 0.3987 0 1
2.5448 6.5092 -2.1770 0.3877 0 1
2.3456 6.7922 -2.2384 0.3993 0 1
2.1300 7.0772 -2.3022 0.3882 0 1
1.8990 7.3705 -2.3709 0.3770 0 1
1.6557 7.6923 -2.4510 0.3450 0 1
1.3962 8.0454 -2.5436 0.3325 0 1
1.1143 8.4149 -2.6441 0.3198 0 1
0.8067 8.7932 -2.7506 0.3069 0 1
0.4705 9.1612 -2.8574 0.3165 0 1
0.1062 9.5312 -2.9691 0.3046 0 1
-0.2879 9.9164 -3.0902 0.2927 0 1
-0.7173 10.3493 -3.2315 0.2663 0 1
-1.1875 10.8151 -3.3891 0.2539 0 1
-1.6945 11.2473 -3.5430 0.2443 0 24
-2.2643 11.7920 -3.7403 0.2247 0 1
-2.8740 12.2813 -3.9289 0.2142 0 24
-3.5743 12.9125 -4.1734 0.2011 0 1
-4.3381 13.5325 -4.4266 0.1896 0 1
-5.1905 14.2023 -4.7101 0.1745 0 1
-6.1323 14.8948 -5.0175 0.1707 0 1
-7.1690 15.6015 -5.3483 0.1626 0 1
-8.3342 16.3703 -5.7221 0.1434 0 1
-9.6928 17.2847 -6.1729 0.1315 0 1
-11.2952 18.3716 -6.7178 0.1101 0 1
-13.2082 19.6665 -7.3794 0.1029 0 1
-15.2728 20.8774 -8.0576 0.1165 0 1
-17.0098 21.3927 -8.5135 0.0931 0 2
-19.8573 23.0126 -9.4681 0.0837 0 2
-23.2877 24.8927 -10.6181 0.0747 0 25
-27.4837 27.1086 -12.0248 0.0659 0 25
-22.5478 20.5203 -9.4967 0.7485 0 5
-22.6411 19.0002 -9.2069 0.7962 0 5
-22.6849 17.5338 -8.9310 0.7903 0 5
-31.8751 22.6523 -12.1808 0.5587 0 3
-28.0610 18.2915 -10.4339 0.8494 0 3
-28.2907 16.8623 -10.2591 0.9486 0 3
-32.7012 17.7516 -11.5903 0.4615 0 3
-37.6181 18.5049 -13.0589 0.9040 0 3
-31.0247 13.7429 -10.5698 0.5426 0 5
-42.4186 16.7862 -14.2102 0.5778 0 3
-45.7411 8.1329 -14.4716 0.7497 0 6
-24.3874 -17.6862 -9.3840 0.9993 15 6
-35.1628 -30.0888 -14.4157 0.3480 0 9
-29.0642 -26.9658 -12.3498 0.8339 0 9
-24.9825 -25.1196 -11.0356 0.5397 0 9
-22.4054 -24.4157 -10.3224 0.0768 0 2
-19.1287 -22.6038 -9.2238 0.0859 0 2
-17.2957 -22.1866 -8.7629 0.1104 0 2
-14.2232 -19.8399 -7.6041 0.1019 0 1
-12.2689 -18.6527 -6.9544 0.1158 0 1
-10.5682 -17.5652 -6.3855 0.1240 0 1
-9.0914 -16.5839 -5.8912 0.1384 0 1
-7.8062 -15.7047 -5.4629 0.1492 0 1
-6.6741 -14.9002 -5.0857 0.1638 0 1
-5.6807 -14.1833 -4.7592 0.1796 0 1
-4.7997 -13.5349 -4.4733 0.1901 0 1
-4.0106 -12.9372 -4.2191 0.2040 0 1
-3.2991 -12.3797 -3.9908 0.2146 0 1
-2.6549 -11.8575 -3.7850 0.2263 0 1
-2.0689 -11.3633 -3.5978 0.2327 0 1
-1.5322 -10.8783 -3.4220 0.2446 0 1
-1.0428 -10.4185 -3.2615 0.2560 0 1
-0.5952 -9.9762 -3.1131 0.2692 0 1
-0.1851 -9.5303 -2.9692 0.2781 0 24
0.1901 -9.1590 -2.8536 0.2936 0 1
0.5355 -8.7786 -2.7396 0.3059 0 1
0.8536 -8.4149 -2.6346 0.3180 0 1
1.1471 -8.0663 -2.5379 0.3302 0 1
1.4183 -7.7308 -2.4483 0.3474 0 1
1.6697 -7.4106 -2.3662 0.3594 0 1
1.9028 -7.1020 -2.2903 0.3714 0 1
2.1193 -6.8040 -2.2199 0.3831 0 1
2.3202 -6.5150 -2.1543 0.3938 0 1
2.5068 -6.2348 -2.0932 0.4053 0 1
2.6806 -5.9630 -2.0365 0.4166 0 1
2.8424 -5.6992 -1.9838 0.4276 0 1
2.9931 -5.4425 -1.9348 0.4382 0 1
3.1280 -5.1833 -1.8858 0.4337 0 1
3.2480 -4.9237 -1.8374 0.4452 0 1
3.3589 -4.6721 -1.7924 0.4563 0 1
3.4629 -4.4299 -1.7515 0.4601 0 1
3.5598 -4.1952 -1.7138 0.4702 0 1
3.6494 -3.9662 -1.6789 0.4800 0 1
3.7377 -3.7482 -1.6488 0.5086 0 1
3.8224 -3.5369 -1.6222 0.5170 0 1
3.9011 -3.3291 -1.5975 0.5250 0 1
3.9742 -3.1246 -1.5747 0.5326 0 1
4.0419 -2.9230 -1.5538 0.5397 0 1
4.1047 -2.7243 -1.5346 0.5466 0 1
4.1636 -2.5285 -1.5174 0.5528 0 1
4.2178 -2.3350 -1.5017 0.5585 0 1
4.2676 -2.1433 -1.4876 0.5639 0 1
4.3131 -1.9534 -1.4749 0.5688 0 1
4.3545 -1.7650 -1.4636 0.5731 0 1
4.3919 -1.5779 -1.4537 0.5771 0 1
4.4254 -1.3920 -1.4451 0.5805 0 1
4.4552 -1.2070 -1.4378 0.5865 0 1
4.4820 -1.0230 -1.4320 0.5889 0 1
3.9247 -0.7314 -1.2436 0.7208 25 14
3.9124 -0.5676 -1.2314 0.7365 25 14
3.9007 -0.4067 -1.2216 0.7791 25 14
3.8892 -0.2482 -1.2139 0.7841 25 14
3.8786 -0.0914 -1.2085 0.7876 25 14
3.8765 0.0644 -1.2077 0.7881 25 14
3.8822 0.2207 -1.2112 0.7858 25 14
3.8885 0.3782 -1.2170 0.7453 25 14
3.8922 0.5371 -1.2239 0.7411 25 14
3.8983 0.6985 -1.2337 0.7266 25 14
4.2723 0.9440 -1.3629 0.3409 25 14
4.5520 1.1994 -1.4663 0.5660 0 1
4.5301 1.3905 -1.4761 0.5622 0 1
4.5041 1.5831 -1.4872 0.5580 0 1
4.4741 1.7774 -1.4996 0.5534 0 1
4.4398 1.9738 -1.5135 0.5483 0 1
4.4011 2.1723 -1.5288 0.5425 0 1
4.3581 2.3733 -1.5458 0.5365 0 1
4.3103 2.5769 -1.5643 0.5302 0 1
4.2576 2.7834 -1.5845 0.5234 0 1
4.1997 2.9930 -1.6064 0.5163 0 1
4.1369 3.2064 -1.6304 0.5087 0 1
4.0684 3.4234 -1.6563 0.5008 0 1
3.9939 3.6445 -1.6842 0.4925 0 1
3.9130 3.8699 -1.7143 0.4838 0 1
3.8253 4.1000 -1.7467 0.4749 0 1
3.7305 4.3350 -1.7815 0.4656 0 1
3.6231 4.5691 -1.8164 0.4697 0 1
3.5089 4.8100 -1.8546 0.4580 0 1
3.3872 5.0580 -1.8962 0.4480 0 1
3.2563 5.3122 -1.9409 0.4377 0 1
3.1144 5.5713 -1.9882 0.4241 0 1
2.9619 5.8371 -2.0389 0.4136 0 1
2.7979 6.1104 -2.0934 0.4028 0 1
2.6213 6.3912 -2.1518 0.3922 0 1
2.4302 6.6772 -2.2134 0.4038 0 1
2.2205 6.9589 -2.2753 0.3928 0 1
1.9961 7.2487 -2.3420 0.3816 0 1
1.7565 7.5514 -2.4150 0.3502 0 1
1.5056 7.8981 -2.5045 0.3377 0 1
1.2333 8.2606 -2.6017 0.3250 0 1
0.9370 8.6402 -2.7072 0.3118 0 1
0.6125 9.0130 -2.8140 0.3214 0 1
0.2597 9.3771 -2.9220 0.3095 0 1
-0.1218 9.7559 -3.0392 0.2976 0 1
-0.5357 10.1649 -3.1707 0.2714 0 1
-0.9887 10.6202 -3.3224 0.2590 0 1
-1.4831 11.0852 -3.4838 0.2504 0 1
-2.0177 11.5349 -3.6476 0.2352 0 24
-2.6228 12.1072 -3.8588 0.2178 0 1
-3.2825 12.6697 -4.0769 0.2062 0 1
-4.0138 13.2721 -4.3191 0.1943 0 1
-4.8271 13.9177 -4.5887 0.1829 0 1
-5.7355 14.6129 -4.8899 0.1728 0 1
-6.7299 15.3084 -5.2090 0.1669 0 1
-7.8323 16.0350 -5.5588 0.1564 0 1
-9.1127 16.8996 -5.9807 0.1357 0 1
-10.5921 17.8844 -6.4746 0.1193 0 1
-12.3946 19.1314 -7.1007 0.1070 0 1
-14.4123 20.4008 -7.7806 0.1118 0 24
-16.7209 21.7587 -8.5479 0.6501 0 2
-18.6226 22.3176 -9.0542 0.0875 0 2
-21.7944 24.0828 -10.1175 0.0783 0 2
-25.6487 26.1495 -11.4096 0.0695 0 25
-22.5200 21.1864 -9.6313 0.7884 0 5
-22.5797 19.5942 -9.3125 0.8040 0 5
-22.6832 18.1396 -9.0472 0.7574 0 5
-22.7534 16.7431 -8.7997 0.8214 0 5
-32.5427 21.9883 -12.2339 0.8410 0 3
-26.4103 16.3395 -9.6739 0.4335 0 3
-28.3342 15.9933 -10.1349 0.8839 0 3
-32.8346 16.8320 -11.4934 0.9661 0 3
-29.5837 13.6943 -10.1546 0.5102 0 5
-33.0553 13.7175 -11.1480 0.4257 0 5
-45.7504 7.0237 -14.4180 0.9205 0 22
0.3238 -8.6795 -2.8115 0.3086 0 1
0.6467 -8.3311 -2.7048 0.3208 0 1
0.9450 -7.9964 -2.6064 0.3329 0 1
1.2215 -7.6763 -2.5161 0.3500 0 1
1.4779 -7.3670 -2.4322 0.3621 0 1
1.7159 -7.0684 -2.3544 0.3741 0 1
1.9313 -6.7591 -2.2755 0.3845 0 24
2.1429 -6.4991 -2.2151 0.3966 0 1
2.3341 -6.2264 -2.1524 0.4081 0 1
2.5123 -5.9617 -2.0941 0.4195 0 1
2.6785 -5.7042 -2.0399 0.4307 0 1
2.8334 -5.4535 -1.9893 0.4413 0 1
2.9765 -5.2065 -1.9413 0.4363 0 1
3.1012 -4.9518 -1.8913 0.4478 0 1
3.2165 -4.7047 -1.8448 0.4591 0 1
3.3231 -4.4646 -1.8016 0.4701 0 1
3.4226 -4.2322 -1.7619 0.4736 0 1
3.5160 -4.0072 -1.7256 0.4836 0 1
3.6061 -3.7913 -1.6937 0.5127 0 1
3.6939 -3.5837 -1.6659 0.5213 0 1
3.7756 -3.3794 -1.6402 0.5295 0 1
3.8515 -3.1783 -1.6164 0.5373 0 1
3.9221 -2.9800 -1.5944 0.5447 0 1
3.9874 -2.7844 -1.5742 0.5516 0 1
4.0483 -2.5914 -1.5559 0.5582 0 1
4.1050 -2.4009 -1.5394 0.5642 0 1
4.1571 -2.2124 -1.5243 0.5699 0 1
4.2050 -2.0255 -1.5108 0.5750 0 1
4.2487 -1.8401 -1.4987 0.5796 0 1
4.2882 -1.6561 -1.4880 0.5838 0 1
4.3238 -1.4732 -1.4786 0.5875 0 1
4.3558 -1.2913 -1.4706 0.5938 0 1
4.3846 -1.1104 -1.4641 0.5964 0 1
4.4097 -0.9301 -1.4588 0.5986 0 1
4.4312 -0.7501 -1.4548 0.6003 0 1
4.4492 -0.5705 -1.4520 0.6014 0 1
3.9162 -0.3430 -1.2725 0.7746 25 14
3.9050 -0.1844 -1.2654 0.7789 25 14
3.8947 -0.0273 -1.2607 0.7818 25 14
3.8991 0.1293 -1.2628 0.7805 25 14
3.9052 0.2869 -1.2675 0.7776 25 14
3.9122 0.4460 -1.2746 0.7733 25 14
3.9193 0.6071 -1.2838 0.7316 25 14
3.9296 0.7714 -1.2963 0.7160 25 14
4.4758 1.0669 -1.4894 0.5770 0 1
4.4560 1.2533 -1.4984 0.5735 0 1
4.4323 1.4411 -1.5087 0.5696 0 1
4.4046 1.6304 -1.5203 0.5653 0 1
4.3727 1.8215 -1.5333 0.5605 0 1
4.3364 2.0144 -1.5477 0.5552 0 1
4.2959 2.2095 -1.5637 0.5492 0 1
4.2509 2.4069 -1.5812 0.5431 0 1
4.2010 2.6069 -1.6004 0.5366 0 1
4.1462 2.8096 -1.6212 0.5297 0 1
4.0864 3.0154 -1.6439 0.5225 0 1
4.0213 3.2247 -1.6685 0.5148 0 1
3.9506 3.4375 -1.6951 0.5067 0 1
3.8737 3.6541 -1.7237 0.4983 0 1
3.7904 3.8748 -1.7546 0.4895 0 1
3.7003 4.0998 -1.7877 0.4804 0 1
3.6029 4.3295 -1.8232 0.4711 0 1
3.4934 4.5585 -1.8590 0.4753 0 1
3.3777 4.7947 -1.8985 0.4633 0 1
3.2534 5.0365 -1.9409 0.4532 0 1
3.1189 5.2823 -1.9857 0.4398 0 1
2.9745 5.5339 -2.0337 0.4294 0 1
2.8195 5.7920 -2.0852 0.4188 0 1
2.6530 6.0568 -2.1404 0.4083 0 1
2.4741 6.3284 -2.1995 0.3973 0 1
2.2819 6.6079 -2.2629 0.3862 0 1
2.0709 6.8810 -2.3260 0.3979 0 1
1.8449 7.1602 -2.3934 0.3867 0 1
1.6046 7.4551 -2.4684 0.3548 0 1
1.3516 7.7881 -2.5587 0.3423 0 1
1.0773 8.1355 -2.6564 0.3297 0 1
0.7787 8.4873 -2.7588 0.3168 0 1
0.4541 8.8420 -2.8659 0.3074 0 1
0.1025 9.1971 -2.9772 0.3146 0 1
-0.2774 9.5551 -3.0943 0.3027 0 1
-0.6888 9.9381 -3.2246 0.2764 0 1
-1.1382 10.3652 -3.3753 0.2640 0 1
-1.6255 10.7890 -3.5318 0.2557 0 1
-2.1585 11.2410 -3.7051 0.2371 0 1
-2.7335 11.6809 -3.8832 0.2260 0 24
-3.3881 12.2396 -4.1109 0.2117 0 1
-4.0990 12.7866 -4.3464 0.2000 0 1
-4.8856 13.3679 -4.6070 0.1887 0 1
-5.7581 13.9857 -4.8958 0.1812 0 1
-6.7081 14.5984 -5.2004 0.1706 0 1
-7.7574 15.2374 -5.5347 0.1627 0 1
-8.9406 15.9435 -5.9169 0.1445 0 1
-10.3018 16.7559 -6.3669 0.1320 0 1
-11.9267 17.7585 -6.9244 0.1155 0 1
-13.8087 18.8760 -7.5705 0.1045 0 1
-15.8019 19.8736 -8.2187 0.1090 0 1
-17.5431 20.3308 -8.6923 0.0944 0 2
-20.2866 21.6848 -9.6120 0.0854 0 2
-23.5400 23.2187 -10.7027 0.0767 0 25
-22.4447 20.4264 -9.8235 0.7417 0 5
-22.5046 18.8857 -9.5098 0.7893 0 5
-22.5874 17.4584 -9.2408 0.8344 0 5
-27.8606 19.7994 -11.0637 0.8295 0 3
-27.9392 18.2121 -10.7955 0.8501 0 3
-32.5176 19.3817 -12.2537 0.8694 0 3
-29.6637 16.1027 -10.9255 0.4599 0 3
-37.4646 18.4295 -13.5150 0.9045 0 3
-30.9293 13.7006 -10.9499 0.3781 0 5
-24.3238 -17.6401 -9.7261 0.9219 15 6
-32.7023 -25.7822 -13.4797 0.5160 0 9
-29.2637 -25.0409 -12.4672 0.4610 0 9
-26.4413 -24.5322 -11.6753 0.0703 0 2
-22.7087 -22.8334 -10.4240 0.0787 0 2
-19.5884 -21.3459 -9.3779 0.0875 0 2
-17.8719 -21.1186 -8.9553 0.1129 0 2
-14.8481 -19.0469 -7.8174 0.0892 0 1
-12.8658 -17.9464 -7.1477 0.1167 0 1
-11.1838 -17.0031 -6.5877 0.1245 0 1
-9.7129 -16.1436 -6.0985 0.1374 0 1
-8.4196 -15.3584 -5.6695 0.1489 0 1
-7.2696 -14.6251 -5.2866 0.1619 0 1
-6.2506 -13.9547 -4.9495 0.1788 0 1
-5.3502 -13.3582 -4.6579 0.1891 0 1
-4.5379 -12.7965 -4.3949 0.2027 0 1
-3.7895 -12.2238 -4.1426 0.2124 0 24
-3.1373 -11.7725 -3.9437 0.2249 0 1
-2.5311 -11.3045 -3.7498 0.2365 0 1
-1.9674 -10.8057 -3.5553 0.2448 0 24
-1.4659 -10.4080 -3.4023 0.2548 0 1
-0.9997 -9.9880 -3.2492 0.2671 0 1
-0.5698 -9.5516 -3.0973 0.2770 0 24
-0.1786 -9.1968 -2.9775 0.2914 0 1
0.1832 -8.8271 -2.8579 0.3036 0 1
0.5169 -8.4728 -2.7477 0.3158 0 1
0.8250 -8.1326 -2.6460 0.3279 0 1
1.1102 -7.8066 -2.5524 0.3449 0 1
1.3701 -7.4683 -2.4578 0.3569 0 24
1.6200 -7.1901 -2.3857 0.3692 0 1
1.8424 -6.8765 -2.3044 0.3804 0 24
2.0600 -6.6138 -2.2423 0.3928 0 1
2.2570 -6.3377 -2.1777 0.4034 0 1
2.4405 -6.0698 -2.1176 0.4148 0 1
2.6115 -5.8094 -2.0617 0.4261 0 1
2.7709 -5.5559 -2.0097 0.4369 0 1
2.9197 -5.3090 -1.9612 0.4477 0 1
3.0510 -5.0557 -1.9114 0.4431 0 1
3.1701 -4.8056 -1.8635 0.4545 0 1
3.2802 -4.5627 -1.8190 0.4656 0 1
3.3821 -4.3265 -1.7776 0.4765 0 1
3.4784 -4.0992 -1.7402 0.4795 0 1
3.5682 -3.8779 -1.7058 0.5091 0 1
3.6585 -3.6687 -1.6771 0.5178 0 1
3.7426 -3.4631 -1.6505 0.5261 0 1
3.8209 -3.2607 -1.6260 0.5341 0 1
3.8937 -3.0613 -1.6033 0.5417 0 1
3.9611 -2.8646 -1.5824 0.5488 0 1
4.0236 -2.6704 -1.5632 0.5556 0 1
4.0822 -2.4791 -1.5460 0.5618 0 1
4.1362 -2.2898 -1.5303 0.5675 0 1
4.1858 -2.1022 -1.5162 0.5729 0 1
4.2312 -1.9163 -1.5035 0.5777 0 1
4.2724 -1.7317 -1.4922 0.5821 0 1
4.3096 -1.5484 -1.4823 0.5860 0 1
4.3430 -1.3661 -1.4737 0.5894 0 1
4.3732 -1.1848 -1.4666 0.5954 0 1
4.3998 -1.0043 -1.4608 0.5978 0 1
4.4228 -0.8242 -1.4563 0.5996 0 1
4.4422 -0.6444 -1.4530 0.6010 0 1
3.9212 -0.4089 -1.2761 0.7724 25 14
3.9095 -0.2495 -1.2681 0.7773 25 14
3.8988 -0.0918 -1.2624 0.7808 25 14
3.8968 0.0648 -1.2616 0.7813 25 14
3.9025 0.2219 -1.2653 0.7790 25 14
3.9092 0.3802 -1.2714 0.7753 25 14
3.9168 0.5405 -1.2799 0.7701 25 14
3.9243 0.7032 -1.2905 0.7192 25 14
4.4814 0.9902 -1.4856 0.5872 0 1
4.4646 1.1764 -1.4945 0.5750 0 1
4.4426 1.3636 -1.5043 0.5713 0 1
4.4165 1.5523 -1.5153 0.5671 0 1
4.3863 1.7426 -1.5278 0.5625 0 1
4.3519 1.9347 -1.5416 0.5574 0 1
4.3131 2.1289 -1.5569 0.5516 0 1
4.2700 2.3253 -1.5738 0.5457 0 1
4.2221 2.5242 -1.5923 0.5394 0 1
4.1694 2.7258 -1.6124 0.5326 0 1
4.1115 2.9302 -1.6343 0.5255 0 1
4.0488 3.1381 -1.6581 0.5180 0 1
3.9804 3.3494 -1.6839 0.5100 0 1
3.9061 3.5644 -1.7117 0.5018 0 1
3.8255 3.7834 -1.7416 0.4932 0 1
3.7382 4.0066 -1.7737 0.4842 0 1
3.6439 4.2344 -1.8083 0.4750 0 1
3.5397 4.4640 -1.8441 0.4791 0 1
3.4263 4.6968 -1.8819 0.4674 0 1
3.3057 4.9363 -1.9230 0.4574 0 1
3.1755 5.1804 -1.9668 0.4440 0 1
3.0352 5.4296 -2.0135 0.4337 0 1
2.8846 5.6849 -2.0635 0.4232 0 1
2.7230 5.9469 -2.1172 0.4124 0 1
2.5493 6.2157 -2.1746 0.4019 0 1
2.3627 6.4918 -2.2362 0.3908 0 1
2.1597 6.7682 -2.2997 0.4025 0 1
1.9398 7.0444 -2.3651 0.3913 0 1
1.7045 7.3281 -2.4354 0.3800 0 1
1.4582 7.6493 -2.5206 0.3474 0 1
1.1930 7.9907 -2.6152 0.3349 0 1
0.9049 8.3441 -2.7168 0.3217 0 1
0.5909 8.6953 -2.8211 0.3123 0 1
0.2507 9.0534 -2.9317 0.3195 0 1
-0.1174 9.4061 -3.0449 0.3076 0 1
-0.5150 9.7722 -3.1676 0.2957 0 1
-0.9483 10.1868 -3.3117 0.2691 0 1
-1.4202 10.6153 -3.4667 0.2605 0 1
-1.9272 11.0177 -3.6205 0.2470 0 24
-2.4961 11.5220 -3.8161 0.2281 0 1
-3.1153 12.0245 -4.0208 0.2165 0 1
-3.7844 12.5134 -4.2317 0.2039 0 24
-4.5519 13.1242 -4.4965 0.1933 0 1
-5.3879 13.7273 -4.7735 0.1821 0 1
-6.3050 14.3418 -5.0712 0.1749 0 1
-7.3132 14.9723 -5.3937 0.1669 0 1
-8.4301 15.6337 -5.7494 0.1551 0 1
-9.7207 16.4131 -6.1747 0.1361 0 1
-11.2296 17.3332 -6.6852 0.1197 0 1
-12.9987 18.3999 -7.2923 0.1085 0 1
-14.9833 19.4976 -7.9596 0.1141 0 1
-16.7582 20.0832 -8.4668 0.6797 0 2
-19.1018 21.1075 -9.2148 0.0891 0 2
-22.1307 22.5629 -10.2303 0.0802 0 2
-17.5859 16.5445 -7.8156 0.5740 0 6
-22.4606 19.4908 -9.6262 0.7747 0 5
-22.5440 18.0283 -9.3438 0.7788 0 5
-22.6425 16.6615 -9.0997 0.7683 0 5
-27.9080 18.8567 -10.9025 0.8417 0 3
-28.7358 17.7783 -10.9379 0.5064 0 3
-29.7891 16.8145 -11.0726 0.3616 0 3
-37.4358 19.1907 -13.6172 0.8977 0 3
-29.5591 13.6829 -10.5435 0.4484 0 5
-32.9608 13.6783 -11.5515 0.4302 0 5
-26.4559 8.5627 -9.0010 0.5790 0 6
-24.8987 -17.4360 -9.8393 0.8404 0 20
0.3126 -8.3787 -2.8171 0.3185 0 1
0.6251 -8.0530 -2.7138 0.3307 0 1
0.9149 -7.7411 -2.6190 0.3478 0 1
1.1841 -7.4412 -2.5316 0.3598 0 1
1.4341 -7.1487 -2.4497 0.3718 0 1
1.6666 -6.8653 -2.3736 0.3837 0 1
1.8773 -6.5701 -2.2958 0.3930 0 24
2.0847 -6.3228 -2.2368 0.4062 0 1
2.2726 -6.0622 -2.1752 0.4177 0 1
2.4478 -5.8085 -2.1178 0.4290 0 1
2.6114 -5.5613 -2.0643 0.4398 0 1
2.7641 -5.3202 -2.0143 0.4507 0 1
2.9034 -5.0787 -1.9655 0.4457 0 1
3.0269 -4.8333 -1.9161 0.4572 0 1
3.1413 -4.5948 -1.8701 0.4684 0 1
3.2473 -4.3627 -1.8273 0.4794 0 1
3.3453 -4.1366 -1.7874 0.4901 0 1
3.4374 -3.9177 -1.7511 0.4928 0 1
3.5300 -3.7113 -1.7209 0.5219 0 1
3.6172 -3.5093 -1.6933 0.5304 0 1
3.6984 -3.3103 -1.6676 0.5385 0 1
3.7739 -3.1142 -1.6439 0.5463 0 1
3.8441 -2.9207 -1.6221 0.5537 0 1
3.9091 -2.7297 -1.6019 0.5606 0 1
3.9696 -2.5411 -1.5836 0.5672 0 1
4.0261 -2.3548 -1.5671 0.5732 0 1
4.0780 -2.1702 -1.5521 0.5788 0 1
4.1257 -1.9873 -1.5386 0.5839 0 1
4.1691 -1.8057 -1.5265 0.5885 0 1
4.2085 -1.6253 -1.5158 0.5927 0 1
4.2439 -1.4460 -1.5064 0.5964 0 1
4.2762 -1.2677 -1.4985 0.6026 0 1
4.3048 -1.0902 -1.4920 0.6053 0 1
4.3298 -0.9132 -1.4867 0.6074 0 1
4.3512 -0.7366 -1.4827 0.6091 0 1
4.3689 -0.5602 -1.4799 0.6102 0 1
4.3832 -0.3839 -1.4783 0.6109 0 1
4.3940 -0.2075 -1.4779 0.6110 0 1
4.4030 -0.0309 -1.4793 0.6098 0 1
4.4103 0.1463 -1.4826 0.6085 0 1
4.4141 0.3243 -1.4871 0.6066 0 1
4.4145 0.5032 -1.4928 0.6043 0 1
4.4112 0.6833 -1.4998 0.6015 0 1
4.4044 0.8646 -1.5080 0.5982 0 1
4.3912 1.0468 -1.5167 0.5860 0 1
4.3713 1.2295 -1.5257 0.5825 0 1
4.3475 1.4135 -1.5360 0.5786 0 1
4.3197 1.5990 -1.5476 0.5743 0 1
4.2877 1.7860 -1.5606 0.5695 0 1
4.2514 1.9749 -1.5750 0.5643 0 1
4.2107 2.1657 -1.5909 0.5583 0 1
4.1656 2.3587 -1.6084 0.5522 0 1
4.1158 2.5540 -1.6274 0.5457 0 1
4.0610 2.7518 -1.6482 0.5389 0 1
4.0013 2.9526 -1.6708 0.5316 0 1
3.9364 3.1566 -1.6953 0.5239 0 1
3.8658 3.3637 -1.7217 0.5159 0 1
3.7892 3.5744 -1.7502 0.5075 0 1
3.7063 3.7888 -1.7808 0.4988 0 1
3.6166 4.0072 -1.8136 0.4898 0 1
3.5199 4.2298 -1.8489 0.4804 0 1
3.4136 4.4545 -1.8855 0.4846 0 1
3.2987 4.6827 -1.9245 0.4727 0 1
3.1750 4.9151 -1.9660 0.4593 0 1
3.0420 5.1521 -2.0102 0.4492 0 1
2.8994 5.3943 -2.0576 0.4389 0 1
2.7466 5.6422 -2.1084 0.4283 0 1
2.5827 5.8962 -2.1627 0.4175 0 1
2.4068 6.1562 -2.2208 0.4070 0 1
2.2181 6.4230 -2.2831 0.3959 0 1
2.0147 6.6941 -2.3488 0.4075 0 1
1.7934 6.9603 -2.4149 0.3964 0 1
1.5568 7.2332 -2.4859 0.3850 0 1
1.3094 7.5451 -2.5729 0.3520 0 1
1.0425 7.8723 -2.6680 0.3394 0 1
0.7523 8.1999 -2.7666 0.3267 0 1
0.4383 8.5335 -2.8709 0.3174 0 1
0.0989 8.8745 -2.9819 0.3056 0 1
-0.2676 9.2169 -3.0980 0.3126 0 1
-0.6627 9.5618 -3.2203 0.3008 0 1
-1.0924 9.9485 -3.3626 0.2741 0 1
-1.5577 10.3393 -3.5130 0.2659 0 1
-2.0566 10.7107 -3.6643 0.2517 0 24
-2.6058 11.1350 -3.8422 0.2376 0 24
-3.2192 11.6297 -4.0543 0.2220 0 1
-3.8697 12.0713 -4.2590 0.2101 0 24
-4.5963 12.5763 -4.4988 0.1986 0 24
-5.4180 13.1597 -4.7815 0.1871 0 1
-6.2962 13.7020 -5.0664 0.1799 0 1
-7.2582 14.2569 -5.3751 0.1707 0 1
-8.3164 14.8304 -5.7127 0.1615 0 1
-9.5074 15.4638 -6.0990 0.1450 0 1
-10.8770 16.1955 -6.5547 0.1253 0 1
-12.4749 17.0527 -7.0988 0.1136 0 1
-14.3344 18.0280 -7.7384 0.1057 0 1
-16.5661 19.1985 -8.5198 0.1167 0 2
-17.9560 19.1935 -8.8307 0.0961 0 2
-20.5675 20.2868 -9.7062 0.0875 0 2
-23.6133 21.4899 -10.7273 0.0791 0 25
-22.4029 18.8003 -9.8262 0.7726 0 5
-22.5193 17.4058 -9.5627 0.8424 0 5
-27.7364 19.7111 -11.4324 0.8301 0 3
-27.8176 18.1329 -11.1565 0.8507 0 3
-29.8202 17.7740 -11.6637 0.4324 0 3
-30.4395 16.5239 -11.6368 0.3686 0 3
-36.3580 17.8851 -13.6136 0.9049 0 3
-30.9302 13.7010 -11.3659 0.3281 0 5
-42.3287 16.7507 -15.2948 0.9744 0 3
-38.1566 -25.3980 -15.4002 0.7102 0 9
-34.8997 -25.3099 -14.4846 0.4367 0 9
-30.3580 -23.9340 -12.9884 0.0654 0 2
-26.2827 -22.4901 -11.6222 0.0730 0 2
-22.8403 -21.1912 -10.4681 0.0811 0 2
-19.9066 -20.0159 -9.4846 0.0895 0 2
-18.1754 -19.8061 -9.0318 0.0670 0 1
-15.4286 -18.2314 -8.0245 0.0899 0 1
-13.3961 -17.1843 -7.3207 0.1180 0 1
-11.7478 -16.3869 -6.7744 0.1275 0 1
-10.2828 -15.6332 -6.2869 0.1372 0 1
-8.9868 -14.9368 -5.8568 0.1479 0 1
-7.8385 -14.2985 -5.4785 0.1633 0 1
-6.8038 -13.6880 -5.1357 0.1724 0 1
-5.8853 -13.1390 -4.8371 0.1892 0 1
-5.0547 -12.6205 -4.5677 0.2017 0 1
-4.3020 -12.1313 -4.3246 0.2123 0 1
-3.6018 -11.6186 -4.0869 0.2238 0 24
-2.9896 -11.2183 -3.9007 0.2351 0 1
-2.4165 -10.7925 -3.7159 0.2412 0 1
-1.8888 -10.3739 -3.5428 0.2530 0 1
-1.4051 -9.9762 -3.3849 0.2691 0 1
-0.9563 -9.5539 -3.2260 0.2758 0 24
-0.5499 -9.2175 -3.1024 0.2893 0 1
-0.1720 -8.8600 -2.9774 0.3014 0 1
0.1768 -8.5164 -2.8620 0.3135 0 1
0.4993 -8.1857 -2.7553 0.3257 0 1
0.7981 -7.8674 -2.6569 0.3428 0 1
1.0719 -7.5376 -2.5580 0.3549 0 24
1.3333 -7.2679 -2.4827 0.3669 0 1
1.5729 -6.9809 -2.4043 0.3788 0 1
1.7903 -6.6820 -2.3242 0.3902 0 24
1.9970 -6.4116 -2.2562 0.3997 0 24
2.1968 -6.1686 -2.2000 0.4129 0 1
2.3771 -5.9121 -2.1409 0.4243 0 1
2.5454 -5.6624 -2.0858 0.4353 0 1
2.7025 -5.4188 -2.0345 0.4463 0 1
2.8493 -5.1810 -1.9866 0.4570 0 1
2.9772 -4.9334 -1.9360 0.4524 0 1
3.0953 -4.6922 -1.8886 0.4638 0 1
3.2046 -4.4575 -1.8445 0.4749 0 1
3.3058 -4.2290 -1.8035 0.4857 0 1
3.4001 -4.0069 -1.7656 0.4888 0 1
3.4924 -3.7955 -1.7329 0.5183 0 1
3.5821 -3.5921 -1.7044 0.5269 0 1
3.6657 -3.3919 -1.6780 0.5352 0 1
3.7435 -3.1946 -1.6535 0.5432 0 1
3.8158 -3.0001 -1.6308 0.5507 0 1
3.8829 -2.8081 -1.6100 0.5578 0 1
3.9451 -2.6183 -1.5908 0.5645 0 1
4.0034 -2.4313 -1.5737 0.5708 0 1
4.0571 -2.2460 -1.5581 0.5765 0 1
4.1066 -2.0624 -1.5440 0.5818 0 1
4.1517 -1.8803 -1.5313 0.5867 0 1
4.1928 -1.6994 -1.5200 0.5910 0 1
4.2298 -1.5197 -1.5101 0.5949 0 1
4.2633 -1.3410 -1.5016 0.6014 0 1
4.2935 -1.1632 -1.4945 0.6043 0 1
4.3200 -0.9860 -1.4888 0.6066 0 1
4.3428 -0.8093 -1.4842 0.6085 0 1
4.3621 -0.6328 -1.4809 0.6098 0 1
4.3778 -0.4565 -1.4788 0.6107 0 1
4.3900 -0.2801 -1.4780 0.6110 0 1
4.3989 -0.1036 -1.4784 0.6102 0 1
4.4077 0.0733 -1.4811 0.6091 0 1
4.4130 0.2509 -1.4851 0.6075 0 1
4.4148 0.4294 -1.4903 0.6053 0 1
4.4130 0.6090 -1.4967 0.6027 0 1
4.4076 0.7898 -1.5045 0.5996 0 1
4.3983 0.9719 -1.5134 0.5873 0 1
4.3800 1.1541 -1.5218 0.5840 0 1
4.3578 1.3376 -1.5316 0.5803 0 1
4.3316 1.5224 -1.5426 0.5761 0 1
4.3013 1.7088 -1.5550 0.5715 0 1
4.2668 1.8969 -1.5689 0.5665 0 1
4.2280 2.0868 -1.5841 0.5610 0 1
4.1848 2.2789 -1.6010 0.5548 0 1
4.1369 2.4733 -1.6194 0.5485 0 1
4.0842 2.6701 -1.6394 0.5417 0 1
4.0264 2.8695 -1.6612 0.5347 0 1
3.9638 3.0722 -1.6849 0.5272 0 1
3.8956 3.2780 -1.7106 0.5193 0 1
3.8215 3.4872 -1.7382 0.5110 0 1
3.7412 3.7000 -1.7679 0.5024 0 1
3.6544 3.9167 -1.7998 0.4935 0 1
3.5606 4.1376 -1.8340 0.4843 0 1
3.4595 4.3629 -1.8707 0.4884 0 1
3.3469 4.5879 -1.9080 0.4767 0 1
3.2272 4.8190 -1.9486 0.4634 0 1
3.0979 5.0539 -1.9916 0.4534 0 1
2.9594 5.2939 -2.0377 0.4432 0 1
2.8108 5.5394 -2.0870 0.4327 0 1
2.6516 5.7908 -2.1399 0.4220 0 1
2.4807 6.0484 -2.1964 0.4115 0 1
2.2974 6.3123 -2.2569 0.4005 0 1
2.1007 6.5833 -2.3218 0.3893 0 1
1.8863 6.8499 -2.3871 0.4010 0 1
1.6561 7.1200 -2.4560 0.3897 0 1
1.4133 7.4141 -2.5359 0.3571 0 1
1.1549 7.7360 -2.6280 0.3446 0 1
0.8747 8.0657 -2.7258 0.3316 0 1
0.5705 8.3949 -2.8270 0.3197 0 1
0.2418 8.7326 -2.9351 0.3104 0 1
-0.1133 9.0783 -3.0504 0.3175 0 1
-0.4964 9.4183 -3.1688 0.3057 0 1
-0.9109 9.7846 -3.3017 0.2791 0 1
-1.3620 10.1806 -3.4510 0.2707 0 1
-1.8490 10.5704 -3.6054 0.2591 0 1
-2.3811 10.9915 -3.7786 0.2404 0 1
-2.9529 11.3976 -3.9558 0.2289 0 24
-3.5894 11.8688 -4.1661 0.2149 0 24
-4.3046 12.4113 -4.4137 0.2027 0 1
-5.0772 12.9356 -4.6689 0.1916 0 1
-5.9263 13.4804 -4.9475 0.1843 0 1
-6.8509 14.0258 -5.2445 0.1749 0 1
-7.8376 14.5349 -5.5482 0.1654 0 24
-8.9949 15.1876 -5.9306 0.1491 0 1
-10.2820 15.8706 -6.3535 0.1391 0 1
-11.7915 16.6910 -6.8661 0.1196 0 1
-13.5371 17.6157 -7.4643 0.1080 0 1
-15.4579 18.5249 -8.1063 0.1143 0 1
-16.9879 18.7717 -8.5062 0.0998 0 2
-19.4446 19.8242 -9.3297 0.0910 0 2
-17.4392 16.4065 -8.0446 0.9605 0 6
-22.3805 19.4213 -9.9559 0.7668 0 5
-22.4611 17.9620 -9.6628 0.8235 0 5
-24.9696 18.3738 -10.4159 0.3950 0 21
-27.7853 18.7738 -11.2666 0.8424 0 3
-28.7344 17.7774 -11.3525 0.5045 0 3
-31.2798 17.6559 -12.0681 0.3057 0 3
-32.8016 16.8151 -12.3845 0.9904 0 3
-29.5912 13.6978 -10.9556 0.5264 0 5
-32.9707 13.6824 -11.9936 0.2880 0 5
-26.3451 8.5268 -9.3036 0.9820 0 6
-24.7891 -17.3592 -10.1678 0.8411 0 20
0.3021 -8.0961 -2.8223 0.3284 0 1
0.6049 -7.7927 -2.7229 0.3455 0 1
0.8835 -7.4761 -2.6225 0.3576 0 24
1.1487 -7.2183 -2.5462 0.3694 0 1
1.3925 -6.9413 -2.4663 0.3815 0 1
1.6197 -6.6722 -2.3919 0.3933 0 1
1.8258 -6.3899 -2.3151 0.4041 0 24
2.0221 -6.1328 -2.2496 0.4131 0 24
2.2137 -5.9052 -2.1969 0.4271 0 1
2.3861 -5.6620 -2.1404 0.4382 0 1
2.5471 -5.4244 -2.0876 0.4492 0 1
2.6977 -5.1923 -2.0384 0.4601 0 1
2.8333 -4.9561 -1.9887 0.4549 0 1
2.9557 -4.7194 -1.9399 0.4664 0 1
3.0691 -4.4891 -1.8944 0.4776 0 1
3.1742 -4.2646 -1.8520 0.4885 0 1
3.2717 -4.0456 -1.8125 0.4992 0 1
3.3640 -3.8340 -1.7768 0.5302 0 1
3.4566 -3.6341 -1.7472 0.5309 0 1
3.5431 -3.4374 -1.7197 0.5394 0 1
3.6237 -3.2435 -1.6942 0.5475 0 1
3.6988 -3.0522 -1.6706 0.5553 0 1
3.7686 -2.8634 -1.6488 0.5626 0 1
3.8333 -2.6767 -1.6287 0.5696 0 1
3.8934 -2.4923 -1.6104 0.5761 0 1
3.9496 -2.3100 -1.5939 0.5821 0 1
4.0013 -2.1294 -1.5790 0.5877 0 1
4.0487 -1.9502 -1.5655 0.5927 0 1
4.0919 -1.7723 -1.5534 0.5973 0 1
4.1311 -1.5954 -1.5427 0.6015 0 1
4.1668 -1.4197 -1.5335 0.6083 0 1
4.1989 -1.2448 -1.5257 0.6114 0 1
4.2274 -1.0706 -1.5192 0.6140 0 1
4.2522 -0.8968 -1.5139 0.6162 0 1
4.2734 -0.7234 -1.5099 0.6178 0 1
4.2910 -0.5502 -1.5070 0.6190 0 1
4.3051 -0.3770 -1.5055 0.6196 0 1
4.3157 -0.2038 -1.5051 0.6198 0 1
4.3243 -0.0303 -1.5065 0.6186 0 1
4.3314 0.1437 -1.5097 0.6172 0 1
4.3349 0.3185 -1.5142 0.6154 0 1
4.3349 0.4941 -1.5199 0.6131 0 1
4.3314 0.6709 -1.5269 0.6103 0 1
4.3242 0.8489 -1.5351 0.6070 0 1
4.3092 1.0272 -1.5432 0.5949 0 1
4.2892 1.2064 -1.5522 0.5914 0 1
4.2653 1.3868 -1.5624 0.5875 0 1
4.2374 1.5685 -1.5740 0.5832 0 1
4.2053 1.7517 -1.5870 0.5785 0 1
4.1690 1.9366 -1.6013 0.5733 0 1
4.1282 2.1232 -1.6172 0.5677 0 1
4.0832 2.3120 -1.6346 0.5612 0 1
4.0334 2.5028 -1.6536 0.5548 0 1
3.9787 2.6960 -1.6742 0.5479 0 1
3.9191 2.8920 -1.6967 0.5407 0 1
3.8544 3.0908 -1.7211 0.5331 0 1
3.7840 3.2926 -1.7474 0.5251 0 1
3.7078 3.4976 -1.7756 0.5167 0 1
3.6252 3.7059 -1.8060 0.5080 0 1
3.5361 3.9180 -1.8386 0.4990 0 1
3.4401 4.1339 -1.8735 0.4897 0 1
3.3366 4.3539 -1.9109 0.4801 0 1
3.2225 4.5744 -1.9492 0.4785 0 1
3.0997 4.7986 -1.9901 0.4687 0 1
2.9683 5.0272 -2.0338 0.4586 0 1
2.8276 5.2606 -2.0805 0.4483 0 1
2.6768 5.4990 -2.1305 0.4378 0 1
2.5155 5.7427 -2.1840 0.4271 0 1
2.3426 5.9919 -2.2412 0.4165 0 1
2.1573 6.2469 -2.3023 0.4055 0 1
1.9588 6.5083 -2.3677 0.3943 0 1
1.7443 6.7698 -2.4354 0.4060 0 1
1.5130 7.0296 -2.5049 0.3947 0 1
1.2695 7.3152 -2.5864 0.3617 0 1
1.0096 7.6238 -2.6790 0.3492 0 1
0.7275 7.9294 -2.7739 0.3366 0 1
0.4233 8.2421 -2.8750 0.3247 0 1
0.0954 8.5620 -2.9828 0.3155 0 1
-0.2581 8.8906 -3.0984 0.3037 0 1
-0.6390 9.2200 -3.2196 0.3107 0 1
-1.0499 9.5612 -3.3508 0.2841 0 1
-1.4949 9.9225 -3.4956 0.2760 0 1
-1.9747 10.2837 -3.6479 0.2645 0 1
-2.4965 10.6683 -3.8168 0.2458 0 1
-3.0553 11.0373 -3.9896 0.2343 0 24
-3.6748 11.4633 -4.1936 0.2209 0 24
-4.3678 11.9511 -4.4326 0.2085 0 1
-5.1132 12.4195 -4.6788 0.1975 0 1
-5.9123 12.8666 -4.9328 0.1857 0 24
-6.8102 13.3768 -5.2291 0.1800 0 1
-7.7783 13.8708 -5.5399 0.1699 0 1
-8.8421 14.3816 -5.8811 0.1620 0 1
-10.0280 14.9314 -6.2657 0.1457 0 1
-11.3828 15.5599 -6.7160 0.1277 0 1
-12.9540 16.2920 -7.2509 0.1151 0 1
-14.7590 17.1042 -7.8700 0.1143 0 1
-16.7169 17.8690 -8.5242 0.7212 0 2
-18.2462 17.9972 -8.9280 0.0982 0 2
-20.7025 18.8409 -9.7514 0.0899 0 2
-23.5178 19.7359 -10.6953 0.0820 0 25
-22.4195 17.3286 -9.8711 0.8037 0 5
-27.6123 19.6229 -11.8006 0.8307 0 3
-27.6962 18.0537 -11.5171 0.8512 0 3
-29.8117 17.7689 -12.0901 0.4894 0 3
-32.3963 17.5861 -12.8412 0.9923 0 3
-32.4614 15.9683 -12.6025 0.9876 0 3
-30.9252 13.6988 -11.7828 0.4029 0 5
-38.6894 -23.5671 -15.7815 0.0556 0 2
-33.7738 -22.4807 -14.1335 0.0620 0 2
-24.1870 -17.5409 -10.4083 0.5531 15 6
-25.9417 -20.4522 -11.5079 0.0762 0 2
-22.8083 -19.5170 -10.4574 0.0838 0 2
-20.0886 -18.6382 -9.5462 0.0973 0 2
-18.3414 -18.4420 -9.0608 0.0666 0 1
-15.7292 -17.1405 -8.1042 0.0914 0 1
-13.8562 -16.3734 -7.4722 0.1210 0 1
-12.2529 -15.7178 -6.9426 0.1285 0 1
-10.8044 -15.0710 -6.4599 0.1381 0 1
-9.5179 -14.4702 -6.0336 0.1531 0 1
-8.3720 -13.9150 -5.6572 0.1633 0 1
-7.3338 -13.3778 -5.3147 0.1721 0 1
-6.4012 -12.8781 -5.0099 0.1887 0 1
-5.5580 -12.4084 -4.7364 0.2002 0 1
-4.7895 -11.9582 -4.4875 0.2113 0 1
-4.0872 -11.5256 -4.2601 0.2211 0 1
-3.4430 -11.1061 -4.0506 0.2325 0 1
-2.8542 -10.7103 -3.8613 0.2454 0 1
-2.3098 -10.3163 -3.6828 0.2514 0 1
-1.8098 -9.9399 -3.5196 0.2673 0 1
-1.3433 -9.5370 -3.3551 0.2744 0 24
-0.9229 -9.2202 -3.2280 0.2872 0 1
-0.5295 -8.8763 -3.0977 0.2992 0 1
-0.1659 -8.5447 -2.9772 0.3113 0 1
0.1707 -8.2247 -2.8658 0.3234 0 1
0.4828 -7.9154 -2.7625 0.3405 0 1
0.7730 -7.6202 -2.6682 0.3526 0 1
1.0430 -7.3338 -2.5805 0.3645 0 1
1.2942 -7.0544 -2.4985 0.3766 0 1
1.5281 -6.7821 -2.4218 0.3885 0 1
1.7462 -6.5174 -2.3505 0.4003 0 1
1.9431 -6.2383 -2.2761 0.4089 0 24
2.1393 -6.0071 -2.2214 0.4224 0 1
2.3165 -5.7614 -2.1632 0.4338 0 1
2.4821 -5.5216 -2.1089 0.4447 0 1
2.6369 -5.2872 -2.0582 0.4557 0 1
2.7802 -5.0554 -2.0099 0.4502 0 1
2.9064 -4.8161 -1.9596 0.4617 0 1
3.0234 -4.5832 -1.9127 0.4730 0 1
3.1319 -4.3564 -1.8691 0.4841 0 1
3.2325 -4.1351 -1.8284 0.4948 0 1
3.3256 -3.9191 -1.7906 0.5053 0 1
3.4192 -3.7159 -1.7591 0.5273 0 1
3.5082 -3.5180 -1.7308 0.5360 0 1
3.5912 -3.3230 -1.7045 0.5443 0 1
3.6686 -3.1307 -1.6801 0.5521 0 1
3.7405 -2.9409 -1.6576 0.5597 0 1
3.8072 -2.7533 -1.6368 0.5668 0 1
3.8691 -2.5679 -1.6177 0.5735 0 1
3.9270 -2.3849 -1.6005 0.5797 0 1
3.9805 -2.2036 -1.5850 0.5855 0 1
4.0297 -2.0238 -1.5709 0.5907 0 1
4.0746 -1.8454 -1.5582 0.5955 0 1
4.1155 -1.6681 -1.5470 0.5998 0 1
4.1524 -1.4919 -1.5371 0.6069 0 1
4.1862 -1.3167 -1.5287 0.6102 0 1
4.2161 -1.1423 -1.5217 0.6130 0 1
4.2424 -0.9683 -1.5159 0.6154 0 1
4.2651 -0.7948 -1.5114 0.6172 0 1
4.2841 -0.6215 -1.5081 0.6186 0 1
4.2997 -0.4483 -1.5060 0.6194 0 1
4.3117 -0.2751 -1.5051 0.6198 0 1
4.3204 -0.1018 -1.5055 0.6190 0 1
4.3289 0.0719 -1.5082 0.6178 0 1
4.3339 0.2464 -1.5122 0.6162 0 1
4.3353 0.4217 -1.5174 0.6141 0 1
4.3333 0.5980 -1.5238 0.6115 0 1
4.3276 0.7754 -1.5316 0.6084 0 1
4.3163 0.9538 -1.5399 0.5961 0 1
4.2979 1.1325 -1.5483 0.5929 0 1
4.2756 1.3124 -1.5580 0.5892 0 1
4.2494 1.4935 -1.5691 0.5851 0 1
4.2190 1.6761 -1.5815 0.5805 0 1
4.1844 1.8603 -1.5953 0.5755 0 1
4.1455 2.0462 -1.6105 0.5700 0 1
4.1023 2.2340 -1.6272 0.5638 0 1
4.0545 2.4240 -1.6456 0.5575 0 1
4.0018 2.6162 -1.6655 0.5508 0 1
3.9442 2.8109 -1.6872 0.5438 0 1
3.8817 3.0086 -1.7108 0.5363 0 1
3.8137 3.2091 -1.7363 0.5284 0 1
3.7399 3.4128 -1.7637 0.5202 0 1
3.6600 3.6197 -1.7932 0.5116 0 1
3.5737 3.8302 -1.8249 0.5028 0 1
3.4805 4.0445 -1.8588 0.4936 0 1
3.3801 4.2628 -1.8952 0.4841 0 1
3.2705 4.4833 -1.9332 0.4860 0 1
3.1513 4.7058 -1.9729 0.4728 0 1
3.0235 4.9325 -2.0154 0.4628 0 1
2.8867 5.1639 -2.0609 0.4526 0 1
2.7402 5.4002 -2.1095 0.4422 0 1
2.5833 5.6417 -2.1616 0.4315 0 1
2.4152 5.8887 -2.2172 0.4210 0 1
2.2351 6.1412 -2.2766 0.4101 0 1
2.0422 6.3999 -2.3402 0.3989 0 1
1.8352 6.6646 -2.4081 0.4106 0 1
1.6101 6.9219 -2.4757 0.3993 0 1
1.3709 7.1913 -2.5503 0.3668 0 1
1.1190 7.4953 -2.6400 0.3543 0 1
0.8463 7.8035 -2.7344 0.3414 0 1
0.5513 8.1121 -2.8325 0.3296 0 1
0.2334 8.4297 -2.9377 0.3204 0 1
-0.1093 8.7540 -3.0498 0.3086 0 1
-0.4789 9.0869 -3.1699 0.3156 0 1
-0.8763 9.4130 -3.2933 0.3038 0 1
-1.3081 9.7772 -3.4363 0.2808 0 1
-1.7726 10.1336 -3.5837 0.2692 0 1
-2.2756 10.5044 -3.7442 0.2506 0 1
-2.8161 10.8694 -3.9115 0.2399 0 24
-3.4253 11.3261 -4.1221 0.2276 0 1
-4.0802 11.7641 -4.3376 0.2130 0 1
-4.7806 12.1800 -4.5582 0.2025 0 24
-5.5661 12.6610 -4.8180 0.1906 0 24
-6.4370 13.1785 -5.1093 0.1842 0 1
-7.3687 13.6653 -5.4084 0.1741 0 1
-8.3916 14.1689 -5.7366 0.1661 0 1
-9.5188 14.6925 -6.0986 0.1497 0 1
-10.7987 15.2857 -6.5197 0.1391 0 1
-12.2772 15.9761 -7.0190 0.1208 0 1
-13.9957 16.7727 -7.6099 0.1097 0 1
-15.8625 17.5280 -8.2353 0.1092 0 1
-17.3259 17.6642 -8.6194 0.1017 0 2
-17.3877 16.3580 -8.3164 0.5011 0 6
-22.3110 19.3610 -10.2907 0.0852 0 2
-22.3818 17.8986 -9.9835 0.8157 0 5
-24.8056 18.2532 -10.7287 0.6459 0 21
-27.6628 18.6911 -11.6302 0.8429 0 3
-28.7330 17.7765 -11.7702 0.5027 0 3
-31.4595 17.7574 -12.5846 0.4701 0 3
-34.5967 17.7353 -13.5435 0.4368 0 3
-29.6352 13.7181 -11.3762 0.4689 0 5
-32.9676 13.6811 -12.4343 0.3966 0 5
-26.2530 8.4970 -9.6126 0.9495 0 6
-34.3530 -4.4515 -12.0673 0.9616 0 20
-26.0116 -4.4392 -9.1924 0.1522 0 20
-35.7045 -22.9228 -14.7808 0.0593 0 2
-24.6797 -17.2826 -10.4959 0.8416 0 20
0.2922 -7.8313 -2.8278 0.3432 0 1
0.5841 -7.5248 -2.7234 0.3556 0 24
0.8597 -7.2741 -2.6430 0.3671 0 1
1.1150 -7.0066 -2.5600 0.3790 0 1
1.3529 -6.7442 -2.4820 0.3911 0 1
1.5751 -6.4883 -2.4092 0.4029 0 1
1.7767 -6.2181 -2.3335 0.4129 0 24
1.9690 -5.9718 -2.2690 0.4221 0 24
2.1574 -5.7551 -2.2178 0.4366 0 1
2.3269 -5.5215 -2.1621 0.4475 0 1
2.4855 -5.2931 -2.1100 0.4586 0 1
2.6339 -5.0695 -2.0614 0.4694 0 1
2.7660 -4.8383 -2.0110 0.4642 0 1
2.8871 -4.6100 -1.9628 0.4756 0 1
2.9996 -4.3874 -1.9178 0.4868 0 1
3.1039 -4.1701 -1.8758 0.4977 0 1
3.2007 -3.9578 -1.8367 0.5083 0 1
3.2952 -3.7556 -1.8028 0.5391 0 1
3.3856 -3.5594 -1.7726 0.5400 0 1
3.4714 -3.3679 -1.7452 0.5484 0 1
3.5515 -3.1789 -1.7199 0.5565 0 1
3.6261 -2.9922 -1.6964 0.5642 0 1
3.6954 -2.8078 -1.6747 0.5715 0 1
3.7598 -2.6254 -1.6547 0.5784 0 1
3.8196 -2.4450 -1.6364 0.5850 0 1
3.8754 -2.2667 -1.6200 0.5909 0 1
3.9268 -2.0898 -1.6051 0.5965 0 1
3.9740 -1.9142 -1.5916 0.6015 0 1
4.0170 -1.7398 -1.5796 0.6061 0 1
4.0561 -1.5664 -1.5689 0.6134 0 1
4.0919 -1.3942 -1.5598 0.6170 0 1
4.1239 -1.2226 -1.5521 0.6201 0 1
4.1521 -1.0515 -1.5455 0.6227 0 1
4.1767 -0.8809 -1.5403 0.6248 0 1
4.1977 -0.7106 -1.5362 0.6265 0 1
4.2152 -0.5405 -1.5334 0.6276 0 1
4.2291 -0.3704 -1.5318 0.6283 0 1
4.2395 -0.2002 -1.5315 0.6284 0 1
4.2479 -0.0298 -1.5328 0.6272 0 1
4.2546 0.1411 -1.5361 0.6259 0 1
4.2579 0.3128 -1.5405 0.6241 0 1
4.2576 0.4853 -1.5462 0.6218 0 1
4.2538 0.6589 -1.5532 0.6190 0 1
4.2458 0.8335 -1.5613 0.6066 0 1
4.2296 1.0082 -1.5689 0.6037 0 1
4.2095 1.1840 -1.5779 0.6003 0 1
4.1855 1.3609 -1.5881 0.5964 0 1
4.1575 1.5390 -1.5997 0.5921 0 1
4.1254 1.7185 -1.6126 0.5873 0 1
4.0891 1.8995 -1.6269 0.5822 0 1
4.0484 2.0822 -1.6427 0.5766 0 1
4.0033 2.2667 -1.6600 0.5702 0 1
3.9536 2.4533 -1.6789 0.5638 0 1
3.8990 2.6420 -1.6995 0.5570 0 1
3.8396 2.8333 -1.7218 0.5498 0 1
3.7751 3.0272 -1.7461 0.5421 0 1
