ply
format ascii 1.0
element vertex 1372
property float32 x
property float32 y
property float32 z
property float32 CosAngle
property uint32 ObjIdx
property uint32 ObjTag
end_header
3.6894 6.5332 -1.8002 0.3702 0 1
3.5123 6.8482 -1.8466 0.3991 0 1
3.3314 7.1928 -1.9019 0.3776 0 1
3.1363 7.5532 -1.9623 0.3660 0 1
2.9202 7.9163 -2.0245 0.3463 0 1
2.6867 8.2950 -2.0920 0.3352 0 1
2.4447 8.7293 -2.1750 0.3050 0 1
2.1769 9.1772 -2.2630 0.3163 0 1
1.8815 9.6412 -2.3569 0.3037 0 1
1.5587 10.1374 -2.4609 0.2886 0 1
1.2044 10.6709 -2.5766 0.2757 0 1
0.8110 11.2097 -2.6966 0.2661 0 24
0.3803 11.8586 -2.8467 0.2351 0 1
-0.1013 12.4878 -2.9963 0.2334 0 24
-0.6415 13.2776 -3.1894 0.2099 0 1
-1.2496 14.0921 -3.3944 0.1865 0 1
-1.9433 15.0261 -3.6353 0.1742 0 1
-2.7254 15.9941 -3.8928 0.1638 0 24
-3.6432 17.1813 -4.2140 0.1562 0 1
-4.6808 18.3993 -4.5552 0.1468 0 1
-5.8880 19.7829 -4.9523 0.1347 0 1
-7.2878 21.3150 -5.4048 0.1248 0 1
-8.9768 23.1706 -5.9620 0.1109 0 1
-11.0597 25.4612 -6.6604 0.1001 0 1
-13.6196 28.1982 -7.5135 0.0896 0 1
-16.7650 31.4220 -8.5451 0.5101 0 2
-15.7120 26.7985 -7.4535 0.5617 0 15
-16.7029 26.0327 -7.4212 0.8201 0 15
-27.8122 39.7404 -11.6381 0.5974 0 3
-27.9779 36.7428 -11.0806 0.6275 0 3
-27.2313 32.9298 -10.2525 0.7911 0 3
-22.9352 25.5703 -8.2415 0.6489 0 5
-23.0801 23.7405 -7.9443 0.7104 0 5
-23.1407 21.9648 -7.6551 0.5947 0 5
-31.5885 27.6588 -10.0738 0.6457 0 3
-28.6359 23.1094 -8.8289 0.7875 0 3
-30.5191 22.6675 -9.1213 0.5853 0 3
-28.7673 19.6245 -8.3553 0.8321 0 3
-28.8231 18.0104 -8.1547 0.8526 0 3
-31.1527 17.7678 -8.6048 0.4876 0 3
-33.9090 17.5743 -9.1636 0.6183 0 3
-34.0012 15.9238 -9.0083 0.8774 0 3
-42.1025 17.6929 -10.9575 0.3829 0 3
-27.2413 8.9517 -6.8799 0.8846 0 22
-27.2246 7.7498 -6.7916 0.9252 0 22
-30.8635 -16.2984 -8.3743 0.9199 0 22
-30.7546 -17.8559 -8.5325 0.9023 0 22
-32.0243 -33.4521 -11.1112 0.9629 0 20
-30.1527 -34.1422 -10.9291 0.9172 0 20
-28.1150 -37.5186 -11.2490 0.6317 0 20
-23.3492 -37.0153 -10.5005 0.6177 0 9
-19.3252 -33.5504 -9.2897 0.0669 0 2
-16.3102 -31.1445 -8.4353 0.0864 0 2
2.0537 -8.5962 -2.2244 0.3107 0 1
2.3074 -8.1881 -2.1411 0.3228 0 1
2.5403 -7.8002 -2.0647 0.3347 0 1
2.7558 -7.4337 -1.9954 0.3498 0 1
2.9542 -7.0824 -1.9314 0.3605 0 1
3.1371 -6.7449 -1.8722 0.3719 0 1
3.3061 -6.4207 -1.8176 0.3830 0 1
3.4631 -6.1094 -1.7675 0.3905 0 1
3.6097 -5.8111 -1.7218 0.4008 0 1
3.7359 -5.5078 -1.6750 0.4050 0 1
3.8514 -5.2142 -1.6315 0.4054 0 1
3.9555 -4.9281 -1.5904 0.4158 0 1
4.0512 -4.6516 -1.5525 0.4260 0 1
4.1391 -4.3838 -1.5174 0.4359 0 1
4.2196 -4.1240 -1.4850 0.4454 0 1
4.2943 -3.8723 -1.4553 0.4729 0 1
4.3726 -3.6354 -1.4312 0.4809 0 1
4.4450 -3.4033 -1.4090 0.4885 0 1
4.5119 -3.1755 -1.3886 0.4956 0 1
4.5745 -2.9522 -1.3703 0.5023 0 1
4.6326 -2.7326 -1.3537 0.5085 0 1
4.6860 -2.5161 -1.3387 0.5142 0 1
4.7349 -2.3024 -1.3251 0.5195 0 1
4.7796 -2.0912 -1.3131 0.5243 0 1
4.8202 -1.8821 -1.3024 0.5286 0 1
4.8568 -1.6750 -1.2930 0.5324 0 1
4.8895 -1.4694 -1.2850 0.5358 0 1
4.1184 -1.0593 -1.0703 0.8994 25 14
3.8665 -0.8306 -0.9953 0.6732 25 14
3.8295 -0.6630 -0.9782 0.8971 25 14
3.8202 -0.5043 -0.9698 0.9048 25 14
3.8114 -0.3482 -0.9633 0.9109 25 14
3.8029 -0.1938 -0.9584 0.9156 25 14
3.7968 -0.0408 -0.9556 0.9933 25 14
3.8001 0.1118 -0.9568 0.9921 25 14
3.8055 0.2652 -0.9601 0.9887 25 14
3.8107 0.4199 -0.9649 0.9838 25 14
3.8161 0.5764 -0.9713 0.9034 25 14
3.8229 0.7355 -0.9798 0.8955 25 14
4.1031 0.9618 -1.0607 0.9076 25 14
5.0233 1.3925 -1.3120 0.5270 0 1
5.0068 1.6070 -1.3234 0.5146 0 1
4.9808 1.8224 -1.3348 0.5102 0 1
4.9506 2.0403 -1.3477 0.5054 0 1
4.9164 2.2612 -1.3620 0.4997 0 1
4.8777 2.4854 -1.3778 0.4940 0 1
4.8344 2.7132 -1.3953 0.4878 0 1
4.7861 2.9449 -1.4143 0.4812 0 1
4.7327 3.1809 -1.4352 0.4743 0 1
4.6738 3.4216 -1.4579 0.4669 0 1
4.6099 3.6679 -1.4827 0.4591 0 1
4.5399 3.9200 -1.5096 0.4509 0 1
4.4634 4.1784 -1.5388 0.4424 0 1
4.3767 4.4401 -1.5691 0.4462 0 1
4.2788 4.7046 -1.6006 0.4375 0 1
4.1731 4.9760 -1.6345 0.4284 0 1
4.0603 5.2565 -1.6717 0.4170 0 1
3.9405 5.5485 -1.7128 0.4070 0 1
3.8108 5.8501 -1.7572 0.3967 0 1
3.6705 6.1624 -1.8052 0.3862 0 1
3.5185 6.4863 -1.8572 0.3754 0 1
3.3433 6.8016 -1.9075 0.3939 0 1
3.1592 7.1375 -1.9645 0.3734 0 1
2.9557 7.4753 -2.0231 0.3626 0 1
2.7364 7.8262 -2.0867 0.3515 0 1
2.4998 8.1914 -2.1555 0.3403 0 1
2.2554 8.6161 -2.2416 0.3096 0 1
1.9860 9.0572 -2.3337 0.3208 0 1
1.6870 9.5035 -2.4293 0.3082 0 1
1.3609 9.9803 -2.5351 0.2931 0 1
1.0034 10.4909 -2.6524 0.2801 0 1
0.6080 11.0063 -2.7743 0.2675 0 1
0.1740 11.5862 -2.9164 0.2548 0 24
-0.3078 12.2345 -3.0802 0.2273 0 1
-0.8419 12.8707 -3.2463 0.2231 0 24
-1.4483 13.6791 -3.4621 0.2031 0 1
-2.1304 14.5231 -3.6943 0.1793 0 1
-2.9078 15.4679 -3.9612 0.1695 0 1
-3.7932 16.4981 -4.2606 0.1616 0 1
-4.7989 17.6028 -4.5920 0.1510 0 1
-5.9568 18.8340 -4.9716 0.1404 0 1
-7.2922 20.1969 -5.4044 0.1292 0 1
-8.8874 21.8281 -5.9317 0.1136 0 1
-10.8398 23.8350 -6.5901 0.1033 0 1
-13.2095 26.1995 -7.3847 0.0967 0 1
-15.9641 28.7311 -8.2724 0.0909 0 1
-15.8873 26.0688 -7.6835 0.8736 0 15
-17.3843 26.1051 -7.8937 0.7239 0 15
-27.4958 37.8969 -11.7840 0.2583 0 3
-27.8836 35.3526 -11.3322 0.6419 0 3
-28.0277 32.7405 -10.8472 0.6705 0 3
-22.8613 24.6303 -8.4578 0.6857 0 5
-22.9831 22.8486 -8.1566 0.7195 0 5
-23.0694 21.1617 -7.8790 0.7389 0 5
-26.7848 22.6581 -8.8298 0.0944 0 3
-28.5346 22.2356 -9.1047 0.7988 0 3
-31.6195 22.6590 -9.7905 0.5704 0 3
-28.6680 18.8490 -8.6351 0.8423 0 3
-29.5602 17.7778 -8.6817 0.5056 0 3
-32.4071 17.7584 -9.3006 0.4720 0 3
-35.6967 17.7358 -10.0321 0.4376 0 3
-39.5547 17.7093 -10.9075 0.4024 0 3
-44.1521 17.6752 -11.9697 0.3667 0 3
-27.1376 9.6185 -7.2464 0.9203 0 22
-27.1432 7.2289 -7.0696 0.9745 0 22
-30.6106 -18.4768 -8.9989 0.7934 0 22
-33.1284 -33.0408 -11.7759 0.8885 0 20
-31.1954 -33.7182 -11.5612 0.9070 0 20
-28.6367 -33.5613 -11.1038 0.6806 0 20
-23.7278 -30.1835 -9.6630 0.9967 0 20
-27.4415 -37.9506 -11.7870 0.5945 0 9
-23.0728 -34.7685 -10.5022 0.8477 0 9
-18.7822 -30.9310 -9.1077 0.0714 0 2
-15.9050 -28.7338 -8.2658 0.0694 0 1
-12.7502 -25.3902 -7.1508 0.0870 0 1
-10.3911 -22.9465 -6.3398 0.0960 0 24
-8.4649 -20.8869 -5.6722 0.1123 0 24
-6.9235 -19.2728 -5.1541 0.1248 0 1
-5.6187 -17.8651 -4.7135 0.1431 0 1
-4.5225 -16.6948 -4.3532 0.1569 0 1
-3.5771 -15.6739 -4.0463 0.1722 0 1
-2.7517 -14.7685 -3.7809 0.1850 0 1
-2.0240 -13.9545 -3.5489 0.1986 0 1
-1.3794 -13.2319 -3.3483 0.2156 0 1
-0.8012 -12.5594 -3.1674 0.2260 0 1
-0.2804 -11.9099 -2.9984 0.2285 0 1
0.1879 -11.2983 -2.8440 0.2401 0 1
0.6099 -10.7269 -2.7041 0.2525 0 1
0.9916 -10.1939 -2.5777 0.2648 0 1
1.3377 -9.6933 -2.4628 0.2794 0 1
1.6523 -9.2215 -2.3579 0.2918 0 1
1.9326 -8.7465 -2.2545 0.3020 0 24
2.2024 -8.3586 -2.1755 0.3177 0 1
2.4439 -7.9624 -2.0963 0.3297 0 1
2.6665 -7.5871 -2.0240 0.3449 0 1
2.8721 -7.2299 -1.9580 0.3556 0 1
3.0613 -6.8863 -1.8967 0.3671 0 1
3.2360 -6.5567 -1.8402 0.3783 0 1
3.3977 -6.2396 -1.7881 0.3894 0 1
3.5489 -5.9364 -1.7407 0.3965 0 1
3.6841 -5.6357 -1.6946 0.3966 0 1
3.8038 -5.3378 -1.6497 0.4112 0 1
3.9124 -5.0483 -1.6075 0.4114 0 1
4.0116 -4.7678 -1.5682 0.4217 0 1
4.1027 -4.4964 -1.5320 0.4317 0 1
4.1863 -4.2333 -1.4984 0.4414 0 1
4.2629 -3.9778 -1.4674 0.4507 0 1
4.3401 -3.7353 -1.4412 0.4776 0 1
4.4150 -3.5012 -1.4182 0.4853 0 1
4.4842 -3.2716 -1.3970 0.4926 0 1
4.5483 -3.0463 -1.3778 0.4996 0 1
4.6085 -2.8254 -1.3605 0.5059 0 1
4.6639 -2.6076 -1.3448 0.5118 0 1
4.7147 -2.3928 -1.3307 0.5173 0 1
4.7612 -2.1805 -1.3180 0.5223 0 1
4.8035 -1.9706 -1.3067 0.5268 0 1
4.8417 -1.7626 -1.2968 0.5309 0 1
4.8761 -1.5564 -1.2882 0.5344 0 1
4.9066 -1.3516 -1.2809 0.5375 0 1
3.9433 -0.9176 -1.0190 0.0809 25 14
3.8335 -0.7312 -0.9822 0.8933 25 14
3.8241 -0.5713 -0.9731 0.9017 25 14
3.8151 -0.4142 -0.9658 0.9085 25 14
3.8065 -0.2591 -0.9602 0.9138 25 14
3.7991 -0.1056 -0.9565 0.9924 25 14
3.7978 0.0470 -0.9559 0.9931 25 14
3.8032 0.2000 -0.9585 0.9903 25 14
3.8085 0.3541 -0.9627 0.9861 25 14
3.8137 0.5097 -0.9684 0.9803 25 14
3.8200 0.6677 -0.9760 0.8990 25 14
3.8756 0.8391 -0.9980 0.5990 25 14
5.0284 1.3020 -1.3073 0.5288 0 1
5.0154 1.5160 -1.3187 0.5243 0 1
4.9923 1.7307 -1.3298 0.5122 0 1
4.9639 1.9475 -1.3420 0.5075 0 1
4.9314 2.1671 -1.3557 0.5021 0 1
4.8947 2.3899 -1.3709 0.4965 0 1
4.8533 2.6161 -1.3877 0.4905 0 1
4.8072 2.8461 -1.4060 0.4841 0 1
4.7560 3.0802 -1.4261 0.4773 0 1
4.6995 3.3188 -1.4480 0.4701 0 1
4.6377 3.5627 -1.4719 0.4625 0 1
4.5703 3.8123 -1.4979 0.4544 0 1
4.4967 4.0680 -1.5261 0.4460 0 1
4.4160 4.3299 -1.5565 0.4499 0 1
4.3213 4.5916 -1.5869 0.4412 0 1
4.2190 4.8600 -1.6198 0.4323 0 1
4.1085 5.1357 -1.6553 0.4230 0 1
3.9924 5.4235 -1.6950 0.4113 0 1
3.8671 5.7209 -1.7379 0.4011 0 1
3.7314 6.0286 -1.7844 0.3907 0 1
3.5845 6.3474 -1.8347 0.3800 0 1
3.4197 6.6675 -1.8859 0.4088 0 1
3.2390 6.9935 -1.9398 0.3873 0 1
3.0439 7.3305 -1.9977 0.3672 0 1
2.8314 7.6757 -2.0591 0.3562 0 1
2.6024 8.0346 -2.1256 0.3451 0 1
2.3613 8.4315 -2.2037 0.3149 0 1
2.1049 8.8740 -2.2954 0.3024 0 1
1.8171 9.3111 -2.3877 0.3136 0 1
1.5027 9.7732 -2.4887 0.2986 0 1
1.1592 10.2703 -2.6013 0.2857 0 1
0.7806 10.7883 -2.7223 0.2727 0 1
0.3636 11.3376 -2.8550 0.2474 0 1
-0.0968 11.9380 -3.0047 0.2451 0 24
-0.6101 12.6270 -3.1817 0.2201 0 1
-1.1844 13.3559 -3.3747 0.2075 0 1
-1.8295 14.1465 -3.5901 0.1845 0 1
-2.5659 15.0582 -3.8445 0.1747 0 1
-3.3919 15.9964 -4.1155 0.1626 0 24
-4.3555 17.1206 -4.4462 0.1548 0 1
-5.4445 18.2929 -4.8036 0.1456 0 1
-6.7006 19.5974 -5.2127 0.1339 0 1
-8.1627 21.0691 -5.6868 0.1184 0 1
-9.9648 22.9405 -6.2949 0.1099 0 1
-12.1602 25.1766 -7.0369 0.0991 0 1
-14.7622 27.6682 -7.8928 0.0953 0 1
-15.6677 26.7228 -7.7964 0.5547 0 15
-16.7147 26.0512 -7.7902 0.7862 0 15
-27.1066 38.7322 -11.8984 0.0547 0 25
-26.0366 34.1933 -10.8168 0.9290 0 21
-27.9688 33.8216 -11.0459 0.6585 0 3
-22.8421 25.4664 -8.6100 0.6240 0 5
-22.9576 23.6146 -8.2891 0.7094 0 5
-23.0048 21.8359 -7.9829 0.7542 0 5
-27.8366 24.3736 -9.3121 0.4450 0 3
-28.5045 23.0033 -9.2188 0.7890 0 3
-30.5179 22.6666 -9.5677 0.5837 0 3
-33.1999 22.6483 -10.1150 0.5521 0 3
-28.7009 17.9340 -8.5178 0.8539 0 3
-28.5876 16.3048 -8.2830 0.9961 0 3
-34.2400 17.7458 -9.7063 0.4522 0 3
-37.8387 17.7211 -10.5160 0.4174 0 3
-38.1784 16.0439 -10.4229 0.3819 0 3
-27.1177 8.9111 -7.1841 0.9356 0 22
-27.1096 7.7170 -7.0941 0.9447 0 22
-46.6413 9.3085 -11.9704 0.9927 0 22
-46.6366 7.3741 -11.8835 0.9841 0 22
-30.7331 -16.2296 -8.7473 0.7747 0 22
-30.6375 -17.7879 -8.9164 0.9208 0 22
-32.0035 -33.4304 -11.6479 0.9003 0 20
-30.2710 -34.2761 -11.5093 0.5545 0 20
-28.1444 -34.5725 -11.2200 0.6626 0 20
-27.9582 -37.3094 -11.7341 0.6335 0 20
-25.2157 -36.6273 -11.1918 0.8250 0 9
-20.5944 -32.6481 -9.7152 0.0670 0 2
-16.6330 -28.8765 -8.3872 0.0776 0 2
-13.9399 -26.6185 -7.5625 0.0829 0 1
1.9778 -8.2786 -2.2428 0.3237 0 24
2.2324 -7.9219 -2.1687 0.3327 0 1
2.4613 -7.5577 -2.0944 0.3479 0 1
2.6729 -7.2102 -2.0262 0.3596 0 1
2.8680 -6.8756 -1.9630 0.3703 0 1
3.0482 -6.5538 -1.9046 0.3816 0 1
3.2151 -6.2439 -1.8506 0.3928 0 1
3.3699 -5.9450 -1.8007 0.4036 0 1
3.5141 -5.6571 -1.7548 0.3998 0 1
3.6381 -5.3635 -1.7077 0.4043 0 1
3.7511 -5.0785 -1.6637 0.4150 0 1
3.8551 -4.8030 -1.6229 0.4255 0 1
3.9508 -4.5363 -1.5851 0.4356 0 1
4.0387 -4.2775 -1.5501 0.4454 0 1
4.1194 -4.0261 -1.5178 0.4549 0 1
4.1982 -3.7856 -1.4895 0.4824 0 1
4.2762 -3.5553 -1.4654 0.4903 0 1
4.3486 -3.3294 -1.4431 0.4979 0 1
4.4154 -3.1076 -1.4227 0.5050 0 1
4.4778 -2.8898 -1.4043 0.5117 0 1
4.5359 -2.6756 -1.3876 0.5179 0 1
4.5892 -2.4642 -1.3726 0.5235 0 1
4.6381 -2.2554 -1.3590 0.5289 0 1
4.6828 -2.0489 -1.3469 0.5336 0 1
4.7233 -1.8443 -1.3361 0.5379 0 1
4.7599 -1.6415 -1.3267 0.5417 0 1
4.7925 -1.4402 -1.3186 0.5450 0 1
4.1257 -1.0612 -1.1225 0.6832 25 14
3.8878 -0.8351 -1.0478 0.6677 25 14
3.8370 -0.6643 -1.0261 0.8927 25 14
3.8277 -0.5053 -1.0174 0.9004 25 14
3.8188 -0.3488 -1.0104 0.9066 25 14
3.8121 -0.1943 -1.0058 0.8590 25 14
3.8067 -0.0410 -1.0031 0.8613 25 14
3.8070 0.1120 -1.0036 0.8609 25 14
3.8110 0.2656 -1.0066 0.9100 25 14
3.8172 0.4206 -1.0119 0.9053 25 14
3.8237 0.5776 -1.0190 0.8990 25 14
3.8306 0.7370 -1.0279 0.8912 25 14
4.1096 0.9633 -1.1122 0.9035 25 14
4.9222 1.3645 -1.3459 0.5362 0 1
4.9030 1.5737 -1.3569 0.5240 0 1
4.8767 1.7843 -1.3683 0.5196 0 1
4.8462 1.9972 -1.3812 0.5148 0 1
4.8115 2.2130 -1.3955 0.5092 0 1
4.7725 2.4318 -1.4114 0.5035 0 1
4.7288 2.6539 -1.4289 0.4973 0 1
4.6802 2.8797 -1.4480 0.4907 0 1
4.6264 3.1094 -1.4688 0.4838 0 1
4.5673 3.3436 -1.4915 0.4764 0 1
4.5031 3.5829 -1.5163 0.4686 0 1
4.4328 3.8276 -1.5432 0.4605 0 1
4.3562 4.0780 -1.5723 0.4519 0 1
4.2724 4.3344 -1.6037 0.4558 0 1
4.1749 4.5904 -1.6350 0.4471 0 1
4.0697 4.8527 -1.6688 0.4380 0 1
3.9571 5.1230 -1.7057 0.4267 0 1
3.8380 5.4042 -1.7466 0.4167 0 1
3.7092 5.6941 -1.7907 0.4064 0 1
3.5700 5.9937 -1.8383 0.3959 0 1
3.4195 6.3038 -1.8897 0.3851 0 1
3.2543 6.6206 -1.9439 0.4141 0 1
3.0696 6.9353 -1.9984 0.3832 0 1
2.8695 7.2574 -2.0564 0.3724 0 1
2.6542 7.5910 -2.1190 0.3614 0 1
2.4222 7.9374 -2.1867 0.3502 0 1
2.1794 8.3256 -2.2677 0.3195 0 1
1.9189 8.7514 -2.3608 0.3069 0 1
1.6300 9.1819 -2.4573 0.3181 0 1
1.3126 9.6261 -2.5599 0.3030 0 1
0.9662 10.1020 -2.6740 0.2901 0 1
0.5842 10.5759 -2.7910 0.2776 0 1
0.1666 11.0955 -2.9240 0.2522 0 1
-0.2937 11.6775 -3.0780 0.2375 0 1
-0.8025 12.2687 -3.2397 0.2306 0 24
-1.3748 12.9849 -3.4406 0.2134 0 1
-2.0112 13.7104 -3.6514 0.2011 0 1
-2.7325 14.5353 -3.8971 0.1774 0 1
-3.5515 15.4470 -4.1765 0.1679 0 1
-4.4746 16.4130 -4.4827 0.1603 0 1
-5.5253 17.4698 -4.8280 0.1499 0 1
-6.7214 18.6158 -5.2152 0.1382 0 1
-8.1050 19.9063 -5.6634 0.1200 0 1
-9.8034 21.5562 -6.2399 0.1129 0 1
-11.8477 23.4985 -6.9343 0.1024 0 1
-14.2652 25.6735 -7.7391 0.0959 0 1
-16.7761 27.5272 -8.4943 0.5605 0 2
-20.0576 30.1195 -9.5353 0.0712 0 2
-24.7772 34.1499 -11.1175 0.0611 0 25
-27.7263 35.1531 -11.7973 0.6437 0 3
-27.8763 32.5636 -11.2951 0.6723 0 3
-22.7545 24.5152 -8.8135 0.7461 0 5
-22.8535 22.7197 -8.4914 0.6860 0 5
-18.0524 16.5596 -6.4550 0.5751 0 6
-26.6884 22.5765 -9.2111 0.7632 0 3
-28.4051 22.1347 -9.4889 0.8002 0 3
-31.6181 22.6581 -10.2498 0.5688 0 3
-28.5446 18.7678 -9.0016 0.8435 0 3
-29.5588 17.7770 -9.0888 0.5042 0 3
-32.1487 17.6167 -9.6597 0.4320 0 3
-35.6947 17.7348 -10.5025 0.4363 0 3
-37.8619 16.9514 -10.9309 0.6610 0 3
-44.1492 17.6740 -12.5309 0.3656 0 3
-27.0342 9.5818 -7.5577 0.9517 0 22
-27.0650 7.2081 -7.3802 0.9132 0 22
-33.0794 -32.9919 -12.3106 0.8892 0 20
-29.0946 -31.4475 -11.2889 0.7066 0 20
-28.0951 -32.9266 -11.4053 0.6805 0 20
-23.7109 -30.1619 -10.1094 0.4430 0 20
-22.5917 -31.2435 -10.1594 0.8717 0 9
-19.8938 -29.9781 -9.4803 0.0716 0 2
-16.5779 -27.3010 -8.4162 0.5657 0 2
-13.8045 -24.9390 -7.5110 0.0867 0 1
-11.3347 -22.5715 -6.6554 0.1022 0 24
-9.3560 -20.6606 -5.9763 0.1100 0 24
-7.7544 -19.1337 -5.4400 0.1235 0 1
-6.3785 -17.7559 -4.9714 0.1416 0 1
-5.2252 -16.6140 -4.5892 0.1554 0 1
-4.2312 -15.6195 -4.2641 0.1706 0 1
-3.3646 -14.7430 -3.9847 0.1826 0 1
-2.5998 -13.9531 -3.7399 0.1967 0 1
-1.9204 -13.2403 -3.5253 0.2137 0 1
-1.3131 -12.5957 -3.3369 0.2258 0 1
-0.7635 -11.9693 -3.1603 0.2263 0 1
-0.2677 -11.3694 -2.9967 0.2387 0 1
0.1798 -10.8093 -2.8486 0.2502 0 1
0.5848 -10.2845 -2.7143 0.2626 0 1
0.9527 -9.7942 -2.5929 0.2769 0 1
1.2877 -9.3312 -2.4821 0.2894 0 1
1.5931 -8.8912 -2.3801 0.3018 0 1
1.8660 -8.4447 -2.2789 0.3179 0 24
2.1297 -8.0826 -2.2025 0.3276 0 1
2.3663 -7.7097 -2.1250 0.3429 0 1
2.5852 -7.3558 -2.0545 0.3547 0 1
2.7871 -7.0160 -1.9892 0.3654 0 1
2.9734 -6.6888 -1.9288 0.3768 0 1
3.1459 -6.3740 -1.8730 0.3881 0 1
3.3056 -6.0705 -1.8214 0.3991 0 1
3.4541 -5.7779 -1.7738 0.4062 0 1
3.5870 -5.4872 -1.7274 0.4099 0 1
3.7043 -5.1982 -1.6819 0.4105 0 1
3.8121 -4.9188 -1.6398 0.4211 0 1
3.9112 -4.6484 -1.6008 0.4313 0 1
4.0023 -4.3864 -1.5646 0.4413 0 1
4.0860 -4.1319 -1.5312 0.4509 0 1
4.1632 -3.8848 -1.5004 0.4789 0 1
4.2438 -3.6525 -1.4754 0.4870 0 1
4.3186 -3.4248 -1.4523 0.4947 0 1
4.3877 -3.2012 -1.4312 0.5020 0 1
4.4517 -2.9816 -1.4118 0.5090 0 1
4.5118 -2.7661 -1.3945 0.5153 0 1
4.5672 -2.5535 -1.3788 0.5212 0 1
4.6179 -2.3437 -1.3646 0.5266 0 1
4.6644 -2.1362 -1.3518 0.5317 0 1
4.7066 -1.9309 -1.3405 0.5361 0 1
4.7448 -1.7274 -1.3305 0.5402 0 1
4.7791 -1.5255 -1.3219 0.5437 0 1
4.8096 -1.3249 -1.3145 0.5467 0 1
4.1234 -0.9595 -1.1155 0.9009 25 14
3.8411 -0.7326 -1.0304 0.8890 25 14
3.8316 -0.5724 -1.0208 0.8973 25 14
3.8226 -0.4150 -1.0132 0.9041 25 14
3.8145 -0.2597 -1.0075 0.8576 25 14
3.8089 -0.1059 -1.0040 0.8605 25 14
3.8063 0.0471 -1.0030 0.8614 25 14
3.8085 0.2003 -1.0049 0.9116 25 14
3.8145 0.3546 -1.0095 0.9075 25 14
3.8209 0.5107 -1.0158 0.9018 25 14
3.8276 0.6690 -1.0239 0.8947 25 14
3.8805 0.8401 -1.0462 0.5965 25 14
4.9274 1.2759 -1.3412 0.5381 0 1
4.9129 1.4850 -1.3524 0.5258 0 1
4.8883 1.6947 -1.3633 0.5216 0 1
4.8596 1.9066 -1.3755 0.5169 0 1
4.8267 2.1211 -1.3892 0.5115 0 1
4.7896 2.3386 -1.4045 0.5059 0 1
4.7479 2.5592 -1.4212 0.5000 0 1
4.7014 2.7834 -1.4397 0.4936 0 1
4.6499 3.0115 -1.4598 0.4868 0 1
4.5931 3.2437 -1.4816 0.4796 0 1
4.5310 3.4807 -1.5055 0.4720 0 1
4.4634 3.7231 -1.5316 0.4640 0 1
4.3895 3.9711 -1.5597 0.4556 0 1
4.3090 4.2250 -1.5902 0.4469 0 1
4.2172 4.4810 -1.6214 0.4508 0 1
4.1153 4.7406 -1.6542 0.4419 0 1
4.0054 5.0068 -1.6895 0.4327 0 1
3.8897 5.2839 -1.7289 0.4209 0 1
3.7651 5.5700 -1.7715 0.4108 0 1
3.6304 5.8654 -1.8176 0.4004 0 1
3.4848 6.1709 -1.8674 0.3897 0 1
3.3273 6.4875 -1.9212 0.3788 0 1
3.1503 6.8019 -1.9752 0.3877 0 1
2.9562 7.1193 -2.0312 0.3770 0 1
2.7475 7.4480 -2.0918 0.3661 0 1
2.5228 7.7888 -2.1573 0.3550 0 1
2.2830 8.1518 -2.2306 0.3248 0 1
2.0323 8.5678 -2.3203 0.3123 0 1
1.7566 9.0012 -2.4166 0.3234 0 1
1.4505 9.4337 -2.5150 0.3108 0 1
1.1170 9.8966 -2.6243 0.2956 0 1
0.7506 10.3740 -2.7407 0.2827 0 1
0.3483 10.8616 -2.8635 0.2575 0 1
-0.0926 11.4244 -3.0104 0.2428 0 1
-0.5814 12.0341 -3.1747 0.2303 0 1
-1.1204 12.6345 -3.3423 0.2223 0 24
-1.7323 13.3951 -3.5590 0.2063 0 1
-2.4143 14.1682 -3.7871 0.1826 0 1
-3.1911 15.0493 -4.0537 0.1730 0 1
-4.0574 15.9490 -4.3364 0.1635 0 24
-5.0626 17.0097 -4.6764 0.1548 0 1
-6.1939 18.1156 -5.0448 0.1458 0 1
-7.4920 19.3379 -5.4646 0.1319 0 1
-9.0496 20.8337 -5.9852 0.1177 0 1
-10.9345 22.6388 -6.6247 0.1047 0 1
-13.1898 24.7212 -7.3832 0.0993 0 1
-15.7546 26.8711 -8.2078 0.0982 0 1
-17.2958 26.9569 -8.4395 0.9087 0 15
-22.6127 32.3109 -10.3918 0.0654 0 2
-25.9034 34.0184 -11.2667 0.9311 0 21
-25.5155 30.8550 -10.5501 0.8982 0 21
-22.7324 25.3442 -8.9710 0.7082 0 5
-22.8301 23.4834 -8.6301 0.6993 0 5
-22.9069 21.7429 -8.3221 0.7207 0 5
-23.0162 20.1529 -8.0611 0.7618 0 5
-26.8306 21.6525 -9.0849 0.7904 0 3
-30.5166 22.6656 -10.0164 0.5821 0 3
-33.1080 22.5855 -10.5606 0.8347 0 3
-28.5790 17.8578 -8.8798 0.8551 0 3
-33.2420 18.9595 -10.0838 0.8742 0 3
-34.2381 17.7448 -10.1614 0.4510 0 3
-37.8365 17.7201 -11.0091 0.4162 0 3
-42.0972 17.6907 -12.0323 0.3809 0 3
-44.5648 16.6553 -12.5361 0.0551 0 3
-27.0106 8.8759 -7.4917 0.9437 0 22
-27.0164 7.6905 -7.4016 0.9933 0 22
-46.4429 9.2689 -12.4790 0.9560 0 22
-46.4618 7.3465 -12.3948 0.9901 0 22
-30.5696 -16.1433 -9.1093 0.8896 0 22
-30.4932 -17.7041 -9.2910 0.8201 0 22
-31.9803 -33.4062 -12.1859 0.8068 0 20
-28.1653 -31.8919 -11.2115 0.6922 0 20
-27.9953 -34.3894 -11.6846 0.6645 0 20
-24.9367 -33.2772 -10.9573 0.9633 0 9
-21.7173 -31.5457 -10.0917 0.0673 0 2
-17.7191 -28.0900 -8.7513 0.0776 0 2
-15.1099 -26.2323 -7.9769 0.0732 0 1
-12.3086 -23.5035 -6.9910 0.0962 0 1
1.9134 -8.0092 -2.2677 0.3333 0 24
2.1621 -7.6724 -2.1952 0.3459 0 1
2.3867 -7.3285 -2.1225 0.3577 0 1
2.5944 -6.9984 -2.0554 0.3685 0 1
2.7861 -6.6794 -1.9930 0.3800 0 1
2.9638 -6.3722 -1.9353 0.3913 0 1
3.1285 -6.0757 -1.8820 0.4024 0 1
3.2815 -5.7890 -1.8325 0.4133 0 1
3.4209 -5.5071 -1.7853 0.4090 0 1
3.5429 -5.2232 -1.7381 0.4139 0 1
3.6554 -4.9490 -1.6943 0.4246 0 1
3.7591 -4.6834 -1.6538 0.4350 0 1
3.8546 -4.4259 -1.6163 0.4451 0 1
3.9425 -4.1757 -1.5815 0.4549 0 1
4.0233 -3.9322 -1.5493 0.4644 0 1
4.1057 -3.7022 -1.5224 0.4918 0 1
4.1835 -3.4783 -1.4983 0.4997 0 1
4.2557 -3.2583 -1.4760 0.5072 0 1
4.3224 -3.0421 -1.4556 0.5143 0 1
4.3847 -2.8297 -1.4371 0.5210 0 1
4.4426 -2.6206 -1.4204 0.5272 0 1
4.4959 -2.4141 -1.4053 0.5328 0 1
4.5447 -2.2099 -1.3917 0.5381 0 1
4.5893 -2.0079 -1.3795 0.5429 0 1
4.6297 -1.8078 -1.3687 0.5471 0 1
4.6662 -1.6092 -1.3593 0.5509 0 1
4.6988 -1.4121 -1.3511 0.5543 0 1
4.1604 -1.0701 -1.1830 0.6755 25 14
3.9009 -0.8380 -1.0988 0.7394 25 14
3.8458 -0.6658 -1.0748 0.8376 25 14
3.8386 -0.5068 -1.0663 0.8443 25 14
3.8320 -0.3500 -1.0597 0.8496 25 14
3.8259 -0.1950 -1.0550 0.8534 25 14
3.8204 -0.0411 -1.0522 0.8557 25 14
3.8208 0.1124 -1.0527 0.8553 25 14
3.8229 0.2664 -1.0553 0.8531 25 14
3.8255 0.4215 -1.0599 0.8495 25 14
3.8314 0.5787 -1.0671 0.8945 25 14
3.8513 0.7410 -1.0800 0.6749 25 14
4.1162 0.9648 -1.1643 0.8994 25 14
4.8245 1.3374 -1.3787 0.5455 0 1
4.8028 1.5416 -1.3891 0.5334 0 1
4.7762 1.7475 -1.4006 0.5290 0 1
4.7454 1.9557 -1.4135 0.5242 0 1
4.7104 2.1665 -1.4278 0.5186 0 1
4.6711 2.3801 -1.4437 0.5128 0 1
4.6271 2.5969 -1.4612 0.5067 0 1
4.5782 2.8170 -1.4803 0.5002 0 1
4.5243 3.0408 -1.5012 0.4932 0 1
4.4649 3.2686 -1.5238 0.4859 0 1
4.4005 3.5013 -1.5486 0.4781 0 1
4.3302 3.7389 -1.5755 0.4700 0 1
4.2534 3.9818 -1.6045 0.4615 0 1
4.1699 4.2304 -1.6358 0.4527 0 1
4.0754 4.4810 -1.6680 0.4566 0 1
3.9707 4.7347 -1.7017 0.4476 0 1
3.8586 4.9954 -1.7383 0.4363 0 1
3.7401 5.2664 -1.7788 0.4263 0 1
3.6123 5.5454 -1.8226 0.4161 0 1
3.4744 5.8331 -1.8697 0.4056 0 1
3.3254 6.1303 -1.9206 0.3948 0 1
3.1641 6.4371 -1.9753 0.3811 0 1
2.9846 6.7430 -2.0307 0.3929 0 1
2.7877 7.0506 -2.0879 0.3822 0 1
2.5763 7.3683 -2.1496 0.3712 0 1
2.3490 7.6973 -2.2162 0.3600 0 1
2.1079 8.0524 -2.2922 0.3294 0 1
1.8535 8.4529 -2.3831 0.3168 0 1
1.5756 8.8754 -2.4824 0.3041 0 1
1.2674 9.2949 -2.5834 0.3153 0 1
0.9315 9.7389 -2.6942 0.3000 0 1
0.5621 10.1756 -2.8065 0.2877 0 1
0.1598 10.6368 -2.9296 0.2623 0 1
-0.2809 11.1683 -3.0766 0.2497 0 1
-0.7664 11.7170 -3.2336 0.2420 0 24
-1.3080 12.3542 -3.4212 0.2236 0 1
-1.8975 12.9353 -3.6003 0.2126 0 24
-2.5775 13.7111 -3.8420 0.1991 0 1
-3.3350 14.5052 -4.0988 0.1782 0 1
-4.1899 15.3687 -4.3868 0.1673 0 1
-5.1492 16.2806 -4.7023 0.1593 0 1
-6.2345 17.2673 -5.0556 0.1516 0 1
-7.4617 18.3265 -5.4492 0.1379 0 1
-8.9287 19.6327 -5.9394 0.1192 0 1
-10.6939 21.2101 -6.5414 0.1105 0 1
-12.7958 23.0291 -7.2551 0.1050 0 1
-15.1641 24.8822 -8.0245 0.1055 0 1
-17.3959 26.1224 -8.6429 0.0819 0 2
-21.0261 28.9798 -9.8599 0.0718 0 2
-25.6858 32.5660 -11.4221 0.0620 0 25
-27.7256 32.3876 -11.7408 0.6739 0 3
-22.6146 24.3645 -9.1545 0.6634 0 5
-22.7241 22.5911 -8.8242 0.7676 0 5
-17.9766 16.4900 -6.7178 0.9745 0 6
-22.9577 19.4206 -8.2809 0.7290 0 5
-23.0304 17.9465 -8.0405 0.8073 0 5
-26.8134 19.2150 -9.0843 0.8236 0 3
-28.4215 18.6869 -9.3671 0.8446 0 3
-33.0668 19.8867 -10.6261 0.8644 0 3
-32.4037 17.7565 -10.1755 0.4693 0 3
-38.0739 18.9169 -11.7079 0.9001 0 3
-39.5499 17.7071 -11.9333 0.4001 0 3
-44.1462 17.6728 -13.0952 0.3646 0 3
-26.9037 9.5356 -7.8605 0.9365 0 22
-26.9398 7.1748 -7.6775 0.9628 0 22
-24.7270 -17.7802 -8.3871 0.3808 15 6
-31.5340 -31.4506 -12.2648 0.6776 0 20
-28.7107 -31.0325 -11.6424 0.7029 0 20
-26.8052 -31.4149 -11.3725 0.9021 0 9
-24.1910 -30.7727 -10.7794 0.9410 0 9
-20.8630 -28.8528 -9.8053 0.0722 0 2
-17.2670 -26.0197 -8.5997 0.0823 0 2
-14.8386 -24.4367 -7.8730 0.0773 0 1
-12.2011 -22.0424 -6.9381 0.1020 0 24
-10.2496 -20.4106 -6.2897 0.1118 0 1
-8.5583 -18.8992 -5.7134 0.1241 0 1
-7.1280 -17.5881 -5.2262 0.1404 0 1
-5.9211 -16.4826 -4.8231 0.1542 0 1
-4.8827 -15.5250 -4.4818 0.1658 0 1
-3.9770 -14.6810 -4.1887 0.1810 0 1
-3.1767 -13.9194 -3.9318 0.1950 0 1
-2.4633 -13.2205 -3.7034 0.2120 0 1
-1.8271 -12.5967 -3.5052 0.2240 0 1
-1.2513 -12.0030 -3.3234 0.2249 0 1
-0.7285 -11.4196 -3.1512 0.2365 0 1
-0.2560 -10.8729 -2.9951 0.2480 0 1
0.1723 -10.3583 -2.8529 0.2603 0 1
0.5615 -9.8762 -2.7242 0.2746 0 1
0.9166 -9.4234 -2.6073 0.2869 0 1
1.2411 -8.9933 -2.5001 0.2994 0 1
1.5377 -8.5820 -2.4010 0.3117 0 1
1.8042 -8.1653 -2.3028 0.3286 0 24
2.0613 -7.8229 -2.2278 0.3408 0 1
2.2936 -7.4727 -2.1526 0.3527 0 1
2.5083 -7.1369 -2.0833 0.3645 0 1
2.7066 -6.8132 -2.0189 0.3751 0 1
2.8901 -6.5012 -1.9593 0.3866 0 1
3.0601 -6.2003 -1.9041 0.3977 0 1
3.2180 -5.9095 -1.8530 0.4087 0 1
3.3645 -5.6281 -1.8057 0.4194 0 1
3.4923 -5.3423 -1.7577 0.4093 0 1
3.6088 -5.0642 -1.7125 0.4201 0 1
3.7162 -4.7951 -1.6706 0.4306 0 1
3.8151 -4.5342 -1.6319 0.4409 0 1
3.9061 -4.2810 -1.5959 0.4508 0 1
3.9899 -4.0347 -1.5626 0.4604 0 1
4.0708 -3.7986 -1.5333 0.4883 0 1
4.1512 -3.5728 -1.5083 0.4964 0 1
4.2258 -3.3512 -1.4852 0.5041 0 1
4.2948 -3.1334 -1.4640 0.5114 0 1
4.3586 -2.9193 -1.4447 0.5183 0 1
4.4186 -2.7089 -1.4273 0.5246 0 1
4.4738 -2.5014 -1.4115 0.5305 0 1
4.5245 -2.2963 -1.3973 0.5359 0 1
4.5709 -2.0934 -1.3845 0.5409 0 1
4.6131 -1.8925 -1.3731 0.5454 0 1
4.6512 -1.6933 -1.3631 0.5494 0 1
4.6854 -1.4956 -1.3544 0.5529 0 1
4.7158 -1.2991 -1.3470 0.5560 0 1
4.1535 -0.9666 -1.1744 0.6804 25 14
3.8562 -0.7355 -1.0811 0.7514 25 14
3.8416 -0.5739 -1.0697 0.8417 25 14
3.8347 -0.4163 -1.0622 0.8476 25 14
3.8284 -0.2606 -1.0567 0.8520 25 14
3.8227 -0.1063 -1.0531 0.8549 25 14
3.8201 0.0473 -1.0521 0.8557 25 14
3.8219 0.2010 -1.0540 0.8542 25 14
3.8243 0.3556 -1.0577 0.8512 25 14
3.8285 0.5117 -1.0637 0.8974 25 14
3.8353 0.6704 -1.0722 0.8902 25 14
3.8993 0.8442 -1.0987 0.6635 25 14
4.8300 1.2507 -1.3740 0.5474 0 1
4.8129 1.4548 -1.3846 0.5351 0 1
4.7880 1.6599 -1.3955 0.5309 0 1
4.7590 1.8671 -1.4078 0.5263 0 1
4.7258 2.0767 -1.4215 0.5212 0 1
4.6883 2.2891 -1.4368 0.5153 0 1
4.6464 2.5045 -1.4536 0.5094 0 1
4.5996 2.7231 -1.4720 0.5030 0 1
4.5478 2.9453 -1.4921 0.4962 0 1
4.4908 3.1714 -1.5140 0.4890 0 1
4.4285 3.4020 -1.5379 0.4815 0 1
4.3608 3.6375 -1.5638 0.4735 0 1
4.2868 3.8781 -1.5919 0.4651 0 1
4.2062 4.1242 -1.6222 0.4564 0 1
4.1175 4.3751 -1.6545 0.4604 0 1
4.0161 4.6263 -1.6871 0.4515 0 1
3.9068 4.8836 -1.7223 0.4423 0 1
3.7915 5.1505 -1.7612 0.4306 0 1
3.6677 5.4260 -1.8036 0.4204 0 1
3.5342 5.7100 -1.8493 0.4101 0 1
3.3900 6.0030 -1.8985 0.3994 0 1
3.2343 6.3060 -1.9517 0.3885 0 1
3.0639 6.6155 -2.0077 0.3974 0 1
2.8729 6.9189 -2.0631 0.3868 0 1
2.6679 7.2322 -2.1228 0.3759 0 1
2.4474 7.5563 -2.1873 0.3648 0 1
2.2103 7.8922 -2.2570 0.3535 0 1
1.9641 8.2805 -2.3436 0.3221 0 1
1.6965 8.6933 -2.4392 0.3095 0 1
1.4017 9.1161 -2.5400 0.3206 0 1
1.0776 9.5472 -2.6459 0.3055 0 1
0.7227 9.9882 -2.7578 0.2928 0 1
0.3347 10.4367 -2.8756 0.2808 0 1
-0.0887 10.9386 -3.0124 0.2550 0 1
-0.5552 11.4914 -3.1683 0.2404 0 1
-1.0681 12.0455 -3.3302 0.2333 0 24
-1.6455 12.7233 -3.5330 0.2165 0 1
-2.2842 13.4048 -3.7447 0.2043 0 1
-3.0014 14.1548 -3.9847 0.1808 0 1
-3.8144 14.9937 -4.2606 0.1723 0 1
-4.7272 15.8826 -4.5635 0.1653 0 1
-5.7598 16.8460 -4.9028 0.1539 0 1
-6.9203 17.8625 -5.2753 0.1453 0 1
-8.2631 19.0231 -5.7116 0.1240 0 1
-9.9100 20.5178 -6.2749 0.1170 0 1
-11.8662 22.2404 -6.9419 0.1041 0 1
-14.1499 24.1341 -7.7043 0.0989 0 1
-16.7448 26.0981 -8.5392 0.5809 0 2
-19.3808 27.6929 -9.3084 0.0760 0 2
-23.5576 30.9377 -10.7086 0.0661 0 25
-25.4147 30.7331 -10.9824 0.9983 0 21
-22.6084 25.2059 -9.3245 0.7150 0 5
-22.6835 23.3326 -8.9615 0.7030 0 5
-22.7913 21.6332 -8.6536 0.7311 0 5
-22.8825 20.0358 -8.3757 0.7950 0 5
-22.9856 18.5496 -8.1341 0.8171 0 5
-23.0302 17.1052 -7.9002 0.7410 0 5
-32.9637 22.4871 -10.9888 0.8359 0 3
-28.4767 17.7939 -9.2472 0.9311 0 3
-33.1037 18.8806 -10.4948 0.8752 0 3
-34.2362 17.7439 -10.6192 0.4497 0 3
-37.8342 17.7190 -11.5051 0.4150 0 3
-42.0944 17.6895 -12.5742 0.3797 0 3
-26.9552 7.6731 -7.7180 0.9889 0 22
-46.2471 9.2299 -12.9870 0.9648 0 22
-46.2750 7.3170 -12.9018 0.9891 0 22
-32.6442 -31.4667 -12.4863 0.6657 0 20
-29.7132 -31.0380 -11.8328 0.6916 0 20
-28.0245 -31.7324 -11.6587 0.6939 0 20
-25.9637 -31.8938 -11.3255 0.9879 0 9
-22.6729 -30.2563 -10.4120 0.0680 0 2
-18.6905 -27.1492 -9.0770 0.0780 0 2
-16.3952 -25.9913 -8.4627 0.0986 0 2
-13.1490 -22.8279 -7.2548 0.0968 0 24
-11.0520 -21.1040 -6.5605 0.1072 0 1
1.8527 -7.7551 -2.2911 0.3431 0 24
2.0960 -7.4378 -2.2205 0.3557 0 1
2.3161 -7.1116 -2.1491 0.3675 0 1
2.5198 -6.7971 -2.0830 0.3782 0 1
2.7084 -6.4931 -2.0216 0.3897 0 1
2.8834 -6.1994 -1.9646 0.4010 0 1
3.0460 -5.9154 -1.9119 0.4120 0 1
3.1971 -5.6402 -1.8629 0.4229 0 1
3.3326 -5.3649 -1.8148 0.4185 0 1
3.4520 -5.0892 -1.7670 0.4235 0 1
3.5640 -4.8251 -1.7237 0.4342 0 1
3.6673 -4.5690 -1.6835 0.4445 0 1
3.7625 -4.3201 -1.6462 0.4546 0 1
3.8503 -4.0780 -1.6116 0.4644 0 1
3.9331 -3.8440 -1.5803 0.4928 0 1
4.0167 -3.6220 -1.5541 0.5011 0 1
4.0942 -3.4040 -1.5300 0.5090 0 1
4.1662 -3.1898 -1.5077 0.5165 0 1
4.2327 -2.9790 -1.4873 0.5236 0 1
4.2948 -2.7717 -1.4688 0.5303 0 1
4.3526 -2.5674 -1.4521 0.5364 0 1
4.4057 -2.3656 -1.4369 0.5420 0 1
4.4544 -2.1660 -1.4233 0.5473 0 1
4.4989 -1.9684 -1.4111 0.5521 0 1
4.5393 -1.7725 -1.4002 0.5563 0 1
4.5756 -1.5780 -1.3908 0.5601 0 1
4.6081 -1.3848 -1.3826 0.5634 0 1
4.6368 -1.1927 -1.3757 0.5662 0 1
3.9117 -0.8403 -1.1496 0.7350 25 14
3.8699 -0.6700 -1.1285 0.7463 25 14
3.8600 -0.5096 -1.1188 0.7528 25 14
3.8512 -0.3518 -1.1112 0.7579 25 14
3.8433 -0.1959 -1.1058 0.7617 25 14
3.8362 -0.0413 -1.1024 0.8018 25 14
3.8363 0.1129 -1.1028 0.7637 25 14
3.8381 0.2675 -1.1055 0.7618 25 14
3.8409 0.4232 -1.1103 0.7585 25 14
3.8446 0.5807 -1.1173 0.7538 25 14
3.8683 0.7443 -1.1319 0.7466 25 14
4.1458 0.9718 -1.2236 0.6793 25 14
4.7289 1.3109 -1.4101 0.5465 0 1
4.7061 1.5105 -1.4202 0.5426 0 1
4.6793 1.7121 -1.4317 0.5383 0 1
4.6483 1.9157 -1.4446 0.5335 0 1
4.6129 2.1216 -1.4590 0.5279 0 1
4.5734 2.3303 -1.4749 0.5222 0 1
4.5291 2.5419 -1.4924 0.5161 0 1
4.4801 2.7566 -1.5115 0.5095 0 1
4.4259 2.9747 -1.5323 0.5026 0 1
4.3665 3.1965 -1.5550 0.4953 0 1
4.3020 3.4229 -1.5797 0.4876 0 1
4.2315 3.6538 -1.6065 0.4794 0 1
4.1548 3.8895 -1.6354 0.4710 0 1
4.0714 4.1304 -1.6665 0.4622 0 1
3.9799 4.3760 -1.6997 0.4661 0 1
3.8759 4.6216 -1.7332 0.4571 0 1
3.7642 4.8733 -1.7694 0.4458 0 1
3.6466 5.1347 -1.8097 0.4359 0 1
3.5198 5.4034 -1.8530 0.4257 0 1
3.3831 5.6800 -1.8997 0.4152 0 1
3.2358 5.9651 -1.9500 0.4045 0 1
3.0757 6.2571 -2.0034 0.3909 0 1
2.9027 6.5581 -2.0608 0.3803 0 1
2.7100 6.8540 -2.1178 0.3919 0 1
2.5024 7.1571 -2.1786 0.3810 0 1
2.2796 7.4700 -2.2442 0.3698 0 1
2.0405 7.7951 -2.3154 0.3392 0 1
1.7920 8.1725 -2.4041 0.3266 0 1
1.5212 8.5691 -2.5008 0.3140 0 1
1.2252 8.9854 -2.6058 0.3251 0 1
0.8987 9.3965 -2.7124 0.3096 0 1
0.5415 9.8024 -2.8210 0.2977 0 1
0.1536 10.2277 -2.9392 0.2857 0 1
-0.2692 10.7009 -3.0758 0.2598 0 1
-0.7332 11.2096 -3.2279 0.2524 0 24
-1.2471 11.7786 -3.4034 0.2338 0 1
-1.8047 12.3026 -3.5729 0.2232 0 24
-2.4434 12.9978 -3.8003 0.2094 0 1
-3.1450 13.6790 -4.0332 0.1973 0 1
-3.9325 14.4248 -4.2962 0.1777 0 1
-4.8193 15.2376 -4.5922 0.1709 0 1
-5.7921 16.0420 -4.9009 0.1602 0 24
-6.9202 16.9964 -5.2731 0.1506 0 1
-8.1789 17.9840 -5.6769 0.1343 0 1
-9.7072 19.2531 -6.1957 0.1164 0 1
-11.5469 20.7813 -6.8313 0.1099 0 1
-13.6611 22.4160 -7.5430 0.1032 0 1
-15.9501 23.9515 -8.2687 0.1064 0 1
-18.2468 25.1491 -8.9282 0.0824 0 2
-21.8333 27.6816 -10.1305 0.0727 0 2
-26.3675 30.8011 -11.6506 0.0632 0 25
-22.5307 24.2742 -9.5166 0.6771 0 5
-22.6374 22.5048 -9.1722 0.7360 0 5
-22.7496 20.8683 -8.8707 0.7118 0 5
-22.8019 19.2888 -8.5819 0.7738 0 5
-22.8710 17.8222 -8.3316 0.7584 0 5
-31.6154 22.6561 -11.1763 0.5654 0 3
-28.2987 18.6062 -9.7317 0.8456 0 3
-32.9272 19.8028 -11.0408 0.8653 0 3
-32.4020 17.7556 -10.6168 0.4678 0 3
-37.9195 18.8402 -12.1668 0.9010 0 3
-42.7586 19.1437 -13.4617 0.9168 0 3
-26.8354 7.1469 -7.9798 0.9635 0 22
-24.6088 -17.6952 -8.7095 0.9238 15 6
-33.7559 -31.0649 -13.1819 0.6458 0 20
-31.1325 -31.0502 -12.6345 0.6737 0 20
-23.6767 -25.5915 -10.0180 0.7316 0 20
-24.7136 -28.9636 -10.9405 0.9787 0 9
-21.6732 -27.5699 -10.0769 0.0730 0 2
-18.1185 -25.0573 -8.8852 0.0828 0 2
-15.8410 -23.8710 -8.2321 0.0689 0 1
-13.0030 -21.4138 -7.1987 0.1020 0 24
-11.0453 -19.9543 -6.5536 0.1111 0 1
-9.3350 -18.5894 -5.9772 0.1220 0 1
-7.8666 -17.3716 -5.4796 0.1346 0 1
-6.6088 -16.3069 -5.0559 0.1482 0 1
-5.5290 -15.3911 -4.6993 0.1644 0 1
-4.5854 -14.5798 -4.3917 0.1798 0 1
-3.7515 -13.8485 -4.1227 0.1938 0 1
-3.0079 -13.1797 -3.8845 0.2053 0 1
-2.3422 -12.5709 -3.6744 0.2223 0 1
-1.7406 -12.0006 -3.4844 0.2283 0 1
-1.1932 -11.4460 -3.3068 0.2351 0 1
-0.6963 -10.9152 -3.1428 0.2467 0 1
-0.2452 -10.4140 -2.9932 0.2581 0 1
0.1653 -9.9420 -2.8572 0.2724 0 1
0.5401 -9.4983 -2.7337 0.2847 0 1
0.8830 -9.0777 -2.6207 0.2969 0 1
1.1974 -8.6772 -2.5170 0.3093 0 1
1.4857 -8.2918 -2.4206 0.3216 0 1
1.7515 -7.9267 -2.3326 0.3352 0 1
1.9918 -7.5591 -2.2462 0.3498 0 24
2.2248 -7.2485 -2.1787 0.3625 0 1
2.4354 -6.9295 -2.1105 0.3742 0 1
2.6301 -6.6207 -2.0471 0.3848 0 1
2.8107 -6.3228 -1.9883 0.3962 0 1
2.9785 -6.0348 -1.9338 0.4074 0 1
3.1343 -5.7559 -1.8833 0.4183 0 1
3.2792 -5.4854 -1.8364 0.4287 0 1
3.4020 -5.2042 -1.7866 0.4251 0 1
3.5176 -4.9361 -1.7417 0.4297 0 1
3.6245 -4.6767 -1.7002 0.4402 0 1
3.7231 -4.4248 -1.6617 0.4504 0 1
3.8139 -4.1799 -1.6259 0.4603 0 1
3.8976 -3.9414 -1.5928 0.4698 0 1
3.9820 -3.7156 -1.5650 0.4976 0 1
4.0620 -3.4960 -1.5400 0.5057 0 1
4.1363 -3.2803 -1.5169 0.5134 0 1
4.2051 -3.0680 -1.4957 0.5207 0 1
4.2688 -2.8591 -1.4763 0.5276 0 1
4.3286 -2.6538 -1.4589 0.5339 0 1
4.3837 -2.4510 -1.4432 0.5397 0 1
4.4343 -2.2505 -1.4289 0.5451 0 1
4.4805 -2.0520 -1.4161 0.5501 0 1
4.5226 -1.8554 -1.4047 0.5546 0 1
4.5607 -1.6603 -1.3946 0.5586 0 1
4.5948 -1.4666 -1.3859 0.5621 0 1
4.6251 -1.2741 -1.3785 0.5651 0 1
4.1887 -0.9747 -1.2358 0.6726 25 14
3.8757 -0.7392 -1.1337 0.7342 25 14
3.8641 -0.5773 -1.1226 0.7502 25 14
3.8548 -0.4185 -1.1142 0.7559 25 14
3.8465 -0.2618 -1.1078 0.7603 25 14
3.8393 -0.1068 -1.1036 0.7632 25 14
3.8357 0.0474 -1.1023 0.7641 25 14
3.8372 0.2018 -1.1041 0.7628 25 14
3.8396 0.3570 -1.1080 0.7601 25 14
3.8429 0.5136 -1.1141 0.7560 25 14
3.8472 0.6724 -1.1222 0.7505 25 14
3.9116 0.8468 -1.1500 0.7348 25 14
4.7357 1.2263 -1.4057 0.5565 0 1
4.7163 1.4256 -1.4158 0.5443 0 1
4.6912 1.6263 -1.4267 0.5402 0 1
4.6619 1.8290 -1.4390 0.5356 0 1
4.6284 2.0340 -1.4527 0.5305 0 1
4.5907 2.2415 -1.4680 0.5246 0 1
4.5485 2.4518 -1.4848 0.5187 0 1
4.5015 2.6651 -1.5032 0.5123 0 1
4.4495 2.8817 -1.5233 0.5056 0 1
4.3923 3.1019 -1.5451 0.4984 0 1
4.3300 3.3263 -1.5690 0.4909 0 1
4.2621 3.5553 -1.5948 0.4829 0 1
4.1881 3.7889 -1.6228 0.4746 0 1
4.1076 4.0275 -1.6530 0.4659 0 1
4.0202 4.2717 -1.6856 0.4569 0 1
3.9210 4.5167 -1.7187 0.4610 0 1
3.8124 4.7655 -1.7536 0.4518 0 1
3.6976 5.0229 -1.7922 0.4401 0 1
3.5748 5.2885 -1.8342 0.4300 0 1
3.4424 5.5617 -1.8795 0.4197 0 1
3.2997 5.8431 -1.9282 0.4091 0 1
3.1451 6.1322 -1.9803 0.3954 0 1
2.9777 6.4293 -2.0360 0.3849 0 1
2.7938 6.7283 -2.0934 0.3965 0 1
2.5923 7.0274 -2.1523 0.3856 0 1
2.3761 7.3360 -2.2158 0.3746 0 1
2.1439 7.6550 -2.2843 0.3633 0 1
1.9000 8.0101 -2.3655 0.3320 0 1
1.6389 8.3984 -2.4588 0.3194 0 1
1.3541 8.8071 -2.5604 0.3067 0 1
1.0406 9.2198 -2.6661 0.3154 0 1
0.6966 9.6279 -2.7738 0.3028 0 1
0.3221 10.0448 -2.8878 0.2908 0 1
-0.0851 10.4899 -3.0143 0.2651 0 1
-0.5313 10.9962 -3.1634 0.2526 0 1
-1.0204 11.5070 -3.3195 0.2445 0 24
-1.5664 12.1120 -3.5093 0.2267 0 1
-2.1682 12.7242 -3.7089 0.2145 0 1
-2.8379 13.3835 -3.9312 0.2024 0 1
-3.5865 14.0977 -4.1799 0.1826 0 1
-4.4313 14.8885 -4.4636 0.1710 0 1
-5.3761 15.7236 -4.7749 0.1643 0 1
-6.4339 16.6069 -5.1175 0.1558 0 1
-7.5751 17.4390 -5.4633 0.1384 0 24
-9.0271 18.6897 -5.9640 0.1209 0 1
-10.7270 20.1052 -6.5480 0.1055 0 1
-12.7308 21.7138 -7.2327 0.1076 0 1
-14.9703 23.3324 -7.9658 0.1105 0 1
-16.9443 24.2114 -8.4915 0.0867 0 2
-20.2136 26.5462 -9.5876 0.0768 0 2
-24.3063 29.3927 -10.9596 0.0672 0 25
-22.4839 25.0671 -9.6758 0.6987 0 5
-22.5722 23.2182 -9.3048 0.7438 0 5
-22.6800 21.5275 -8.9853 0.7403 0 5
-22.8125 19.9745 -8.7127 0.6816 0 5
-22.8594 18.4477 -8.4407 0.7263 0 5
-22.9271 17.0287 -8.2063 0.8317 0 5
-32.8198 22.3889 -11.4160 0.8369 0 3
-26.7974 16.7446 -9.0798 0.8571 0 3
-32.9656 18.8018 -10.9049 0.8761 0 3
-34.2344 17.7429 -11.0798 0.4483 0 3
-37.8320 17.7180 -12.0040 0.4138 0 3
-37.9366 15.9422 -11.8243 0.9814 0 3
-26.8334 7.6384 -8.0168 0.9073 0 22
-46.1214 9.2048 -13.5141 0.9787 0 22
-46.0849 7.2869 -13.4068 0.9926 0 22
-30.9596 -25.3807 -11.5034 0.9901 0 20
-35.3875 -31.4697 -13.6076 0.6353 0 20
-32.2184 -31.0563 -12.8586 0.6620 0 20
-29.2262 -30.5293 -12.1442 0.9721 0 9
-25.9217 -29.3514 -11.2522 0.9901 0 9
-22.8359 -28.0515 -10.3937 0.7252 0 9
-19.5313 -26.0639 -9.3588 0.0786 0 2
-16.7555 -24.3385 -8.4906 0.7639 0 2
-13.9744 -22.1535 -7.5264 0.0832 0 24
-11.8602 -20.5904 -6.8279 0.1066 0 1
-10.0288 -19.1502 -6.2116 0.1185 0 1
1.7954 -7.5151 -2.3132 0.3529 0 24
2.0276 -7.1954 -2.2381 0.3646 0 24
2.2491 -6.9059 -2.1744 0.3772 0 1
2.4490 -6.6060 -2.1092 0.3879 0 1
2.6344 -6.3157 -2.0487 0.3993 0 1
2.8068 -6.0347 -1.9925 0.4106 0 1
2.9672 -5.7624 -1.9404 0.4216 0 1
3.1164 -5.4978 -1.8920 0.4322 0 1
3.2482 -5.2291 -1.8430 0.4280 0 1
3.3661 -4.9624 -1.7952 0.4394 0 1
3.4764 -4.7066 -1.7518 0.4436 0 1
3.5792 -4.4593 -1.7119 0.4540 0 1
3.6742 -4.2187 -1.6748 0.4640 0 1
3.7617 -3.9842 -1.6404 0.4738 0 1
3.8477 -3.7606 -1.6107 0.5021 0 1
3.9309 -3.5446 -1.5846 0.5104 0 1
4.0081 -3.3324 -1.5605 0.5183 0 1
4.0798 -3.1237 -1.5383 0.5257 0 1
4.1462 -2.9181 -1.5179 0.5328 0 1
4.2079 -2.7156 -1.4993 0.5395 0 1
4.2655 -2.5161 -1.4826 0.5455 0 1
4.3185 -2.3188 -1.4675 0.5512 0 1
4.3671 -2.1236 -1.4538 0.5565 0 1
4.4115 -1.9301 -1.4416 0.5612 0 1
4.4517 -1.7383 -1.4308 0.5654 0 1
4.4879 -1.5478 -1.4213 0.5692 0 1
4.5203 -1.3584 -1.4131 0.5725 0 1
4.5489 -1.1701 -1.4062 0.5753 0 1
3.9225 -0.8426 -1.2011 0.7306 25 14
3.8946 -0.6743 -1.1833 0.7392 25 14
3.8844 -0.5128 -1.1730 0.7457 25 14
3.8753 -0.3540 -1.1650 0.7508 25 14
3.8658 -0.1970 -1.1588 0.7921 25 14
3.8557 -0.0415 -1.1544 0.7952 25 14
3.8583 0.1135 -1.1556 0.7943 25 14
3.8621 0.2691 -1.1590 0.7547 25 14
3.8650 0.4259 -1.1641 0.7514 25 14
3.8689 0.5844 -1.1714 0.7467 25 14
3.8800 0.7465 -1.1829 0.7419 25 14
4.1811 0.9801 -1.2857 0.6714 25 14
4.6357 1.2850 -1.4402 0.5557 0 1
4.6127 1.4805 -1.4503 0.5518 0 1
4.5856 1.6778 -1.4618 0.5475 0 1
4.5544 1.8770 -1.4747 0.5427 0 1
4.5188 2.0784 -1.4891 0.5375 0 1
4.4790 2.2823 -1.5050 0.5314 0 1
4.4347 2.4888 -1.5224 0.5253 0 1
4.3854 2.6983 -1.5415 0.5188 0 1
4.3312 2.9110 -1.5623 0.5119 0 1
4.2717 3.1271 -1.5849 0.5047 0 1
4.2071 3.3475 -1.6096 0.4969 0 1
4.1367 3.5719 -1.6362 0.4888 0 1
4.0601 3.8008 -1.6650 0.4804 0 1
3.9768 4.0345 -1.6960 0.4716 0 1
3.8866 4.2734 -1.7294 0.4625 0 1
3.7849 4.5131 -1.7634 0.4666 0 1
3.6738 4.7562 -1.7992 0.4553 0 1
3.5571 5.0087 -1.8392 0.4454 0 1
3.4314 5.2677 -1.8821 0.4352 0 1
3.2961 5.5338 -1.9283 0.4248 0 1
3.1497 5.8064 -1.9776 0.4112 0 1
2.9915 6.0859 -2.0302 0.4006 0 1
2.8211 6.3737 -2.0867 0.3900 0 1
2.6361 6.6670 -2.1463 0.4016 0 1
2.4323 6.9564 -2.2062 0.3907 0 1
2.2138 7.2544 -2.2707 0.3796 0 1
1.9794 7.5618 -2.3401 0.3683 0 1
1.7341 7.9084 -2.4239 0.3365 0 1
1.4701 8.2815 -2.5181 0.3239 0 1
1.1826 8.6732 -2.6206 0.3112 0 1
0.8679 9.0744 -2.7291 0.3196 0 1
0.5222 9.4534 -2.8345 0.3077 0 1
0.1479 9.8489 -2.9489 0.2958 0 1
-0.2583 10.2683 -3.0751 0.2699 0 1
-0.7026 10.7417 -3.2227 0.2627 0 24
-1.1913 11.2516 -3.3873 0.2450 0 1
-1.7203 11.7273 -3.5485 0.2340 0 24
-2.3201 12.3416 -3.7596 0.2156 0 1
-2.9619 12.8828 -3.9575 0.2056 0 24
-3.7057 13.5929 -4.2180 0.1919 0 1
-4.5230 14.3006 -4.4903 0.1766 0 1
-5.4376 15.0602 -4.7936 0.1700 0 1
-6.4495 15.8404 -5.1203 0.1638 0 1
-7.5788 16.6645 -5.4807 0.1505 0 1
-8.8862 17.6247 -5.9092 0.1340 0 1
-10.4349 18.7801 -6.4320 0.1116 0 1
-12.3401 20.2484 -7.0990 0.1005 0 1
-14.4066 21.6337 -7.7814 0.1175 0 24
-16.7356 23.0663 -8.5317 0.6281 0 2
-18.9699 24.0512 -9.1706 0.0834 0 2
-22.4673 26.2451 -10.3431 0.0739 0 2
-24.3518 26.2361 -10.7166 0.7060 0 21
-22.5215 22.3896 -9.5074 0.7157 0 5
-22.6444 20.7719 -9.1995 0.7587 0 5
-22.7367 19.2337 -8.9158 0.7406 0 5
-22.7975 17.7649 -8.6526 0.8368 0 5
-31.6140 22.6551 -11.6439 0.5636 0 3
-28.1762 18.5256 -10.0954 0.8466 0 3
-32.7879 19.7190 -11.4545 0.8662 0 3
-32.4003 17.7546 -11.0609 0.4663 0 3
-37.7654 18.7636 -12.6248 0.9017 0 3
-42.5878 19.0673 -13.9695 0.9175 0 3
-43.8797 17.5661 -14.1503 0.9151 0 3
-24.5410 -17.6464 -9.0493 0.9228 15 6
-33.7627 -31.0711 -13.7368 0.6429 0 20
-25.6036 -25.5359 -10.8259 0.3959 0 20
-23.5950 -25.5031 -10.4016 0.9970 0 20
-22.3123 -26.1493 -10.2911 0.0743 0 2
-18.8439 -23.9708 -9.1284 0.0837 0 2
-16.8760 -23.3389 -8.6225 0.1075 0 2
-13.8115 -20.8127 -7.4781 0.0999 0 1
-11.7814 -19.4019 -6.7956 0.1112 0 1
-10.0586 -18.1717 -6.2181 0.1229 0 1
-8.5647 -17.0555 -5.7137 0.1325 0 1
-7.2810 -16.0784 -5.2841 0.1472 0 1
-6.1636 -15.2084 -4.9128 0.1635 0 1
-5.1866 -14.4378 -4.5928 0.1786 0 1
-4.3216 -13.7411 -4.3125 0.1902 0 1
-3.5503 -13.1059 -4.0651 0.2041 0 1
-2.8566 -12.5169 -3.8437 0.2207 0 1
-2.2300 -11.9687 -3.6449 0.2266 0 1
-1.6597 -11.4428 -3.4616 0.2332 0 1
-1.1400 -10.9353 -3.2915 0.2453 0 1
-0.6666 -10.4504 -3.1350 0.2559 0 1
-0.2352 -9.9904 -2.9918 0.2701 0 1
0.1585 -9.5279 -2.8529 0.2787 0 24
0.5200 -9.1460 -2.7426 0.2946 0 1
0.8515 -8.7545 -2.6333 0.3069 0 1
1.1565 -8.3807 -2.5328 0.3192 0 1
1.4370 -8.0196 -2.4392 0.3329 0 1
1.6965 -7.6777 -2.3540 0.3484 0 1
1.9313 -7.3296 -2.2692 0.3597 0 24
2.1596 -7.0360 -2.2034 0.3723 0 1
2.3661 -6.7322 -2.1363 0.3830 0 1
2.5574 -6.4377 -2.0738 0.3945 0 1
2.7352 -6.1529 -2.0159 0.4058 0 1
2.9005 -5.8769 -1.9621 0.4170 0 1
3.0544 -5.6092 -1.9121 0.4276 0 1
3.1953 -5.3450 -1.8643 0.4231 0 1
3.3172 -5.0745 -1.8150 0.4346 0 1
3.4303 -4.8137 -1.7696 0.4392 0 1
3.5366 -4.5634 -1.7284 0.4496 0 1
3.6348 -4.3200 -1.6902 0.4598 0 1
3.7254 -4.0829 -1.6547 0.4697 0 1
3.8106 -3.8534 -1.6224 0.4985 0 1
3.8963 -3.6358 -1.5955 0.5069 0 1
3.9761 -3.4220 -1.5705 0.5150 0 1
4.0501 -3.2118 -1.5475 0.5226 0 1
4.1186 -3.0049 -1.5263 0.5299 0 1
4.1821 -2.8010 -1.5069 0.5368 0 1
4.2417 -2.6005 -1.4895 0.5430 0 1
4.2966 -2.4023 -1.4737 0.5488 0 1
4.3470 -2.2062 -1.4594 0.5543 0 1
4.3932 -2.0120 -1.4466 0.5592 0 1
4.4351 -1.8195 -1.4352 0.5637 0 1
4.4731 -1.6284 -1.4251 0.5677 0 1
4.5071 -1.4386 -1.4164 0.5711 0 1
4.5372 -1.2499 -1.4090 0.5742 0 1
4.2855 -0.9973 -1.3173 0.3401 25 14
3.9009 -0.7440 -1.1889 0.7271 25 14
3.8885 -0.5809 -1.1771 0.7431 25 14
3.8790 -0.4211 -1.1681 0.7488 25 14
3.8703 -0.2635 -1.1614 0.7904 25 14
3.8599 -0.1073 -1.1560 0.7940 25 14
3.8561 0.0477 -1.1545 0.7951 25 14
3.8611 0.2030 -1.1575 0.7556 25 14
3.8636 0.3592 -1.1617 0.7529 25 14
3.8671 0.5169 -1.1680 0.7488 25 14
3.8716 0.6767 -1.1767 0.7346 25 14
4.0135 0.8689 -1.2294 0.0415 25 14
4.6442 1.2026 -1.4362 0.5572 0 1
4.6229 1.3974 -1.4459 0.5535 0 1
4.5976 1.5939 -1.4568 0.5494 0 1
4.5681 1.7922 -1.4691 0.5448 0 1
4.5345 1.9927 -1.4828 0.5397 0 1
4.4965 2.1954 -1.4980 0.5339 0 1
4.4541 2.4009 -1.5148 0.5280 0 1
4.4069 2.6091 -1.5332 0.5216 0 1
4.3548 2.8204 -1.5533 0.5149 0 1
4.2975 3.0350 -1.5751 0.5078 0 1
4.2352 3.2535 -1.5989 0.5003 0 1
4.1673 3.4761 -1.6247 0.4923 0 1
4.0933 3.7031 -1.6525 0.4840 0 1
4.0130 3.9347 -1.6826 0.4754 0 1
3.9258 4.1714 -1.7149 0.4664 0 1
3.8297 4.4116 -1.7490 0.4705 0 1
3.7219 4.6524 -1.7837 0.4613 0 1
3.6077 4.9008 -1.8219 0.4496 0 1
3.4859 5.1570 -1.8635 0.4396 0 1
3.3547 5.4200 -1.9083 0.4293 0 1
3.2134 5.6902 -1.9564 0.4157 0 1
3.0600 5.9663 -2.0074 0.4051 0 1
2.8950 6.2506 -2.0623 0.3943 0 1
2.7170 6.5434 -2.1211 0.3837 0 1
2.5204 6.8326 -2.1803 0.3953 0 1
2.3083 7.1268 -2.2428 0.3843 0 1
2.0809 7.4302 -2.3100 0.3731 0 1
1.8396 7.7553 -2.3862 0.3418 0 1
1.5848 8.1210 -2.4771 0.3292 0 1
1.3076 8.5046 -2.5760 0.3166 0 1
1.0054 8.9080 -2.6838 0.3039 0 1
0.6722 9.2907 -2.7887 0.3128 0 1
0.3104 9.6790 -2.8992 0.3008 0 1
-0.0818 10.0847 -3.0193 0.2889 0 1
-0.5092 10.5396 -3.1590 0.2627 0 1
-0.9765 11.0117 -3.3096 0.2550 0 24
-1.4935 11.5485 -3.4862 0.2325 0 1
-2.0516 12.0396 -3.6564 0.2258 0 24
-2.6761 12.6205 -3.8623 0.2114 0 24
-3.3864 13.3115 -4.1121 0.1971 0 1
-4.1639 13.9901 -4.3699 0.1814 0 1
-5.0389 14.7373 -4.6628 0.1747 0 1
-6.0089 15.5100 -4.9797 0.1659 0 1
-7.0826 16.3053 -5.3221 0.1550 0 1
-8.3016 17.1878 -5.7145 0.1385 0 1
-9.7389 18.2533 -6.1938 0.1209 0 1
-11.4919 19.6007 -6.8023 0.1055 0 1
-13.5145 21.0634 -7.4923 0.1078 0 1
-15.6693 22.3896 -8.1815 0.1107 0 1
-17.6870 23.2280 -8.7405 0.0875 0 2
-20.8943 25.2667 -9.8157 0.0779 0 2
-24.8490 27.7040 -11.1415 0.0686 0 25
-22.4836 23.1270 -9.6565 0.7149 0 5
-22.5697 21.4229 -9.3161 0.7415 0 5
-22.6915 19.8686 -9.0295 0.8221 0 5
-22.7523 18.3613 -8.7530 0.8065 0 5
-22.8252 16.9530 -8.5121 0.8428 0 5
-32.6762 22.2910 -11.8421 0.8379 0 3
-28.4576 17.7820 -10.0461 0.5134 0 3
-28.7033 16.3709 -9.8926 0.3763 0 3
-33.0804 17.1448 -11.1547 0.8946 0 3
-36.8171 17.2427 -12.1712 0.9858 0 3
-42.0890 17.6872 -13.6680 0.3774 0 3
-42.6062 15.9233 -13.6172 0.8550 0 3
-45.9497 9.1705 -14.0277 0.9624 0 22
-45.9478 7.2652 -13.9268 0.9920 0 22
-30.9023 -25.3337 -11.9631 0.6073 0 20
-34.9470 -31.0780 -14.0011 0.6307 0 20
-28.2805 -27.2603 -11.7596 0.9053 0 9
-26.0523 -27.2139 -11.2788 0.6065 0 9
-23.4157 -26.5138 -10.5901 0.6946 0 9
-20.2285 -24.8486 -9.5925 0.0797 0 2
-17.1585 -22.8975 -8.5662 0.6843 0 2
-14.9035 -21.6482 -7.8684 0.0758 0 1
-12.6031 -19.9796 -7.0721 0.1065 0 1
-10.7570 -18.6752 -6.4522 0.1185 0 1
-9.1719 -17.5138 -5.9188 0.1279 0 1
1.7465 -7.3103 -2.3412 0.3633 0 1
1.9683 -6.9848 -2.2605 0.3744 0 24
2.1855 -6.7105 -2.1984 0.3869 0 1
2.3815 -6.4241 -2.1342 0.3975 0 1
2.5639 -6.1467 -2.0746 0.4089 0 1
2.7337 -5.8776 -2.0192 0.4201 0 1
2.8919 -5.6161 -1.9677 0.4309 0 1
3.0392 -5.3616 -1.9198 0.4416 0 1
3.1675 -5.0992 -1.8699 0.4374 0 1
3.2845 -4.8423 -1.8226 0.4488 0 1
3.3926 -4.5931 -1.7787 0.4599 0 1
3.4948 -4.3541 -1.7391 0.4634 0 1
3.5893 -4.1212 -1.7024 0.4734 0 1
3.6766 -3.8940 -1.6682 0.4831 0 1
3.7654 -3.6801 -1.6401 0.5113 0 1
3.8482 -3.4700 -1.6141 0.5196 0 1
3.9251 -3.2634 -1.5900 0.5274 0 1
3.9964 -3.0598 -1.5678 0.5349 0 1
4.0625 -2.8592 -1.5474 0.5419 0 1
4.1240 -2.6615 -1.5289 0.5486 0 1
4.1814 -2.4665 -1.5122 0.5546 0 1
4.2342 -2.2735 -1.4970 0.5603 0 1
4.2826 -2.0825 -1.4834 0.5655 0 1
4.3268 -1.8931 -1.4711 0.5702 0 1
4.3669 -1.7052 -1.4603 0.5745 0 1
4.4030 -1.5185 -1.4508 0.5782 0 1
4.4353 -1.3329 -1.4426 0.5815 0 1
4.4642 -1.1483 -1.4358 0.5873 0 1
3.9376 -0.8458 -1.2545 0.7145 25 14
3.9197 -0.6786 -1.2391 0.7320 25 14
3.9091 -0.5161 -1.2282 0.7750 25 14
3.8969 -0.3560 -1.2189 0.7809 25 14
3.8857 -0.1981 -1.2120 0.7854 25 14
3.8755 -0.0417 -1.2073 0.7884 25 14
3.8782 0.1141 -1.2086 0.7876 25 14
3.8842 0.2707 -1.2128 0.7848 25 14
3.8896 0.4286 -1.2189 0.7441 25 14
3.8936 0.5881 -1.2266 0.7394 25 14
3.9023 0.7508 -1.2378 0.7241 25 14
4.2773 1.0026 -1.3685 0.3395 25 14
4.5454 1.2600 -1.4693 0.5648 0 1
4.5223 1.4515 -1.4794 0.5610 0 1
4.4950 1.6446 -1.4910 0.5566 0 1
4.4636 1.8396 -1.5039 0.5518 0 1
4.4279 2.0366 -1.5182 0.5466 0 1
4.3880 2.2359 -1.5340 0.5406 0 1
4.3434 2.4377 -1.5515 0.5346 0 1
4.2941 2.6421 -1.5705 0.5281 0 1
4.2398 2.8496 -1.5912 0.5212 0 1
4.1803 3.0603 -1.6138 0.5140 0 1
4.1158 3.2748 -1.6384 0.5062 0 1
4.0454 3.4931 -1.6649 0.4982 0 1
3.9689 3.7155 -1.6935 0.4898 0 1
3.8860 3.9423 -1.7243 0.4810 0 1
3.7961 4.1739 -1.7574 0.4719 0 1
3.6975 4.4089 -1.7924 0.4760 0 1
3.5873 4.6442 -1.8280 0.4668 0 1
3.4713 4.8879 -1.8674 0.4549 0 1
3.3468 5.1377 -1.9100 0.4447 0 1
3.2126 5.3937 -1.9555 0.4312 0 1
3.0674 5.6546 -2.0039 0.4208 0 1
2.9113 5.9227 -2.0557 0.4102 0 1
2.7435 6.1983 -2.1114 0.3997 0 1
2.5628 6.4817 -2.1711 0.3887 0 1
2.3655 6.7654 -2.2325 0.4004 0 1
2.1513 7.0495 -2.2959 0.3893 0 1
1.9219 7.3420 -2.3640 0.3781 0 1
1.6795 7.6593 -2.4425 0.3462 0 1
1.4221 8.0108 -2.5343 0.3337 0 1
1.1425 8.3786 -2.6340 0.3211 0 1
0.8376 8.7572 -2.7403 0.3080 0 1
0.5042 9.1264 -2.8472 0.3177 0 1
0.1426 9.4949 -2.9579 0.3058 0 1
-0.2485 9.8786 -3.0781 0.2938 0 1
-0.6741 10.3057 -3.2171 0.2675 0 1
-1.1402 10.7689 -3.3732 0.2551 0 1
-1.6431 11.2012 -3.5265 0.2455 0 24
-2.2072 11.7413 -3.7214 0.2259 0 1
-2.8112 12.2272 -3.9081 0.2164 0 24
-3.5045 12.8546 -4.1503 0.2022 0 1
-4.2604 13.4704 -4.4008 0.1907 0 1
-5.1032 14.1341 -4.6809 0.1756 0 1
-6.0372 14.8278 -4.9870 0.1718 0 1
