ply
format ascii 1.0
element vertex 1382
property float32 x
property float32 y
property float32 z
property float32 CosAngle
property uint32 ObjIdx
property uint32 ObjTag
end_header
3.1912 -3.1557 -1.8481 0.5900 0 1
3.2687 -2.9824 -1.8220 0.5984 0 1
3.3409 -2.8109 -1.7979 0.6065 0 1
3.4085 -2.6414 -1.7757 0.6047 0 1
3.4722 -2.4743 -1.7557 0.6116 0 1
3.5314 -2.3084 -1.7373 0.6180 0 1
3.5867 -2.1440 -1.7207 0.6242 0 1
3.6379 -1.9808 -1.7057 0.6297 0 1
3.6854 -1.8188 -1.6923 0.6380 0 1
3.7289 -1.6575 -1.6803 0.6425 0 1
3.7684 -1.4969 -1.6697 0.6466 0 1
3.8042 -1.3368 -1.6604 0.6503 0 1
3.8361 -1.1773 -1.6524 0.6534 0 1
3.8644 -1.0181 -1.6456 0.6561 0 1
3.8891 -0.8592 -1.6401 0.6583 0 1
3.9102 -0.7004 -1.6358 0.6600 0 1
3.9278 -0.5418 -1.6327 0.6613 0 1
3.9419 -0.3832 -1.6309 0.6620 0 1
3.9525 -0.2245 -1.6302 0.6623 0 1
3.9599 -0.0656 -1.6309 0.6613 0 1
3.9665 0.0936 -1.6338 0.6601 0 1
3.9696 0.2535 -1.6379 0.6585 0 1
3.9692 0.4140 -1.6433 0.6563 0 1
3.9644 0.5753 -1.6496 0.6441 0 1
3.9526 0.7367 -1.6556 0.6418 0 1
3.9371 0.8988 -1.6629 0.6390 0 1
3.9177 1.0616 -1.6714 0.6357 0 1
3.8946 1.2252 -1.6812 0.6320 0 1
3.8676 1.3897 -1.6923 0.6279 0 1
3.8365 1.5552 -1.7047 0.6233 0 1
3.8013 1.7218 -1.7184 0.6183 0 1
3.7620 1.8895 -1.7335 0.6129 0 1
3.7182 2.0586 -1.7501 0.6071 0 1
3.6701 2.2290 -1.7682 0.6005 0 1
3.6174 2.4011 -1.7879 0.5939 0 1
3.5603 2.5749 -1.8093 0.5869 0 1
3.4982 2.7505 -1.8324 0.5795 0 1
3.4309 2.9280 -1.8573 0.5717 0 1
3.3581 3.1075 -1.8840 0.5636 0 1
3.2798 3.2892 -1.9127 0.5594 0 1
3.1961 3.4738 -1.9438 0.5504 0 1
3.1063 3.6608 -1.9770 0.5412 0 1
3.0098 3.8505 -2.0125 0.5317 0 1
2.9061 4.0425 -2.0501 0.5261 0 1
2.7922 4.2329 -2.0881 0.5165 0 1
2.6707 4.4257 -2.1285 0.5072 0 1
2.5411 4.6208 -2.1715 0.4972 0 1
2.4030 4.8185 -2.2172 0.4869 0 1
2.2560 5.0189 -2.2659 0.4765 0 1
2.0995 5.2221 -2.3176 0.4658 0 1
1.9219 5.3971 -2.3591 0.4557 0 24
1.7466 5.6079 -2.4186 0.4444 0 24
1.5668 5.8482 -2.4931 0.4334 0 1
1.3659 6.0629 -2.5592 0.4222 0 1
1.1521 6.2807 -2.6294 0.4109 0 1
0.9246 6.5023 -2.7045 0.3997 0 1
0.6825 6.7284 -2.7848 0.3880 0 1
0.4244 6.9582 -2.8706 0.3765 0 1
0.1492 7.1914 -2.9619 0.3648 0 1
-0.1443 7.4281 -3.0593 0.3532 0 1
-0.4575 7.6674 -3.1629 0.3444 0 1
-0.7914 7.9066 -3.2721 0.3329 0 1
-1.1478 8.1485 -3.3885 0.3215 0 1
-1.5276 8.3896 -3.5115 0.3110 0 1
-1.9326 8.6314 -3.6423 0.2999 0 1
-2.3650 8.8743 -3.7818 0.2889 0 1
-2.8266 9.1177 -3.9308 0.2779 0 1
-3.3183 9.3573 -4.0883 0.2656 0 1
-3.8466 9.6040 -4.2601 0.2567 0 1
-4.4107 9.8469 -4.4430 0.2461 0 1
-5.0152 10.0896 -4.6397 0.2316 0 1
-5.6662 10.3359 -4.8537 0.2214 0 1
-6.3500 10.5542 -5.0720 0.2165 0 1
-7.0802 10.7642 -5.3054 0.2058 0 1
-7.8273 10.9183 -5.5319 0.1903 0 24
-8.6744 11.1275 -5.8099 0.1831 0 24
-9.5773 11.3173 -6.1050 0.1773 0 24
-10.5371 11.4827 -6.4175 0.1711 0 24
-11.5701 11.6338 -6.7564 0.1591 0 24
-12.6844 11.7688 -7.1251 0.1521 0 24
-13.9394 11.9281 -7.5547 0.1409 0 1
-15.3019 12.0642 -8.0239 0.1176 0 1
-16.8147 12.1946 -8.5532 0.1185 0 1
-17.8720 11.8964 -8.8407 0.9971 0 2
-19.1330 11.6550 -9.2253 0.1100 0 2
-20.7032 11.4978 -9.7517 0.1041 0 2
-22.3336 11.2545 -10.2983 0.0985 0 2
-24.0102 10.9133 -10.8603 0.0934 0 2
-25.7137 10.4630 -11.4314 0.0888 0 2
-27.4193 9.8932 -12.0032 0.0845 0 2
-29.0964 9.1956 -12.5655 0.0808 0 2
-30.7087 8.3646 -13.1060 0.0774 0 2
-16.7967 3.8579 -7.0967 0.8697 26 14
-16.7951 3.1534 -7.0368 0.9454 26 14
-17.3705 2.5441 -7.2292 0.2350 26 14
-37.7034 3.9832 -15.6120 0.0686 0 1
-38.4327 2.5050 -15.8595 0.0657 0 1
-38.7868 0.9666 -15.9766 0.0654 0 1
-38.7894 -0.5917 -15.9746 0.0694 0 1
-38.3357 -2.1269 -15.8102 0.0707 0 24
-35.9463 -3.4467 -14.8699 0.0684 0 25
-32.8413 -4.4863 -13.6490 0.1185 0 20
-25.0829 -4.4590 -10.4906 0.9852 0 20
-34.1544 -7.4980 -14.3991 0.0739 0 1
-32.6094 -8.5448 -13.8813 0.0761 0 1
-30.7895 -9.4044 -13.2568 0.0704 0 1
-28.8429 -10.0930 -12.5831 0.0751 0 1
-26.8693 -10.6318 -11.8989 0.0809 0 1
-24.9357 -11.0446 -11.2302 0.0926 0 1
-23.1218 -11.3729 -10.6106 0.1022 0 1
-21.4210 -11.6271 -10.0364 0.1076 0 1
-19.8644 -11.8389 -9.5223 0.1206 0 1
-18.3639 -11.9694 -9.0264 0.1200 0 1
-16.8945 -12.0051 -8.5344 0.1269 0 1
-15.4715 -11.9573 -8.0518 0.1301 0 1
-14.1324 -11.8587 -7.5968 0.1368 0 1
-12.8262 -11.6718 -7.1411 0.1448 0 24
-11.7221 -11.5611 -6.7796 0.1577 0 1
-10.6592 -11.3928 -6.4245 0.1664 0 1
-9.6807 -11.2180 -6.1016 0.1821 0 1
-8.7845 -11.0469 -5.8118 0.1912 0 1
-7.9442 -10.8583 -5.5402 0.2006 0 1
-7.1514 -10.6470 -5.2814 0.2079 0 1
-6.4098 -10.4243 -5.0391 0.2179 0 1
-5.6981 -10.1599 -4.7967 0.2277 0 24
-5.0698 -9.9571 -4.6010 0.2374 0 1
-4.4651 -9.7159 -4.4031 0.2481 0 1
-3.8876 -9.4410 -4.2043 0.2590 0 24
-3.3727 -9.2268 -4.0453 0.2691 0 1
-2.8798 -8.9818 -3.8840 0.2803 0 1
-2.4188 -8.7360 -3.7327 0.2877 0 1
-1.9783 -8.4515 -3.5742 0.3027 0 24
-1.5829 -8.2409 -3.4555 0.3108 0 1
-1.2054 -7.9975 -3.3304 0.3225 0 1
-0.8525 -7.7594 -3.2144 0.3387 0 1
-0.5204 -7.5016 -3.0964 0.3518 0 24
-0.2122 -7.2922 -3.0041 0.3625 0 1
0.0783 -7.0636 -2.9089 0.3743 0 1
0.3508 -6.8384 -2.8196 0.3861 0 1
0.6066 -6.6164 -2.7360 0.3979 0 1
0.8468 -6.3979 -2.6575 0.4096 0 1
1.0725 -6.1826 -2.5839 0.4213 0 1
1.2844 -5.9696 -2.5144 0.4331 0 1
1.4832 -5.7583 -2.4486 0.4433 0 1
1.6639 -5.5299 -2.3779 0.4534 0 24
1.8376 -5.3224 -2.3186 0.4639 0 24
2.0001 -5.1171 -2.2624 0.4754 0 24
2.1656 -4.9450 -2.2230 0.4883 0 1
2.3112 -4.7486 -2.1747 0.4815 0 1
2.4412 -4.5427 -2.1236 0.4931 0 1
2.5626 -4.3409 -2.0757 0.5045 0 1
2.6758 -4.1430 -2.0309 0.5156 0 1
2.7814 -3.9489 -1.9889 0.5265 0 1
2.8837 -3.7635 -1.9524 0.5585 0 1
2.9810 -3.5828 -1.9192 0.5681 0 1
3.0721 -3.4044 -1.8883 0.5774 0 1
3.1574 -3.2282 -1.8594 0.5864 0 1
3.2371 -3.0541 -1.8326 0.5950 0 1
3.3115 -2.8819 -1.8077 0.6032 0 1
3.3808 -2.7115 -1.7846 0.6110 0 1
3.4463 -2.5435 -1.7638 0.6087 0 1
3.5074 -2.3771 -1.7447 0.6154 0 1
3.5642 -2.2121 -1.7274 0.6217 0 1
3.6172 -2.0485 -1.7118 0.6274 0 1
3.6661 -1.8860 -1.6977 0.6360 0 1
3.7113 -1.7244 -1.6851 0.6407 0 1
3.7525 -1.5635 -1.6740 0.6450 0 1
3.5803 2.2571 -1.7979 0.6064 0 1
3.5260 2.4261 -1.8182 0.5997 0 1
3.4672 2.5968 -1.8402 0.5926 0 1
3.4033 2.7691 -1.8638 0.5850 0 1
3.3342 2.9431 -1.8892 0.5772 0 1
3.2600 3.1193 -1.9167 0.5732 0 1
3.1805 3.2979 -1.9463 0.5645 0 1
3.0950 3.4786 -1.9779 0.5555 0 1
3.0032 3.6615 -2.0117 0.5461 0 1
2.9049 3.8469 -2.0477 0.5365 0 1
2.7983 4.0329 -2.0852 0.5311 0 1
2.6827 4.2185 -2.1237 0.5215 0 1
2.5596 4.4062 -2.1646 0.5121 0 1
2.4284 4.5959 -2.2081 0.5021 0 1
2.2888 4.7879 -2.2543 0.4918 0 1
2.1403 4.9821 -2.3035 0.4813 0 1
1.9707 5.1482 -2.3417 0.4714 0 24
1.8047 5.3488 -2.3980 0.4603 0 24
1.6360 5.5790 -2.4698 0.4492 0 1
1.4462 5.7826 -2.5321 0.4382 0 1
1.2403 5.9683 -2.5895 0.4261 0 24
1.0303 6.1974 -2.6688 0.4157 0 1
0.8027 6.4105 -2.7444 0.4044 0 1
0.5605 6.6259 -2.8248 0.3937 0 1
0.3029 6.8440 -2.9102 0.3813 0 1
0.0287 7.0649 -3.0012 0.3697 0 1
-0.2633 7.2882 -3.0980 0.3582 0 1
-0.5743 7.5132 -3.2009 0.3494 0 1
-0.9051 7.7369 -3.3091 0.3380 0 1
-1.2573 7.9617 -3.4241 0.3276 0 1
-1.6316 8.1838 -3.5449 0.3164 0 1
-2.0301 8.4060 -3.6736 0.3054 0 1
-2.4542 8.6276 -3.8104 0.2944 0 1
-2.9057 8.8480 -3.9562 0.2835 0 1
-3.3865 9.0664 -4.1113 0.2728 0 1
-3.8993 9.2837 -4.2775 0.2625 0 1
-4.4458 9.4973 -4.4546 0.2521 0 1
-5.0279 9.7055 -4.6433 0.2418 0 1
-5.6525 9.9147 -4.8482 0.2276 0 1
-6.3065 10.0966 -5.0570 0.2229 0 1
-7.0002 10.2653 -5.2782 0.2124 0 1
-7.7377 10.4216 -5.5139 0.2033 0 1
-8.5303 10.5739 -5.7713 0.1905 0 1
-9.3757 10.7114 -6.0471 0.1818 0 1
-10.2842 10.8383 -6.3470 0.1740 0 1
-11.2460 10.9367 -6.6639 0.1657 0 1
-12.2678 11.0071 -7.0016 0.1573 0 1
-13.3105 11.0106 -7.3382 0.1514 0 24
-14.4531 11.0089 -7.7179 0.1405 0 24
-15.8304 11.0825 -8.2089 0.1231 0 1
-17.1971 11.0375 -8.6806 0.1207 0 1
-18.5084 10.8552 -9.1149 0.9777 0 2
-19.2192 10.2578 -9.2544 0.1108 0 2
-20.5870 9.9471 -9.7127 0.1073 0 2
-21.9731 9.5483 -10.1774 0.1024 0 2
-23.3576 9.0530 -10.6416 0.0979 0 2
-24.7186 8.4553 -11.0978 0.0939 0 2
-26.5447 7.9044 -11.7656 0.2837 0 2
-28.3927 7.2271 -12.4459 0.0921 0 1
-16.6248 3.5274 -7.2194 0.8072 26 14
-16.6722 2.8431 -7.1846 0.9025 26 14
-18.3486 2.3753 -7.8596 0.1355 26 14
-32.8356 2.9158 -14.0035 0.0875 0 1
-33.2506 1.6105 -14.1415 0.0865 0 1
-33.3964 0.2748 -14.1873 0.0816 0 1
-33.2629 -1.0628 -14.1374 0.0819 0 1
-32.8164 -2.3706 -13.9768 0.0801 0 1
-30.5596 -3.4458 -13.0640 0.0800 0 25
-29.8184 -4.5814 -12.8156 0.0815 0 25
-28.8955 -5.6358 -12.5062 0.0836 0 25
-28.7597 -6.8186 -12.5559 0.0791 0 1
-27.4504 -7.6847 -12.1093 0.0844 0 1
-26.0302 -8.4282 -11.6229 0.0858 0 1
-24.5676 -9.0599 -11.1234 0.0969 0 1
-23.0845 -9.5828 -10.6177 0.1038 0 1
-21.6390 -10.0196 -10.1299 0.1088 0 1
-20.2448 -10.3809 -9.6647 0.1212 0 1
-18.9003 -10.6710 -9.2202 0.1204 0 1
-17.5370 -10.8524 -8.7608 0.1267 0 1
-16.2190 -10.9613 -8.3158 0.1293 0 1
-14.9405 -10.9964 -7.8805 0.1365 0 1
-13.7253 -10.9784 -7.4663 0.1429 0 1
-12.5770 -10.9163 -7.0745 0.1508 0 1
-11.4540 -10.7779 -6.6811 0.1593 0 24
-10.5269 -10.7347 -6.3869 0.1719 0 1
-9.5764 -10.5841 -6.0634 0.1880 0 24
-8.7616 -10.5022 -5.8100 0.1964 0 1
-7.9617 -10.3626 -5.5513 0.2055 0 1
-7.2019 -10.1965 -5.3030 0.2124 0 1
-6.4872 -10.0152 -5.0690 0.2222 0 1
-5.7977 -9.7914 -4.8339 0.2319 0 24
-5.1697 -9.5894 -4.6279 0.2421 0 24
-4.5964 -9.4124 -4.4497 0.2521 0 1
-4.0427 -9.1981 -4.2681 0.2619 0 1
-3.5235 -8.9797 -4.0978 0.2728 0 1
-3.0371 -8.7594 -3.9383 0.2839 0 1
-2.5806 -8.5358 -3.7881 0.2911 0 1
-2.1517 -8.3081 -3.6457 0.3025 0 1
-1.7499 -8.0811 -3.5124 0.3140 0 1
-1.3735 -7.8565 -3.3881 0.3281 0 1
-1.0209 -7.6359 -3.2726 0.3416 0 1
-0.6897 -7.4151 -3.1636 0.3534 0 1
-0.3787 -7.1965 -3.0613 0.3652 0 1
-0.0863 -6.9620 -2.9577 0.3775 0 24
0.1879 -6.7661 -2.8753 0.3887 0 1
0.4460 -6.5545 -2.7908 0.4005 0 1
0.6887 -6.3455 -2.7114 0.4122 0 1
0.9170 -6.1391 -2.6368 0.4239 0 1
1.1319 -5.9352 -2.5667 0.4355 0 1
1.3338 -5.7319 -2.5000 0.4459 0 1
1.5182 -5.5117 -2.4286 0.4558 0 24
1.7020 -5.3325 -2.3779 0.4688 0 1
1.8614 -5.1130 -2.3115 0.4781 0 24
2.0168 -4.9163 -2.2574 0.4887 0 24
2.1770 -4.7535 -2.2210 0.5019 0 1
2.3125 -4.5566 -2.1706 0.4954 0 1
2.4373 -4.3593 -2.1216 0.5068 0 1
2.5539 -4.1657 -2.0757 0.5181 0 1
2.6627 -3.9755 -2.0326 0.5290 0 1
2.7671 -3.7927 -1.9944 0.5614 0 1
2.8672 -3.6154 -1.9602 0.5712 0 1
2.9610 -3.4403 -1.9282 0.5807 0 1
3.0489 -3.2673 -1.8984 0.5898 0 1
3.1311 -3.0963 -1.8706 0.5985 0 1
3.2080 -2.9270 -1.8448 0.6069 0 1
3.2797 -2.7594 -1.8208 0.6149 0 1
3.3465 -2.5934 -1.7985 0.6225 0 1
3.4088 -2.4291 -1.7781 0.6201 0 1
3.4675 -2.2666 -1.7598 0.6265 0 1
3.5224 -2.1056 -1.7433 0.6326 0 1
3.5736 -1.9458 -1.7285 0.6414 0 1
3.6208 -1.7869 -1.7152 0.6464 0 1
3.6640 -1.6286 -1.7033 0.6509 0 1
3.7033 -1.4710 -1.6927 0.6550 0 1
3.7387 -1.3138 -1.6834 0.6586 0 1
3.7705 -1.1571 -1.6754 0.6617 0 1
3.7986 -1.0007 -1.6687 0.6644 0 1
3.8231 -0.8446 -1.6632 0.6666 0 1
3.8440 -0.6886 -1.6589 0.6683 0 1
3.8614 -0.5327 -1.6559 0.6695 0 1
3.8753 -0.3767 -1.6540 0.6703 0 1
3.8858 -0.2207 -1.6533 0.6706 0 1
3.8930 -0.0645 -1.6540 0.6696 0 1
3.8993 0.0920 -1.6569 0.6684 0 1
3.9022 0.2492 -1.6610 0.6667 0 1
3.9015 0.4070 -1.6664 0.6646 0 1
3.8952 0.5653 -1.6720 0.6525 0 1
3.8833 0.7238 -1.6781 0.6502 0 1
3.8678 0.8830 -1.6853 0.6474 0 1
3.8485 1.0428 -1.6938 0.6441 0 1
3.8253 1.2034 -1.7035 0.6405 0 1
3.7983 1.3648 -1.7145 0.6364 0 1
3.7673 1.5272 -1.7269 0.6318 0 1
3.7323 1.6905 -1.7405 0.6269 0 1
3.6930 1.8549 -1.7556 0.6215 0 1
3.6495 2.0205 -1.7720 0.6157 0 1
3.6015 2.1874 -1.7900 0.6091 0 1
3.5491 2.3557 -1.8095 0.6026 0 1
3.4922 2.5257 -1.8308 0.5956 0 1
3.4305 2.6973 -1.8538 0.5882 0 1
3.3636 2.8706 -1.8785 0.5805 0 1
3.2914 3.0457 -1.9050 0.5767 0 1
3.2142 3.2234 -1.9338 0.5682 0 1
3.1312 3.4032 -1.9645 0.5593 0 1
3.0421 3.5852 -1.9974 0.5501 0 1
2.9465 3.7696 -2.0325 0.5406 0 1
2.8442 3.9564 -2.0699 0.5308 0 1
2.7316 4.1411 -2.1074 0.5255 0 1
2.6117 4.3279 -2.1473 0.5157 0 1
2.4839 4.5168 -2.1897 0.5063 0 1
2.3478 4.7078 -2.2348 0.4961 0 1
2.2031 4.9011 -2.2827 0.4857 0 1
2.0492 5.0968 -2.3336 0.4751 0 1
1.8855 5.2949 -2.3877 0.4647 0 1
1.7115 5.4951 -2.4449 0.4538 0 1
1.5265 5.6977 -2.5058 0.4428 0 1
1.3299 5.9028 -2.5704 0.4317 0 1
1.1209 6.1104 -2.6390 0.4204 0 1
0.8989 6.3215 -2.7124 0.4092 0 1
0.6630 6.5362 -2.7908 0.3985 0 1
0.4119 6.7530 -2.8740 0.3861 0 1
0.1447 6.9728 -2.9627 0.3745 0 1
-0.1398 7.1951 -3.0571 0.3630 0 1
-0.4427 7.4198 -3.1575 0.3514 0 1
-0.7651 7.6438 -3.2633 0.3428 0 1
-1.1083 7.8684 -3.3755 0.3314 0 1
-1.4733 8.0915 -3.4938 0.3210 0 1
-1.8615 8.3138 -3.6191 0.3099 0 1
-2.2747 8.5357 -3.7525 0.2989 0 1
-2.7147 8.7567 -3.8945 0.2880 0 1
-3.1831 8.9760 -4.0457 0.2773 0 1
-3.6823 9.1937 -4.2071 0.2669 0 1
-4.2145 9.4091 -4.3797 0.2564 0 1
-4.7816 9.6198 -4.5635 0.2460 0 1
-5.3878 9.8281 -4.7612 0.2318 0 1
-6.0303 10.0229 -4.9690 0.2269 0 1
-6.7069 10.1967 -5.1846 0.2174 0 1
-7.4260 10.3587 -5.4143 0.2071 0 1
-8.1937 10.5108 -5.6614 0.1942 0 1
-9.0184 10.6569 -5.9305 0.1853 0 1
-9.8703 10.7560 -6.2014 0.1786 0 24
-10.7979 10.8574 -6.5048 0.1726 0 24
-11.7935 10.9422 -6.8341 0.1614 0 24
-12.8976 11.0367 -7.2111 0.1529 0 1
-14.0221 11.0551 -7.5852 0.1454 0 1
-15.2680 11.0729 -8.0120 0.1261 0 1
-16.5762 11.0338 -8.4589 0.1179 0 24
-18.2756 11.1327 -9.0905 0.1375 0 2
-18.8483 10.4677 -9.1587 0.9736 0 2
-20.0151 10.0861 -9.5210 0.1094 0 2
-21.3964 9.7253 -9.9841 0.1044 0 2
-22.7840 9.2709 -10.4493 0.0997 0 2
-24.1576 8.7164 -10.9098 0.0955 0 2
-25.5123 8.0629 -11.3660 0.0845 0 2
-28.2451 7.6936 -12.4357 0.0927 0 2
-16.6202 3.8173 -7.2441 0.8045 26 14
-16.6425 3.1247 -7.1933 0.9014 26 14
-16.9116 2.4769 -7.2607 0.4283 26 14
-32.5991 3.4440 -13.9252 0.0880 0 1
-33.1060 2.1578 -14.0933 0.0869 0 1
-33.3780 0.8318 -14.1834 0.0863 0 1
-33.3474 -0.5087 -14.1677 0.0818 0 1
-33.0353 -1.8328 -14.0550 0.0793 0 1
-30.8079 -2.9540 -13.1473 0.0795 0 25
-30.1500 -4.1186 -12.9267 0.0808 0 25
-24.9858 -4.4418 -10.7804 0.9845 0 20
-29.2667 -6.4250 -12.7286 0.0780 0 1
-27.9986 -7.3366 -12.2954 0.0803 0 1
-26.6335 -8.1350 -11.8300 0.0862 0 1
-25.1695 -8.8076 -11.3278 0.0951 0 1
-23.6943 -9.3755 -10.8247 0.0984 0 1
-22.2382 -9.8498 -10.3320 0.1067 0 1
-20.8145 -10.2381 -9.8538 0.1188 0 1
-19.4514 -10.5581 -9.4017 0.1245 0 1
-18.0971 -10.7856 -8.9495 0.1240 0 1
-16.7685 -10.9295 -8.5028 0.1308 0 1
-15.4633 -10.9881 -8.0584 0.1334 0 1
-14.2230 -10.9924 -7.6361 0.1397 0 1
-13.0457 -10.9468 -7.2344 0.1475 0 1
-11.9466 -10.8714 -6.8617 0.1600 0 1
-10.9309 -10.7807 -6.5219 0.1683 0 1
-9.9777 -10.6644 -6.2039 0.1839 0 1
-9.1082 -10.5545 -5.9222 0.1927 0 1
-8.2882 -10.4228 -5.6569 0.2017 0 1
-7.5124 -10.2682 -5.4047 0.2086 0 1
-6.7786 -10.0919 -5.1644 0.2181 0 1
-6.0901 -9.9044 -4.9391 0.2281 0 1
-5.4438 -9.7066 -4.7276 0.2373 0 1
-4.8371 -9.4999 -4.5286 0.2477 0 1
-4.2685 -9.2880 -4.3423 0.2574 0 1
-3.7351 -9.0708 -4.1672 0.2683 0 1
-3.2354 -8.8511 -4.0033 0.2793 0 1
-2.7671 -8.6300 -3.8499 0.2904 0 1
-2.3265 -8.4026 -3.7037 0.2978 0 1
-1.9065 -8.1446 -3.5534 0.3132 0 24
-1.5269 -7.9494 -3.4386 0.3233 0 1
-1.1647 -7.7275 -3.3197 0.3377 0 1
-0.8220 -7.4821 -3.1975 0.3492 0 24
-0.5055 -7.2870 -3.1030 0.3603 0 1
-0.2057 -7.0697 -3.0045 0.3721 0 1
0.0760 -6.8547 -2.9121 0.3838 0 1
0.3407 -6.6421 -2.8253 0.3956 0 1
0.5897 -6.4320 -2.7438 0.4074 0 1
0.8239 -6.2245 -2.6672 0.4191 0 1
1.0442 -6.0196 -2.5953 0.4307 0 1
1.2515 -5.8163 -2.5273 0.4413 0 1
1.4461 -5.6141 -2.4627 0.4526 0 1
1.6292 -5.4146 -2.4020 0.4640 0 1
1.7937 -5.1953 -2.3348 0.4737 0 24
1.9535 -4.9978 -2.2795 0.4845 0 24
2.1163 -4.8323 -2.2410 0.4974 0 1
2.2581 -4.6396 -2.1920 0.4906 0 1
2.3865 -4.4408 -2.1416 0.5021 0 1
2.5064 -4.2457 -2.0944 0.5134 0 1
2.6184 -4.0541 -2.0501 0.5245 0 1
2.7236 -3.8670 -2.0093 0.5572 0 1
2.8264 -3.6888 -1.9741 0.5672 0 1
2.9228 -3.5128 -1.9412 0.5768 0 1
3.0131 -3.3390 -1.9105 0.5860 0 1
3.0976 -3.1671 -1.8819 0.5949 0 1
3.1767 -2.9971 -1.8553 0.6035 0 1
3.2505 -2.8289 -1.8305 0.6117 0 1
3.3194 -2.6622 -1.8076 0.6194 0 1
3.3834 -2.4971 -1.7863 0.6268 0 1
3.4437 -2.3340 -1.7672 0.6239 0 1
3.5001 -2.1723 -1.7499 0.6302 0 1
3.5528 -2.0121 -1.7345 0.6392 0 1
3.6017 -1.8528 -1.7206 0.6443 0 1
3.6465 -1.6943 -1.7081 0.6491 0 1
3.6874 -1.5364 -1.6970 0.6533 0 1
3.5136 2.2151 -1.8191 0.6150 0 1
3.4597 2.3805 -1.8392 0.6083 0 1
3.4012 2.5473 -1.8610 0.6012 0 1
3.3377 2.7157 -1.8845 0.5937 0 1
3.2694 2.8859 -1.9099 0.5902 0 1
3.1961 3.0582 -1.9373 0.5819 0 1
3.1172 3.2322 -1.9666 0.5732 0 1
3.0324 3.4082 -1.9979 0.5642 0 1
2.9415 3.5862 -2.0313 0.5549 0 1
2.8441 3.7664 -2.0669 0.5454 0 1
2.7390 3.9474 -2.1041 0.5400 0 1
2.6248 4.1274 -2.1421 0.5304 0 1
2.5033 4.3093 -2.1826 0.5206 0 1
2.3740 4.4929 -2.2255 0.5111 0 1
2.2365 4.6784 -2.2710 0.5009 0 1
2.0903 4.8659 -2.3193 0.4904 0 1
1.9239 5.0258 -2.3568 0.4806 0 24
1.7608 5.2187 -2.4121 0.4696 0 24
1.5951 5.4397 -2.4826 0.4586 0 1
1.4092 5.6347 -2.5437 0.4475 0 1
1.2119 5.8317 -2.6085 0.4364 0 1
0.9998 6.0144 -2.6701 0.4241 0 24
0.7805 6.2334 -2.7512 0.4139 0 1
0.5446 6.4380 -2.8296 0.4032 0 1
0.2940 6.6440 -2.9125 0.3918 0 1
0.0278 6.8519 -3.0008 0.3794 0 1
-0.2551 7.0616 -3.0946 0.3679 0 1
-0.5559 7.2727 -3.1943 0.3564 0 1
-0.8753 7.4824 -3.2992 0.3479 0 1
-1.2146 7.6913 -3.4101 0.3366 0 1
-1.5744 7.8965 -3.5263 0.3263 0 1
-1.9563 8.1006 -3.6496 0.3153 0 1
-2.3618 8.3029 -3.7805 0.3044 0 1
-2.7923 8.5028 -3.9194 0.2937 0 1
-3.2494 8.6993 -4.0669 0.2830 0 1
-3.7345 8.8913 -4.2234 0.2699 0 1
-4.2514 9.0821 -4.3917 0.2595 0 1
-4.7996 9.2647 -4.5696 0.2521 0 1
-5.3809 9.4383 -4.7580 0.2421 0 1
-5.9964 9.6002 -4.9571 0.2333 0 1
-6.6415 9.7393 -5.1626 0.2241 0 1
-7.3226 9.8625 -5.3796 0.2138 0 1
-8.0445 9.9717 -5.6110 0.2010 0 1
-8.8177 10.0739 -5.8632 0.1923 0 1
-9.6450 10.1646 -6.1366 0.1838 0 1
-10.5168 10.2275 -6.4246 0.1763 0 1
-11.4334 10.2585 -6.7273 0.1679 0 1
-12.4066 10.2629 -7.0515 0.1605 0 1
-13.4243 10.2253 -7.3904 0.1531 0 1
-14.4945 10.1472 -7.7488 0.1456 0 1
-15.6953 10.0736 -8.1677 0.1299 0 1
-16.8857 9.9035 -8.5731 0.1256 0 1
-18.0953 9.6580 -8.9829 0.1196 0 1
-19.3056 9.3279 -9.3900 0.1186 0 1
-20.5759 8.9411 -9.8251 0.8004 0 2
-21.6740 8.4005 -10.1800 0.6433 0 2
-23.2275 7.9453 -10.7510 0.1123 0 2
-24.0015 7.1471 -10.9675 0.1000 0 1
-25.0773 6.3832 -11.3327 0.0980 0 1
-16.4451 3.4893 -7.3624 0.9609 26 14
-16.4828 2.8109 -7.3228 0.8557 26 14
-17.6849 2.2894 -7.8096 0.1353 26 14
-28.2675 2.5101 -12.4283 0.0795 0 1
-28.4995 1.3804 -12.4958 0.0805 0 24
-28.7719 0.2367 -12.6010 0.0800 0 1
-28.6645 -0.9159 -12.5599 0.0803 0 1
-28.2106 -2.0379 -12.3869 0.0847 0 24
-26.7273 -3.0137 -11.7793 0.0910 0 25
-26.1415 -4.0165 -11.5829 0.0926 0 25
-22.4134 -4.3715 -10.0008 0.1796 16 6
-24.5477 -5.8200 -11.0486 0.0970 0 25
-24.2145 -6.7788 -11.0123 0.0991 0 1
-23.1297 -7.4890 -10.6473 0.1047 0 1
-21.9928 -8.1104 -10.2657 0.1106 0 1
-20.8039 -8.6361 -9.8648 0.1190 0 1
-19.6315 -9.0901 -9.4745 0.1245 0 1
-18.4473 -9.4592 -9.0791 0.1241 0 1
-17.2055 -9.7142 -8.6531 0.1270 0 24
-16.0611 -9.9391 -8.2718 0.1328 0 1
-14.8984 -10.0688 -7.8750 0.1395 0 1
-13.7786 -10.1412 -7.4925 0.1461 0 1
-12.7073 -10.1641 -7.1263 0.1536 0 1
-11.7046 -10.1592 -6.7875 0.1662 0 1
-10.7620 -10.1268 -6.4717 0.1743 0 1
-9.8749 -10.0698 -6.1767 0.1897 0 1
-9.0551 -10.0079 -5.9107 0.1982 0 1
-8.2770 -9.9214 -5.6585 0.2071 0 1
-7.5368 -9.8095 -5.4176 0.2133 0 1
-6.8324 -9.6734 -5.1866 0.2229 0 1
-6.1682 -9.5228 -4.9689 0.2322 0 1
-5.5421 -9.3597 -4.7637 0.2416 0 1
-4.9516 -9.1849 -4.5698 0.2519 0 1
-4.3959 -9.0020 -4.3873 0.2614 0 1
-3.8611 -8.7849 -4.2025 0.2728 0 24
-3.3812 -8.6171 -4.0539 0.2829 0 1
-2.9190 -8.4187 -3.9023 0.2900 0 1
-2.4828 -8.2123 -3.7573 0.3012 0 1
-2.0731 -8.0047 -3.6213 0.3150 0 1
-1.6886 -7.7979 -3.4942 0.3264 0 1
-1.3229 -7.5670 -3.3642 0.3401 0 24
-0.9878 -7.3880 -3.2643 0.3514 0 1
-0.6680 -7.1822 -3.1590 0.3631 0 1
-0.3671 -6.9775 -3.0600 0.3749 0 1
-0.0838 -6.7569 -2.9594 0.3871 0 24
0.1826 -6.5723 -2.8794 0.3983 0 1
0.4336 -6.3721 -2.7971 0.4100 0 1
0.6701 -6.1738 -2.7197 0.4217 0 1
0.8929 -5.9774 -2.6468 0.4333 0 1
1.1029 -5.7829 -2.5782 0.4432 0 1
1.2961 -5.5699 -2.5045 0.4558 0 24
1.4863 -5.3958 -2.4511 0.4666 0 1
1.6615 -5.2054 -2.3930 0.4779 0 1
1.8180 -4.9939 -2.3275 0.4881 0 24
1.9709 -4.8042 -2.2742 0.4975 0 24
2.1285 -4.6475 -2.2387 0.5109 0 1
2.2606 -4.4543 -2.1876 0.5043 0 1
2.3838 -4.2636 -2.1393 0.5157 0 1
2.4990 -4.0762 -2.0939 0.5269 0 1
2.6067 -3.8920 -2.0515 0.5600 0 1
2.7122 -3.7174 -2.0153 0.5700 0 1
2.8112 -3.5449 -1.9814 0.5798 0 1
2.9042 -3.3743 -1.9497 0.5892 0 1
2.9912 -3.2056 -1.9201 0.5983 0 1
3.0728 -3.0386 -1.8926 0.6070 0 1
3.1490 -2.8732 -1.8669 0.6154 0 1
3.2202 -2.7094 -1.8430 0.6233 0 1
3.2865 -2.5469 -1.8209 0.6309 0 1
3.3482 -2.3858 -1.8005 0.6380 0 1
3.4054 -2.2260 -1.7817 0.6349 0 1
3.4601 -2.0684 -1.7654 0.6443 0 1
3.5110 -1.9117 -1.7508 0.6497 0 1
3.5579 -1.7558 -1.7376 0.6547 0 1
3.6007 -1.6005 -1.7257 0.6592 0 1
3.6397 -1.4457 -1.7152 0.6632 0 1
3.6750 -1.2914 -1.7059 0.6668 0 1
3.7065 -1.1375 -1.6979 0.6699 0 1
3.7343 -0.9838 -1.6912 0.6726 0 1
3.7586 -0.8303 -1.6857 0.6748 0 1
3.7793 -0.6770 -1.6815 0.6765 0 1
3.7966 -0.5237 -1.6784 0.6777 0 1
3.8103 -0.3704 -1.6766 0.6785 0 1
3.8206 -0.2170 -1.6759 0.6787 0 1
3.8276 -0.0634 -1.6765 0.6778 0 1
3.8337 0.0905 -1.6794 0.6766 0 1
3.8364 0.2450 -1.6835 0.6749 0 1
3.8356 0.4001 -1.6889 0.6728 0 1
3.8278 0.5555 -1.6939 0.6609 0 1
3.8159 0.7112 -1.6999 0.6585 0 1
3.8003 0.8676 -1.7071 0.6557 0 1
3.7810 1.0245 -1.7156 0.6525 0 1
3.7579 1.1822 -1.7253 0.6489 0 1
3.7309 1.3406 -1.7362 0.6448 0 1
3.7000 1.4999 -1.7485 0.6402 0 1
3.6650 1.6600 -1.7621 0.6353 0 1
3.6259 1.8212 -1.7770 0.6300 0 1
3.5825 1.9835 -1.7934 0.6242 0 1
3.5348 2.1468 -1.8112 0.6181 0 1
3.4826 2.3115 -1.8306 0.6111 0 1
3.4261 2.4778 -1.8517 0.6042 0 1
3.3647 2.6456 -1.8745 0.5968 0 1
3.2983 2.8149 -1.8990 0.5936 0 1
3.2272 2.9864 -1.9256 0.5854 0 1
3.1507 3.1597 -1.9542 0.5769 0 1
3.0684 3.3349 -1.9846 0.5680 0 1
2.9800 3.5120 -2.0172 0.5588 0 1
2.8854 3.6913 -2.0519 0.5494 0 1
2.7841 3.8727 -2.0888 0.5397 0 1
2.6731 4.0524 -2.1261 0.5344 0 1
2.5547 4.2335 -2.1655 0.5247 0 1
2.4287 4.4165 -2.2073 0.5153 0 1
2.2946 4.6011 -2.2517 0.5052 0 1
2.1521 4.7878 -2.2989 0.4948 0 1
1.9887 4.9464 -2.3348 0.4851 0 24
1.8298 5.1383 -2.3887 0.4742 0 24
1.6692 5.3592 -2.4583 0.4631 0 1
1.4878 5.5534 -2.5179 0.4521 0 1
1.2953 5.7496 -2.5811 0.4410 0 1
1.0878 5.9299 -2.6403 0.4283 0 24
0.8744 6.1489 -2.7200 0.4187 0 1
0.6444 6.3530 -2.7965 0.4080 0 1
0.4000 6.5582 -2.8775 0.3965 0 1
0.1404 6.7653 -2.9635 0.3842 0 1
-0.1355 6.9743 -3.0550 0.3727 0 1
-0.4287 7.1849 -3.1522 0.3612 0 1
-0.7403 7.3957 -3.2551 0.3526 0 1
-1.0711 7.6045 -3.3632 0.3412 0 1
-1.4223 7.8114 -3.4772 0.3309 0 1
-1.7948 8.0160 -3.5975 0.3199 0 1
-2.1904 8.2191 -3.7252 0.3090 0 1
-2.6103 8.4201 -3.8607 0.2981 0 1
-3.0562 8.6181 -4.0046 0.2874 0 1
-3.5294 8.8121 -4.1572 0.2770 0 1
-4.0329 9.0035 -4.3205 0.2638 0 1
-4.5680 9.1900 -4.4945 0.2563 0 1
-5.1352 9.3673 -4.6784 0.2462 0 1
-5.7387 9.5383 -4.8750 0.2373 0 1
-6.3692 9.6833 -5.0759 0.2279 0 1
-7.0351 9.8133 -5.2880 0.2187 0 1
-7.7388 9.9274 -5.5126 0.2087 0 1
-8.4914 10.0341 -5.7567 0.1959 0 1
-9.2956 10.1298 -6.0211 0.1873 0 1
-10.1499 10.2057 -6.3036 0.1789 0 1
-11.0460 10.2487 -6.5990 0.1717 0 1
-11.9966 10.2657 -6.9149 0.1634 0 1
-12.9961 10.2462 -7.2477 0.1561 0 1
-14.0443 10.1855 -7.5979 0.1485 0 1
-15.1885 10.1101 -7.9906 0.1297 0 1
-16.3883 9.9830 -8.4039 0.1262 0 1
-17.5886 9.7681 -8.8110 0.1220 0 1
-18.8060 9.4768 -9.2226 0.1208 0 1
-20.1951 9.1793 -9.7151 0.8095 0 2
-21.1774 8.6172 -10.0130 0.7245 0 2
-22.5158 8.1240 -10.4829 0.5489 0 2
-23.5248 7.4347 -10.8048 0.1015 0 1
-24.6516 6.7148 -11.1894 0.0993 0 1
-16.4540 3.7792 -7.3936 0.9544 26 14
-16.4498 3.0886 -7.3300 0.9876 26 14
-16.6555 2.4394 -7.3720 0.4650 26 14
-28.0596 2.9644 -12.3569 0.0800 0 1
-28.4996 1.8575 -12.5078 0.0790 0 1
-28.7389 0.7162 -12.5900 0.0785 0 1
-28.7425 -0.4385 -12.5891 0.0801 0 1
-28.4919 -1.5807 -12.4971 0.0807 0 1
-27.0348 -2.5923 -11.8941 0.0932 0 2
-26.4039 -3.6069 -11.6708 0.0919 0 25
-25.0395 -4.4513 -11.1379 0.8063 0 20
-24.9191 -5.4705 -11.1731 0.0960 0 25
-24.6425 -6.4572 -11.1564 0.0979 0 1
-23.5846 -7.2037 -10.7998 0.1008 0 1
-22.4763 -7.8651 -10.4286 0.1069 0 1
-21.2937 -8.4256 -10.0290 0.1132 0 1
-20.1172 -8.9104 -9.6358 0.1218 0 1
-18.9505 -9.3212 -9.2489 0.1275 0 1
-17.7434 -9.6310 -8.8415 0.1274 0 1
-16.5558 -9.8670 -8.4406 0.1305 0 1
-15.3760 -10.0219 -8.0380 0.1367 0 1
-14.2391 -10.1182 -7.6500 0.1431 0 1
-13.1458 -10.1599 -7.2762 0.1504 0 1
-12.1107 -10.1623 -6.9237 0.1629 0 1
-11.1476 -10.1443 -6.6009 0.1709 0 1
-10.2339 -10.0933 -6.2949 0.1792 0 1
-9.3906 -10.0368 -6.0195 0.1947 0 1
-8.5952 -9.9601 -5.7616 0.2034 0 1
-7.8413 -9.8608 -5.5174 0.2124 0 1
-7.1200 -9.7318 -5.2809 0.2189 0 1
-6.4209 -9.5594 -5.0432 0.2283 0 24
-5.7795 -9.3992 -4.8323 0.2380 0 24
-5.1925 -9.2585 -4.6489 0.2476 0 1
-4.6228 -9.0791 -4.4619 0.2580 0 1
-4.0863 -8.8915 -4.2855 0.2676 0 1
-3.5818 -8.6985 -4.1198 0.2784 0 1
-3.1076 -8.5016 -3.9642 0.2894 0 1
-2.6607 -8.2982 -3.8164 0.2965 0 1
-2.2402 -8.0910 -3.6767 0.3078 0 1
-1.8454 -7.8839 -3.5460 0.3217 0 1
-1.4746 -7.6770 -3.4236 0.3332 0 1
-1.1264 -7.4735 -3.3100 0.3475 0 1
-0.7985 -7.2676 -3.2020 0.3583 0 1
-0.4899 -7.0624 -3.1004 0.3700 0 1
-0.1996 -6.8584 -3.0049 0.3818 0 1
0.0738 -6.6559 -2.9151 0.3934 0 1
0.3311 -6.4551 -2.8307 0.4052 0 1
0.5735 -6.2560 -2.7513 0.4168 0 1
0.8019 -6.0588 -2.6766 0.4285 0 1
1.0172 -5.8636 -2.6063 0.4400 0 1
1.2198 -5.6692 -2.5396 0.4503 0 1
1.4104 -5.4756 -2.4763 0.4618 0 1
1.5900 -5.2843 -2.4167 0.4732 0 1
1.7591 -5.0952 -2.3607 0.4845 0 1
1.9185 -4.9083 -2.3079 0.4955 0 1
2.0687 -4.7236 -2.2584 0.5064 0 1
2.2070 -4.5345 -2.2086 0.4996 0 1
2.3337 -4.3425 -2.1590 0.5110 0 1
2.4521 -4.1537 -2.1124 0.5223 0 1
2.5628 -3.9681 -2.0687 0.5333 0 1
2.6692 -3.7897 -2.0300 0.5659 0 1
2.7709 -3.6163 -1.9952 0.5758 0 1
2.8663 -3.4449 -1.9626 0.5853 0 1
2.9558 -3.2754 -1.9322 0.5946 0 1
3.0396 -3.1077 -1.9038 0.6034 0 1
3.1180 -2.9417 -1.8773 0.6119 0 1
3.1912 -2.7772 -1.8527 0.6201 0 1
3.2595 -2.6142 -1.8299 0.6278 0 1
3.3231 -2.4526 -1.8088 0.6351 0 1
3.3821 -2.2922 -1.7893 0.6420 0 1
3.4377 -2.1336 -1.7719 0.6420 0 1
3.4904 -1.9767 -1.7567 0.6475 0 1
3.5389 -1.8205 -1.7429 0.6527 0 1
3.5834 -1.6650 -1.7305 0.6573 0 1
3.6240 -1.5100 -1.7194 0.6616 0 1
3.4488 2.1743 -1.8396 0.6235 0 1
3.3952 2.3361 -1.8596 0.6168 0 1
3.3371 2.4993 -1.8812 0.6097 0 1
3.2744 2.6642 -1.9047 0.6068 0 1
3.2069 2.8307 -1.9301 0.5988 0 1
3.1341 2.9988 -1.9572 0.5905 0 1
3.0558 3.1685 -1.9862 0.5819 0 1
2.9717 3.3400 -2.0172 0.5729 0 1
2.8817 3.5133 -2.0503 0.5637 0 1
2.7853 3.6885 -2.0855 0.5542 0 1
2.6816 3.8646 -2.1225 0.5489 0 1
2.5688 4.0394 -2.1600 0.5393 0 1
2.4489 4.2157 -2.1999 0.5295 0 1
2.3215 4.3936 -2.2422 0.5196 0 1
2.1860 4.5729 -2.2870 0.5099 0 1
2.0422 4.7538 -2.3346 0.4995 0 1
1.8896 4.9364 -2.3850 0.4890 0 1
1.7277 5.1205 -2.4384 0.4782 0 1
1.5559 5.3059 -2.4949 0.4678 0 1
1.3738 5.4928 -2.5548 0.4568 0 1
1.1807 5.6812 -2.6182 0.4458 0 1
0.9760 5.8712 -2.6855 0.4348 0 1
0.7593 6.0643 -2.7577 0.4234 0 1
0.5295 6.2588 -2.8342 0.4128 0 1
0.2856 6.4538 -2.9149 0.4013 0 1
0.0270 6.6497 -3.0005 0.3899 0 1
-0.2474 6.8467 -3.0914 0.3776 0 1
-0.5384 7.0444 -3.1878 0.3662 0 1
-0.8472 7.2418 -3.2899 0.3577 0 1
-1.1743 7.4359 -3.3968 0.3464 0 1
-1.5204 7.6261 -3.5088 0.3362 0 1
-1.8871 7.8138 -3.6271 0.3253 0 1
-2.2753 7.9989 -3.7524 0.3144 0 1
-2.6865 8.1805 -3.8851 0.3037 0 1
-3.1217 8.3576 -4.0256 0.2931 0 1
-3.5824 8.5291 -4.1741 0.2829 0 1
-4.0701 8.6947 -4.3317 0.2698 0 1
-4.5876 8.8554 -4.5001 0.2597 0 1
-5.1348 9.0067 -4.6780 0.2498 0 1
-5.7128 9.1461 -4.8658 0.2437 0 1
-6.3149 9.2604 -5.0575 0.2345 0 1
-6.9480 9.3581 -5.2591 0.2255 0 1
-7.6126 9.4363 -5.4707 0.2168 0 1
-8.3182 9.5033 -5.6987 0.2029 0 1
-9.0750 9.5640 -5.9490 0.1944 0 1
-9.8692 9.5978 -6.2117 0.1861 0 1
-10.6987 9.5992 -6.4857 0.1786 0 1
-11.5735 9.5737 -6.7773 0.1709 0 1
-12.4839 9.5089 -7.0809 0.1638 0 1
-13.4313 9.4029 -7.3979 0.1564 0 1
-14.4116 9.2497 -7.7269 0.1497 0 1
-15.4514 9.0623 -8.0826 0.1346 0 1
-16.5057 8.8096 -8.4421 0.1316 0 1
-17.5659 8.4874 -8.8028 0.1271 0 1
-18.6245 8.0931 -9.1628 0.1219 0 1
-19.6489 7.6156 -9.5085 0.1212 0 1
-20.6423 7.0610 -9.8440 0.1166 0 1
-21.5895 6.4289 -10.1643 0.1150 0 1
-16.3865 4.1710 -7.6296 0.6119 26 14
-16.3303 3.4649 -7.5325 0.9091 26 14
-16.3672 2.7911 -7.4918 0.9533 26 14
-17.2899 2.2382 -7.8666 0.1277 26 14
-24.8066 2.2028 -11.2372 0.0987 0 1
-25.0691 1.2142 -11.3249 0.0982 0 1
-25.2050 0.2074 -11.3733 0.0962 0 1
-25.1598 -0.8039 -11.3584 0.0963 0 1
-24.9252 -1.8005 -11.2760 0.0972 0 1
-23.7234 -2.6750 -10.7722 0.1021 0 2
-23.2469 -3.5717 -10.6125 0.1036 0 25
-22.0675 -4.3040 -10.1449 0.4159 16 6
-21.9416 -5.2021 -10.1749 0.1080 0 25
-21.7289 -6.0830 -10.1814 0.1126 0 1
-20.8437 -6.7489 -9.8858 0.1189 0 1
-19.9208 -7.3463 -9.5803 0.1227 0 1
-18.9568 -7.8693 -9.2613 0.1258 0 1
-17.9242 -8.2995 -8.9126 0.1296 0 1
-16.8796 -8.6553 -8.5593 0.1350 0 1
-15.8240 -8.9342 -8.1995 0.1377 0 1
-14.7806 -9.1467 -7.8430 0.1436 0 1
-13.7614 -9.3004 -7.4945 0.1499 0 1
-12.7726 -9.4008 -7.1559 0.1568 0 1
-11.8342 -9.4658 -6.8379 0.1692 0 1
-10.9455 -9.5002 -6.5397 0.1768 0 1
-10.0945 -9.4987 -6.2543 0.1849 0 1
-9.3077 -9.4914 -5.9983 0.2003 0 1
-8.5561 -9.4564 -5.7542 0.2088 0 1
-7.8394 -9.3968 -5.5218 0.2176 0 1
-7.1499 -9.3060 -5.2953 0.2238 0 1
-6.4958 -9.1968 -5.0805 0.2328 0 1
-5.8761 -9.0719 -4.8771 0.2425 0 1
-5.2895 -8.9331 -4.6844 0.2519 0 1
-4.7346 -8.7823 -4.5019 0.2612 0 1
-4.2101 -8.6215 -4.3292 0.2716 0 1
-3.7154 -8.4534 -4.1665 0.2822 0 1
-3.2488 -8.2795 -4.0132 0.2931 0 1
-2.8074 -8.0968 -3.8668 0.3000 0 1
-2.3915 -7.9105 -3.7289 0.3136 0 1
-1.9932 -7.6963 -3.5873 0.3262 0 24
-1.6258 -7.5080 -3.4663 0.3382 0 24
-1.2839 -7.3438 -3.3639 0.3506 0 1
-0.9564 -7.1535 -3.2565 0.3612 0 1
-0.6474 -6.9614 -3.1546 0.3728 0 1
-0.3562 -6.7695 -3.0587 0.3845 0 1
-0.0814 -6.5617 -2.9610 0.3966 0 24
0.1774 -6.3875 -2.8833 0.4078 0 1
0.4217 -6.1980 -2.8031 0.4195 0 1
0.6522 -6.0097 -2.7276 0.4311 0 1
0.8698 -5.8226 -2.6564 0.4410 0 1
1.0749 -5.6364 -2.5891 0.4527 0 1
1.2683 -5.4508 -2.5252 0.4643 0 1
1.4506 -5.2660 -2.4646 0.4757 0 1
1.6224 -5.0831 -2.4076 0.4870 0 1
1.7762 -4.8792 -2.3429 0.4959 0 24
1.9265 -4.6961 -2.2904 0.5063 0 24
2.0806 -4.5431 -2.2547 0.5017 0 1
2.2106 -4.3557 -2.2040 0.5132 0 1
2.3322 -4.1713 -2.1563 0.5246 0 1
2.4460 -3.9897 -2.1116 0.5357 0 1
2.5546 -3.8141 -2.0714 0.5686 0 1
2.6589 -3.6443 -2.0355 0.5786 0 1
2.7569 -3.4764 -2.0020 0.5883 0 1
2.8489 -3.3101 -1.9706 0.5977 0 1
2.9352 -3.1455 -1.9413 0.6067 0 1
3.0160 -2.9824 -1.9139 0.6154 0 1
3.0916 -2.8208 -1.8884 0.6237 0 1
3.1622 -2.6606 -1.8647 0.6316 0 1
3.2281 -2.5016 -1.8427 0.6391 0 1
3.2893 -2.3439 -1.8224 0.6463 0 1
3.3459 -2.1871 -1.8036 0.6492 0 1
3.3995 -2.0321 -1.7871 0.6597 0 1
3.4500 -1.8785 -1.7725 0.6579 0 1
3.4965 -1.7256 -1.7594 0.6629 0 1
3.5391 -1.5731 -1.7475 0.6674 0 1
3.5778 -1.4211 -1.7370 0.6714 0 1
3.6127 -1.2695 -1.7278 0.6750 0 1
3.6440 -1.1183 -1.7199 0.6781 0 1
3.6716 -0.9673 -1.7132 0.6807 0 1
3.6957 -0.8164 -1.7078 0.6829 0 1
3.7162 -0.6657 -1.7035 0.6846 0 1
3.7333 -0.5150 -1.7005 0.6858 0 1
3.7469 -0.3643 -1.6986 0.6866 0 1
3.7571 -0.2134 -1.6980 0.6868 0 1
3.7638 -0.0624 -1.6985 0.6859 0 1
3.7697 0.0890 -1.7014 0.6847 0 1
3.7722 0.2409 -1.7055 0.6831 0 1
3.7703 0.3933 -1.7105 0.6710 0 1
3.7620 0.5459 -1.7153 0.6691 0 1
3.7501 0.6990 -1.7212 0.6668 0 1
3.7345 0.8526 -1.7284 0.6640 0 1
3.7152 1.0067 -1.7368 0.6608 0 1
3.6921 1.1615 -1.7464 0.6572 0 1
3.6652 1.3170 -1.7573 0.6531 0 1
3.6344 1.4733 -1.7695 0.6486 0 1
3.5996 1.6304 -1.7830 0.6437 0 1
3.5606 1.7884 -1.7979 0.6384 0 1
3.5174 1.9474 -1.8141 0.6326 0 1
3.4699 2.1074 -1.8318 0.6265 0 1
3.4180 2.2687 -1.8511 0.6197 0 1
3.3618 2.4314 -1.8721 0.6127 0 1
3.3009 2.5954 -1.8947 0.6100 0 1
3.2355 2.7613 -1.9193 0.6021 0 1
3.1650 2.9288 -1.9457 0.5940 0 1
3.0890 3.0978 -1.9740 0.5855 0 1
3.0074 3.2686 -2.0041 0.5767 0 1
2.9198 3.4411 -2.0363 0.5676 0 1
2.8261 3.6155 -2.0706 0.5582 0 1
2.7259 3.7918 -2.1071 0.5485 0 1
2.6165 3.9666 -2.1441 0.5433 0 1
2.4996 4.1423 -2.1830 0.5336 0 1
2.3754 4.3195 -2.2243 0.5237 0 1
2.2433 4.4982 -2.2681 0.5142 0 1
2.1030 4.6785 -2.3145 0.5039 0 1
1.9425 4.8316 -2.3497 0.4942 0 24
1.7863 5.0163 -2.4027 0.4833 0 24
1.6285 5.2287 -2.4711 0.4723 0 1
1.4507 5.4150 -2.5295 0.4614 0 1
1.2623 5.6027 -2.5914 0.4504 0 1
1.0625 5.7919 -2.6570 0.4393 0 1
0.8488 5.9689 -2.7204 0.4269 0 24
0.6266 6.1779 -2.8019 0.4167 0 1
0.3887 6.3726 -2.8808 0.4061 0 1
0.1363 6.5682 -2.9643 0.3946 0 1
-0.1314 6.7647 -3.0529 0.3823 0 1
-0.4154 6.9623 -3.1471 0.3709 0 1
-0.7167 7.1601 -3.2469 0.3595 0 1
-1.0360 7.3554 -3.3516 0.3511 0 1
-1.3742 7.5475 -3.4616 0.3408 0 1
-1.7322 7.7361 -3.5771 0.3298 0 1
-2.1113 7.9224 -3.6995 0.3189 0 1
-2.5128 8.1055 -3.8291 0.3082 0 1
-2.9379 8.2846 -3.9662 0.2975 0 1
-3.3879 8.4587 -4.1114 0.2870 0 1
-3.8638 8.6260 -4.2648 0.2769 0 1
-4.3690 8.7897 -4.4290 0.2638 0 1
-4.9038 8.9451 -4.6029 0.2539 0 1
-5.4690 9.0900 -4.7867 0.2441 0 1
-6.0610 9.2148 -4.9767 0.2383 0 1
-6.6812 9.3197 -5.1742 0.2292 0 1
-7.3327 9.4063 -5.3816 0.2204 0 1
-8.0183 9.4751 -5.6007 0.2064 0 1
-8.7561 9.5418 -5.8435 0.1979 0 1
-9.5348 9.5872 -6.1011 0.1895 0 1
-10.3499 9.6028 -6.3705 0.1823 0 1
-11.2056 9.5888 -6.6547 0.1741 0 1
-12.1015 9.5410 -6.9534 0.1666 0 1
-13.0327 9.4518 -7.2643 0.1593 0 1
-14.0009 9.3196 -7.5891 0.1525 0 1
-15.0192 9.1490 -7.9353 0.1371 0 1
-16.0652 8.9221 -8.2918 0.1312 0 1
-17.1257 8.6301 -8.6531 0.1293 0 1
-18.1852 8.2657 -9.0133 0.1241 0 1
-19.2290 7.8244 -9.3672 0.1231 0 1
-20.2317 7.2999 -9.7049 0.1182 0 1
-21.2065 6.7020 -10.0352 0.1166 0 1
-22.1050 6.0211 -10.3375 0.1113 0 1
-16.3227 3.7490 -7.5568 0.9415 26 14
-16.3515 3.0701 -7.5070 0.9262 26 14
-16.4395 2.4077 -7.4969 0.7358 26 14
-24.6602 2.6053 -11.1890 0.0991 0 1
-24.9733 1.6277 -11.2923 0.0985 0 1
-25.1675 0.6272 -11.3596 0.0963 0 1
-25.2096 -0.3846 -11.3763 0.0962 0 1
-25.0414 -1.3893 -11.3165 0.0967 0 1
-24.7061 -2.3690 -11.1989 0.0988 0 1
-23.4605 -3.2048 -10.6841 0.1029 0 25
-22.9106 -4.0729 -10.4998 0.1047 0 25
-22.0068 -4.8312 -10.1663 0.5567 16 6
-21.6632 -5.6765 -10.1048 0.3222 0 2
-21.2163 -6.4804 -10.0098 0.1145 0 1
-20.3100 -7.1071 -9.7091 0.1211 0 1
-19.3615 -7.6611 -9.3953 0.1251 0 1
-18.3576 -8.1310 -9.0594 0.1275 0 1
-17.2823 -8.5007 -8.6903 0.1257 0 24
-16.2622 -8.8270 -8.3490 0.1352 0 1
-15.2119 -9.0661 -7.9905 0.1410 0 1
-14.1813 -9.2432 -7.6381 0.1471 0 1
-13.1792 -9.3651 -7.2952 0.1538 0 1
-12.2138 -9.4396 -6.9652 0.1661 0 1
-11.3105 -9.4908 -6.6622 0.1736 0 1
-10.4432 -9.5033 -6.3712 0.1815 0 1
-9.5987 -9.4669 -6.0832 0.1974 0 24
-8.8642 -9.4742 -5.8542 0.2052 0 1
-8.1329 -9.4243 -5.6169 0.2139 0 1
-7.4321 -9.3462 -5.3880 0.2199 0 1
-6.7633 -9.2443 -5.1683 0.2293 0 1
-6.1294 -9.1255 -4.9602 0.2385 0 1
-5.5294 -8.9925 -4.7633 0.2477 0 1
-4.9613 -8.8462 -4.5765 0.2579 0 1
-4.4243 -8.6893 -4.3997 0.2673 0 1
-3.9174 -8.5240 -4.2329 0.2778 0 1
-3.4393 -8.3524 -4.0757 0.2885 0 1
-2.9878 -8.1737 -3.9268 0.2954 0 1
-2.5612 -7.9880 -3.7851 0.3090 0 1
-2.1598 -7.8006 -3.6522 0.3202 0 1
-1.7758 -7.5864 -3.5156 0.3332 0 24
-1.4256 -7.4220 -3.4102 0.3458 0 1
-1.0902 -7.2334 -3.3007 0.3563 0 1
-0.7736 -7.0412 -3.1962 0.3680 0 1
-0.4751 -6.8491 -3.0979 0.3797 0 1
-0.1937 -6.6575 -3.0053 0.3913 0 1
0.0717 -6.4666 -2.9180 0.4029 0 1
0.3220 -6.2766 -2.8358 0.4146 0 1
0.5581 -6.0878 -2.7584 0.4263 0 1
0.7809 -5.9002 -2.6855 0.4378 0 1
0.9911 -5.7136 -2.6166 0.4478 0 1
1.1855 -5.5098 -2.5430 0.4602 0 24
1.3761 -5.3425 -2.4893 0.4710 0 1
1.5522 -5.1589 -2.4309 0.4823 0 1
1.7183 -4.9770 -2.3758 0.4935 0 1
1.8652 -4.7720 -2.3119 0.5022 0 24
2.0100 -4.5898 -2.2609 0.5125 0 24
2.1576 -4.4332 -2.2247 0.5085 0 1
2.2826 -4.2475 -2.1758 0.5199 0 1
2.3996 -4.0648 -2.1299 0.5311 0 1
2.5093 -3.8852 -2.0869 0.5644 0 1
2.6164 -3.7147 -2.0501 0.5745 0 1
2.7170 -3.5459 -2.0157 0.5843 0 1
2.8114 -3.3790 -1.9834 0.5938 0 1
2.9000 -3.2137 -1.9532 0.6030 0 1
2.9831 -3.0500 -1.9250 0.6118 0 1
3.0608 -2.8878 -1.8988 0.6203 0 1
3.1335 -2.7270 -1.8743 0.6284 0 1
3.2013 -2.5675 -1.8517 0.6361 0 1
3.2644 -2.4093 -1.8307 0.6434 0 1
3.3230 -2.2522 -1.8113 0.6502 0 1
3.3777 -2.0964 -1.7937 0.6573 0 1
3.4295 -1.9423 -1.7784 0.6558 0 1
3.4777 -1.7890 -1.7647 0.6609 0 1
3.5219 -1.6364 -1.7523 0.6655 0 1
3.5621 -1.4842 -1.7412 0.6698 0 1
3.3858 2.1345 -1.8596 0.6323 0 1
3.3325 2.2929 -1.8795 0.6253 0 1
3.2751 2.4529 -1.9011 0.6228 0 1
3.2130 2.6143 -1.9246 0.6152 0 1
3.1460 2.7770 -1.9497 0.6073 0 1
3.0738 2.9411 -1.9766 0.5990 0 1
2.9962 3.1067 -2.0054 0.5904 0 1
2.9129 3.2739 -2.0360 0.5815 0 1
2.8237 3.4426 -2.0687 0.5723 0 1
2.7283 3.6130 -2.1035 0.5629 0 1
2.6260 3.7845 -2.1402 0.5576 0 1
2.5147 3.9542 -2.1773 0.5481 0 1
2.3964 4.1252 -2.2166 0.5384 0 1
2.2707 4.2975 -2.2583 0.5285 0 1
2.1373 4.4710 -2.3025 0.5189 0 1
1.9836 4.6175 -2.3350 0.5095 0 24
1.8353 4.7946 -2.3853 0.4988 0 24
1.6867 4.9991 -2.4513 0.4874 0 1
1.5182 5.1773 -2.5068 0.4770 0 1
1.3397 5.3566 -2.5654 0.4661 0 1
1.1507 5.5368 -2.6275 0.4551 0 1
0.9507 5.7186 -2.6935 0.4441 0 1
0.7391 5.9026 -2.7639 0.4328 0 1
0.5150 6.0874 -2.8384 0.4214 0 1
0.2776 6.2724 -2.9171 0.4108 0 1
0.0262 6.4575 -3.0003 0.3994 0 1
-0.2400 6.6428 -3.0884 0.3881 0 1
-0.5219 6.8280 -3.1817 0.3759 0 1
-0.8204 7.0129 -3.2806 0.3645 0 1
-1.1362 7.1947 -3.3842 0.3562 0 1
-1.4696 7.3712 -3.4922 0.3461 0 1
-1.8219 7.5441 -3.6059 0.3352 0 1
-2.1942 7.7136 -3.7261 0.3244 0 1
-2.5874 7.8788 -3.8530 0.3138 0 1
-3.0026 8.0387 -3.9870 0.3032 0 1
-3.4409 8.1922 -4.1284 0.2928 0 1
-3.9029 8.3376 -4.2773 0.2828 0 1
-4.3910 8.4761 -4.4353 0.2699 0 1
-4.9065 8.6063 -4.6029 0.2601 0 1
-5.4493 8.7243 -4.7793 0.2505 0 1
-6.0175 8.8242 -4.9625 0.2464 0 1
-6.6079 8.9000 -5.1503 0.2374 0 1
-7.2254 8.9564 -5.3467 0.2287 0 1
-7.8697 8.9908 -5.5516 0.2202 0 1
-8.5633 9.0247 -5.7803 0.2037 0 1
-9.2898 9.0343 -6.0207 0.1955 0 1
-10.0459 9.0136 -6.2709 0.1877 0 1
-10.8363 8.9639 -6.5341 0.1789 0 1
-11.6543 8.8771 -6.8068 0.1717 0 1
-12.4988 8.7501 -7.0889 0.1646 0 1
-13.3670 8.5793 -7.3798 0.1581 0 1
-14.2538 8.3599 -7.6777 0.1511 0 1
-15.1724 8.0980 -7.9907 0.1425 0 1
-16.0986 7.7784 -8.3071 0.1376 0 1
-17.0115 7.3922 -8.6179 0.1330 0 1
-17.9067 6.9403 -8.9229 0.1283 0 1
-18.7728 6.4215 -9.2184 0.1242 0 1
-19.5627 5.8253 -9.4837 0.1218 0 1
-16.2504 4.1364 -7.7910 0.8247 26 14
-16.2024 3.4378 -7.6956 0.9749 26 14
-16.2309 2.7679 -7.6501 0.9914 26 14
-17.0287 2.2044 -7.9779 0.1236 26 14
-22.2363 1.9746 -10.3721 0.1125 0 1
-22.4358 1.0867 -10.4364 0.1120 0 1
-22.5244 0.1853 -10.4657 0.1090 0 1
-22.4807 -0.7183 -10.4504 0.1093 0 1
-22.2923 -1.6103 -10.3845 0.1098 0 1
-21.9758 -2.4779 -10.2751 0.1120 0 1
-21.2813 -3.2697 -10.0038 0.9184 0 2
-21.0359 -4.1028 -9.9579 0.9900 0 2
-20.4011 -4.8369 -9.7416 0.1229 0 1
-19.7224 -5.5213 -9.5158 0.1258 0 1
-18.9804 -6.1455 -9.2694 0.1287 0 1
-18.1747 -6.7023 -9.0003 0.1298 0 1
-17.2664 -7.1676 -8.6861 0.1312 0 24
-16.4372 -7.6110 -8.4161 0.1379 0 1
-15.5196 -7.9580 -8.1035 0.1418 0 1
-14.5971 -8.2415 -7.7884 0.1482 0 1
-13.6770 -8.4638 -7.4730 0.1540 0 1
-12.7756 -8.6341 -7.1643 0.1604 0 1
-11.9060 -8.7630 -6.8686 0.1726 0 1
-11.0758 -8.8592 -6.5898 0.1799 0 1
-10.2725 -8.9161 -6.3199 0.1875 0 1
-9.4886 -8.9286 -6.0536 0.2036 0 24
-8.7973 -8.9709 -5.8378 0.2108 0 1
-8.1051 -8.9579 -5.6128 0.2193 0 1
-7.4376 -8.9151 -5.3944 0.2251 0 1
-6.7973 -8.8471 -5.1837 0.2338 0 1
-6.1875 -8.7603 -4.9831 0.2432 0 1
-5.6079 -8.6577 -4.7927 0.2529 0 1
-5.0566 -8.5398 -4.6112 0.2613 0 1
-4.5333 -8.4090 -4.4386 0.2714 0 1
-4.0378 -8.2685 -4.2753 0.2818 0 1
-3.5688 -8.1198 -4.1210 0.2923 0 1
-3.1244 -7.9624 -3.9741 0.3015 0 1
-2.7037 -7.7977 -3.8346 0.3124 0 1
-2.2986 -7.6032 -3.6905 0.3245 0 24
-1.9249 -7.4324 -3.5672 0.3362 0 24
-1.5770 -7.2829 -3.4622 0.3490 0 1
-1.2428 -7.1087 -3.3530 0.3603 0 1
-0.9267 -6.9313 -3.2491 0.3709 0 1
-0.6279 -6.7517 -3.1505 0.3825 0 1
-0.3458 -6.5716 -3.0575 0.3940 0 1
-0.0791 -6.3757 -2.9625 0.4061 0 24
0.1725 -6.2112 -2.8870 0.4173 0 1
0.4104 -6.0315 -2.8089 0.4289 0 1
0.6352 -5.8525 -2.7352 0.4404 0 1
0.8475 -5.6737 -2.6654 0.4503 0 1
1.0448 -5.4785 -2.5913 0.4627 0 24
1.2375 -5.3184 -2.5370 0.4735 0 1
1.4161 -5.1411 -2.4776 0.4848 0 1
1.5848 -4.9653 -2.4216 0.4960 0 1
1.7441 -4.7908 -2.3688 0.5071 0 1
1.8837 -4.5918 -2.3060 0.5151 0 24
2.0226 -4.4164 -2.2569 0.5271 0 24
2.1622 -4.2604 -2.2198 0.5221 0 1
2.2822 -4.0819 -2.1729 0.5333 0 1
2.3947 -3.9060 -2.1287 0.5444 0 1
2.5040 -3.7386 -2.0907 0.5772 0 1
2.6072 -3.5734 -2.0552 0.5871 0 1
2.7041 -3.4098 -2.0220 0.5968 0 1
2.7952 -3.2477 -1.9909 0.6061 0 1
2.8807 -3.0871 -1.9618 0.6151 0 1
2.9608 -2.9278 -1.9346 0.6237 0 1
3.0357 -2.7698 -1.9093 0.6320 0 1
3.1058 -2.6131 -1.8858 0.6398 0 1
3.1711 -2.4575 -1.8640 0.6473 0 1
3.2318 -2.3029 -1.8438 0.6507 0 1
3.2878 -2.1492 -1.8250 0.6618 0 1
3.3413 -1.9973 -1.8087 0.6678 0 1
3.3906 -1.8462 -1.7938 0.6734 0 1
3.4366 -1.6960 -1.7806 0.6710 0 1
3.4789 -1.5464 -1.7688 0.6755 0 1
3.5173 -1.3971 -1.7584 0.6795 0 1
3.5519 -1.2482 -1.7492 0.6830 0 1
3.5830 -1.0996 -1.7413 0.6861 0 1
3.6104 -0.9511 -1.7347 0.6888 0 1
3.6342 -0.8028 -1.7293 0.6909 0 1
3.6546 -0.6547 -1.7250 0.6926 0 1
3.6715 -0.5065 -1.7220 0.6938 0 1
3.6849 -0.3582 -1.7202 0.6946 0 1
3.6949 -0.2099 -1.7195 0.6948 0 1
3.7015 -0.0613 -1.7201 0.6946 0 1
3.7072 0.0875 -1.7229 0.6927 0 1
3.7095 0.2369 -1.7270 0.6911 0 1
3.7062 0.3866 -1.7313 0.6791 0 1
3.6978 0.5366 -1.7361 0.6773 0 1
3.6858 0.6870 -1.7420 0.6750 0 1
3.6703 0.8379 -1.7492 0.6722 0 1
3.6510 0.9893 -1.7575 0.6690 0 1
3.6280 1.1413 -1.7671 0.6654 0 1
3.6012 1.2940 -1.7779 0.6613 0 1
3.5704 1.4474 -1.7900 0.6569 0 1
3.5357 1.6015 -1.8034 0.6520 0 1
3.4970 1.7564 -1.8182 0.6467 0 1
3.4540 1.9123 -1.8343 0.6410 0 1
3.4067 2.0691 -1.8519 0.6349 0 1
3.3551 2.2269 -1.8710 0.6281 0 1
3.2994 2.3862 -1.8919 0.6258 0 1
3.2394 2.5471 -1.9146 0.6184 0 1
3.1745 2.7092 -1.9391 0.6106 0 1
3.1044 2.8728 -1.9652 0.6025 0 1
3.0291 3.0377 -1.9932 0.5940 0 1
2.9482 3.2042 -2.0230 0.5853 0 1
2.8614 3.3723 -2.0549 0.5762 0 1
2.7687 3.5420 -2.0888 0.5668 0 1
2.6695 3.7134 -2.1249 0.5572 0 1
2.5618 3.8836 -2.1616 0.5521 0 1
2.4464 4.0540 -2.2000 0.5425 0 1
2.3238 4.2257 -2.2407 0.5326 0 1
2.1937 4.3988 -2.2838 0.5226 0 1
2.0556 4.5730 -2.3295 0.5129 0 1
1.9091 4.7485 -2.3779 0.5024 0 1
1.7445 4.8989 -2.4161 0.4924 0 24
1.5894 5.1032 -2.4834 0.4815 0 1
1.4151 5.2820 -2.5407 0.4706 0 1
1.2305 5.4618 -2.6013 0.4597 0 1
1.0351 5.6427 -2.6654 0.4486 0 1
0.8285 5.8260 -2.7341 0.4375 0 1
0.6083 5.9976 -2.8009 0.4248 0 24
0.3779 6.1956 -2.8839 0.4156 0 1
0.1324 6.3806 -2.9652 0.4042 0 1
-0.1276 6.5658 -3.0512 0.3928 0 1
-0.4028 6.7510 -3.1423 0.3806 0 1
-0.6943 6.9362 -3.2388 0.3692 0 1
-1.0029 7.1198 -3.3407 0.3608 0 1
-1.3289 7.2985 -3.4468 0.3507 0 1
-1.6732 7.4727 -3.5579 0.3397 0 1
-2.0370 7.6437 -3.6754 0.3289 0 1
-2.4214 7.8108 -3.7994 0.3181 0 1
-2.8274 7.9729 -3.9304 0.3076 0 1
-3.2559 8.1293 -4.0687 0.2971 0 1
-3.7080 8.2782 -4.2145 0.2870 0 1
-4.1847 8.4188 -4.3682 0.2741 0 1
-4.6891 8.5535 -4.5322 0.2642 0 1
-5.2205 8.6769 -4.7049 0.2545 0 1
-5.7789 8.7859 -4.8860 0.2472 0 1
-6.3594 8.8707 -5.0712 0.2411 0 1
-6.9656 8.9355 -5.2640 0.2322 0 1
-7.5988 8.9794 -5.4654 0.2237 0 1
-8.2705 9.0127 -5.6834 0.2071 0 1
-8.9843 9.0338 -5.9196 0.1989 0 1
-9.7283 9.0261 -6.1658 0.1909 0 1
-10.5042 8.9886 -6.4234 0.1820 0 1
-11.3114 8.9180 -6.6925 0.1747 0 1
-12.1438 8.8071 -6.9699 0.1677 0 1
-13.0041 8.6561 -7.2582 0.1608 0 1
-13.8820 8.4563 -7.5523 0.1545 0 1
-14.7873 8.2124 -7.8590 0.1448 0 1
-15.7157 7.9196 -8.1766 0.1392 0 1
-16.6340 7.5606 -8.4894 0.1347 0 1
-17.5372 7.1360 -8.7969 0.1301 0 1
-18.4175 6.6453 -9.0972 0.1258 0 1
-19.2433 6.0816 -9.3768 0.1232 0 1
-19.9933 5.4459 -9.6278 0.1200 0 1
-16.1995 3.7207 -7.7226 0.9714 26 14
-16.2128 3.0441 -7.6644 0.9858 26 14
-16.3159 2.3896 -7.6616 0.8524 26 14
-22.1201 2.3369 -10.3347 0.1129 0 1
-22.3676 1.4579 -10.4145 0.1122 0 1
-22.5002 0.5607 -10.4573 0.1091 0 1
-22.5196 -0.3435 -10.4643 0.1091 0 1
-22.3867 -1.2420 -10.4174 0.1096 0 1
-22.1227 -2.1213 -10.3258 0.1104 0 1
-21.5461 -2.9433 -10.1038 0.7020 0 2
-21.0946 -3.7500 -9.9547 0.9960 0 2
-20.6606 -4.5357 -9.8280 0.1218 0 1
-20.0130 -5.2441 -9.6124 0.1245 0 1
-19.2947 -5.8934 -9.3736 0.1273 0 1
-18.5159 -6.4793 -9.1144 0.1282 0 1
-17.6823 -6.9967 -8.8354 0.1316 0 1
-16.8071 -7.4443 -8.5407 0.1361 0 1
-15.9031 -7.8223 -8.2344 0.1395 0 1
-14.9803 -8.1312 -7.9194 0.1460 0 1
-14.0574 -8.3780 -7.6034 0.1514 0 1
-13.1475 -8.5694 -7.2916 0.1578 0 1
-12.2584 -8.7108 -6.9871 0.1696 0 1
-11.4174 -8.8241 -6.7045 0.1768 0 1
-10.6028 -8.8970 -6.4309 0.1842 0 1
-9.8247 -8.9405 -6.1719 0.1994 0 1
-9.0931 -8.9681 -5.9339 0.2074 0 1
-8.3891 -8.9665 -5.7051 0.2157 0 1
-7.6924 -8.9139 -5.4706 0.2263 0 24
-7.0596 -8.8778 -5.2700 0.2304 0 1
-6.4371 -8.7984 -5.0652 0.2393 0 1
-5.8450 -8.7021 -4.8706 0.2488 0 1
-5.2821 -8.5904 -4.6855 0.2580 0 1
-4.7473 -8.4646 -4.5091 0.2672 0 1
-4.2403 -8.3280 -4.3421 0.2774 0 1
-3.7605 -8.1825 -4.1840 0.2879 0 1
-3.3063 -8.0294 -4.0345 0.2970 0 1
-2.8756 -7.8667 -3.8916 0.3079 0 1
-2.4687 -7.6993 -3.7567 0.3189 0 1
-2.0776 -7.5037 -3.6176 0.3313 0 24
-1.7216 -7.3546 -3.5095 0.3443 0 1
-1.3794 -7.1813 -3.3976 0.3556 0 1
-1.0559 -7.0057 -3.2918 0.3660 0 1
-0.7500 -6.8264 -3.1908 0.3776 0 1
-0.4611 -6.6464 -3.0955 0.3893 0 1
-0.1881 -6.4662 -3.0056 0.4008 0 1
0.0697 -6.2860 -2.9208 0.4124 0 1
0.3132 -6.1061 -2.8408 0.4240 0 1
0.5434 -5.9268 -2.7653 0.4356 0 1
0.7608 -5.7479 -2.6939 0.4456 0 1
0.9632 -5.5523 -2.6182 0.4588 0 24
1.1602 -5.3924 -2.5628 0.4687 0 1
1.3432 -5.2146 -2.5019 0.4801 0 1
1.5159 -5.0381 -2.4445 0.4914 0 1
1.6790 -4.8631 -2.3904 0.5025 0 1
1.8234 -4.6650 -2.3272 0.5104 0 24
1.9659 -4.4890 -2.2769 0.5214 0 24
2.1100 -4.3353 -2.2402 0.5173 0 1
2.2333 -4.1557 -2.1920 0.5287 0 1
2.3488 -3.9788 -2.1467 0.5398 0 1
2.4593 -3.8078 -2.1061 0.5729 0 1
2.5651 -3.6419 -2.0697 0.5830 0 1
2.6646 -3.4776 -2.0355 0.5928 0 1
2.7581 -3.3149 -2.0036 0.6022 0 1
2.8458 -3.1536 -1.9736 0.6114 0 1
2.9281 -2.9938 -1.9457 0.6202 0 1
3.0052 -2.8353 -1.9196 0.6286 0 1
3.0773 -2.6781 -1.8954 0.6366 0 1
3.1445 -2.5220 -1.8729 0.6443 0 1
3.2071 -2.3670 -1.8520 0.6515 0 1
3.2650 -2.2129 -1.8326 0.6546 0 1
3.3196 -2.0603 -1.8153 0.6654 0 1
3.3706 -1.9089 -1.7998 0.6711 0 1
3.4180 -1.7583 -1.7859 0.6690 0 1
3.4618 -1.6085 -1.7736 0.6737 0 1
3.5018 -1.4591 -1.7626 0.6779 0 1
3.3244 2.0958 -1.8791 0.6406 0 1
3.2719 2.2512 -1.8991 0.6383 0 1
3.2150 2.4079 -1.9207 0.6311 0 1
3.1534 2.5657 -1.9439 0.6236 0 1
3.0869 2.7248 -1.9688 0.6157 0 1
3.0152 2.8851 -1.9954 0.6075 0 1
2.9382 3.0467 -2.0239 0.5989 0 1
2.8557 3.2096 -2.0543 0.5901 0 1
2.7674 3.3740 -2.0866 0.5809 0 1
2.6730 3.5398 -2.1210 0.5715 0 1
2.5721 3.7069 -2.1574 0.5663 0 1
2.4622 3.8717 -2.1940 0.5569 0 1
2.3455 4.0376 -2.2328 0.5472 0 1
2.2216 4.2046 -2.2739 0.5373 0 1
2.0903 4.3726 -2.3174 0.5272 0 1
1.9393 4.5143 -2.3493 0.5185 0 24
1.7935 4.6852 -2.3988 0.5078 0 24
1.6473 4.8821 -2.4638 0.4965 0 1
1.4819 5.0536 -2.5182 0.4861 0 1
1.3069 5.2256 -2.5757 0.4753 0 1
1.1219 5.3983 -2.6364 0.4643 0 1
0.9263 5.5723 -2.7010 0.4534 0 1
0.7197 5.7477 -2.7698 0.4421 0 1
0.5001 5.9114 -2.8367 0.4287 0 24
0.2699 6.0992 -2.9193 0.4203 0 1
0.0254 6.2743 -3.0002 0.4090 0 1
-0.2330 6.4489 -3.0857 0.3976 0 1
-0.5062 6.6227 -3.1760 0.3863 0 1
-0.7950 6.7954 -3.2715 0.3742 0 1
-1.1001 6.9663 -3.3723 0.3660 0 1
-1.4216 7.1303 -3.4766 0.3559 0 1
-1.7605 7.2899 -3.5860 0.3451 0 1
-2.1178 7.4453 -3.7013 0.3343 0 1
-2.4944 7.5958 -3.8229 0.3237 0 1
-2.8911 7.7402 -3.9509 0.3133 0 1
-3.3088 7.8777 -4.0856 0.3029 0 1
-3.7480 8.0066 -4.2272 0.2930 0 1
-4.2096 8.1258 -4.3759 0.2830 0 1
-4.6956 8.2363 -4.5334 0.2704 0 1
-5.2065 8.3356 -4.6994 0.2608 0 1
-5.7416 8.4197 -4.8730 0.2537 0 1
-6.2973 8.4816 -5.0512 0.2448 0 1
-6.8735 8.5202 -5.2345 0.2391 0 1
-7.4725 8.5371 -5.4250 0.2307 0 1
-8.0996 8.5360 -5.6266 0.2142 0 1
-8.7669 8.5258 -5.8475 0.2061 0 1
-9.4584 8.4864 -6.0763 0.1983 0 1
-10.1736 8.4157 -6.3133 0.1895 0 1
-10.9138 8.3130 -6.5600 0.1824 0 1
-11.6724 8.1715 -6.8131 0.1752 0 1
-12.4499 7.9907 -7.0738 0.1689 0 1
-13.2363 7.7631 -7.3374 0.1628 0 1
-14.0370 7.4920 -7.6082 0.1561 0 1
-14.8423 7.1714 -7.8821 0.1479 0 1
-15.6409 6.7966 -8.1546 0.1436 0 1
