ply
format ascii 1.0
element vertex 1380
property float32 x
property float32 y
property float32 z
property float32 CosAngle
property uint32 ObjIdx
property uint32 ObjTag
end_header
0.2037 -22.6052 -2.8329 0.1161 0 1
1.0101 -20.5219 -2.5748 0.1169 0 1
1.6681 -18.6191 -2.3426 0.1271 0 1
2.2072 -16.9448 -2.1414 0.1324 0 1
2.6763 -15.6195 -1.9859 0.1560 0 1
3.0553 -14.3437 -1.8378 0.1985 0 1
3.4105 -13.3543 -1.7272 0.2023 0 1
3.7262 -12.4769 -1.6318 0.2114 0 1
4.0012 -11.6666 -1.5456 0.2247 0 1
4.2463 -10.9297 -1.4694 0.2364 0 1
4.4644 -10.2512 -1.4012 0.2474 0 1
4.6607 -9.6261 -1.3403 0.2604 0 1
4.8385 -9.0478 -1.2858 0.2710 0 1
4.9982 -8.5062 -1.2364 0.2818 0 1
5.1430 -7.9988 -1.1917 0.2924 0 1
5.2750 -7.5218 -1.1513 0.3054 0 1
5.3870 -7.0603 -1.1129 0.3076 0 1
5.4761 -6.6089 -1.0756 0.3183 0 1
5.5564 -6.1825 -1.0417 0.3287 0 1
5.6288 -5.7784 -1.0109 0.3387 0 1
5.6951 -5.3950 -0.9831 0.3515 0 1
5.7573 -5.0309 -0.9581 0.3607 0 1
5.8157 -4.6837 -0.9358 0.3639 0 1
5.8704 -4.3509 -0.9157 0.3701 0 1
5.8648 -3.9922 -0.8891 0.7721 0 2
5.8794 -3.6655 -0.8682 0.8697 0 2
5.9302 -3.3742 -0.8550 0.9447 0 2
6.0238 -3.1142 -0.8498 0.9700 0 2
6.1210 -2.8590 -0.8466 0.4055 0 1
6.1608 -2.5814 -0.8371 0.4099 0 1
6.1973 -2.3088 -0.8288 0.4140 0 1
6.2316 -2.0405 -0.8217 0.4189 0 1
6.2628 -1.7757 -0.8158 0.4220 0 1
6.2909 -1.5135 -0.8108 0.4246 0 1
3.8850 -0.7711 -0.4963 0.2898 25 14
3.8535 -0.6051 -0.4888 0.9611 25 14
3.8446 -0.4464 -0.4850 0.9686 25 14
3.8365 -0.2899 -0.4821 0.9696 25 14
3.8290 -0.1350 -0.4801 0.9736 25 14
3.8233 0.0189 -0.4791 0.9757 25 14
3.8325 0.1730 -0.4808 0.9723 25 14
3.8415 0.3284 -0.4832 0.9675 25 14
3.8509 0.4856 -0.4864 0.9659 25 14
3.8611 0.6454 -0.4906 0.9577 25 14
4.0188 0.8389 -0.5145 0.3382 25 14
6.4526 1.6199 -0.8337 0.4206 0 1
6.4495 1.8975 -0.8425 0.4162 0 1
6.4432 2.1804 -0.8524 0.4115 0 1
6.4335 2.4693 -0.8636 0.4062 0 1
6.4205 2.7651 -0.8760 0.4004 0 1
6.3987 3.0660 -0.8892 0.3905 0 1
6.3694 3.3729 -0.9032 0.3844 0 1
6.3358 3.6883 -0.9187 0.3780 0 1
6.2978 4.0132 -0.9358 0.3710 0 1
6.2491 4.3446 -0.9538 0.3784 0 1
6.1831 4.6779 -0.9716 0.3715 0 1
6.1152 5.0252 -0.9919 0.3636 0 1
6.0440 5.3876 -1.0146 0.3555 0 1
5.9662 5.7645 -1.0396 0.3469 0 1
5.8809 6.1577 -1.0670 0.3380 0 1
5.7693 6.5483 -1.0937 0.3734 0 1
5.6383 6.9430 -1.1208 0.3580 0 1
5.4995 7.3571 -1.1511 0.3486 0 1
5.3493 7.7901 -1.1842 0.3317 0 1
5.1841 8.2403 -1.2200 0.3220 0 1
5.0171 8.7345 -1.2623 0.3088 0 1
4.8916 9.3682 -1.3244 0.2801 0 2
4.5558 9.6511 -1.3374 0.9733 0 2
4.2826 10.1049 -1.3753 0.2410 0 2
4.0721 10.7957 -1.4459 0.2292 0 2
3.8350 11.5524 -1.5254 0.2173 0 2
3.5666 12.3871 -1.6154 0.2052 0 2
3.2609 13.3149 -1.7179 0.1929 0 2
2.9100 14.3551 -1.8355 0.1806 0 2
2.1673 13.4446 -1.7066 0.9857 0 20
2.0296 16.8806 -2.1307 0.1555 0 2
1.4691 18.4433 -2.3186 0.1429 0 2
0.8430 21.4323 -2.6879 0.1303 0 2
-0.0203 23.6755 -2.9669 0.1167 0 1
-1.0931 26.6242 -3.3393 0.1080 0 24
-2.4401 29.9835 -3.7698 0.0984 0 1
-4.1769 34.2440 -4.3231 0.0802 0 1
-6.5678 40.3013 -5.1170 0.0691 0 1
-9.9190 48.5033 -6.2040 0.0621 0 1
-15.5178 46.4780 -6.1405 0.9892 0 15
-29.8756 36.6596 -5.9264 0.7734 0 3
-28.8409 32.6218 -5.4566 0.9623 0 3
-31.3070 32.6676 -5.6702 0.7210 0 3
-28.9830 27.9072 -5.0421 0.5407 0 3
-18.6073 16.5291 -3.1189 0.6361 0 22
-20.1387 16.4911 -3.2619 0.7009 0 22
-29.0124 21.8715 -4.5531 0.1340 0 3
-28.4103 19.6794 -4.3310 0.8091 0 3
-34.9082 22.1604 -5.1816 0.8302 0 3
-30.6639 17.7799 -4.4419 0.5034 0 3
-30.3121 15.9850 -4.2944 0.6291 0 3
-35.3050 16.8419 -4.9019 0.7842 0 3
-38.6025 16.5461 -5.2632 0.1720 0 3
-46.2844 17.6739 -6.2087 0.3601 0 3
-35.1196 -33.3834 -6.0721 0.6792 0 20
-32.4490 -33.4262 -5.8380 0.1005 0 20
-32.1750 -35.9246 -6.0436 0.7890 0 20
-19.1514 -27.4087 -4.1902 0.6897 0 6
-7.0028 -41.2955 -5.2489 0.0620 0 1
-4.4629 -34.7280 -4.3878 0.0790 0 1
4.3633 -9.5890 -1.4390 0.2640 0 1
4.5526 -9.0248 -1.3806 0.2751 0 1
4.7232 -8.4962 -1.3277 0.2856 0 1
4.8777 -7.9997 -1.2798 0.2963 0 1
5.0187 -7.5327 -1.2363 0.3095 0 1
5.1490 -7.0934 -1.1972 0.3112 0 1
5.2469 -6.6491 -1.1569 0.3221 0 1
5.3353 -6.2293 -1.1203 0.3326 0 1
5.4150 -5.8312 -1.0869 0.3428 0 1
5.4878 -5.4529 -1.0567 0.3559 0 1
5.5561 -5.0941 -1.0296 0.3653 0 1
5.6181 -4.7500 -1.0049 0.3743 0 1
5.6746 -4.4196 -0.9824 0.3772 0 1
5.7293 -4.1034 -0.9626 0.3831 0 1
5.7836 -3.8004 -0.9453 0.4001 0 1
5.8407 -3.5105 -0.9308 0.4063 0 1
5.8923 -3.2267 -0.9176 0.4072 0 1
5.9390 -2.9487 -0.9057 0.4126 0 1
5.9817 -2.6760 -0.8951 0.4175 0 1
6.0207 -2.4082 -0.8857 0.4216 0 1
6.0572 -2.1448 -0.8777 0.4269 0 1
6.0908 -1.8851 -0.8709 0.4302 0 1
6.1210 -1.6281 -0.8651 0.4331 0 1
4.0477 -0.9043 -0.5665 0.3480 25 14
3.8453 -0.6982 -0.5338 0.9579 25 14
3.8366 -0.5385 -0.5292 0.9663 25 14
3.8278 -0.3813 -0.5254 0.9732 25 14
3.8189 -0.2260 -0.5225 0.9737 25 14
3.8114 -0.0722 -0.5207 0.9771 25 14
3.8127 0.0810 -0.5209 0.9768 25 14
3.8217 0.2350 -0.5230 0.9728 25 14
3.8316 0.3906 -0.5261 0.9720 25 14
3.8418 0.5483 -0.5301 0.9647 25 14
3.8519 0.7086 -0.5349 0.9559 25 14
4.1268 0.9319 -0.5779 0.3412 25 14
6.2926 1.6893 -0.8899 0.4288 0 1
6.2867 1.9615 -0.8995 0.4242 0 1
6.2773 2.2390 -0.9103 0.4194 0 1
6.2644 2.5223 -0.9224 0.4139 0 1
6.2458 2.8114 -0.9355 0.4040 0 1
6.2171 3.1045 -0.9492 0.3982 0 1
6.1842 3.4050 -0.9643 0.3919 0 1
6.1468 3.7137 -0.9809 0.3853 0 1
6.1048 4.0315 -0.9993 0.3782 0 1
6.0518 4.3554 -1.0184 0.3857 0 1
5.9823 4.6812 -1.0375 0.3783 0 1
5.9131 5.0228 -1.0597 0.3704 0 1
5.8375 5.3767 -1.0840 0.3621 0 1
5.7548 5.7446 -1.1106 0.3534 0 1
5.6644 6.1279 -1.1398 0.3444 0 1
5.5550 6.5162 -1.1696 0.3734 0 1
5.4219 6.9035 -1.1990 0.3642 0 1
5.2759 7.3034 -1.2306 0.3474 0 1
5.1185 7.7208 -1.2653 0.3379 0 1
4.9486 8.1579 -1.3033 0.3280 0 1
4.7806 8.6461 -1.3495 0.3144 0 1
4.6392 9.2491 -1.4133 0.2855 0 2
4.4127 9.7570 -1.4626 0.9686 0 2
4.0639 10.0414 -1.4796 0.9354 0 2
3.7998 10.5935 -1.5372 0.2346 0 2
3.5528 11.3159 -1.6200 0.2227 0 2
3.2740 12.1099 -1.7135 0.2105 0 2
2.9575 12.9892 -1.8196 0.1982 0 2
2.5220 13.5737 -1.8857 0.4932 0 20
1.9633 13.5847 -1.8748 0.7262 0 20
1.6943 16.3344 -2.2431 0.1608 0 2
1.1864 18.7521 -2.5664 0.1485 0 2
0.4700 20.4211 -2.7900 0.1359 0 1
-0.3897 22.7112 -3.1025 0.1214 0 1
-1.4597 25.4336 -3.4796 0.1163 0 1
-2.7710 28.3294 -3.8879 0.1055 0 1
-4.4337 32.0000 -4.4126 0.0903 0 1
-6.6724 37.1208 -5.1515 0.0734 0 1
-9.8116 44.2880 -6.1959 0.0618 0 1
-16.3413 46.4121 -6.7208 0.9171 0 15
-27.7139 38.8410 -6.5172 0.4546 0 3
-29.4983 38.0147 -6.5722 0.6136 0 3
-31.7265 37.6603 -6.7260 0.7621 0 3
-29.6492 32.4543 -6.0042 0.6717 0 3
-32.3370 32.6597 -6.2776 0.7088 0 3
-17.7430 16.5356 -3.3128 0.7340 0 22
-32.1840 27.6641 -5.7967 0.6509 0 3
-28.9271 22.9104 -5.0402 0.7597 0 3
-29.8902 21.7785 -5.0514 0.7983 0 3
-33.8705 22.6537 -5.5657 0.5564 0 3
-29.9512 18.3356 -4.7967 0.8407 0 3
-30.1650 16.8397 -4.7187 0.8842 0 3
-35.0314 17.7500 -5.3640 0.4537 0 3
-34.9277 15.9684 -5.2456 0.9760 0 3
-40.7992 16.7059 -6.0217 0.3816 0 3
-33.8878 -33.2806 -6.4875 0.5544 0 20
-32.3318 -34.4104 -6.4492 0.8047 0 20
-31.5776 -36.4355 -6.5856 0.8782 0 20
-20.1900 -27.4743 -4.6570 0.7657 0 22
-11.3657 -48.1023 -6.7511 0.0445 0 1
-7.6024 -39.1391 -5.4458 0.0636 0 1
-5.0840 -33.2606 -4.5958 0.0810 0 1
-3.2141 -28.7041 -3.9451 0.0848 0 1
-1.8007 -25.1994 -3.4507 0.1015 0 1
-0.7038 -22.5782 -3.0854 0.1141 0 24
0.1853 -20.5706 -2.8098 0.1115 0 24
0.9264 -18.8209 -2.5738 0.1267 0 1
1.5383 -17.1703 -2.3547 0.1311 0 1
2.0661 -15.8617 -2.1848 0.1752 0 1
2.5061 -14.6260 -2.0269 0.1664 0 1
2.8984 -13.6070 -1.9003 0.2036 0 1
3.2424 -12.6959 -1.7898 0.2161 0 1
3.5484 -11.8817 -1.6937 0.2232 0 1
3.8206 -11.1402 -1.6086 0.2350 0 1
4.0636 -10.4594 -1.5327 0.2462 0 1
4.2809 -9.8297 -1.4644 0.2594 0 1
4.4781 -9.2490 -1.4036 0.2707 0 1
4.6561 -8.7067 -1.3486 0.2812 0 1
4.8168 -8.1975 -1.2987 0.2920 0 1
4.9629 -7.7186 -1.2534 0.3025 0 1
5.0978 -7.2691 -1.2127 0.3155 0 1
5.2084 -6.8263 -1.1728 0.3177 0 1
5.3005 -6.3969 -1.1347 0.3284 0 1
5.3836 -5.9903 -1.1001 0.3387 0 1
5.4588 -5.6039 -1.0685 0.3487 0 1
5.5292 -5.2378 -1.0403 0.3615 0 1
5.5937 -4.8879 -1.0146 0.3707 0 1
5.6521 -4.5519 -0.9912 0.3794 0 1
5.7072 -4.2300 -0.9703 0.3819 0 1
5.7606 -3.9212 -0.9518 0.3875 0 1
5.8181 -3.6273 -0.9365 0.4039 0 1
5.8721 -3.3412 -0.9228 0.4049 0 1
5.9206 -3.0608 -0.9104 0.4105 0 1
5.9649 -2.7860 -0.8992 0.4156 0 1
6.0052 -2.5163 -0.8893 0.4202 0 1
6.0425 -2.2511 -0.8808 0.4254 0 1
6.0776 -1.9901 -0.8735 0.4289 0 1
6.1091 -1.7321 -0.8673 0.4320 0 1
6.1374 -1.4766 -0.8622 0.4345 0 1
3.8488 -0.7639 -0.5360 0.9541 25 14
3.8401 -0.6030 -0.5309 0.9631 25 14
3.8314 -0.4448 -0.5268 0.9706 25 14
3.8225 -0.2888 -0.5236 0.9766 25 14
3.8145 -0.1345 -0.5213 0.9759 25 14
3.8090 0.0188 -0.5203 0.9779 25 14
3.8181 0.1723 -0.5220 0.9746 25 14
3.8274 0.3272 -0.5247 0.9746 25 14
3.8377 0.4840 -0.5283 0.9679 25 14
3.8478 0.6432 -0.5329 0.9596 25 14
3.9692 0.8286 -0.5538 0.3419 25 14
6.2941 1.5801 -0.8864 0.4305 0 1
6.2895 1.8505 -0.8955 0.4262 0 1
6.2816 2.1257 -0.9058 0.4215 0 1
6.2701 2.4066 -0.9173 0.4162 0 1
6.2551 2.6938 -0.9302 0.4104 0 1
6.2292 2.9847 -0.9435 0.4006 0 1
6.1980 3.2821 -0.9579 0.3945 0 1
6.1625 3.5874 -0.9740 0.3880 0 1
6.1224 3.9014 -0.9916 0.3811 0 1
6.0774 4.2252 -1.0110 0.3738 0 1
6.0111 4.5478 -1.0296 0.3815 0 1
5.9419 4.8828 -1.0505 0.3737 0 1
5.8690 5.2315 -1.0739 0.3655 0 1
5.7892 5.5936 -1.0995 0.3570 0 1
5.7021 5.9704 -1.1276 0.3481 0 1
5.6067 6.3637 -1.1584 0.3388 0 1
5.4771 6.7444 -1.1867 0.3680 0 1
5.3365 7.1392 -1.2174 0.3512 0 1
5.1838 7.5492 -1.2508 0.3418 0 1
5.0191 7.9780 -1.2874 0.3321 0 1
4.8499 8.4434 -1.3300 0.3132 0 1
4.6718 8.9473 -1.3787 0.3077 0 1
4.5250 9.5859 -1.4479 0.2787 0 2
4.2045 9.9207 -1.4717 0.9404 0 2
3.8920 10.3183 -1.5063 0.2394 0 2
3.6566 11.0148 -1.5852 0.2275 0 2
3.3913 11.7783 -1.6741 0.2155 0 2
3.0910 12.6211 -1.7748 0.2032 0 2
2.7485 13.5588 -1.8896 0.1909 0 2
2.1704 13.4637 -1.8627 0.9836 0 20
1.9001 15.8033 -2.1741 0.1659 0 2
1.3676 17.1695 -2.3526 0.1533 0 2
0.7813 19.8624 -2.7151 0.1391 0 1
-0.0187 21.7320 -2.9683 0.1278 0 1
-0.9973 24.2919 -3.3208 0.1171 0 1
-2.2046 27.0894 -3.7123 0.1091 0 1
-3.7043 30.3695 -4.1789 0.0954 0 1
-5.6824 34.8681 -4.8254 0.0776 0 1
-8.3840 40.9971 -5.7156 0.0625 0 1
-15.4954 46.4106 -6.6831 0.9760 0 15
-29.4624 39.2737 -6.7060 0.6014 0 3
-29.5474 36.2568 -6.3885 0.6313 0 3
-29.6218 33.5050 -6.1084 0.6602 0 3
-31.3059 32.6665 -6.1800 0.7200 0 3
-29.7443 28.6403 -5.6399 0.7151 0 3
-18.6162 16.5369 -3.4011 0.6777 0 22
-20.1713 16.5178 -3.5610 0.5144 0 22
-29.8758 22.5224 -5.1103 0.7891 0 3
-29.6684 20.5509 -4.9296 0.3422 0 3
-34.7594 22.0659 -5.6236 0.8325 0 3
-28.1445 16.3190 -4.4437 0.9022 0 3
-33.8962 17.8750 -5.2341 0.8708 0 3
-37.1787 17.7358 -5.6264 0.4326 0 3
-41.3139 17.7083 -6.1395 0.3964 0 3
-35.1228 -33.3864 -6.6189 0.6778 0 20
-32.5317 -33.5114 -6.3793 0.8145 0 20
-32.0382 -35.7718 -6.5592 0.7912 0 20
-8.9481 -42.3653 -5.9142 0.0600 0 1
-5.9960 -35.3582 -4.8985 0.0753 0 1
-3.9173 -30.4830 -4.1978 0.0790 0 1
4.1944 -9.2178 -1.4977 0.2742 0 1
4.3832 -8.6890 -1.4393 0.2853 0 1
4.5537 -8.1913 -1.3861 0.2958 0 1
4.7088 -7.7227 -1.3377 0.3065 0 1
4.8521 -7.2826 -1.2942 0.3196 0 1
4.9800 -6.8605 -1.2538 0.3213 0 1
5.0803 -6.4380 -1.2129 0.3321 0 1
5.1710 -6.0376 -1.1757 0.3427 0 1
5.2532 -5.6569 -1.1417 0.3528 0 1
5.3296 -5.2958 -1.1112 0.3659 0 1
5.4000 -4.9509 -1.0835 0.3753 0 1
5.4639 -4.6196 -1.0582 0.3842 0 1
5.5218 -4.3005 -1.0351 0.3928 0 1
5.5749 -3.9928 -1.0141 0.3951 0 1
5.6339 -3.7020 -0.9970 0.4052 0 1
5.6905 -3.4202 -0.9819 0.4114 0 1
5.7424 -3.1446 -0.9683 0.4172 0 1
5.7898 -2.8746 -0.9560 0.4226 0 1
5.8331 -2.6095 -0.9451 0.4275 0 1
5.8725 -2.3489 -0.9354 0.4315 0 1
5.9100 -2.0927 -0.9272 0.4368 0 1
5.9439 -1.8396 -0.9202 0.4402 0 1
5.9743 -1.5891 -0.9143 0.4430 0 1
3.9803 -0.8892 -0.6032 0.3534 25 14
3.8318 -0.6958 -0.5760 0.9598 25 14
3.8233 -0.5367 -0.5710 0.9681 25 14
3.8146 -0.3800 -0.5669 0.9750 25 14
3.8057 -0.2252 -0.5638 0.9804 25 14
3.7970 -0.0719 -0.5617 0.9793 25 14
3.7983 0.0807 -0.5619 0.9789 25 14
3.8083 0.2342 -0.5643 0.9796 25 14
3.8185 0.3892 -0.5677 0.9738 25 14
3.8286 0.5464 -0.5720 0.9665 25 14
3.8385 0.7061 -0.5772 0.9577 25 14
4.0618 0.9172 -0.6158 0.3462 25 14
6.1408 1.6485 -0.9403 0.4387 0 1
6.1334 1.9137 -0.9502 0.4342 0 1
6.1225 2.1838 -0.9614 0.4293 0 1
6.1079 2.4593 -0.9738 0.4238 0 1
6.0854 2.7392 -0.9870 0.4139 0 1
6.0552 3.0237 -1.0010 0.4082 0 1
6.0206 3.3149 -1.0165 0.4019 0 1
5.9815 3.6138 -1.0335 0.3953 0 1
5.9376 3.9212 -1.0523 0.3882 0 1
5.8886 4.2379 -1.0730 0.3808 0 1
5.8189 4.5534 -1.0927 0.3883 0 1
5.7483 4.8828 -1.1154 0.3804 0 1
5.6712 5.2236 -1.1403 0.3721 0 1
5.5869 5.5770 -1.1675 0.3635 0 1
5.4950 5.9446 -1.1972 0.3544 0 1
5.3939 6.3271 -1.2296 0.3414 0 1
5.2655 6.7042 -1.2608 0.3666 0 1
5.1197 7.0871 -1.2930 0.3574 0 1
4.9628 7.4859 -1.3283 0.3480 0 1
4.7936 7.9025 -1.3669 0.3381 0 1
4.6228 8.3607 -1.4129 0.3187 0 1
4.4397 8.8515 -1.4645 0.3132 0 1
4.2778 9.4586 -1.5353 0.2841 0 2
4.0628 10.0386 -1.6016 0.2719 0 2
3.7171 10.3630 -1.6282 0.8891 0 2
3.3911 10.8008 -1.6742 0.2332 0 2
3.1168 11.5283 -1.7662 0.2208 0 2
2.8071 12.3286 -1.8700 0.2085 0 2
2.4554 13.2153 -1.9879 0.1962 0 2
1.9784 13.6892 -2.0456 0.3656 0 20
1.5894 15.3224 -2.2782 0.1712 0 2
1.1077 17.5074 -2.5944 0.1588 0 2
0.4359 18.9385 -2.8016 0.1448 0 1
-0.3590 20.9205 -3.0945 0.1325 0 1
-1.3356 23.2697 -3.4471 0.1220 0 1
-2.5176 25.7389 -3.8248 0.1198 0 1
-3.9693 28.6485 -4.2774 0.1025 0 1
-5.8322 32.4466 -4.8756 0.0846 0 1
-8.3337 37.6169 -5.6982 0.0703 0 1
-11.9096 45.0972 -6.8982 0.0620 0 1
-16.3407 46.4101 -7.2768 0.8698 0 15
-28.4909 36.7165 -6.8732 0.9979 0 3
-29.4159 34.9175 -6.7523 0.6457 0 3
-29.4929 32.2832 -6.4669 0.6742 0 3
-32.3359 32.6586 -6.7970 0.7077 0 3
-17.7457 16.5381 -3.5875 0.6796 0 22
-29.9016 25.7022 -5.8314 0.7534 0 3
-29.7192 23.5377 -5.6068 0.7776 0 3
-29.7579 21.6820 -5.4453 0.8999 0 3
-33.8690 22.6528 -6.0261 0.5555 0 3
-29.8249 18.2583 -5.1718 0.8430 0 3
-31.1885 17.4110 -5.2827 0.1358 0 3
-34.7627 17.6139 -5.7635 0.7748 0 3
-38.7682 17.7242 -6.3044 0.4174 0 3
-43.2137 17.6945 -6.9061 0.3810 0 3
-27.9648 5.3138 -4.2098 0.8086 0 6
-14.7487 -4.4702 -2.2792 0.9462 16 6
-33.9274 -33.3195 -7.0327 0.5518 0 20
-32.2715 -34.3462 -6.9700 0.8975 0 20
-31.4626 -36.3028 -7.1047 0.8800 0 20
-9.4630 -40.0500 -6.0862 0.0585 0 1
-6.5609 -33.7768 -5.0887 0.0797 0 1
-4.4649 -29.2104 -4.3702 0.0837 0 1
-2.8554 -25.5011 -3.7950 0.0966 0 1
-1.6183 -22.6466 -3.3578 0.1169 0 24
-0.6414 -20.5763 -3.0446 0.1234 0 24
0.1711 -18.9891 -2.8085 0.1484 0 1
0.8547 -17.3644 -2.5712 0.1371 0 1
1.4362 -16.0303 -2.3803 0.1739 0 1
1.9406 -14.8984 -2.2220 0.1641 0 1
2.3720 -13.8434 -2.0772 0.2066 0 1
2.7551 -12.9343 -1.9558 0.2138 0 1
3.0907 -12.1020 -1.8473 0.2217 0 1
3.3870 -11.3412 -1.7505 0.2335 0 1
3.6552 -10.6578 -1.6663 0.2453 0 1
3.8953 -10.0263 -1.5908 0.2564 0 1
4.1123 -9.4427 -1.5232 0.2696 0 1
4.3088 -8.8994 -1.4623 0.2808 0 1
4.4865 -8.3895 -1.4070 0.2914 0 1
4.6476 -7.9095 -1.3568 0.3022 0 1
4.7953 -7.4580 -1.3113 0.3155 0 1
4.9317 -7.0322 -1.2703 0.3257 0 1
5.0408 -6.6066 -1.2290 0.3278 0 1
5.1353 -6.1976 -1.1903 0.3384 0 1
5.2208 -5.8091 -1.1551 0.3487 0 1
5.2991 -5.4399 -1.1231 0.3620 0 1
5.3722 -5.0891 -1.0944 0.3715 0 1
5.4387 -4.7525 -1.0682 0.3806 0 1
5.4990 -4.4286 -1.0442 0.3894 0 1
5.5536 -4.1162 -1.0223 0.3977 0 1
5.6092 -3.8182 -1.0035 0.4074 0 1
5.6681 -3.5337 -0.9878 0.4089 0 1
5.7219 -3.2557 -0.9736 0.4149 0 1
5.7711 -2.9835 -0.9608 0.4204 0 1
5.8160 -2.7165 -0.9494 0.4255 0 1
5.8570 -2.4542 -0.9392 0.4301 0 1
5.8952 -2.1962 -0.9304 0.4353 0 1
5.9305 -1.9419 -0.9229 0.4389 0 1
5.9624 -1.6905 -0.9166 0.4419 0 1
4.1166 -0.9904 -0.6262 0.3404 25 14
3.8366 -0.7615 -0.5785 0.8501 25 14
3.8268 -0.6009 -0.5729 0.9649 25 14
3.8181 -0.4433 -0.5685 0.9724 25 14
3.8093 -0.2878 -0.5650 0.9784 25 14
3.8004 -0.1340 -0.5624 0.9829 25 14
3.7946 0.0187 -0.5612 0.9801 25 14
3.8042 0.1717 -0.5632 0.9816 25 14
3.8144 0.3261 -0.5662 0.9764 25 14
3.8245 0.4823 -0.5701 0.9696 25 14
3.8345 0.6410 -0.5750 0.9614 25 14
3.9208 0.8185 -0.5924 0.3456 25 14
6.1428 1.5422 -0.9367 0.4404 0 1
6.1368 1.8055 -0.9461 0.4361 0 1
6.1274 2.0736 -0.9567 0.4314 0 1
6.1143 2.3468 -0.9686 0.4261 0 1
6.0965 2.6255 -0.9817 0.4162 0 1
6.0679 2.9075 -0.9951 0.4106 0 1
6.0352 3.1959 -1.0100 0.4045 0 1
5.9980 3.4916 -1.0264 0.3980 0 1
5.9561 3.7954 -1.0445 0.3911 0 1
5.9091 4.1082 -1.0644 0.3838 0 1
5.8480 4.4244 -1.0845 0.3916 0 1
5.7777 4.7478 -1.1060 0.3837 0 1
5.7033 5.0838 -1.1299 0.3756 0 1
5.6220 5.4320 -1.1562 0.3670 0 1
5.5333 5.7936 -1.1848 0.3582 0 1
5.4362 6.1701 -1.2162 0.3451 0 1
5.3217 6.5531 -1.2485 0.3702 0 1
5.1801 6.9299 -1.2796 0.3612 0 1
5.0278 7.3220 -1.3136 0.3518 0 1
4.8638 7.7312 -1.3508 0.3421 0 1
4.6918 8.1683 -1.3931 0.3233 0 1
4.5170 8.6507 -1.4433 0.3120 0 1
4.3213 9.1543 -1.4971 0.3063 0 1
4.1525 9.7979 -1.5738 0.2767 0 2
3.8564 10.2240 -1.6161 0.8958 0 2
3.5092 10.5709 -1.6473 0.8787 0 2
3.2320 11.2250 -1.7275 0.2257 0 2
2.9374 11.9943 -1.8263 0.2135 0 2
2.6037 12.8441 -1.9382 0.2012 0 2
2.1701 13.4620 -2.0167 0.9608 0 20
1.7857 14.8525 -2.2124 0.1763 0 2
1.2790 16.0572 -2.3823 0.1637 0 2
0.7248 18.4272 -2.7274 0.1549 0 1
-0.0172 20.0736 -2.9688 0.1346 0 1
-0.9141 22.2654 -3.2957 0.1255 0 1
-2.0109 24.7086 -3.6663 0.1173 0 1
-3.3394 27.3779 -4.0790 0.1073 0 1
-5.0156 30.7764 -4.6117 0.0934 0 1
-7.2260 35.3347 -5.3339 0.0766 0 1
-10.3183 41.8213 -6.3706 0.0644 0 1
-15.4908 46.3970 -7.2342 0.9482 0 15
-29.2890 39.0426 -7.2183 0.6040 0 3
-29.3817 36.0535 -6.8785 0.6339 0 3
-29.4629 33.3252 -6.5786 0.6627 0 3
-29.5342 30.8177 -6.3128 0.6906 0 3
-28.6758 27.6114 -5.8874 0.9732 0 3
-18.6129 16.5340 -3.6820 0.6768 0 22
-20.1788 16.5240 -3.8572 0.7231 0 22
-29.7416 22.4213 -5.5085 0.7914 0 3
-32.7138 22.6604 -5.8855 0.5688 0 3
-34.6113 21.9719 -6.0631 0.8348 0 3
-30.2459 17.5375 -5.1707 0.3897 0 3
-33.7582 17.8022 -5.6443 0.8730 0 3
-39.8124 18.9922 -6.5237 0.8902 0 3
-41.3114 17.7072 -6.6473 0.3958 0 3
-43.3949 16.5706 -6.8698 0.1550 0 3
-28.0689 6.9955 -4.2782 0.6407 0 6
-25.9238 -17.7114 -4.6433 0.3238 15 6
-35.3175 -33.5715 -7.2065 0.5385 0 20
-32.5941 -33.5757 -6.9206 0.9040 0 20
-31.7936 -35.4987 -7.0479 0.8871 0 20
-10.9729 -43.2755 -6.6027 0.0647 0 1
-7.5957 -35.9627 -5.4360 0.0716 0 1
-5.2593 -31.0137 -4.6522 0.0771 0 1
-3.4505 -26.8501 -4.0036 0.0879 0 1
4.0375 -8.8731 -1.5523 0.2844 0 1
4.2253 -8.3759 -1.4938 0.2950 0 1
4.3954 -7.9066 -1.4405 0.3059 0 1
4.5516 -7.4648 -1.3922 0.3194 0 1
4.6957 -7.0478 -1.3485 0.3297 0 1
4.8213 -6.6418 -1.3069 0.3313 0 1
4.9235 -6.2392 -1.2656 0.3421 0 1
5.0161 -5.8567 -1.2279 0.3526 0 1
5.1006 -5.4926 -1.1936 0.3662 0 1
5.1798 -5.1469 -1.1628 0.3759 0 1
5.2519 -4.8151 -1.1346 0.3852 0 1
5.3174 -4.4958 -1.1088 0.3942 0 1
5.3770 -4.1877 -1.0853 0.4027 0 1
5.4298 -3.8889 -1.0635 0.4170 0 1
5.4915 -3.6085 -1.0463 0.4239 0 1
5.5488 -3.3350 -1.0309 0.4302 0 1
5.6014 -3.0674 -1.0169 0.4361 0 1
5.6495 -2.8049 -1.0044 0.4416 0 1
5.6935 -2.5471 -0.9932 0.4465 0 1
5.7336 -2.2933 -0.9833 0.4511 0 1
5.7700 -2.0431 -0.9747 0.4551 0 1
5.8034 -1.7961 -0.9674 0.4501 0 1
5.8340 -1.5518 -0.9613 0.4529 0 1
3.9238 -0.8766 -0.6402 0.5498 25 14
3.8371 -0.6968 -0.6210 0.9644 25 14
3.8328 -0.5380 -0.6163 0.8577 25 14
3.8188 -0.3804 -0.6111 0.8650 25 14
3.8054 -0.2252 -0.6070 0.8708 25 14
3.7926 -0.0718 -0.6040 0.8751 25 14
3.7913 0.0805 -0.6039 0.8754 25 14
3.8000 0.2336 -0.6062 0.8719 25 14
3.8092 0.3883 -0.6097 0.8670 25 14
3.8188 0.5450 -0.6143 0.8605 25 14
3.8290 0.7044 -0.6200 0.8526 25 14
3.9985 0.9029 -0.6527 0.3510 25 14
5.9952 1.6094 -0.9885 0.4435 0 1
5.9869 1.8680 -0.9987 0.4440 0 1
5.9747 2.1310 -1.0101 0.4392 0 1
5.9586 2.3992 -1.0229 0.4337 0 1
5.9326 2.6704 -1.0360 0.4239 0 1
5.9010 2.9467 -1.0503 0.4181 0 1
5.8650 3.2293 -1.0661 0.4119 0 1
5.8244 3.5189 -1.0836 0.4053 0 1
5.7789 3.8163 -1.1028 0.3982 0 1
5.7281 4.1225 -1.1238 0.3908 0 1
5.6638 4.4320 -1.1452 0.3983 0 1
5.5919 4.7500 -1.1683 0.3904 0 1
5.5136 5.0784 -1.1936 0.3821 0 1
5.4275 5.4178 -1.2211 0.3695 0 1
5.3332 5.7696 -1.2511 0.3606 0 1
5.2305 6.1355 -1.2838 0.3514 0 1
5.1172 6.5155 -1.3192 0.3766 0 1
4.9719 6.8826 -1.3520 0.3674 0 1
4.8158 7.2641 -1.3878 0.3580 0 1
4.6476 7.6618 -1.4270 0.3481 0 1
4.4744 8.0923 -1.4725 0.3287 0 1
4.2938 8.5606 -1.5250 0.3174 0 1
4.0933 9.0507 -1.5817 0.3117 0 1
3.9104 9.6621 -1.6598 0.2821 0 2
3.6755 10.2470 -1.7335 0.2695 0 2
3.3689 10.7300 -1.7908 0.8208 0 2
3.0159 11.1551 -1.8401 0.7988 0 2
2.6709 11.7301 -1.9157 0.2188 0 2
2.3291 12.5354 -2.0303 0.2064 0 2
1.9407 13.4281 -2.1605 0.1940 0 2
1.4963 14.4257 -2.3094 0.1815 0 2
1.0385 16.4144 -2.6190 0.1699 0 2
0.4062 17.6496 -2.8112 0.1562 0 1
-0.3322 19.3563 -3.0827 0.1393 0 1
-1.2280 21.3963 -3.4127 0.1303 0 1
-2.3035 23.5502 -3.7679 0.1230 0 1
-3.6039 26.0113 -4.1815 0.1178 0 1
-5.2053 28.9591 -4.6852 0.1008 0 1
-7.2582 32.7620 -5.3434 0.0830 0 1
-10.1046 38.2625 -6.3017 0.0709 0 1
-14.0642 45.7305 -7.6186 0.0610 0 1
-16.3542 46.4486 -7.8414 0.8848 0 15
-29.1594 37.5779 -7.5740 0.6187 0 3
-27.4866 32.6274 -6.7934 0.9610 0 3
-27.6458 30.2613 -6.5268 0.5974 0 3
-27.6448 27.9207 -6.2566 0.9779 0 3
-17.7514 16.5435 -3.8639 0.5581 0 22
-32.1816 27.6621 -6.7574 0.6488 0 3
-28.6457 22.6875 -5.8188 0.6443 0 3
-29.7349 21.6653 -5.8584 0.5870 0 3
-33.8676 22.6518 -6.4880 0.5546 0 3
-29.6992 18.1813 -5.5450 0.8451 0 3
-34.5146 19.2678 -6.2944 0.8643 0 3
-31.7307 16.0776 -5.6643 0.2166 0 3
-34.9042 15.9576 -6.1113 0.8458 0 3
-43.2110 17.6934 -7.4352 0.3804 0 3
-45.8928 16.6725 -7.7751 0.0506 0 3
-19.5037 -4.2376 -3.1782 0.2339 16 6
-31.6593 -17.0968 -5.7295 0.6158 0 6
-33.8080 -33.2022 -7.5455 0.3967 0 20
-32.1531 -34.2202 -7.4771 0.8988 0 20
-31.1321 -35.9215 -7.5693 0.9494 0 20
-11.3821 -40.7778 -6.7415 0.0624 0 1
-8.0909 -34.2426 -5.6028 0.0759 0 1
-5.7597 -29.6524 -4.8100 0.0817 0 1
-3.9498 -25.8405 -4.1625 0.0925 0 1
-2.5624 -22.8838 -3.6667 0.1150 0 24
-1.4819 -20.7390 -3.3108 0.1264 0 24
-0.5955 -19.1030 -3.0434 0.1472 0 1
0.1588 -17.6290 -2.8073 0.1350 0 1
0.7978 -16.2090 -2.5842 0.1728 0 1
1.3529 -15.1003 -2.4141 0.1843 0 1
1.8309 -14.0563 -2.2572 0.2044 0 1
2.2552 -13.1615 -2.1263 0.2114 0 1
2.6249 -12.3230 -2.0063 0.2240 0 1
2.9501 -11.5515 -1.8985 0.2339 0 1
3.2409 -10.8519 -1.8034 0.2462 0 1
3.5030 -10.2140 -1.7194 0.2555 0 1
3.7406 -9.6282 -1.6448 0.2684 0 1
3.9560 -9.0838 -1.5777 0.2798 0 1
4.1514 -8.5741 -1.5169 0.2910 0 1
4.3283 -8.0937 -1.4615 0.3015 0 1
4.4894 -7.6403 -1.4111 0.3151 0 1
4.6387 -7.2144 -1.3658 0.3256 0 1
4.7755 -6.8096 -1.3244 0.3357 0 1
4.8832 -6.4000 -1.2819 0.3378 0 1
4.9796 -6.0097 -1.2428 0.3484 0 1
5.0671 -5.6381 -1.2071 0.3587 0 1
5.1486 -5.2854 -1.1749 0.3720 0 1
5.2235 -4.9482 -1.1457 0.3815 0 1
5.2916 -4.6240 -1.1190 0.3906 0 1
5.3535 -4.3115 -1.0946 0.3993 0 1
5.4097 -4.0095 -1.0722 0.4076 0 1
5.4669 -3.7213 -1.0531 0.4211 0 1
5.5261 -3.4452 -1.0370 0.4277 0 1
5.5806 -3.1753 -1.0224 0.4338 0 1
5.6305 -2.9108 -1.0093 0.4394 0 1
5.6762 -2.6512 -0.9976 0.4446 0 1
5.7178 -2.3958 -0.9872 0.4493 0 1
5.7557 -2.1443 -0.9781 0.4535 0 1
5.7900 -1.8959 -0.9702 0.4488 0 1
5.8220 -1.6507 -0.9636 0.4518 0 1
4.0464 -0.9735 -0.6627 0.3457 25 14
3.8382 -0.7618 -0.6231 0.9611 25 14
3.8355 -0.6023 -0.6182 0.9687 25 14
3.8244 -0.4440 -0.6131 0.8622 25 14
3.8108 -0.2879 -0.6085 0.8686 25 14
3.7977 -0.1339 -0.6051 0.8735 25 14
3.7879 0.0187 -0.6032 0.8763 25 14
3.7965 0.1714 -0.6051 0.8735 25 14
3.8054 0.3253 -0.6082 0.8691 25 14
3.8149 0.4811 -0.6123 0.8633 25 14
3.8248 0.6393 -0.6175 0.8560 25 14
3.8664 0.8071 -0.6289 0.3643 25 14
5.9968 1.5055 -0.9845 0.4453 0 1
5.9909 1.7626 -0.9944 0.4459 0 1
5.9801 2.0237 -1.0053 0.4411 0 1
5.9656 2.2897 -1.0175 0.4360 0 1
5.9442 2.5599 -1.0306 0.4261 0 1
5.9143 2.8338 -1.0443 0.4205 0 1
5.8802 3.1138 -1.0595 0.4145 0 1
5.8415 3.4005 -1.0763 0.4080 0 1
5.7980 3.6947 -1.0948 0.4011 0 1
5.7494 3.9972 -1.1150 0.3938 0 1
5.6930 4.3072 -1.1368 0.4015 0 1
5.6219 4.6198 -1.1587 0.3937 0 1
5.5462 4.9438 -1.1831 0.3855 0 1
5.4634 5.2788 -1.2097 0.3729 0 1
5.3725 5.6252 -1.2386 0.3642 0 1
5.2733 5.9853 -1.2702 0.3552 0 1
5.1673 6.3629 -1.3052 0.3441 0 1
5.0321 6.7320 -1.3384 0.3712 0 1
4.8805 7.1075 -1.3729 0.3619 0 1
4.7174 7.4984 -1.4107 0.3522 0 1
4.5433 7.9097 -1.4525 0.3333 0 1
4.3690 8.3673 -1.5031 0.3220 0 1
4.1772 8.8492 -1.5582 0.3164 0 1
3.9648 9.3550 -1.6179 0.3047 0 1
3.7735 10.0041 -1.7026 0.2750 0 2
3.5110 10.5763 -1.7745 0.8769 0 2
3.1614 10.9798 -1.8194 0.8079 0 2
2.8023 11.4426 -1.8759 0.6505 0 2
2.4729 12.1990 -1.9820 0.2115 0 2
2.1044 13.0544 -2.1056 0.1991 0 2
1.6841 14.0070 -2.2465 0.1866 0 2
1.2566 15.7758 -2.5200 0.1052 0 2
0.6750 17.1598 -2.7346 0.1540 0 1
-0.0160 18.6299 -2.9666 0.1470 0 1
-0.8431 20.5371 -3.2730 0.1346 0 1
-1.8435 22.6525 -3.6190 0.1255 0 1
-3.0484 24.9915 -4.0091 0.1153 0 1
-4.5083 27.6636 -4.4632 0.1059 0 1
-6.3586 31.0930 -5.0536 0.0923 0 1
-8.8381 35.8220 -5.8752 0.0723 0 1
-12.3107 42.4813 -7.0429 0.0640 0 1
-28.2113 37.6060 -7.4860 0.8972 0 3
-28.2311 34.6416 -7.1160 0.6363 0 3
-28.2145 31.9132 -6.7830 0.8129 0 3
-29.3824 30.6594 -6.7621 0.6930 0 3
-29.4505 28.3574 -6.5102 0.7199 0 3
-29.5158 26.2192 -6.2866 0.3431 0 3
-20.1776 16.5230 -4.1528 0.7219 0 22
-29.6082 22.3207 -5.9043 0.7936 0 3
-32.7124 22.6595 -6.3366 0.5678 0 3
-29.6858 18.8451 -5.5991 0.8369 0 3
-30.6596 17.7773 -5.6435 0.5011 0 3
-30.5509 16.1109 -5.4998 0.6051 0 3
-39.6536 18.9164 -6.9960 0.8922 0 3
-41.3089 17.7061 -7.1567 0.3952 0 3
-20.1554 -4.8858 -3.3024 0.1657 16 6
-15.7333 -4.4900 -2.6053 0.2958 16 6
-26.4718 -16.5669 -4.9727 0.6315 15 6
-25.8901 -17.6884 -4.9930 0.9936 15 6
-35.6512 -33.8887 -7.8325 0.3822 0 20
-32.4716 -33.4494 -7.4233 0.9058 0 20
-31.5613 -35.2394 -7.5330 0.9541 0 20
-17.7200 -45.8436 -7.8263 0.1917 0 20
-13.1014 -44.1455 -7.3326 0.0590 0 1
-9.2677 -36.5504 -6.0043 0.0686 0 1
-6.6413 -31.4439 -5.1175 0.0857 0 1
-4.6249 -27.2730 -4.4049 0.0870 0 1
-3.0879 -24.0290 -3.8578 0.1055 0 1
3.8915 -8.5521 -1.6031 0.2945 0 1
4.0778 -8.0836 -1.5448 0.3051 0 1
4.2474 -7.6404 -1.4915 0.3189 0 1
4.4045 -7.2235 -1.4435 0.3295 0 1
4.5485 -6.8269 -1.3997 0.3398 0 1
4.6718 -6.4359 -1.3569 0.3413 0 1
4.7755 -6.0517 -1.3153 0.3521 0 1
4.8697 -5.6858 -1.2773 0.3626 0 1
4.9571 -5.3381 -1.2429 0.3761 0 1
5.0377 -5.0057 -1.2117 0.3858 0 1
5.1112 -4.6862 -1.1831 0.3951 0 1
5.1782 -4.3781 -1.1570 0.4040 0 1
5.2383 -4.0797 -1.1328 0.4023 0 1
5.2948 -3.7922 -1.1112 0.4268 0 1
5.3571 -3.5202 -1.0937 0.4337 0 1
5.4149 -3.2546 -1.0779 0.4400 0 1
5.4680 -2.9943 -1.0637 0.4459 0 1
5.5167 -2.7390 -1.0509 0.4514 0 1
5.5611 -2.4879 -1.0395 0.4563 0 1
5.6016 -2.2405 -1.0294 0.4609 0 1
5.6383 -1.9965 -1.0205 0.4649 0 1
5.6713 -1.7552 -1.0129 0.4684 0 1
5.7008 -1.5164 -1.0065 0.4714 0 1
3.9177 -0.8752 -0.6849 0.5497 25 14
3.8382 -0.6970 -0.6656 0.9623 25 14
3.8356 -0.5384 -0.6608 0.9692 25 14
3.8331 -0.3818 -0.6572 0.9746 25 14
3.8218 -0.2262 -0.6532 0.8655 25 14
3.8088 -0.0721 -0.6500 0.8698 25 14
3.8077 0.0809 -0.6498 0.8700 25 14
3.8165 0.2347 -0.6524 0.8666 25 14
3.8258 0.3900 -0.6561 0.8616 25 14
3.8311 0.5467 -0.6603 0.9701 25 14
3.8323 0.7050 -0.6648 0.9634 25 14
3.9370 0.8891 -0.6886 0.3559 25 14
5.8546 1.5717 -1.0343 0.4534 0 1
5.8468 1.8243 -1.0450 0.4538 0 1
5.8333 2.0806 -1.0567 0.4490 0 1
5.8153 2.3415 -1.0696 0.4391 0 1
5.7867 2.6048 -1.0827 0.4338 0 1
5.7540 2.8733 -1.0973 0.4280 0 1
5.7167 3.1476 -1.1135 0.4218 0 1
5.6748 3.4285 -1.1312 0.4152 0 1
5.6279 3.7166 -1.1507 0.4082 0 1
5.5757 4.0128 -1.1721 0.4007 0 1
5.5162 4.3165 -1.1951 0.4082 0 1
5.4426 4.6231 -1.2184 0.3960 0 1
5.3624 4.9391 -1.2439 0.3879 0 1
5.2750 5.2656 -1.2717 0.3794 0 1
5.1798 5.6037 -1.3020 0.3706 0 1
5.0763 5.9546 -1.3350 0.3614 0 1
4.9671 6.3243 -1.3721 0.3501 0 1
4.8320 6.6889 -1.4079 0.3774 0 1
4.6768 7.0544 -1.4441 0.3679 0 1
4.5098 7.4346 -1.4836 0.3581 0 1
4.3348 7.8399 -1.5285 0.3387 0 1
4.1552 8.2842 -1.5813 0.3274 0 1
3.9589 8.7534 -1.6392 0.3217 0 1
3.7409 9.2432 -1.7013 0.3099 0 1
3.5060 9.7746 -1.7718 0.2936 0 1
3.2804 10.4484 -1.8685 0.2671 0 2
2.9978 11.0880 -1.9598 0.2542 0 2
2.6572 11.6703 -2.0421 0.7121 0 2
2.2830 12.2878 -2.1324 0.6152 0 2
1.8932 13.0998 -2.2583 0.5075 0 2
1.4894 14.3591 -2.4631 0.3049 0 2
0.9777 15.4521 -2.6417 0.1817 0 2
0.3805 16.5298 -2.8210 0.1665 0 1
-0.3091 18.0099 -3.0733 0.1474 0 1
-1.1324 19.7299 -3.3718 0.1369 0 24
-2.1178 21.6515 -3.7118 0.1315 0 1
-3.2945 23.7783 -4.0958 0.1210 0 1
-4.7157 26.2351 -4.5480 0.1157 0 1
-6.4637 29.1758 -5.0987 0.1001 0 1
-8.7537 33.1470 -5.8494 0.0752 0 1
-11.9270 38.7812 -6.9227 0.0686 0 1
-18.0371 36.4922 -6.9453 0.9888 0 6
-23.0803 42.3260 -8.2255 0.4479 0 5
-28.9919 37.3621 -8.0688 0.6212 0 3
-29.0939 34.5353 -7.7047 0.6505 0 3
-28.3373 31.0183 -7.1683 0.0519 0 3
-29.2626 29.5546 -7.0962 0.7063 0 3
-17.7568 16.5485 -4.1414 0.5512 0 22
-19.2188 16.5197 -4.3240 0.7370 0 22
-29.4486 23.3234 -6.4095 0.7820 0 3
-31.1127 22.6692 -6.5681 0.5859 0 3
-33.8661 22.6508 -6.9515 0.5536 0 3
-29.5742 18.1048 -5.9164 0.8471 0 3
-34.3725 19.1885 -6.7166 0.8663 0 3
-34.5258 17.4939 -6.6038 0.4358 0 3
-38.7637 17.7221 -7.2723 0.4159 0 3
-43.2809 17.7220 -7.9796 0.1305 0 3
-17.6657 -4.5884 -3.1141 0.2414 0 8
-31.5524 -17.0391 -6.1183 0.9716 0 6
-33.5561 -32.9548 -8.0246 0.2324 0 20
-32.0831 -34.1457 -7.9941 0.9615 0 20
-30.8192 -35.5605 -8.0289 0.9898 0 20
-16.9366 -46.0343 -8.3691 0.5357 0 20
-13.3487 -41.3346 -7.4111 0.0591 0 1
-9.6743 -34.6592 -6.1396 0.0729 0 1
-7.0947 -30.0267 -5.2642 0.0818 0 1
-5.0849 -26.1783 -4.5500 0.0905 0 1
-3.5486 -23.2158 -4.0071 0.1083 0 1
-2.3544 -21.0266 -3.6100 0.1261 0 1
-1.3729 -19.2130 -3.2865 0.1362 0 1
-0.5550 -17.8031 -3.0390 0.1576 0 1
0.1478 -16.4073 -2.7995 0.1720 0 1
0.7515 -15.2676 -2.6081 0.1832 0 1
1.2771 -14.2540 -2.4418 0.2021 0 1
1.7403 -13.3604 -2.2988 0.2146 0 1
2.1473 -12.5316 -2.1693 0.2216 0 1
2.5043 -11.7568 -2.0509 0.2296 0 1
2.8218 -11.0491 -1.9457 0.2441 0 1
3.1067 -10.4026 -1.8523 0.2564 0 1
3.3628 -9.8054 -1.7686 0.2693 0 1
3.5976 -9.2600 -1.6950 0.2785 0 1
3.8107 -8.7500 -1.6284 0.2899 0 1
4.0045 -8.2707 -1.5679 0.3006 0 1
4.1804 -7.8171 -1.5125 0.3116 0 1
4.3424 -7.3901 -1.4625 0.3252 0 1
4.4915 -6.9856 -1.4170 0.3356 0 1
4.6268 -6.5975 -1.3749 0.3368 0 1
4.7346 -6.2053 -1.3317 0.3478 0 1
4.8326 -5.8322 -1.2923 0.3584 0 1
4.9222 -5.4768 -1.2564 0.3720 0 1
5.0059 -5.1390 -1.2240 0.3819 0 1
5.0822 -4.8144 -1.1944 0.3913 0 1
5.1518 -4.5018 -1.1673 0.4004 0 1
5.2151 -4.2000 -1.1425 0.4091 0 1
5.2692 -3.9054 -1.1190 0.4073 0 1
5.3323 -3.6297 -1.1006 0.4310 0 1
5.3921 -3.3616 -1.0841 0.4375 0 1
5.4470 -3.0993 -1.0693 0.4436 0 1
5.4975 -2.8420 -1.0559 0.4492 0 1
5.5436 -2.5893 -1.0439 0.4544 0 1
5.5856 -2.3404 -1.0333 0.4591 0 1
5.6238 -2.0951 -1.0240 0.4633 0 1
5.6583 -1.8528 -1.0159 0.4670 0 1
5.6893 -1.6130 -1.0090 0.4702 0 1
4.0005 -0.9625 -0.7020 0.5396 25 14
3.8393 -0.7620 -0.6678 0.9591 25 14
3.8367 -0.6025 -0.6626 0.9666 25 14
3.8341 -0.4451 -0.6586 0.9726 25 14
3.8272 -0.2892 -0.6549 0.8633 25 14
3.8140 -0.1345 -0.6511 0.8682 25 14
3.8043 0.0188 -0.6491 0.8710 25 14
3.8129 0.1721 -0.6512 0.8681 25 14
3.8220 0.3267 -0.6545 0.8638 25 14
3.8306 0.4831 -0.6587 0.9723 25 14
3.8318 0.6405 -0.6628 0.9663 25 14
3.8543 0.8046 -0.6718 0.5605 25 14
5.8566 1.4703 -1.0303 0.4551 0 1
5.8506 1.7213 -1.0405 0.4506 0 1
5.8392 1.9761 -1.0518 0.4509 0 1
5.8234 2.2352 -1.0643 0.4458 0 1
5.7988 2.4973 -1.0772 0.4360 0 1
5.7678 2.7636 -1.0912 0.4304 0 1
5.7324 3.0356 -1.1067 0.4244 0 1
5.6924 3.3137 -1.1238 0.4179 0 1
5.6476 3.5988 -1.1426 0.4111 0 1
5.5976 3.8916 -1.1632 0.4038 0 1
5.5420 4.1929 -1.1857 0.3961 0 1
5.4733 4.4977 -1.2087 0.3992 0 1
5.3958 4.8097 -1.2333 0.3913 0 1
5.3113 5.1318 -1.2601 0.3829 0 1
5.2194 5.4650 -1.2894 0.3742 0 1
5.1193 5.8105 -1.3213 0.3652 0 1
5.0120 6.1717 -1.3565 0.3541 0 1
4.8919 6.5444 -1.3941 0.3811 0 1
4.7411 6.9044 -1.4290 0.3718 0 1
4.5790 7.2785 -1.4672 0.3621 0 1
4.4046 7.6681 -1.5088 0.3522 0 1
4.2299 8.1010 -1.5593 0.3320 0 1
4.0408 8.5602 -1.6151 0.3205 0 1
3.8317 9.0410 -1.6754 0.3147 0 1
3.6035 9.5534 -1.7421 0.2986 0 1
3.3562 10.1101 -1.8175 0.2862 0 1
3.1161 10.8223 -1.9215 0.2593 0 2
2.8050 11.4535 -2.0119 0.7228 0 2
2.4349 12.0117 -2.0911 0.6273 0 2
2.0523 12.7311 -2.2002 0.5209 0 2
1.6544 13.7598 -2.3646 0.4054 0 2
1.1943 14.9931 -2.5662 0.1871 0 2
0.6295 16.0039 -2.7327 0.1648 0 1
-0.0149 17.3635 -2.9626 0.1529 0 1
-0.7806 19.0127 -3.2467 0.1415 0 1
-1.6996 20.8835 -3.5749 0.1365 0 1
-2.7907 22.8788 -3.9325 0.1261 0 1
-4.1084 25.2097 -4.3580 0.1196 0 1
-5.7059 27.9015 -4.8591 0.1040 0 1
-7.6709 31.0911 -5.4638 0.0885 0 24
-10.5267 36.3251 -6.4528 0.0734 0 1
-14.3333 42.9302 -7.7222 0.0637 0 1
-23.1682 40.1749 -7.9127 0.5145 0 5
-28.9465 38.5861 -8.2301 0.6090 0 3
-29.0542 35.6516 -7.8470 0.6387 0 3
-29.1486 32.9698 -7.5085 0.6675 0 3
-29.2317 30.5021 -7.2083 0.6953 0 3
-29.3051 28.2173 -6.9411 0.7221 0 3
-29.3699 26.0896 -6.7027 0.7478 0 3
-20.1785 16.5237 -4.4499 0.6449 0 22
-29.4755 22.2207 -6.2981 0.7958 0 3
-29.3736 20.3467 -6.0966 0.8232 0 3
-29.5596 18.7650 -5.9739 0.8389 0 3
-30.6581 17.7765 -6.0466 0.5003 0 3
-31.1549 16.4294 -6.0095 0.5017 0 3
-35.4575 16.9147 -6.7028 0.4305 0 3
-44.5016 19.0746 -8.2609 0.9099 0 3
-25.8499 -17.6609 -5.3416 0.3763 15 6
-32.5068 -33.4857 -7.9626 0.9653 0 20
-31.4637 -35.1304 -8.0465 0.9552 0 20
-15.2159 -44.6161 -8.0429 0.0608 0 1
-10.9834 -37.0089 -6.5867 0.0668 0 1
-8.0609 -31.7913 -5.5959 0.0835 0 1
-5.8374 -27.6374 -4.8195 0.0847 0 1
-4.1223 -24.3090 -4.2068 0.0980 0 1
-2.7956 -21.7538 -3.7422 0.1199 0 24
3.7552 -8.2525 -1.6506 0.3046 0 1
3.9397 -7.8099 -1.5924 0.3152 0 1
4.1097 -7.3926 -1.5398 0.3289 0 1
4.2661 -6.9966 -1.4918 0.3395 0 1
4.4098 -6.6187 -1.4478 0.3498 0 1
4.5308 -6.2416 -1.4041 0.3512 0 1
4.6356 -5.8745 -1.3623 0.3620 0 1
4.7313 -5.5242 -1.3241 0.3759 0 1
4.8209 -5.1914 -1.2897 0.3859 0 1
4.9027 -4.8716 -1.2582 0.3956 0 1
4.9774 -4.5635 -1.2293 0.4049 0 1
5.0453 -4.2657 -1.2028 0.4035 0 1
5.1032 -3.9745 -1.1775 0.4122 0 1
5.1660 -3.6999 -1.1568 0.4366 0 1
5.2287 -3.4358 -1.1390 0.4435 0 1
5.2869 -3.1776 -1.1229 0.4498 0 1
5.3404 -2.9245 -1.1084 0.4557 0 1
5.3895 -2.6758 -1.0954 0.4611 0 1
5.4342 -2.4311 -1.0838 0.4661 0 1
5.4750 -2.1899 -1.0735 0.4706 0 1
5.5120 -1.9517 -1.0645 0.4746 0 1
5.5452 -1.7162 -1.0567 0.4781 0 1
5.5748 -1.4828 -1.0502 0.4811 0 1
3.9039 -0.8722 -0.7282 0.5539 25 14
3.8377 -0.6969 -0.7101 0.9728 25 14
3.8360 -0.5384 -0.7052 0.9796 25 14
3.8342 -0.3819 -0.7015 0.9724 25 14
3.8317 -0.2268 -0.6988 0.9761 25 14
3.8252 -0.0725 -0.6965 0.8644 25 14
3.8243 0.0812 -0.6964 0.8645 25 14
3.8299 0.2355 -0.6985 0.9765 25 14
3.8310 0.3905 -0.7010 0.9730 25 14
3.8322 0.5469 -0.7047 0.9679 25 14
3.8335 0.7052 -0.7096 0.9613 25 14
3.9311 0.8877 -0.7337 0.5465 25 14
5.7199 1.5355 -1.0781 0.4631 0 1
5.7112 1.7820 -1.0891 0.4585 0 1
5.6980 2.0324 -1.1013 0.4586 0 1
5.6769 2.2858 -1.1141 0.4489 0 1
5.6474 2.5420 -1.1274 0.4436 0 1
5.6136 2.8032 -1.1423 0.4379 0 1
5.5753 3.0697 -1.1586 0.4317 0 1
5.5322 3.3423 -1.1766 0.4245 0 1
5.4840 3.6216 -1.1964 0.4175 0 1
5.4305 3.9083 -1.2180 0.4101 0 1
5.3714 4.2032 -1.2416 0.4023 0 1
5.2994 4.5015 -1.2658 0.4059 0 1
5.2184 4.8065 -1.2916 0.3978 0 1
5.1303 5.1212 -1.3196 0.3894 0 1
5.0345 5.4464 -1.3502 0.3806 0 1
4.9303 5.7833 -1.3835 0.3714 0 1
4.8200 6.1371 -1.4206 0.3601 0 1
4.6993 6.5051 -1.4609 0.3873 0 1
4.5451 6.8558 -1.4974 0.3779 0 1
4.3794 7.2197 -1.5372 0.3681 0 1
4.2032 7.6018 -1.5813 0.3486 0 1
4.0248 8.0242 -1.6342 0.3373 0 1
3.8305 8.4696 -1.6922 0.3258 0 1
3.6171 8.9374 -1.7552 0.3199 0 1
3.3840 9.4345 -1.8247 0.3036 0 1
3.1309 9.9720 -1.9027 0.2912 0 1
2.8518 10.5483 -1.9892 0.2785 0 1
2.5700 11.2871 -2.1074 0.2507 0 2
2.2280 11.9913 -2.2203 0.2368 0 2
1.8452 12.7675 -2.3484 0.2226 0 2
1.4139 13.6307 -2.4947 0.2081 0 2
0.9145 14.4533 -2.6364 0.1924 0 1
0.3575 15.5309 -2.8281 0.1708 0 1
-0.2885 16.8116 -3.0609 0.1634 0 1
-1.0510 18.3120 -3.3391 0.1474 0 24
-1.9578 20.0158 -3.6612 0.1390 0 1
-3.0248 21.8316 -4.0123 0.1289 0 1
-4.3042 23.9456 -4.4290 0.1195 0 1
-5.8451 26.3835 -4.9195 0.1128 0 1
-7.6912 29.1238 -5.4836 0.0936 0 24
-10.3210 33.5591 -6.3917 0.0791 0 1
-13.7716 39.1137 -7.5489 0.0681 0 1
-17.8890 44.9566 -8.8083 0.0542 0 2
-16.1182 29.5584 -6.1290 0.5611 0 15
-16.3717 27.3494 -5.8027 0.5469 0 15
-28.8258 37.1480 -8.5598 0.6235 0 3
-28.9347 34.3463 -8.1756 0.6528 0 3
-29.0305 31.7770 -7.8355 0.6812 0 3
-27.3609 27.6339 -7.0793 0.9802 0 3
-17.7229 16.5169 -4.4103 0.5648 0 22
-19.2211 16.5217 -4.6141 0.6765 0 22
-29.3144 23.2171 -6.8075 0.7840 0 3
-29.3637 21.3948 -6.6140 0.8069 0 3
-29.4094 19.6700 -6.4410 0.8286 0 3
-29.4497 18.0286 -6.2860 0.8490 0 3
-34.2310 19.1095 -7.1369 0.8682 0 3
-35.0240 17.7463 -7.1477 0.4506 0 3
-38.3070 17.5133 -7.6679 0.1037 0 3
-43.3341 17.7438 -8.5245 0.9176 0 3
-27.7394 7.6211 -5.2370 0.8338 0 22
-17.6674 -4.5888 -3.3230 0.2409 0 8
-31.4154 -16.9651 -6.4997 0.8860 0 22
-33.8124 -33.2066 -8.6274 0.2302 0 20
-32.0061 -34.0637 -8.5090 0.9941 0 20
-30.7384 -35.4672 -8.5441 0.9904 0 20
-18.4942 -27.4090 -6.0193 1.0000 0 6
-15.2976 -41.5797 -8.0654 0.0620 0 1
-11.2785 -34.9243 -6.6811 0.0704 0 1
-8.4539 -30.2871 -5.7244 0.0814 0 1
-6.2557 -26.4755 -4.9525 0.0897 0 1
-4.5548 -23.4493 -4.3486 0.1068 0 1
-3.2339 -21.1566 -3.8962 0.1244 0 1
-2.1683 -19.3649 -3.5473 0.1343 0 1
-1.2780 -17.8848 -3.2642 0.1537 0 1
-0.5168 -16.5791 -3.0196 0.1698 0 1
0.1391 -15.4449 -2.8118 0.1809 0 1
0.7102 -14.4286 -2.6298 0.2004 0 1
1.2130 -13.5393 -2.4746 0.2123 0 1
1.6578 -12.7272 -2.3365 0.2191 0 1
2.0480 -11.9523 -2.2076 0.2271 0 1
2.3933 -11.2357 -2.0913 0.2398 0 1
2.7038 -10.5869 -1.9892 0.2542 0 1
2.9827 -9.9875 -1.8975 0.2665 0 1
3.2348 -9.4320 -1.8152 0.2794 0 1
3.4646 -8.9177 -1.7416 0.2887 0 1
3.6751 -8.4388 -1.6756 0.3000 0 1
3.8669 -7.9867 -1.6154 0.3107 0 1
4.0423 -7.5589 -1.5605 0.3245 0 1
4.2042 -7.1549 -1.5107 0.3352 0 1
4.3529 -6.7700 -1.4652 0.3456 0 1
4.4853 -6.3958 -1.4221 0.3468 0 1
4.5943 -6.0214 -1.3788 0.3577 0 1
4.6935 -5.6643 -1.3392 0.3683 0 1
4.7856 -5.3248 -1.3033 0.3819 0 1
4.8704 -4.9999 -1.2707 0.3917 0 1
4.9479 -4.6872 -1.2407 0.4012 0 1
5.0187 -4.3855 -1.2133 0.4103 0 1
5.0804 -4.0915 -1.1875 0.4087 0 1
5.1395 -3.8092 -1.1646 0.4337 0 1
5.2036 -3.5421 -1.1459 0.4408 0 1
5.2639 -3.2817 -1.1292 0.4473 0 1
5.3193 -3.0266 -1.1141 0.4534 0 1
5.3701 -2.7762 -1.1005 0.4590 0 1
5.4166 -2.5299 -1.0883 0.4641 0 1
5.4589 -2.2874 -1.0775 0.4689 0 1
5.4974 -2.0480 -1.0680 0.4730 0 1
5.5321 -1.8115 -1.0597 0.4767 0 1
5.5632 -1.5773 -1.0527 0.4799 0 1
3.9852 -0.9588 -0.7462 0.5406 25 14
3.8383 -0.7618 -0.7124 0.9697 25 14
3.8367 -0.6025 -0.7070 0.9770 25 14
3.8349 -0.4452 -0.7028 0.9829 25 14
3.8327 -0.2896 -0.6997 0.9748 25 14
3.8302 -0.1350 -0.6977 0.9776 25 14
3.8208 0.0188 -0.6956 0.8655 25 14
3.8294 0.1728 -0.6978 0.9774 25 14
3.8306 0.3275 -0.6999 0.9746 25 14
3.8317 0.4832 -0.7031 0.9701 25 14
3.8330 0.6407 -0.7075 0.9641 25 14
3.8512 0.8039 -0.7162 0.5598 25 14
5.7224 1.4366 -1.0741 0.4649 0 1
5.7152 1.6815 -1.0845 0.4604 0 1
5.7043 1.9304 -1.0963 0.4555 0 1
5.6874 2.1830 -1.1090 0.4556 0 1
5.6599 2.4375 -1.1218 0.4458 0 1
5.6278 2.6966 -1.1361 0.4402 0 1
5.5914 2.9609 -1.1518 0.4342 0 1
5.5503 3.2310 -1.1691 0.4278 0 1
5.5042 3.5075 -1.1882 0.4204 0 1
5.4529 3.7910 -1.2090 0.4131 0 1
5.3960 4.0824 -1.2318 0.4055 0 1
5.3304 4.3802 -1.2560 0.4091 0 1
5.2521 4.6817 -1.2808 0.4012 0 1
5.1670 4.9923 -1.3080 0.3929 0 1
5.0743 5.3131 -1.3375 0.3842 0 1
4.9736 5.6451 -1.3696 0.3752 0 1
4.8653 5.9910 -1.4050 0.3641 0 1
4.7508 6.3556 -1.4445 0.3541 0 1
4.6089 6.7120 -1.4822 0.3817 0 1
4.4481 7.0703 -1.5207 0.3721 0 1
4.2751 7.4428 -1.5625 0.3621 0 1
4.0990 7.8502 -1.6122 0.3420 0 1
3.9114 8.2860 -1.6680 0.3305 0 1
3.7068 8.7463 -1.7293 0.3247 0 1
3.4801 9.2263 -1.7951 0.3086 0 1
3.2365 9.7495 -1.8701 0.2962 0 1
2.9684 10.3094 -1.9530 0.2837 0 1
2.6985 11.0187 -2.0652 0.2569 0 2
2.3712 11.6975 -2.1728 0.2432 0 2
2.0058 12.4427 -2.2944 0.2291 0 2
1.5953 13.2682 -2.4328 0.2134 0 2
1.1305 14.1926 -2.5919 0.1988 0 2
0.5931 15.0776 -2.7469 0.1846 0 1
-0.0140 16.2746 -2.9627 0.1688 0 1
-0.7265 17.6951 -3.2240 0.1496 0 1
-1.5738 19.3377 -3.5320 0.1423 0 1
-2.5690 21.0612 -3.8625 0.1346 0 1
-3.7570 23.0537 -4.2522 0.1244 0 1
-5.1865 25.3617 -4.7125 0.1177 0 1
-6.9125 28.0171 -5.2533 0.1025 0 1
-9.1592 31.6061 -5.9905 0.0784 0 1
-12.2493 36.6884 -7.0414 0.0714 0 1
-16.6426 43.8937 -8.5457 0.0654 0 2
-22.8274 43.5358 -8.9489 0.5132 0 5
-16.2631 28.2011 -5.9264 0.5386 0 15
-28.7774 38.3606 -8.7300 0.6114 0 3
-28.8922 35.4529 -8.3258 0.6411 0 3
-28.8312 32.6108 -7.9241 0.9689 0 3
-29.0820 30.3459 -7.6516 0.6976 0 3
-28.6000 27.5384 -7.2277 0.6023 0 3
-29.2300 25.9653 -7.1175 0.7499 0 3
-20.1494 16.4999 -4.7410 0.6053 0 22
-29.3434 22.1211 -6.6897 0.7978 0 3
-29.3916 20.3591 -6.5089 0.8200 0 3
-29.4340 18.6853 -6.3468 0.8409 0 3
-34.2151 19.8389 -7.2000 0.8606 0 3
-31.6536 16.6924 -6.5146 0.4929 0 3
-39.3379 18.7658 -7.9344 0.8960 0 3
-44.3272 18.9998 -8.7796 0.9117 0 3
-27.7561 9.3398 -5.3313 0.9632 0 22
-27.7305 8.1070 -5.2595 0.9231 0 22
-31.4113 -17.9443 -6.5856 0.8303 0 22
-32.4012 -33.3769 -8.4683 0.9665 0 20
-31.2522 -34.8943 -8.5277 0.9923 0 20
-16.5664 -42.8591 -8.3649 0.0571 0 2
-12.7260 -37.3153 -7.1773 0.0604 0 1
-9.5036 -32.0227 -6.0809 0.0804 0 1
-7.0840 -27.9385 -5.2470 0.0846 0 1
-5.1873 -24.5596 -4.5696 0.0960 0 1
-3.7130 -21.8956 -4.0429 0.1166 0 24
-2.5787 -20.0665 -3.6831 0.1316 0 1
3.6276 -7.9721 -1.6949 0.3147 0 1
3.8109 -7.5544 -1.6374 0.3281 0 1
3.9801 -7.1594 -1.5852 0.3389 0 1
4.1356 -6.7826 -1.5373 0.3495 0 1
4.2788 -6.4221 -1.4934 0.3597 0 1
4.3975 -6.0581 -1.4486 0.3611 0 1
4.5032 -5.7067 -1.4068 0.3719 0 1
4.6011 -5.3721 -1.3688 0.3858 0 1
4.6915 -5.0521 -1.3342 0.3958 0 1
4.7743 -4.7440 -1.3025 0.4054 0 1
4.8499 -4.4466 -1.2733 0.4147 0 1
4.9153 -4.1558 -1.2456 0.4133 0 1
4.9754 -3.8750 -1.2204 0.4390 0 1
5.0427 -3.6117 -1.2003 0.4463 0 1
5.1058 -3.3550 -1.1823 0.4532 0 1
5.1643 -3.1039 -1.1660 0.4595 0 1
5.2182 -2.8575 -1.1513 0.4654 0 1
5.2675 -2.6152 -1.1381 0.4708 0 1
5.3125 -2.3766 -1.1263 0.4758 0 1
5.3535 -2.1413 -1.1158 0.4803 0 1
5.3907 -1.9088 -1.1067 0.4843 0 1
5.4240 -1.6787 -1.0988 0.4877 0 1
5.4537 -1.4507 -1.0921 0.4907 0 1
3.8922 -0.8696 -0.7718 0.6392 25 14
3.8357 -0.6965 -0.7544 0.9713 25 14
3.8340 -0.5382 -0.7492 0.9781 25 14
3.8323 -0.3817 -0.7453 0.9832 25 14
3.8305 -0.2267 -0.7426 0.9868 25 14
3.8286 -0.0725 -0.7410 0.9972 25 14
3.8285 0.0813 -0.7411 0.9888 25 14
3.8295 0.2355 -0.7425 0.9869 25 14
3.8305 0.3904 -0.7451 0.9834 25 14
3.8315 0.5468 -0.7490 0.9784 25 14
3.8323 0.7050 -0.7541 0.9718 25 14
3.9201 0.8852 -0.7777 0.5503 25 14
5.5907 1.5008 -1.1202 0.4729 0 1
5.5810 1.7413 -1.1314 0.4682 0 1
5.5675 1.9858 -1.1439 0.4631 0 1
5.5444 2.2324 -1.1566 0.4581 0 1
5.5140 2.4820 -1.1702 0.4528 0 1
5.4792 2.7361 -1.1852 0.4471 0 1
5.4399 2.9952 -1.2017 0.4409 0 1
5.3958 3.2600 -1.2200 0.4343 0 1
5.3466 3.5309 -1.2399 0.4273 0 1
5.2920 3.8086 -1.2618 0.4199 0 1
5.2319 4.0941 -1.2856 0.4122 0 1
5.1630 4.3857 -1.3109 0.4158 0 1
5.0815 4.6804 -1.3369 0.4077 0 1
4.9928 4.9839 -1.3652 0.3993 0 1
4.8965 5.2972 -1.3960 0.3905 0 1
4.7919 5.6211 -1.4294 0.3813 0 1
4.6809 5.9600 -1.4666 0.3700 0 1
4.5619 6.3150 -1.5076 0.3600 0 1
4.4201 6.6673 -1.5480 0.3877 0 1
4.2559 7.0160 -1.5880 0.3780 0 1
4.0795 7.3781 -1.6315 0.3679 0 1
3.9018 7.7791 -1.6842 0.3473 0 1
3.7095 8.2020 -1.7420 0.3357 0 1
3.5000 8.6481 -1.8054 0.3239 0 1
3.2698 9.1160 -1.8742 0.3136 0 1
3.0208 9.6215 -1.9515 0.3011 0 1
2.7471 10.1607 -2.0369 0.2861 0 1
2.4444 10.7355 -2.1307 0.2735 0 1
2.1134 11.3745 -2.2388 0.2499 0 1
1.7455 12.0778 -2.3616 0.2369 0 1
1.3328 12.8493 -2.4999 0.2223 0 1
0.8671 13.7055 -2.6576 0.2097 0 1
0.3374 14.6593 -2.8376 0.1896 0 1
-0.2708 15.7834 -3.0548 0.1677 0 1
-0.9812 17.0965 -3.3139 0.1544 0 1
-1.8164 18.5698 -3.6107 0.1477 0 1
-2.7927 20.1560 -3.9378 0.1371 0 1
-3.9459 21.9524 -4.3163 0.1280 0 1
-5.3268 24.0443 -4.7658 0.1169 0 1
-6.9778 26.4222 -5.2885 0.1123 0 1
-9.0567 29.4484 -5.9622 0.0909 0 1
-11.8843 33.7533 -6.9249 0.0760 0 1
-15.5420 39.0582 -8.1349 0.0698 0 1
-15.9845 29.3132 -6.4612 0.5275 0 15
-16.2038 27.0689 -6.1052 0.5650 0 15
-26.8358 37.6103 -8.9411 0.9040 0 3
-28.6609 36.9355 -9.0472 0.6258 0 3
-28.8784 31.6106 -8.2856 0.6833 0 3
-28.9683 29.2574 -7.9676 0.7106 0 3
-17.7076 16.5026 -4.6842 0.6700 0 22
-19.2205 16.5212 -4.9047 0.6735 0 22
-27.5823 21.8453 -6.8090 0.7860 0 3
-29.2337 21.3001 -6.9996 0.8088 0 3
-29.2826 19.5852 -6.8174 0.8305 0 3
-29.3258 17.9527 -6.6540 0.8508 0 3
-29.1984 16.3000 -6.4712 0.9925 0 3
-32.0928 16.2610 -6.9623 0.4892 0 3
-38.7592 17.7201 -8.2473 0.4143 0 3
-40.6100 16.6284 -8.4921 0.9193 0 3
-27.6652 7.6007 -5.5521 0.9555 0 22
-17.6692 -4.5893 -3.5328 0.2403 0 8
-33.1768 -32.5823 -8.9987 0.9972 0 20
-31.9172 -33.9691 -9.0201 0.9952 0 20
-31.1040 -35.8891 -9.1905 0.0417 0 20
-16.5482 -39.9491 -8.3679 0.4305 0 2
-12.8975 -35.0561 -7.2285 0.3150 0 1
-9.8245 -30.4219 -6.1866 0.0814 0 1
-7.4543 -26.7061 -5.3657 0.0878 0 1
-5.5810 -23.6204 -4.6968 0.1035 0 1
-4.1410 -21.3186 -4.2026 0.1205 0 1
-2.9767 -19.4739 -3.8123 0.1326 0 1
-2.0179 -18.0212 -3.5092 0.1517 0 1
-1.1949 -16.7226 -3.2444 0.1678 0 1
-0.4862 -15.5956 -3.0195 0.1801 0 1
0.1314 -14.5823 -2.8221 0.1912 0 1
0.6741 -13.6961 -2.6537 0.2100 0 1
1.1549 -12.8904 -2.5045 0.2225 0 1
1.5806 -12.1346 -2.3681 0.2246 0 1
1.9511 -11.3871 -2.2357 0.2378 0 24
2.2921 -10.7605 -2.1291 0.2520 0 1
2.5948 -10.1602 -2.0293 0.2644 0 1
2.8677 -9.6022 -1.9393 0.2762 0 1
3.1156 -9.0846 -1.8585 0.2895 0 1
3.3411 -8.6000 -1.7854 0.3013 0 1
3.5484 -8.1479 -1.7198 0.3101 0 1
3.7381 -7.7205 -1.6600 0.3207 0 1
3.9131 -7.3174 -1.6058 0.3345 0 1
4.0740 -6.9334 -1.5562 0.3452 0 1
4.2221 -6.5665 -1.5107 0.3556 0 1
4.3518 -6.2053 -1.4667 0.3567 0 1
4.4615 -5.8474 -1.4233 0.3676 0 1
4.5620 -5.5057 -1.3837 0.3816 0 1
4.6558 -5.1804 -1.3479 0.3917 0 1
4.7416 -4.8676 -1.3150 0.4015 0 1
4.8201 -4.5660 -1.2848 0.4110 0 1
4.8896 -4.2727 -1.2566 0.4097 0 1
4.9512 -3.9874 -1.2302 0.4185 0 1
5.0161 -3.7178 -1.2083 0.4434 0 1
5.0806 -3.4583 -1.1893 0.4505 0 1
5.1412 -3.2052 -1.1724 0.4570 0 1
5.1969 -2.9570 -1.1571 0.4631 0 1
5.2480 -2.7131 -1.1433 0.4687 0 1
5.2948 -2.4730 -1.1309 0.4738 0 1
5.3374 -2.2364 -1.1199 0.4785 0 1
5.3761 -2.0028 -1.1102 0.4827 0 1
5.4109 -1.7718 -1.1018 0.4864 0 1
5.4421 -1.5430 -1.0947 0.4896 0 1
3.9700 -0.9551 -0.7902 0.5415 25 14
3.8363 -0.7614 -0.7569 0.9681 25 14
3.8347 -0.6021 -0.7512 0.9755 25 14
3.8330 -0.4450 -0.7467 0.9813 25 14
3.8312 -0.2895 -0.7435 0.9855 25 14
3.8295 -0.1350 -0.7415 0.9882 25 14
3.8270 0.0189 -0.7406 0.9978 25 14
3.8291 0.1728 -0.7418 0.9879 25 14
3.8301 0.3274 -0.7439 0.9850 25 14
3.8311 0.4831 -0.7473 0.9806 25 14
3.8320 0.6405 -0.7518 0.9746 25 14
3.8460 0.8029 -0.7603 0.6489 25 14
5.5937 1.4043 -1.1161 0.4746 0 1
5.5854 1.6433 -1.1267 0.4701 0 1
5.5734 1.8861 -1.1386 0.4652 0 1
5.5555 2.1324 -1.1516 0.4601 0 1
5.5268 2.3802 -1.1645 0.4550 0 1
5.4939 2.6324 -1.1789 0.4494 0 1
5.4564 2.8894 -1.1948 0.4434 0 1
5.4143 3.1518 -1.2124 0.4370 0 1
5.3672 3.4202 -1.2316 0.4302 0 1
5.3149 3.6951 -1.2527 0.4230 0 1
5.2569 3.9772 -1.2756 0.4153 0 1
5.1938 4.2680 -1.3009 0.4073 0 1
5.1154 4.5598 -1.3261 0.4110 0 1
5.0297 4.8597 -1.3534 0.4027 0 1
4.9365 5.1688 -1.3832 0.3941 0 1
4.8354 5.4883 -1.4155 0.3851 0 1
4.7263 5.8199 -1.4509 0.3740 0 1
4.6114 6.1692 -1.4905 0.3641 0 1
4.4835 6.5292 -1.5327 0.3916 0 1
4.3239 6.8730 -1.5714 0.3820 0 1
4.1526 7.2295 -1.6134 0.3720 0 1
3.9754 7.6135 -1.6621 0.3519 0 1
3.7895 8.0278 -1.7179 0.3404 0 1
3.5872 8.4641 -1.7790 0.3287 0 1
3.3655 8.9226 -1.8454 0.3227 0 1
3.1246 9.4125 -1.9192 0.3062 0 1
2.8614 9.9378 -2.0013 0.2937 0 1
2.5708 10.4973 -2.0915 0.2787 0 1
2.2513 11.1057 -2.1929 0.2551 0 1
1.8998 11.7850 -2.3101 0.2422 0 1
1.5061 12.5265 -2.4416 0.2291 0 1
1.0636 13.3526 -2.5922 0.2144 0 1
0.5607 14.2549 -2.7607 0.1949 0 1
-0.0131 15.2933 -2.9595 0.1731 0 1
-0.6785 16.5273 -3.2010 0.1657 0 1
-1.4636 17.9840 -3.4917 0.1499 0 1
-2.3773 19.4898 -3.7996 0.1421 0 1
-3.4542 21.1954 -4.1558 0.1321 0 1
-4.7357 23.1572 -4.5741 0.1218 0 1
-6.2750 25.4332 -5.0694 0.1158 0 1
-8.1271 28.0447 -5.6504 0.0959 0 1
-10.6517 31.9032 -6.5089 0.0796 0 1
-13.9516 36.7962 -7.6154 0.0716 0 1
-17.7154 41.6009 -8.7501 0.0579 0 2
-15.9170 30.3564 -6.6331 0.5032 0 15
