ply
format ascii 1.0
element vertex 1391
property float32 x
property float32 y
property float32 z
property float32 CosAngle
property uint32 ObjIdx
property uint32 ObjTag
end_header
11.2882 -11.1535 0.8361 0.1642 0 1
11.1406 -10.1549 0.7942 0.1713 0 1
10.9797 -9.2273 0.7556 0.1713 0 1
10.8282 -8.3802 0.7214 0.1830 0 1
10.7014 -7.6138 0.6919 0.1982 0 1
10.6257 -6.9333 0.6685 0.2096 0 1
10.5648 -6.3025 0.6481 0.2162 0 1
10.2405 -5.5629 0.6140 0.2292 0 2
10.1948 -5.0177 0.5986 0.2349 0 25
8.9025 -3.9450 0.5130 0.9595 0 9
10.1194 -4.0052 0.5734 0.2453 0 25
10.0888 -3.5305 0.5631 0.2497 0 25
10.0625 -3.0727 0.5543 0.2537 0 25
10.0401 -2.6292 0.5468 0.2572 0 25
10.1119 -2.2173 0.5454 0.2665 0 2
10.3918 -1.8439 0.5560 0.2625 0 1
4.8679 -0.6630 0.2588 0.0110 25 14
4.3025 -0.4104 0.2277 0.2044 25 14
4.2443 -0.2330 0.2239 0.3269 25 14
4.2303 -0.0618 0.2229 0.3285 25 14
4.2428 0.1089 0.2236 0.3274 25 14
4.2864 0.2829 0.2263 0.2057 25 14
4.4097 0.4699 0.2336 0.1993 25 14
6.1227 0.9029 0.3261 0.9573 25 14
10.7065 2.0220 0.5740 0.2475 0 1
10.7809 2.4892 0.5829 0.2442 0 1
10.8609 2.9727 0.5933 0.2400 0 1
10.9491 3.4761 0.6052 0.2332 0 1
11.0482 4.0038 0.6191 0.2280 0 1
11.0933 4.5331 0.6314 0.2376 0 1
11.1173 5.0741 0.6438 0.2330 0 1
11.1392 5.6363 0.6577 0.2320 0 1
11.1415 6.2128 0.6721 0.2547 0 1
10.0904 6.1717 0.6232 0.4718 0 14
10.0396 6.7102 0.6362 0.4284 0 14
10.9905 8.0038 0.7163 0.2165 0 2
10.4872 8.3033 0.7047 0.1990 0 2
10.5768 9.0900 0.7348 0.1908 0 2
10.6792 9.9526 0.7691 0.1823 0 2
10.7969 10.9065 0.8086 0.1734 0 2
10.9329 11.9712 0.8542 0.1642 0 2
11.0913 13.1722 0.9072 0.1546 0 2
11.2772 14.5428 0.9696 0.1446 0 2
10.4734 14.6910 0.9506 0.8093 0 3
8.9933 13.7541 0.8658 0.8412 0 21
8.7764 14.6801 0.9011 0.8537 0 3
8.0132 14.7175 0.8829 0.4754 0 3
7.9802 16.1749 0.9503 0.4417 0 3
7.9412 17.8749 1.0305 0.4073 0 3
7.7434 19.5101 1.1059 0.3722 0 3
8.4632 24.1112 1.3463 0.9400 0 3
7.6106 24.8387 1.3687 0.3005 0 3
7.6793 29.2117 1.5913 0.2639 0 3
2.5122 14.0803 0.7535 0.3283 0 9
3.4207 24.9392 1.3262 0.8503 0 9
1.4058 14.5895 0.7722 0.4694 0 9
1.4067 25.1806 1.3287 0.4901 0 9
-0.3671 14.8591 0.7831 0.7101 0 9
-0.9665 14.8592 0.7845 0.1183 0 9
-30.8197 39.0024 2.6190 0.5650 0 3
-31.1212 36.2813 2.5184 0.2565 0 3
-31.3902 33.7463 2.4282 0.2661 0 3
-31.4855 31.2285 2.3364 0.6508 0 3
-30.5047 27.9123 2.1784 0.5336 0 3
-32.1074 22.9359 2.0789 0.6212 0 3
-32.2604 21.1378 2.0320 0.7715 0 3
-32.2298 19.3102 1.9795 0.7920 0 3
-32.5845 17.7813 1.9557 0.4838 0 3
-32.3622 16.0049 1.9021 0.9005 0 3
-36.1225 -33.5364 2.5969 0.7872 0 20
9.6524 -42.3568 2.2888 0.9720 0 3
8.0020 -29.5668 1.6138 0.1844 0 20
9.3303 -29.6821 1.6393 0.9547 0 3
10.6577 -29.6736 1.6611 0.9421 0 3
11.9764 -29.5496 1.6798 0.0693 0 3
12.2588 -27.0632 1.5653 0.8843 0 3
12.9014 -25.6791 1.5141 0.0926 0 2
10.2333 -18.4754 1.1127 0.8605 0 9
10.0717 -16.5728 1.0217 0.9213 0 20
11.7115 -17.6311 1.1152 0.1257 0 2
11.6881 -16.1462 1.0502 0.8254 0 2
11.7456 -14.9223 1.0005 0.1494 0 1
11.5696 -13.5400 0.9383 0.1608 0 1
11.4522 -12.3589 0.8877 0.1616 0 1
11.3029 -11.2535 0.8403 0.1634 0 1
11.1539 -10.2450 0.7979 0.1705 0 1
10.9959 -9.3126 0.7592 0.1705 0 1
10.8414 -8.4567 0.7244 0.1822 0 1
10.7095 -7.6812 0.6944 0.1975 0 1
10.6319 -6.9952 0.6705 0.2090 0 1
10.5702 -6.3604 0.6499 0.2156 0 1
10.2450 -5.6160 0.6155 0.2286 0 2
10.1988 -5.0681 0.6000 0.2344 0 25
8.8852 -3.9778 0.5129 0.9307 0 9
10.1225 -4.0511 0.5744 0.2448 0 25
10.0915 -3.5746 0.5640 0.2493 0 25
10.0648 -3.1154 0.5551 0.2533 0 25
10.0421 -2.6706 0.5475 0.2569 0 25
10.0230 -2.2379 0.5411 0.2599 0 2
10.3914 -1.8847 0.5564 0.2623 0 1
6.1468 -0.8610 0.3270 0.8539 25 14
4.3102 -0.4277 0.2282 0.2040 25 14
4.2457 -0.2493 0.2241 0.3267 25 14
4.2315 -0.0779 0.2230 0.3283 25 14
4.2392 0.0926 0.2234 0.3277 25 14
4.2773 0.2659 0.2258 0.3242 25 14
4.3976 0.4517 0.2329 0.1999 25 14
5.2814 0.7583 0.2811 0.0100 25 14
10.6993 1.9785 0.5733 0.2479 0 1
10.7737 2.4443 0.5820 0.2446 0 1
10.8531 2.9262 0.5922 0.2404 0 1
10.9401 3.4275 0.6040 0.2337 0 1
11.0384 3.9527 0.6177 0.2285 0 1
11.0913 4.4830 0.6303 0.2380 0 1
11.1149 5.0219 0.6426 0.2335 0 1
-32.3881 37.4685 2.0593 0.6012 0 3
-32.3357 34.4984 1.9660 0.6297 0 3
-32.2889 31.7824 1.8838 0.6572 0 3
-32.2468 29.2814 1.8111 0.6836 0 3
-32.2087 26.9636 1.7465 0.7088 0 3
-32.1741 24.8026 1.6891 0.7329 0 3
-31.9635 22.6498 1.6289 0.9045 0 3
-32.1110 20.8656 1.5923 0.7775 0 3
-32.0846 19.0575 1.5516 0.7978 0 3
-30.1449 16.3013 1.4249 0.8536 0 3
-33.9552 16.6320 1.5721 0.3246 0 3
-35.6605 -33.3613 2.0304 0.6727 0 20
-35.0478 -35.5387 2.0754 0.6556 0 20
8.5633 -36.9278 1.5762 0.9788 0 3
8.0331 -29.2397 1.2608 0.9652 0 20
9.4547 -29.6820 1.2953 0.9540 0 3
10.7804 -29.6598 1.3122 0.6504 0 3
11.0915 -27.0697 1.2164 0.8286 0 3
11.9460 -26.1077 1.1938 0.0928 0 2
11.5528 -22.7781 1.0620 0.1043 0 2
10.3113 -18.4500 0.8788 0.8369 0 9
10.1573 -16.5713 0.8082 0.9197 0 20
10.8250 -16.1626 0.8088 0.8463 0 2
11.0908 -15.1988 0.7823 0.1509 0 1
10.9284 -13.7758 0.7311 0.1630 0 1
10.8347 -12.5826 0.6904 0.1641 0 1
10.7250 -11.4860 0.6534 0.1659 0 1
10.6018 -10.4753 0.6197 0.1733 0 1
10.4809 -9.5536 0.5897 0.1734 0 1
10.3513 -8.6992 0.5622 0.1854 0 1
10.2378 -7.9233 0.5383 0.1937 0 1
10.1659 -7.2328 0.5188 0.2133 0 1
10.1168 -6.6012 0.5023 0.2203 0 1
10.0739 -6.0096 0.4877 0.2284 0 1
9.7910 -5.3188 0.4633 0.2397 0 25
9.4162 -4.6345 0.4364 0.1960 0 9
8.9280 -3.9563 0.4060 0.9905 0 9
9.3868 -3.7152 0.4198 0.3563 0 9
9.6812 -3.3878 0.4265 0.2604 0 25
9.6620 -2.9504 0.4201 0.2644 0 25
9.6457 -2.5259 0.4146 0.2678 0 25
9.9876 -2.1901 0.4251 0.2705 0 1
9.9912 -1.7728 0.4219 0.2731 0 1
4.2689 -0.5814 0.1791 0.0938 25 14
4.1290 -0.3939 0.1725 0.3352 25 14
4.1123 -0.2258 0.1712 0.2617 25 14
4.0961 -0.0598 0.1703 0.3118 25 14
4.1104 0.1055 0.1710 0.2622 25 14
4.1499 0.2739 0.1729 0.3343 25 14
4.1874 0.4462 0.1751 0.2099 25 14
4.6383 0.6840 0.1949 0.0116 25 14
10.2692 1.9394 0.4345 0.2582 0 1
10.3349 2.3862 0.4410 0.2549 0 1
10.4040 2.8477 0.4485 0.2507 0 1
10.4783 3.3267 0.4571 0.2459 0 1
10.5597 3.8267 0.4670 0.2386 0 1
10.6216 4.3403 0.4771 0.2483 0 1
10.6357 4.8543 0.4861 0.2437 0 1
10.6532 5.3904 0.4964 0.2386 0 1
10.6687 5.9492 0.5079 0.2373 0 1
10.6019 6.4845 0.5167 0.2616 0 1
10.5036 7.0203 0.5253 0.2574 0 1
10.3951 7.5703 0.5347 0.2662 0 1
10.4343 8.2613 0.5534 0.6409 0 2
10.0245 8.6153 0.5496 0.2015 0 2
10.0969 9.4099 0.5739 0.1929 0 2
10.1797 10.2830 0.6016 0.1840 0 2
10.2748 11.2506 0.6335 0.1748 0 2
10.3847 12.3331 0.6704 0.1652 0 2
10.5128 13.5570 0.7133 0.1552 0 2
6.5152 9.1388 0.4667 0.3574 22 6
8.9748 13.7257 0.6819 0.8434 0 21
8.7762 14.6797 0.7111 0.8542 0 3
8.0730 14.8275 0.7020 0.4721 0 3
8.0444 16.3050 0.7560 0.4384 0 3
8.0106 18.0310 0.8204 0.4040 0 3
7.8134 19.6865 0.8807 0.3689 0 3
8.4616 24.1065 1.0623 0.9405 0 3
7.8589 25.6491 1.1154 0.2972 0 3
3.3082 15.0185 0.6394 0.3595 0 9
1.3488 13.9980 0.5847 0.2790 0 9
1.3356 23.9087 0.9957 0.4006 0 9
-32.3934 37.7644 2.0687 0.5984 0 3
-32.3404 34.7678 1.9743 0.6271 0 3
-32.2931 32.0296 1.8912 0.6546 0 3
-32.2506 29.5098 1.8176 0.6811 0 3
-32.2121 27.1758 1.7523 0.7065 0 3
-32.1772 25.0010 1.6943 0.7307 0 3
-32.1454 22.9630 1.6426 0.7537 0 3
-32.1137 21.0416 1.5964 0.7755 0 3
-32.0870 19.2246 1.5553 0.7959 0 3
-32.2688 17.6090 1.5285 0.6338 0 3
-33.8710 16.7511 1.5712 0.4485 0 3
-35.9378 -33.3650 2.0390 0.6698 0 20
-35.0469 -35.2680 2.0673 0.6581 0 20
6.1709 -42.6916 1.7935 0.9894 0 3
9.6521 -42.3555 1.8063 0.9725 0 3
7.9033 -29.2021 1.2579 0.9662 0 20
8.6781 -27.6071 1.2033 0.9551 0 3
10.9713 -30.5468 1.3496 0.9425 0 3
11.1040 -27.3970 1.2292 0.0799 0 3
11.9888 -26.4671 1.2081 0.0917 0 2
11.5859 -23.0608 1.0731 0.1032 0 2
10.2686 -18.5392 0.8812 0.6972 0 9
10.0797 -16.5861 0.8070 0.9761 0 20
10.8077 -16.2704 0.8122 0.1363 0 2
11.1041 -15.3395 0.7874 0.1499 0 1
10.9363 -13.8942 0.7352 0.1621 0 1
10.8443 -12.6912 0.6941 0.1632 0 1
10.7371 -11.5871 0.6568 0.1650 0 1
10.6128 -10.5663 0.6227 0.1725 0 1
10.4950 -9.6398 0.5925 0.1725 0 1
10.3627 -8.7764 0.5646 0.1846 0 1
10.2479 -7.9938 0.5404 0.1929 0 1
10.1708 -7.2948 0.5204 0.2126 0 1
10.1211 -6.6592 0.5038 0.2196 0 1
10.0773 -6.0638 0.4890 0.2262 0 1
9.7944 -5.3690 0.4644 0.2391 0 25
9.7609 -4.8504 0.4532 0.2450 0 25
8.9128 -3.9902 0.4060 0.9978 0 9
9.3600 -3.7459 0.4192 0.2297 0 9
9.6831 -3.4300 0.4271 0.2600 0 25
9.6637 -2.9912 0.4206 0.2640 0 25
9.6471 -2.5656 0.4151 0.2675 0 25
9.8999 -2.2104 0.4218 0.2721 0 2
9.9905 -1.8120 0.4222 0.2730 0 1
4.4247 -0.6198 0.1858 0.0904 25 14
4.1304 -0.4099 0.1726 0.3350 25 14
4.1141 -0.2416 0.1714 0.2616 25 14
4.0967 -0.0754 0.1704 0.3117 25 14
4.1062 0.0897 0.1708 0.3110 25 14
4.1464 0.2578 0.1727 0.3347 25 14
4.1836 0.4297 0.1749 0.3306 25 14
4.3228 0.6206 0.1816 0.0926 25 14
10.2630 1.8978 0.4340 0.2586 0 1
10.3286 2.3434 0.4404 0.2553 0 1
10.3972 2.8033 0.4477 0.2511 0 1
10.4710 3.2805 0.4562 0.2464 0 1
10.5514 3.7783 0.4660 0.2391 0 1
10.6205 4.2927 0.4763 0.2487 0 1
10.6342 4.8048 0.4852 0.2441 0 1
-32.1994 37.2502 1.5009 0.6050 0 3
-32.1558 34.3064 1.4333 0.6335 0 3
-32.1167 31.6128 1.3737 0.6610 0 3
-32.0814 29.1312 1.3210 0.6874 0 3
-32.0494 26.8302 1.2741 0.7127 0 3
-32.0201 24.6839 1.2324 0.7368 0 3
-31.9907 22.6690 1.1952 0.7597 0 3
-31.9661 20.7714 1.1621 0.7813 0 3
-31.9435 18.9737 1.1326 0.8017 0 3
-32.8751 17.7777 1.1393 0.4810 0 3
-35.0813 17.1836 1.1908 0.3142 0 3
-35.6672 -33.3675 1.4889 0.6830 0 20
-34.8632 -35.3515 1.5135 0.6635 0 20
6.3371 -42.6921 1.3157 0.9892 0 3
9.8219 -42.3554 1.3254 0.9720 0 3
8.0333 -29.2405 0.9244 0.9656 0 20
8.7937 -27.6071 0.8832 0.9544 0 3
10.3199 -28.3929 0.9209 0.2242 0 3
10.8933 -26.5857 0.8758 0.8973 0 3
10.7300 -23.4501 0.7861 0.1033 0 2
10.4947 -20.6921 0.7073 0.1148 0 2
10.0374 -17.9600 0.6272 0.9821 0 9
10.1514 -16.5616 0.5921 0.1371 0 2
10.5877 -15.8083 0.5800 0.1620 0 2
10.3248 -14.1492 0.5339 0.1490 0 1
10.2445 -12.9138 0.5025 0.1653 0 1
10.1760 -11.8177 0.4754 0.1657 0 1
10.0785 -10.7936 0.4502 0.1821 0 1
9.9963 -9.8770 0.4284 0.1913 0 1
9.8949 -9.0194 0.4081 0.1934 0 1
9.8022 -8.2377 0.3903 0.2022 0 1
9.7405 -7.5385 0.3755 0.2281 0 1
9.7048 -6.9047 0.3631 0.2359 0 1
9.6731 -6.3118 0.3521 0.2433 0 1
9.4048 -5.6105 0.3338 0.2441 0 2
9.3796 -5.0953 0.3254 0.2503 0 25
9.0009 -4.4301 0.3058 0.2201 0 9
8.9311 -3.9576 0.2978 0.3605 0 9
8.9891 -3.5578 0.2947 0.2405 0 9
9.3055 -3.2564 0.3005 0.2710 0 25
9.2925 -2.8376 0.2962 0.2750 0 25
9.2815 -2.4305 0.2925 0.2785 0 25
9.6133 -2.1080 0.3000 0.2807 0 1
9.5879 -1.7013 0.2968 0.2827 0 24
4.0906 -0.5571 0.1258 0.2640 25 14
3.9779 -0.3795 0.1218 0.3197 25 14
3.9707 -0.2180 0.1212 0.3213 25 14
3.9641 -0.0579 0.1209 0.3223 25 14
3.9766 0.1020 0.1213 0.3212 25 14
4.0065 0.2644 0.1224 0.3182 25 14
4.0433 0.4308 0.1240 0.2652 25 14
4.2660 0.6291 0.1314 0.0938 25 14
9.8744 1.8649 0.3063 0.2757 0 1
9.9266 2.2920 0.3106 0.2712 0 1
9.9849 2.7330 0.3156 0.2669 0 1
10.0478 3.1900 0.3214 0.2566 0 1
10.1157 3.6658 0.3280 0.2514 0 1
10.1888 4.1634 0.3355 0.2589 0 1
10.1944 4.6529 0.3416 0.2543 0 1
10.2022 5.1622 0.3485 0.2493 0 1
10.2123 5.6947 0.3564 0.2437 0 1
10.1923 6.2340 0.3642 0.2722 0 1
10.0914 6.7448 0.3700 0.2680 0 1
9.9887 7.2743 0.3767 0.2632 0 1
10.0191 7.9326 0.3896 0.2306 0 2
9.6249 8.2720 0.3869 0.6724 0 2
9.5752 8.9237 0.3990 0.2035 0 2
9.6297 9.7274 0.4172 0.1946 0 2
9.6919 10.6123 0.4381 0.1854 0 2
9.7634 11.5952 0.4621 0.1757 0 2
9.8461 12.6972 0.4898 0.1658 0 2
6.4962 9.1122 0.3411 0.6843 22 6
8.9563 13.6976 0.4989 0.8455 0 21
8.7760 14.6793 0.5213 0.8546 0 3
8.1337 14.9390 0.5185 0.4688 0 3
8.1096 16.4372 0.5587 0.4350 0 3
8.0811 18.1897 0.6067 0.4006 0 3
7.8888 19.8764 0.6519 0.3655 0 3
8.4614 24.1059 0.7788 0.9409 0 3
7.9582 25.9730 0.8281 0.2937 0 3
3.3102 15.0272 0.4691 0.4299 0 9
2.5396 26.3566 0.8072 0.2031 0 9
0.7642 13.6802 0.4177 0.9904 0 9
0.2792 17.9476 0.5472 0.5859 0 9
-32.2037 37.5433 1.5078 0.6022 0 3
-31.1976 33.5392 1.3963 0.7198 0 3
-32.1202 31.8581 1.3791 0.6584 0 3
-30.1804 27.6155 1.2470 0.8000 0 3
-32.0523 27.0409 1.2783 0.7103 0 3
-32.0228 24.8810 1.2362 0.7345 0 3
-31.9958 22.8562 1.1986 0.7575 0 3
-31.9684 20.9464 1.1651 0.7793 0 3
-31.9456 19.1398 1.1352 0.7998 0 3
-32.5813 17.7796 1.1314 0.4843 0 3
-35.0752 17.3466 1.1928 0.3137 0 3
-35.9406 -33.3675 1.4950 0.6802 0 20
-34.8637 -35.0837 1.5077 0.6660 0 20
6.1711 -42.6926 1.3149 0.9897 0 3
9.6518 -42.3542 1.3242 0.9729 0 3
7.9034 -29.2027 0.9222 0.9669 0 20
8.6783 -27.6078 0.8822 0.9555 0 3
10.2542 -28.5502 0.9247 0.2233 0 3
10.7729 -26.5800 0.8743 0.8989 0 3
10.7552 -23.7439 0.7946 0.1022 0 2
10.5148 -20.9288 0.7140 0.1137 0 2
9.9780 -18.0144 0.6278 0.9429 0 9
10.0928 -16.6077 0.5924 0.9752 0 20
10.5909 -15.9441 0.5835 0.1611 0 2
10.3385 -14.2818 0.5375 0.1480 0 1
10.2512 -13.0237 0.5052 0.1644 0 1
10.1855 -11.9202 0.4780 0.1738 0 1
10.0871 -10.8857 0.4524 0.1741 0 1
10.0036 -9.9598 0.4303 0.1905 0 1
9.9042 -9.0972 0.4099 0.1926 0 1
9.8105 -8.3087 0.3919 0.2014 0 1
9.7441 -7.6008 0.3767 0.2274 0 1
9.7080 -6.9628 0.3642 0.2352 0 1
9.6759 -6.3663 0.3531 0.2426 0 1
9.4074 -5.6607 0.3347 0.2435 0 2
9.3819 -5.1429 0.3261 0.2497 0 25
9.0780 -4.5111 0.3090 0.0924 0 9
8.9130 -3.9903 0.2977 0.4335 0 9
9.0436 -3.6193 0.2969 0.3854 0 9
9.3068 -3.2967 0.3010 0.2706 0 25
9.2937 -2.8767 0.2966 0.2746 0 25
9.2824 -2.4686 0.2928 0.2782 0 25
9.6129 -2.1463 0.3003 0.2805 0 1
9.5870 -1.7388 0.2970 0.2848 0 24
4.1879 -0.5866 0.1289 0.0956 25 14
3.9786 -0.3948 0.1219 0.3196 25 14
3.9714 -0.2332 0.1213 0.3212 25 14
3.9647 -0.0730 0.1209 0.3222 25 14
3.9738 0.0868 0.1212 0.3214 25 14
4.0036 0.2489 0.1223 0.3185 25 14
4.0388 0.4148 0.1238 0.2656 25 14
4.1145 0.5907 0.1267 0.2623 25 14
9.8698 1.8251 0.3060 0.2760 0 1
9.9213 2.2510 0.3101 0.2716 0 1
9.9793 2.6906 0.3151 0.2673 0 1
10.0416 3.1460 0.3208 0.2570 0 1
10.1091 3.6199 0.3273 0.2519 0 1
10.1822 4.1156 0.3348 0.2441 0 1
10.1938 4.6058 0.3410 0.2548 0 1
-32.0129 37.0345 0.9494 0.6087 0 3
-32.1666 31.6620 0.8754 0.5626 0 3
-35.6162 32.3410 0.9331 0.2537 0 3
-31.8917 26.6982 0.8067 0.7164 0 3
-35.7854 27.5865 0.8763 0.2701 0 3
-31.8430 22.5644 0.7569 0.7634 0 3
-34.8741 22.6610 0.8066 0.5501 0 3
-31.8068 18.8925 0.7175 0.3831 0 3
-32.8735 17.7768 0.7248 0.4811 0 3
-36.2486 17.7554 0.7829 0.4455 0 3
-35.3825 -33.1013 0.9397 0.5536 0 20
-34.6798 -35.1655 0.9579 0.7803 0 20
6.3372 -42.6931 0.8371 0.9895 0 3
7.5990 -40.0270 0.7902 0.9375 0 3
9.3637 -40.3792 0.8039 0.0534 0 3
8.0335 -29.2412 0.5881 0.9658 0 20
8.7940 -27.6078 0.5620 0.9546 0 3
9.8634 -27.1368 0.5600 0.2346 0 3
9.8949 -24.1492 0.5062 0.1021 0 2
9.7393 -21.2849 0.4540 0.1138 0 2
9.6148 -18.9571 0.4123 0.1254 0 2
9.5132 -17.0220 0.3782 0.1367 0 2
9.8990 -16.1498 0.3674 0.8697 0 2
9.7385 -14.5404 0.3394 0.1487 0 1
9.6246 -13.1895 0.3167 0.1674 0 24
9.6338 -12.1440 0.3006 0.1773 0 1
9.5877 -11.1344 0.2850 0.1830 0 1
9.5281 -10.2042 0.2708 0.1926 0 1
9.4591 -9.3463 0.2579 0.1948 0 1
9.3846 -8.5543 0.2463 0.2040 0 1
9.3383 -7.8479 0.2366 0.2273 0 1
9.3126 -7.2073 0.2284 0.2387 0 1
9.2919 -6.6110 0.2212 0.2465 0 1
9.3058 -6.0721 0.2155 0.2759 0 1
9.0164 -5.3788 0.2036 0.2545 0 25
9.0017 -4.8900 0.1987 0.2609 0 25
8.6651 -4.2649 0.1873 0.2674 0 9
8.6577 -3.8365 0.1837 0.2773 0 9
8.9670 -3.5490 0.1870 0.2771 0 25
8.9581 -3.1348 0.1841 0.2816 0 25
8.9505 -2.7331 0.1815 0.2856 0 25
8.9476 -2.3431 0.1794 0.2894 0 2
9.2662 -2.0319 0.1840 0.2922 0 1
9.2773 -1.6462 0.1827 0.2944 0 1
4.0144 -0.5467 0.0786 0.2691 25 14
3.9561 -0.3774 0.0771 0.9622 25 14
3.9297 -0.2158 0.0763 0.9716 25 14
3.9039 -0.0570 0.0757 0.9794 25 14
3.9054 0.1002 0.0758 0.9788 25 14
3.9308 0.2594 0.0764 0.9707 25 14
3.9566 0.4216 0.0772 0.9610 25 14
4.0930 0.6036 0.0802 0.2636 25 14
9.4765 1.7897 0.1870 0.2847 0 24
9.5562 2.2064 0.1902 0.2818 0 1
9.6065 2.6294 0.1932 0.2775 0 1
9.6596 3.0668 0.1966 0.2727 0 1
9.7157 3.5209 0.2004 0.2674 0 1
9.7742 3.9940 0.2048 0.2597 0 1
9.7917 4.4691 0.2088 0.2683 0 1
9.7911 4.9542 0.2128 0.2632 0 1
9.7917 5.4601 0.2174 0.2576 0 1
9.7929 5.9897 0.2226 0.2512 0 1
9.7112 6.4907 0.2265 0.2792 0 1
9.6062 6.9957 0.2305 0.2745 0 1
9.5054 7.5259 0.2351 0.2673 0 1
9.5713 8.2259 0.2448 0.2335 0 2
9.1051 8.4856 0.2414 0.2141 0 2
9.1364 9.2291 0.2519 0.2052 0 2
9.1719 10.0430 0.2638 0.1959 0 2
9.2125 10.9410 0.2774 0.1863 0 2
9.2592 11.9404 0.2931 0.1764 0 2
6.4984 9.1153 0.2171 0.9044 22 6
9.3763 14.3398 0.3323 0.1555 0 2
8.7757 14.6789 0.3317 0.8548 0 3
8.1953 15.0521 0.3324 0.4654 0 3
8.1758 16.5714 0.3584 0.4316 0 3
8.1528 18.3510 0.3895 0.3972 0 3
8.9253 22.4880 0.4693 0.9115 0 3
8.4611 24.1053 0.4955 0.9412 0 3
8.0548 26.2882 0.5333 0.2903 0 3
11.5370 43.8864 0.8801 0.0622 0 1
3.3009 14.9851 0.2976 0.5983 0 9
2.0267 14.7764 0.2893 0.1523 0 9
0.2753 17.6985 0.3433 0.3671 0 9
-0.4007 16.2211 0.3147 0.8728 0 9
-32.0164 37.3250 0.9538 0.6059 0 3
-31.4479 33.8083 0.8955 0.7714 0 3
-31.9493 31.6886 0.8728 0.6621 0 3
-35.6072 32.5811 0.9361 0.2528 0 3
-31.8941 26.9074 0.8093 0.7140 0 3
-35.5952 27.6566 0.8743 0.6184 0 3
-31.6965 22.6424 0.7555 0.4265 0 3
-34.5878 22.6628 0.8020 0.5532 0 3
-35.9733 21.5530 0.8133 0.2910 0 3
-29.8811 16.3061 0.6602 0.8599 0 3
-35.9062 17.7576 0.7769 0.4489 0 3
-36.1381 16.0962 0.7673 0.3087 0 3
-35.7126 -33.1559 0.9451 0.5505 0 20
-34.7226 -34.9416 0.9554 0.7823 0 20
6.1712 -42.6936 0.8366 0.9900 0 3
7.4483 -40.0653 0.7904 0.2522 0 3
9.4178 -41.3274 0.8221 0.0522 0 3
7.9379 -29.3299 0.5893 0.6090 0 20
8.7341 -27.7852 0.5649 0.2840 0 3
9.7987 -27.2821 0.5622 0.2337 0 3
9.9117 -24.4552 0.5118 0.1010 0 2
9.7525 -21.5302 0.4584 0.1127 0 2
9.6255 -19.1587 0.4158 0.1243 0 2
9.5220 -17.1912 0.3812 0.1356 0 2
9.8177 -16.1550 0.3666 0.8714 0 2
9.7485 -14.6759 0.3417 0.1477 0 1
9.6723 -13.3615 0.3199 0.1666 0 1
9.6369 -12.2433 0.3022 0.1764 0 1
9.5937 -11.2276 0.2864 0.1821 0 1
9.5334 -10.2882 0.2720 0.1918 0 1
9.4666 -9.4252 0.2591 0.1939 0 1
9.3913 -8.6261 0.2473 0.2031 0 1
9.3417 -7.9117 0.2374 0.2265 0 1
9.3147 -7.2658 0.2291 0.2379 0 1
9.2938 -6.6658 0.2218 0.2457 0 1
6.3538 -4.1805 0.1475 0.3893 14 6
9.0179 -5.4264 0.2041 0.2539 0 25
9.0030 -4.9352 0.1991 0.2603 0 25
8.6664 -4.3066 0.1877 0.2724 0 9
8.6587 -3.8764 0.1840 0.2774 0 9
8.8737 -3.5513 0.1854 0.7676 0 9
8.9589 -3.1734 0.1843 0.2812 0 25
8.9511 -2.7706 0.1817 0.2852 0 25
8.9676 -2.3848 0.1800 0.3921 0 2
9.2655 -2.0688 0.1841 0.2911 0 1
9.2456 -1.6769 0.1822 0.2948 0 24
4.0610 -0.5688 0.0795 0.2659 25 14
3.9586 -0.3928 0.0772 0.9613 25 14
3.9322 -0.2309 0.0764 0.9708 25 14
3.9063 -0.0719 0.0758 0.9787 25 14
3.9030 0.0853 0.0757 0.9795 25 14
3.9284 0.2442 0.0763 0.9716 25 14
3.9542 0.4061 0.0771 0.9620 25 14
4.0444 0.5807 0.0792 0.2669 25 14
9.4724 1.7516 0.1868 0.2865 0 24
9.5516 2.1671 0.1900 0.2822 0 1
9.6017 2.5888 0.1929 0.2779 0 1
9.6544 3.0247 0.1962 0.2732 0 1
9.7103 3.4771 0.2000 0.2679 0 1
9.7691 3.9486 0.2044 0.2602 0 1
9.7918 4.4241 0.2084 0.2688 0 1
-29.9553 37.6130 0.3996 0.9774 0 3
-31.8287 36.8214 0.4045 0.6123 0 3
-30.0903 32.1027 0.3657 0.2173 0 3
-30.0979 29.6257 0.3510 0.2410 0 3
-30.7510 27.9232 0.3452 0.9537 0 3
-31.8523 26.6652 0.3453 0.6467 0 3
-29.7864 22.9619 0.3126 0.7474 0 3
-30.2377 21.4268 0.3080 0.2617 0 3
-30.2451 19.6531 0.2998 0.2744 0 3
-29.8416 17.7252 0.2885 0.5165 0 3
-30.2084 16.3356 0.2854 0.4812 0 3
-36.2467 17.7545 0.3355 0.4456 0 3
-37.6142 16.5823 0.3417 0.2987 0 3
-35.2750 -33.0006 0.4015 0.8878 0 20
-34.5004 -34.9836 0.4084 0.8688 0 20
8.5058 -44.8037 0.3790 0.9842 0 3
8.3544 -36.0269 0.3074 0.0639 0 3
8.1087 -29.5147 0.2544 0.2473 0 20
8.8421 -27.7588 0.2421 0.2840 0 3
9.0412 -24.8749 0.2200 0.1007 0 2
8.9717 -21.8961 0.1967 0.1126 0 2
8.9163 -19.4865 0.1781 0.1244 0 2
8.8713 -17.4912 0.1630 0.1359 0 2
9.0379 -16.1715 0.1540 0.8895 0 2
9.1593 -14.9430 0.1457 0.1422 0 1
9.1058 -13.5957 0.1360 0.1669 0 1
9.0963 -12.4656 0.1283 0.1781 0 1
9.0890 -11.4573 0.1215 0.1858 0 1
9.0668 -10.5295 0.1155 0.1936 0 1
9.0302 -9.6710 0.1100 0.1958 0 1
8.9747 -8.8676 0.1049 0.2053 0 1
8.9471 -8.1555 0.1006 0.2291 0 1
8.9299 -7.5047 0.0969 0.2410 0 1
8.9209 -6.9041 0.0938 0.2492 0 1
8.9435 -6.3631 0.0912 0.2794 0 1
6.3387 -4.1360 0.0629 0.7423 14 6
8.6590 -5.1656 0.0838 0.2651 0 25
8.6532 -4.7007 0.0818 0.2714 0 25
8.6480 -4.2564 0.0801 0.2773 0 25
8.6434 -3.8302 0.0786 0.2827 0 25
8.6394 -3.4194 0.0772 0.2877 0 25
8.6359 -3.0220 0.0760 0.2921 0 25
8.6328 -2.6361 0.0750 0.2961 0 25
8.6309 -2.2601 0.0742 0.2956 0 2
8.9443 -1.9613 0.0761 0.3027 0 1
8.9574 -1.5894 0.0756 0.3049 0 1
3.9657 -0.5401 0.0333 0.9627 25 14
3.9523 -0.3770 0.0330 0.9633 25 14
3.9260 -0.2156 0.0327 0.9727 25 14
3.9002 -0.0569 0.0324 0.9805 25 14
3.9021 0.1001 0.0324 0.9798 25 14
3.9274 0.2592 0.0327 0.9717 25 14
3.9532 0.4212 0.0330 0.9620 25 14
4.0236 0.5933 0.0338 0.2682 25 14
9.1747 1.7327 0.0776 0.2968 0 1
9.2125 2.1271 0.0786 0.2923 0 1
9.2559 2.5334 0.0798 0.2880 0 1
9.3011 2.9529 0.0811 0.2832 0 1
9.3483 3.3877 0.0826 0.2780 0 1
9.3934 3.8384 0.0843 0.2703 0 1
9.4219 4.3003 0.0861 0.2789 0 1
9.4145 4.7636 0.0877 0.2738 0 1
9.4072 5.2457 0.0895 0.2682 0 1
9.3987 5.7486 0.0916 0.2618 0 1
9.3591 6.2554 0.0936 0.2898 0 1
9.2520 6.7378 0.0951 0.2850 0 1
9.1466 7.2418 0.0970 0.2778 0 1
9.1593 7.8717 0.1004 0.2441 0 2
8.8618 8.2589 0.1007 0.7047 0 2
8.6914 8.7796 0.1027 0.2157 0 2
8.7051 9.5318 0.1073 0.2065 0 2
8.7207 10.3569 0.1125 0.1968 0 2
8.7386 11.2691 0.1185 0.1869 0 2
6.4791 9.0882 0.0928 0.9841 22 6
8.7830 13.4324 0.1334 0.1661 0 2
8.7456 14.6285 0.1417 0.8550 0 3
8.2578 15.1669 0.1435 0.4619 0 3
8.2431 16.7077 0.1548 0.4282 0 3
8.2257 18.5152 0.1684 0.3937 0 3
8.8936 22.4081 0.2004 0.1094 0 3
8.4609 24.1047 0.2123 0.9414 0 3
8.1537 26.6111 0.2313 0.2868 0 3
9.2911 35.3428 0.3037 0.0729 0 2
3.1446 14.2755 0.1215 0.2005 0 9
3.3178 24.1891 0.2029 0.3345 0 9
1.3836 14.3593 0.1199 0.7183 0 9
0.4057 26.0836 0.2168 0.4111 0 9
-29.8861 37.8208 0.4006 0.7334 0 3
-31.8314 37.1092 0.4063 0.6095 0 3
-30.0942 32.3529 0.3672 0.2164 0 3
-30.0914 29.8459 0.3523 0.2360 0 3
-35.6854 32.6526 0.4020 0.6797 0 3
-31.7375 26.7754 0.3451 0.7177 0 3
-35.5938 27.6556 0.3746 0.6185 0 3
-30.0608 21.4739 0.3070 0.5864 0 3
-30.2430 19.8159 0.3005 0.2737 0 3
-29.8439 17.8807 0.2892 0.5153 0 3
-29.8183 16.2718 0.2823 0.7545 0 3
-35.9043 17.7567 0.3329 0.4490 0 3
-37.5834 16.7400 0.3420 0.4127 0 3
-35.3472 -32.8166 0.4009 0.8891 0 20
-34.5748 -34.7930 0.4077 0.8702 0 20
8.3497 -44.9145 0.3797 0.1431 0 3
8.3717 -36.7366 0.3132 0.0627 0 3
8.1665 -30.1746 0.2598 0.9669 0 20
8.8437 -28.1341 0.2451 0.2805 0 3
9.0487 -25.1940 0.2225 0.0996 0 2
8.9776 -22.1506 0.1986 0.1115 0 2
8.9211 -19.6948 0.1797 0.1233 0 2
8.8752 -17.6653 0.1643 0.1348 0 2
8.9609 -16.1781 0.1537 0.9080 0 2
9.1710 -15.0908 0.1468 0.1412 0 1
9.1073 -13.7107 0.1368 0.1659 0 1
9.0967 -12.5663 0.1289 0.1772 0 1
9.0901 -11.5486 0.1222 0.1849 0 1
9.0700 -10.6147 0.1160 0.1927 0 1
8.9972 -9.7095 0.1100 0.1982 0 24
8.9797 -8.9404 0.1053 0.2044 0 1
8.9492 -8.2200 0.1010 0.2282 0 1
8.9308 -7.5637 0.0973 0.2402 0 1
8.9217 -6.9593 0.0940 0.2484 0 1
8.9412 -6.4129 0.0915 0.2787 0 1
6.3043 -4.1479 0.0627 0.9342 14 6
8.6596 -5.2108 0.0840 0.2645 0 25
8.6537 -4.7437 0.0820 0.2708 0 25
8.6485 -4.2977 0.0803 0.2768 0 25
8.6438 -3.8698 0.0787 0.2822 0 25
8.6398 -3.4577 0.0773 0.2872 0 25
8.6362 -3.0591 0.0761 0.2917 0 25
8.6331 -2.6722 0.0751 0.2958 0 25
8.6331 -2.2959 0.0742 0.2952 0 2
8.9432 -1.9968 0.0762 0.3025 0 1
8.9561 -1.6244 0.0757 0.3048 0 1
3.9922 -0.5592 0.0335 0.3090 25 14
3.9548 -0.3925 0.0330 0.9623 25 14
3.9285 -0.2307 0.0327 0.9719 25 14
3.9026 -0.0719 0.0324 0.9798 25 14
3.8997 0.0852 0.0324 0.9805 25 14
3.9250 0.2440 0.0327 0.9725 25 14
3.9508 0.4058 0.0330 0.9630 25 14
3.9813 0.5716 0.0334 0.3097 25 14
9.1713 1.6959 0.0775 0.2972 0 1
9.2085 2.0892 0.0785 0.2927 0 1
9.2517 2.4945 0.0796 0.2885 0 1
9.2967 2.9126 0.0810 0.2837 0 1
9.3437 3.3459 0.0825 0.2785 0 1
9.3893 3.7951 0.0842 0.2708 0 1
9.4227 4.2574 0.0859 0.2794 0 1
-31.6895 36.6604 -0.1342 0.7607 0 3
-31.6283 33.7436 -0.1281 0.6444 0 3
-31.4034 30.9107 -0.1221 0.6719 0 3
-31.3879 28.5015 -0.1175 0.6983 0 3
-33.0534 27.6707 -0.1194 0.6468 0 3
-35.8713 27.6527 -0.1255 0.6156 0 3
-31.3237 22.1964 -0.1064 0.7706 0 3
-31.3115 20.3460 -0.1034 0.7922 0 3
-31.3000 18.5914 -0.1009 0.8126 0 3
-31.2889 16.9199 -0.0985 0.8317 0 3
-36.2448 17.7535 -0.1118 0.4456 0 3
-35.1486 -32.8824 -0.1333 0.8910 0 20
-34.3233 -34.8039 -0.1354 0.9344 0 20
7.0429 -37.0981 -0.1046 0.3907 0 3
7.9410 -34.2444 -0.0974 0.1893 0 3
8.1314 -29.5975 -0.0850 0.0868 0 2
8.1628 -25.6264 -0.0745 0.0991 0 2
8.1870 -22.5247 -0.0664 0.1112 0 2
8.2062 -20.0278 -0.0600 0.1231 0 2
8.2218 -17.9685 -0.0547 0.1349 0 2
8.2363 -16.2392 -0.0504 0.7678 0 2
8.6020 -15.3916 -0.0488 0.1414 0 1
8.5482 -13.9461 -0.0453 0.1670 0 1
8.5653 -12.7887 -0.0426 0.1775 0 1
8.5866 -11.7671 -0.0404 0.1866 0 1
8.6011 -10.8422 -0.0383 0.1964 0 1
8.5997 -9.9870 -0.0365 0.2041 0 1
8.5699 -9.1781 -0.0348 0.2063 0 1
8.5617 -8.4595 -0.0333 0.2304 0 1
8.5557 -7.7987 -0.0321 0.2395 0 1
8.5578 -7.1919 -0.0310 0.2515 0 1
8.5898 -6.6479 -0.0301 0.2823 0 1
8.6217 -6.1342 -0.0293 0.2898 0 1
6.2931 -4.1063 -0.0208 0.5821 14 6
8.3289 -4.9686 -0.0269 0.2756 0 25
8.3307 -4.5255 -0.0263 0.2819 0 25
8.3323 -4.1011 -0.0257 0.2878 0 25
8.3337 -3.6929 -0.0253 0.2932 0 25
8.3350 -3.2989 -0.0248 0.2982 0 25
8.3361 -2.9171 -0.0245 0.3026 0 25
8.3370 -2.5458 -0.0241 0.3066 0 25
8.5078 -2.2279 -0.0244 0.3141 0 2
8.6442 -1.8955 -0.0245 0.3135 0 1
8.6588 -1.5364 -0.0244 0.3154 0 1
3.9571 -0.5389 -0.0111 0.9648 25 14
3.9481 -0.3766 -0.0110 0.9715 25 14
3.9223 -0.2154 -0.0109 0.9736 25 14
3.8966 -0.0569 -0.0108 0.9814 25 14
3.8988 0.1000 -0.0108 0.9807 25 14
3.9241 0.2590 -0.0109 0.9726 25 14
3.9498 0.4209 -0.0110 0.9629 25 14
3.9671 0.5850 -0.0111 0.3107 25 14
8.8609 1.6735 -0.0250 0.3074 0 1
8.8930 2.0533 -0.0253 0.3037 0 1
8.9300 2.4442 -0.0256 0.2985 0 1
8.9683 2.8473 -0.0261 0.2938 0 1
9.0069 3.2640 -0.0265 0.2863 0 1
9.0412 3.6945 -0.0271 0.2808 0 1
9.0768 4.1428 -0.0276 0.2749 0 1
9.0658 4.5872 -0.0281 0.2843 0 1
9.0518 5.0475 -0.0287 0.2787 0 1
9.0350 5.5262 -0.0293 0.2723 0 1
9.0153 6.0256 -0.0300 0.2660 0 1
8.9232 6.4983 -0.0306 0.2955 0 1
8.8139 6.9784 -0.0311 0.2883 0 1
8.7179 7.4924 -0.0318 0.2819 0 1
8.7461 8.1511 -0.0331 0.2470 0 2
8.2898 8.3739 -0.0326 0.2255 0 2
8.2836 9.0703 -0.0340 0.2170 0 2
8.2789 9.8321 -0.0356 0.2074 0 2
8.2735 10.6693 -0.0374 0.1974 0 2
6.4469 9.0431 -0.0308 0.9832 22 6
8.2603 12.6331 -0.0418 0.1766 0 2
8.2522 13.8032 -0.0446 0.1657 0 2
8.2426 15.1390 -0.0478 0.1546 0 2
8.2313 16.6839 -0.0515 0.1433 0 2
8.2178 18.4974 -0.0561 0.1317 0 2
8.2011 20.6632 -0.0616 0.1199 0 2
8.1807 23.3063 -0.0684 0.1079 0 2
8.1548 26.6146 -0.0771 0.0957 0 2
8.1211 30.8924 -0.0885 0.0834 0 2
8.0756 36.6608 -0.1040 0.6159 0 2
8.3749 46.9387 -0.1321 0.0724 0 1
1.2578 22.5150 -0.0625 0.7596 0 6
-31.6485 36.8960 -0.1347 0.6131 0 3
-30.6274 32.9261 -0.1246 0.7731 0 3
-31.4049 31.1487 -0.1225 0.6693 0 3
-31.3893 28.7217 -0.1179 0.6958 0 3
-31.6076 26.6658 -0.1146 0.6497 0 3
-35.5924 27.6545 -0.1249 0.6186 0 3
-31.3249 22.3769 -0.1066 0.7685 0 3
-31.3127 20.5168 -0.1037 0.7902 0 3
-31.3010 18.7537 -0.1011 0.8107 0 3
-31.2899 17.0748 -0.0988 0.8299 0 3
-35.9024 17.7557 -0.1110 0.4490 0 3
-35.4418 -32.9045 -0.1340 0.4009 0 20
-34.4471 -34.6644 -0.1354 0.8775 0 20
5.5964 -38.7174 -0.1084 0.9443 0 6
8.0205 -43.1432 -0.1216 0.1657 0 3
7.8319 -34.3682 -0.0977 0.9764 0 3
8.1280 -30.0323 -0.0862 0.0857 0 2
8.1602 -25.9596 -0.0754 0.0979 0 2
8.1850 -22.7890 -0.0671 0.1101 0 2
8.2046 -20.2432 -0.0605 0.1220 0 2
8.2204 -18.1479 -0.0552 0.1338 0 2
8.2358 -16.3926 -0.0508 0.7680 0 2
8.7147 -15.7337 -0.0498 0.1718 0 2
8.5493 -14.0679 -0.0456 0.1581 0 1
8.5638 -12.8923 -0.0429 0.1765 0 1
8.5852 -11.8597 -0.0406 0.1856 0 1
8.5998 -10.9257 -0.0385 0.1954 0 1
8.6006 -10.0654 -0.0367 0.2032 0 1
8.5732 -9.2519 -0.0349 0.2054 0 1
8.5623 -8.5248 -0.0335 0.2295 0 1
8.5562 -7.8591 -0.0322 0.2387 0 1
8.5575 -7.2474 -0.0311 0.2507 0 1
8.5867 -6.6979 -0.0302 0.2816 0 1
8.6188 -6.1816 -0.0294 0.2891 0 1
6.2506 -4.1126 -0.0207 0.7715 14 6
8.3287 -5.0117 -0.0269 0.2750 0 25
8.3305 -4.5666 -0.0263 0.2814 0 25
8.3322 -4.1405 -0.0258 0.2873 0 25
8.3336 -3.7309 -0.0253 0.2927 0 25
8.3349 -3.3356 -0.0249 0.2977 0 25
8.3360 -2.9528 -0.0245 0.3022 0 25
8.3369 -2.5805 -0.0242 0.3063 0 25
8.4035 -2.2348 -0.0241 0.3176 0 2
8.6428 -1.9297 -0.0245 0.3130 0 1
8.6574 -1.5702 -0.0244 0.3153 0 1
3.9579 -0.5544 -0.0111 0.9641 25 14
3.9490 -0.3919 -0.0110 0.9709 25 14
3.9248 -0.2305 -0.0109 0.9728 25 14
3.8990 -0.0718 -0.0108 0.9808 25 14
3.8964 0.0851 -0.0108 0.9814 25 14
3.9217 0.2438 -0.0109 0.9734 25 14
3.9474 0.4054 -0.0110 0.9639 25 14
3.9585 0.5683 -0.0111 0.9635 25 14
8.8579 1.6380 -0.0250 0.3077 0 1
8.8899 2.0170 -0.0253 0.3040 0 1
8.9265 2.4068 -0.0256 0.2990 0 1
8.9646 2.8086 -0.0260 0.2942 0 1
9.0037 3.2241 -0.0265 0.2868 0 1
9.0379 3.6531 -0.0270 0.2813 0 1
9.0734 4.0996 -0.0276 0.2755 0 1
-31.6896 36.6605 -0.6713 0.6252 0 3
-31.4564 33.5602 -0.6372 0.6478 0 3
-16.5999 16.3395 -0.3227 0.6385 0 6
-30.4393 27.6402 -0.5696 0.5562 0 3
-33.0522 27.6697 -0.5971 0.6468 0 3
-35.8699 27.6516 -0.6274 0.6155 0 3
-31.4083 22.2563 -0.5333 0.7740 0 3
-34.8696 22.6580 -0.5761 0.5502 0 3
-31.3919 18.6460 -0.5058 0.8160 0 3
-32.4687 17.5579 -0.5113 0.2664 0 3
-36.2428 17.7526 -0.5591 0.4456 0 3
-40.2111 17.7272 -0.6088 0.4092 0 3
-35.2647 -32.9910 -0.6690 0.9488 0 20
-34.2113 -34.6904 -0.6749 0.9404 0 20
5.7468 -38.7154 -0.5422 0.9438 0 6
6.8643 -36.1574 -0.5098 0.0724 0 2
7.0885 -30.5678 -0.4347 0.0849 0 2
7.2537 -26.4026 -0.3793 0.0973 0 2
7.3803 -23.1697 -0.3369 0.1096 0 2
7.4803 -20.5802 -0.3033 0.1217 0 2
7.5610 -18.4532 -0.2763 0.1336 0 2
7.6276 -16.6699 -0.2539 0.1454 0 2
8.1115 -15.9931 -0.2484 0.1728 0 2
8.0067 -14.3265 -0.2274 0.1519 0 1
8.0410 -13.1186 -0.2131 0.1775 0 1
8.0861 -12.0733 -0.2013 0.1891 0 1
8.1273 -11.1377 -0.1910 0.1971 0 1
8.1628 -10.2897 -0.1819 0.2069 0 1
8.1690 -9.4869 -0.1734 0.2215 0 1
8.1799 -8.7603 -0.1660 0.2313 0 1
8.1892 -8.0915 -0.1595 0.2409 0 1
8.2004 -7.4748 -0.1537 0.2533 0 1
8.2427 -6.9271 -0.1492 0.2848 0 1
8.2839 -6.4111 -0.1451 0.2927 0 1
8.2866 -5.8957 -0.1409 0.2526 0 1
6.2807 -4.0982 -0.1039 0.7697 14 6
8.0230 -4.7862 -0.1294 0.2861 0 25
8.0314 -4.3629 -0.1266 0.2924 0 25
8.0388 -3.9566 -0.1241 0.2983 0 25
8.0454 -3.5652 -0.1219 0.3037 0 25
8.0513 -3.1866 -0.1199 0.3087 0 25
8.0564 -2.8192 -0.1182 0.3131 0 25
8.0608 -2.4614 -0.1168 0.3171 0 25
8.3478 -2.1860 -0.1195 0.3212 0 1
8.3636 -1.8340 -0.1186 0.3239 0 1
8.3795 -1.4868 -0.1179 0.3259 0 1
3.9485 -0.5377 -0.0552 0.9668 25 14
3.9397 -0.3758 -0.0548 0.9735 25 14
3.9186 -0.2152 -0.0544 0.9745 25 14
3.8929 -0.0568 -0.0539 0.9823 25 14
3.8955 0.0999 -0.0540 0.9814 25 14
3.9207 0.2588 -0.0544 0.9733 25 14
3.9417 0.4200 -0.0549 0.9719 25 14
3.9510 0.5826 -0.0553 0.9647 25 14
8.5679 1.6181 -0.1208 0.3178 0 1
8.5954 1.9846 -0.1222 0.3142 0 1
8.6263 2.3611 -0.1239 0.3090 0 1
8.6584 2.7489 -0.1258 0.3042 0 1
8.6874 3.1482 -0.1280 0.2968 0 1
8.7145 3.5610 -0.1304 0.2913 0 1
8.7420 3.9900 -0.1331 0.2854 0 1
8.7420 4.4234 -0.1357 0.2948 0 1
8.7223 4.8638 -0.1383 0.2892 0 1
8.6985 5.3203 -0.1412 0.2828 0 1
8.6717 5.7960 -0.1445 0.2765 0 1
8.6168 6.2752 -0.1477 0.3060 0 1
8.5046 6.7335 -0.1503 0.2988 0 1
8.4053 7.2237 -0.1535 0.2924 0 1
8.3893 7.8185 -0.1589 0.2574 0 2
8.1957 8.2789 -0.1614 0.7989 0 2
7.9009 8.6513 -0.1623 0.2275 0 2
7.8796 9.3579 -0.1695 0.2178 0 2
7.8554 10.1301 -0.1776 0.2079 0 2
6.4550 9.0544 -0.1540 0.7635 22 6
7.7964 11.9236 -0.1973 0.1871 0 2
7.7602 12.9802 -0.2095 0.1762 0 2
7.7181 14.1757 -0.2236 0.1651 0 2
7.6689 15.5438 -0.2401 0.1538 0 2
7.6105 17.1305 -0.2597 0.1422 0 2
7.5405 18.9987 -0.2832 0.1304 0 2
7.4547 21.2381 -0.3118 0.1184 0 2
7.3483 23.9827 -0.3475 0.1062 0 2
7.2126 27.4364 -0.3930 0.0939 0 2
7.0340 31.9322 -0.4530 0.0815 0 2
2.4950 13.9839 -0.1968 0.1807 0 9
2.1466 15.6499 -0.2188 0.6668 0 9
1.2578 22.5156 -0.3124 0.8443 0 6
0.2560 16.4555 -0.2280 0.6391 0 9
-31.4677 36.6852 -0.6695 0.6165 0 3
-31.4573 33.8184 -0.6398 0.6452 0 3
-16.5082 16.3735 -0.3221 0.6902 0 6
-31.4381 28.7663 -0.5903 0.6993 0 3
-31.6065 26.6648 -0.5728 0.6497 0 3
-29.5254 22.9405 -0.5180 0.8552 0 3
-31.4091 22.4370 -0.5347 0.7719 0 3
-34.5834 22.6599 -0.5728 0.5534 0 3
-31.3927 18.8086 -0.5070 0.8142 0 3
-32.1175 17.5264 -0.5068 0.5271 0 3
-32.6433 16.1439 -0.5045 0.4490 0 3
-39.8056 17.7298 -0.6036 0.4127 0 3
-40.3301 16.0512 -0.6013 0.3757 0 3
-35.3634 -32.8317 -0.6685 0.9495 0 20
-34.3118 -34.5283 -0.6743 0.9413 0 20
6.5059 -45.0093 -0.6300 0.0586 0 2
6.8389 -36.7876 -0.5183 0.0712 0 2
5.6198 -24.6609 -0.3504 0.8243 0 6
7.2399 -26.7510 -0.3839 0.0962 0 2
7.3696 -23.4445 -0.3404 0.1084 0 2
7.4717 -20.8031 -0.3062 0.1206 0 2
7.5541 -18.6383 -0.2786 0.1325 0 2
7.6218 -16.8263 -0.2559 0.1443 0 2
8.1001 -16.1226 -0.2499 0.1717 0 2
8.0094 -14.4604 -0.2290 0.1508 0 1
8.0365 -13.2240 -0.2144 0.1765 0 1
8.0814 -12.1661 -0.2023 0.1870 0 1
8.1237 -11.2223 -0.1919 0.1961 0 1
8.1597 -10.3666 -0.1828 0.2060 0 1
8.1695 -9.5608 -0.1742 0.2060 0 1
8.1789 -8.8265 -0.1667 0.2304 0 1
8.1883 -8.1525 -0.1601 0.2400 0 1
8.1989 -7.5308 -0.1542 0.2525 0 1
8.2386 -6.9774 -0.1496 0.2840 0 1
8.2801 -6.4588 -0.1455 0.2920 0 1
8.2949 -5.9493 -0.1414 0.2517 0 1
6.2513 -4.1131 -0.1037 0.9797 14 6
8.0222 -4.8272 -0.1297 0.2855 0 25
8.0306 -4.4022 -0.1269 0.2918 0 25
8.0382 -3.9944 -0.1243 0.2978 0 25
8.0448 -3.6016 -0.1221 0.3032 0 25
8.0507 -3.2219 -0.1201 0.3082 0 25
8.0559 -2.8536 -0.1184 0.3127 0 25
8.0604 -2.4949 -0.1169 0.3167 0 25
8.3466 -2.2197 -0.1196 0.3200 0 1
8.3621 -1.8670 -0.1187 0.3237 0 1
8.3780 -1.5195 -0.1180 0.3258 0 1
3.9493 -0.5532 -0.0552 0.9661 25 14
3.9405 -0.3910 -0.0549 0.9729 25 14
3.9211 -0.2303 -0.0544 0.9736 25 14
3.8953 -0.0717 -0.0540 0.9816 25 14
3.8931 0.0851 -0.0539 0.9821 25 14
3.9183 0.2436 -0.0544 0.9741 25 14
3.9408 0.4047 -0.0549 0.9725 25 14
3.9501 0.5671 -0.0553 0.9654 25 14
8.5653 1.5839 -0.1207 0.3182 0 1
8.5928 1.9495 -0.1221 0.3145 0 1
8.6233 2.3250 -0.1237 0.3095 0 1
8.6554 2.7117 -0.1256 0.3047 0 1
8.6848 3.1099 -0.1278 0.2973 0 1
8.7119 3.5213 -0.1302 0.2918 0 1
8.7394 3.9486 -0.1328 0.2860 0 1
-31.5299 36.4757 -1.2024 0.6227 0 3
-31.2862 33.3786 -1.1409 0.6512 0 3
-33.1859 32.6652 -1.1613 0.7059 0 3
-31.2801 28.4037 -1.0537 0.7051 0 3
-33.0510 27.6687 -1.0749 0.6466 0 3
-29.3957 22.6607 -0.9256 0.9309 0 3
-31.2660 22.1555 -0.9556 0.7774 0 3
-34.8681 22.6571 -1.0370 0.5501 0 3
-31.2570 18.5659 -0.9066 0.8194 0 3
-36.2824 19.6203 -1.0287 0.8385 0 3
-33.8267 16.5691 -0.9393 0.2617 0 3
-40.2087 17.7261 -1.0959 0.4091 0 3
-41.9180 16.4985 -1.1234 0.8173 0 3
-35.1556 -32.8889 -1.2006 0.9516 0 20
-34.0488 -34.5256 -1.2093 0.9732 0 20
4.9445 -45.9866 -1.1534 0.0576 0 2
5.5654 -37.4935 -0.9453 0.0703 0 2
5.9943 -31.5747 -0.8015 0.0829 0 2
5.7192 -24.6630 -0.6314 0.8234 0 6
6.5468 -23.8295 -0.6163 0.1078 0 2
6.7345 -21.1422 -0.5534 0.1201 0 2
6.8856 -18.9443 -0.5027 0.1322 0 2
7.0098 -17.1078 -0.4611 0.1441 0 2
7.4787 -16.3445 -0.4482 0.9812 0 2
7.4677 -14.7239 -0.4117 0.1459 0 1
7.4672 -13.3611 -0.3817 0.1745 0 24
7.5560 -12.3274 -0.3606 0.1916 0 24
7.6299 -11.3920 -0.3419 0.1991 0 24
7.6935 -10.5432 -0.3255 0.2090 0 24
7.7398 -9.7564 -0.3106 0.2177 0 24
7.7703 -9.0239 -0.2970 0.2283 0 24
7.7942 -8.3473 -0.2848 0.2426 0 24
7.8195 -7.7262 -0.2741 0.2573 0 24
7.8477 -7.1534 -0.2648 0.2698 0 24
7.9515 -6.6824 -0.2590 0.2951 0 1
7.9989 -6.1906 -0.2522 0.3031 0 1
7.7056 -5.4823 -0.2358 0.2826 0 25
6.2762 -4.0952 -0.1869 0.9781 14 6
7.7387 -4.6166 -0.2247 0.2965 0 25
7.7527 -4.2115 -0.2200 0.3029 0 25
7.7652 -3.8219 -0.2158 0.3087 0 25
7.7763 -3.4459 -0.2121 0.3142 0 25
7.7861 -3.0817 -0.2088 0.3191 0 25
7.7947 -2.7277 -0.2059 0.3236 0 25
7.8022 -2.3825 -0.2034 0.3194 0 2
8.0832 -2.1167 -0.2084 0.3317 0 1
8.0728 -1.7702 -0.2061 0.3342 0 24
4.4719 -0.7935 -0.1133 0.0890 25 14
3.9400 -0.5366 -0.0992 0.9687 25 14
3.9312 -0.3750 -0.0985 0.9754 25 14
3.9149 -0.2150 -0.0978 0.9752 25 14
3.8893 -0.0568 -0.0970 0.9830 25 14
3.8922 0.0999 -0.0971 0.9820 25 14
3.9174 0.2585 -0.0979 0.9739 25 14
3.9334 0.4191 -0.0986 0.9738 25 14
3.9426 0.5814 -0.0994 0.9666 25 14
8.2935 1.5663 -0.2105 0.3283 0 1
8.3170 1.9203 -0.2129 0.3246 0 1
8.3425 2.2834 -0.2157 0.3195 0 1
8.3686 2.6569 -0.2190 0.3123 0 1
8.3897 3.0403 -0.2225 0.3072 0 1
8.4104 3.4368 -0.2266 0.3018 0 1
8.4309 3.8480 -0.2311 0.2958 0 1
8.4405 4.2708 -0.2359 0.3053 0 1
8.4158 4.6929 -0.2403 0.2997 0 1
8.3859 5.1292 -0.2451 0.2933 0 1
8.3533 5.5832 -0.2506 0.2870 0 1
8.3180 6.0576 -0.2566 0.2802 0 1
8.2161 6.5051 -0.2613 0.3092 0 1
8.1142 6.9736 -0.2668 0.3028 0 1
8.0067 7.4620 -0.2729 0.2960 0 1
8.0044 8.0856 -0.2837 0.2602 0 2
7.6325 8.3574 -0.2823 0.8568 0 2
7.5169 8.9272 -0.2910 0.2283 0 2
7.4774 9.6426 -0.3043 0.2184 0 2
6.4744 9.0816 -0.2781 0.5702 22 6
7.3817 11.2893 -0.3364 0.1975 0 2
7.3234 12.2497 -0.3559 0.1867 0 2
7.2563 13.3274 -0.3784 0.1756 0 2
7.1782 14.5493 -0.4046 0.1642 0 2
7.0867 15.9513 -0.4353 0.1526 0 2
6.9780 17.5815 -0.4717 0.1409 0 2
6.8472 19.5072 -0.5156 0.1289 0 2
6.6871 21.8246 -0.5692 0.1167 0 2
6.4871 24.6765 -0.6363 0.1044 0 2
6.2306 28.2850 -0.7223 0.0920 0 2
5.8904 33.0141 -0.8363 0.0795 0 2
2.1421 15.6177 -0.3931 0.8425 0 9
1.5053 15.6221 -0.3914 0.8079 0 9
0.9438 16.8948 -0.4220 0.8282 0 9
0.2293 14.7420 -0.3677 0.9449 0 9
-18.4327 36.5153 -1.0201 0.9219 0 6
-31.4458 36.6597 -1.2045 0.7630 0 3
-30.3309 32.6075 -1.1106 0.5957 0 3
-32.9356 32.6669 -1.1569 0.7086 0 3
-31.2804 28.6221 -1.0574 0.7026 0 3
-32.7983 27.6703 -1.0701 0.6495 0 3
-35.5897 27.6524 -1.1240 0.6184 0 3
-31.2664 22.3351 -0.9582 0.7753 0 3
-34.5819 22.6589 -1.0311 0.5533 0 3
-31.2574 18.7275 -0.9087 0.8175 0 3
-36.2830 19.7996 -1.0308 0.8367 0 3
-33.8324 16.7320 -0.9413 0.2612 0 3
-39.8033 17.7287 -1.0866 0.4126 0 3
-41.9184 16.6833 -1.1251 0.8161 0 3
-35.2541 -32.7302 -1.1997 0.9523 0 20
-34.1723 -34.3879 -1.2090 0.9735 0 20
4.8711 -46.9868 -1.1781 0.0564 0 2
5.5166 -38.1647 -0.9617 0.0691 0 2
5.9595 -32.0572 -0.8132 0.0817 0 2
5.6236 -24.6776 -0.6312 0.9435 0 6
6.5266 -24.1154 -0.6230 0.1067 0 2
6.7185 -21.3731 -0.5587 0.1189 0 2
6.8726 -19.1351 -0.5070 0.1310 0 2
6.9990 -17.2687 -0.4647 0.1430 0 2
7.4114 -16.3620 -0.4480 0.9819 0 2
7.4667 -14.8619 -0.4148 0.1448 0 1
7.5081 -13.5553 -0.3864 0.1766 0 1
7.5478 -12.4199 -0.3624 0.1906 0 24
7.6235 -11.4767 -0.3436 0.1981 0 24
7.6878 -10.6202 -0.3270 0.2084 0 24
7.7363 -9.8287 -0.3119 0.2167 0 24
7.7678 -9.0907 -0.2982 0.2274 0 24
7.7918 -8.4086 -0.2859 0.2417 0 24
7.8171 -7.7829 -0.2751 0.2549 0 24
7.8449 -7.2057 -0.2656 0.2690 0 24
7.9468 -6.7303 -0.2597 0.2944 0 1
7.9053 -6.1664 -0.2500 0.2883 0 24
7.7038 -5.5254 -0.2364 0.2819 0 25
6.2564 -4.1164 -0.1868 0.9827 14 6
7.7373 -4.6558 -0.2252 0.2959 0 25
7.7515 -4.2491 -0.2204 0.3023 0 25
7.7641 -3.8582 -0.2162 0.3082 0 25
7.7753 -3.4810 -0.2125 0.3137 0 25
7.7853 -3.1157 -0.2091 0.3187 0 25
7.7940 -2.7608 -0.2062 0.3232 0 25
7.8015 -2.4148 -0.2037 0.3272 0 25
8.0815 -2.1492 -0.2085 0.3314 0 1
8.0990 -1.8083 -0.2069 0.3342 0 1
8.1160 -1.4720 -0.2057 0.3362 0 1
3.9408 -0.5520 -0.0992 0.9680 25 14
3.9320 -0.3902 -0.0985 0.9748 25 14
3.9174 -0.2301 -0.0979 0.9743 25 14
3.8917 -0.0717 -0.0971 0.9823 25 14
3.8899 0.0850 -0.0970 0.9827 25 14
3.9150 0.2434 -0.0978 0.9747 25 14
3.9325 0.4039 -0.0986 0.9744 25 14
3.9417 0.5659 -0.0993 0.9673 25 14
8.2914 1.5332 -0.2103 0.3296 0 1
8.3148 1.8865 -0.2126 0.3250 0 1
8.3399 2.2486 -0.2154 0.3199 0 1
8.3666 2.6212 -0.2186 0.3127 0 1
8.3877 3.0035 -0.2222 0.3077 0 1
8.4085 3.3986 -0.2262 0.3023 0 1
8.4290 3.8084 -0.2307 0.2964 0 1
-31.1059 39.0577 -1.7990 0.5965 0 3
-31.1126 35.9929 -1.7142 0.6260 0 3
-31.1178 33.1990 -1.6395 0.6545 0 3
-31.1217 30.6335 -1.5734 0.6820 0 3
-31.1245 28.2624 -1.5148 0.7084 0 3
-33.0498 27.6677 -1.5530 0.6464 0 3
-35.8672 27.6495 -1.6317 0.6153 0 3
-31.1249 22.0555 -1.3745 0.7806 0 3
-34.8666 22.6561 -1.4982 0.5499 0 3
-31.1231 18.4864 -1.3043 0.8226 0 3
-30.1442 16.3009 -1.2347 0.8676 0 3
-35.3974 17.3385 -1.4202 0.2511 0 3
-36.2114 15.9639 -1.4259 0.9554 0 3
-43.5627 17.1458 -1.6868 0.2656 0 3
-35.2544 -32.9814 -1.7394 0.9789 0 20
-33.9550 -34.4305 -1.7423 0.9772 0 20
2.5952 -38.7606 -1.3997 0.9653 0 6
4.1814 -38.8893 -1.4093 0.0681 0 2
4.8413 -32.6154 -1.1880 0.0808 0 2
5.3197 -28.0212 -1.0276 0.0934 0 2
4.3106 -18.5889 -0.6875 0.7023 0 6
5.9651 -21.7123 -0.8113 0.1183 0 2
6.1923 -19.4402 -0.7351 0.1305 0 2
6.3783 -17.5485 -0.6727 0.1427 0 2
6.7775 -16.5409 -0.6441 0.9970 0 2
6.9140 -15.1103 -0.5987 0.1410 0 1
6.9844 -13.7708 -0.5563 0.1782 0 1
7.0948 -12.6948 -0.5240 0.1881 0 1
7.1906 -11.7312 -0.4958 0.2014 0 1
7.2762 -10.8640 -0.4711 0.2109 0 1
7.3495 -10.0718 -0.4492 0.2212 0 1
7.4047 -9.3340 -0.4293 0.2252 0 1
7.4486 -8.6502 -0.4113 0.2350 0 1
7.4885 -8.0199 -0.3953 0.2592 0 1
7.5477 -7.4576 -0.3823 0.2775 0 1
7.5553 -6.8869 -0.3683 0.2814 0 24
7.5953 -6.3831 -0.3575 0.2907 0 24
7.7083 -5.9657 -0.3512 0.2476 0 1
7.4291 -5.2857 -0.3285 0.2930 0 25
6.2812 -4.0985 -0.2702 0.9809 14 6
7.4737 -4.4585 -0.3136 0.3069 0 25
7.4926 -4.0702 -0.3072 0.3133 0 25
7.5095 -3.6961 -0.3016 0.3191 0 25
7.5245 -3.3343 -0.2965 0.3246 0 25
7.5378 -2.9834 -0.2921 0.3295 0 25
7.5494 -2.6418 -0.2882 0.3340 0 25
7.5604 -2.3087 -0.2848 0.3393 0 2
7.8346 -2.0516 -0.2918 0.3421 0 1
7.8265 -1.7162 -0.2887 0.3449 0 24
4.1337 -0.7335 -0.1513 0.2965 25 14
3.9315 -0.5354 -0.1430 0.9705 25 14
3.9228 -0.3742 -0.1420 0.9772 25 14
3.9112 -0.2148 -0.1411 0.9758 25 14
3.8856 -0.0567 -0.1400 0.9836 25 14
3.8889 0.0998 -0.1402 0.9825 25 14
3.9141 0.2583 -0.1413 0.9744 25 14
3.9250 0.4182 -0.1422 0.9755 25 14
3.9342 0.5801 -0.1433 0.9683 25 14
8.0369 1.5178 -0.2947 0.3397 0 1
8.0560 1.8601 -0.2979 0.3350 0 1
8.0766 2.2106 -0.3017 0.3299 0 1
8.0955 2.5702 -0.3060 0.3227 0 1
8.1116 2.9396 -0.3109 0.3177 0 1
8.1267 3.3208 -0.3163 0.3122 0 1
8.1410 3.7157 -0.3224 0.3063 0 1
8.1544 4.1260 -0.3293 0.2999 0 1
8.1297 4.5334 -0.3354 0.3097 0 1
8.0950 4.9512 -0.3419 0.3038 0 1
8.0573 5.3853 -0.3492 0.2974 0 1
8.0164 5.8379 -0.3573 0.2907 0 1
7.9475 6.2924 -0.3652 0.3216 0 1
7.8425 6.7401 -0.3726 0.3132 0 1
7.7327 7.2065 -0.3808 0.3064 0 1
7.6205 8.3442 -0.4072 0.8585 0 2
7.1866 8.5350 -0.4020 0.2392 0 2
6.9232 8.9280 -0.4071 0.7859 22 6
6.4986 9.1156 -0.4034 0.5679 22 6
7.0087 10.7189 -0.4614 0.2080 0 2
6.9330 11.5966 -0.4868 0.1971 0 2
6.8463 12.5744 -0.5159 0.1860 0 2
6.7463 13.6740 -0.5494 0.1747 0 2
6.6300 14.9235 -0.5884 0.1631 0 2
6.4933 16.3604 -0.6342 0.1513 0 2
6.3307 18.0359 -0.6887 0.1393 0 2
6.1346 20.0213 -0.7545 0.1272 0 2
5.8937 22.4194 -0.8352 0.1149 0 2
5.5915 25.3840 -0.9365 0.1025 0 2
5.2021 29.1561 -1.0671 0.0899 0 2
2.1410 15.6092 -0.5677 0.9045 0 9
1.6314 16.9314 -0.6129 0.3016 0 9
1.4969 26.7963 -0.9670 0.9975 0 20
0.2253 14.4832 -0.5219 0.3297 0 9
-31.1120 36.2706 -1.7217 0.6232 0 3
-31.1174 33.4529 -1.6462 0.6518 0 3
-31.1214 30.8674 -1.5793 0.6794 0 3
-30.1746 27.6102 -1.4737 0.5286 0 3
-32.7971 27.6693 -1.5460 0.6493 0 3
-35.5883 27.6513 -1.6238 0.6182 0 3
-31.1249 22.2340 -1.3782 0.7785 0 3
-34.5804 22.6579 -1.4896 0.5531 0 3
-31.1232 18.6472 -1.3072 0.8208 0 3
-36.1308 19.7165 -1.4830 0.8399 0 3
-35.3921 17.5034 -1.4226 0.4488 0 3
-39.9036 17.7734 -1.5739 0.2560 0 3
-43.5712 17.3411 -1.6896 0.2651 0 3
-35.3772 -32.8445 -1.7393 0.9789 0 20
-34.0782 -34.2932 -1.7419 0.9775 0 20
2.4478 -38.7735 -1.3998 0.9987 0 6
4.1058 -39.6047 -1.4346 0.0669 0 2
4.7880 -33.1246 -1.2059 0.0796 0 2
5.2802 -28.4029 -1.0409 0.0922 0 2
4.2200 -18.5184 -0.6843 0.4701 0 6
5.9410 -21.9515 -0.8194 0.1171 0 2
6.1728 -19.6371 -0.7417 0.1294 0 2
6.3622 -17.7140 -0.6782 0.1415 0 2
6.7129 -16.5628 -0.6439 0.9972 0 2
6.9110 -15.2572 -0.6035 0.1399 0 1
6.9727 -13.8786 -0.5596 0.1771 0 1
7.0852 -12.7918 -0.5269 0.1870 0 1
7.1816 -11.8172 -0.4982 0.2004 0 1
7.2688 -10.9429 -0.4733 0.2099 0 1
7.3430 -10.1437 -0.4512 0.2202 0 1
7.4002 -9.4017 -0.4311 0.2242 0 1
7.4447 -8.7126 -0.4129 0.2341 0 1
7.4839 -8.0764 -0.3967 0.2436 0 1
7.5412 -7.5082 -0.3834 0.2767 0 1
7.5514 -6.9361 -0.3694 0.2805 0 24
7.5917 -6.4295 -0.3584 0.2899 0 24
7.7139 -6.0171 -0.3525 0.2529 0 1
7.4268 -5.3267 -0.3293 0.2923 0 25
6.2682 -4.1241 -0.2703 0.9191 14 6
7.4718 -4.4960 -0.3142 0.3063 0 25
7.4909 -4.1063 -0.3078 0.3127 0 25
7.5080 -3.7309 -0.3021 0.3186 0 25
7.5232 -3.3681 -0.2970 0.3241 0 25
7.5366 -3.0162 -0.2925 0.3291 0 25
7.5484 -2.6738 -0.2885 0.3336 0 25
7.5596 -2.3399 -0.2851 0.3391 0 2
7.8328 -2.0831 -0.2920 0.3418 0 1
7.8246 -1.7470 -0.2889 0.3446 0 24
4.1810 -0.7583 -0.1531 0.2565 25 14
3.9323 -0.5508 -0.1431 0.9697 25 14
3.9236 -0.3894 -0.1421 0.9766 25 14
3.9137 -0.2298 -0.1413 0.9749 25 14
3.8881 -0.0716 -0.1401 0.9829 25 14
3.8866 0.0849 -0.1401 0.9832 25 14
3.9117 0.2432 -0.1412 0.9752 25 14
3.9242 0.4030 -0.1421 0.9761 25 14
3.9333 0.5647 -0.1432 0.9690 25 14
4.4931 0.8308 -0.1646 0.0885 25 14
8.0241 1.8205 -0.2965 0.3347 0 24
8.0745 2.1770 -0.3013 0.3303 0 1
8.0939 2.5358 -0.3056 0.3231 0 1
8.1101 2.9041 -0.3104 0.3182 0 1
8.1253 3.2842 -0.3158 0.3127 0 1
8.1397 3.6777 -0.3218 0.3069 0 1
-29.6110 37.1807 -2.2402 0.1447 0 3
-29.2443 33.8316 -2.1077 0.6292 0 3
-30.9510 33.0211 -2.1331 0.6577 0 3
-30.9616 30.4759 -2.0476 0.6852 0 3
-18.2048 16.5307 -1.1590 0.7981 0 6
-29.2121 24.4550 -1.7956 0.3387 0 3
-30.9832 23.8845 -1.8438 0.7609 0 3
-30.9849 21.9563 -1.7898 0.7838 0 3
-30.9881 20.1359 -1.7418 0.8054 0 3
-30.9903 18.4075 -1.6988 0.8258 0 3
-31.1713 16.8563 -1.6702 0.9224 0 3
-36.2371 17.7497 -1.9018 0.4452 0 3
-36.3212 16.0123 -1.8708 0.9503 0 3
-44.9537 17.6933 -2.2769 0.3719 0 3
-35.3272 -33.0494 -2.2800 0.1863 0 20
-33.7977 -34.2710 -2.2686 0.9809 0 20
1.7483 -26.1108 -1.2334 0.8558 0 20
3.6219 -33.6863 -1.5968 0.0786 0 2
4.2836 -28.8579 -1.3750 0.0913 0 2
4.7812 -25.1847 -1.2082 0.1039 0 2
4.2848 -18.4773 -0.8940 0.5316 0 6
5.4780 -19.9393 -0.9746 0.1288 0 2
5.7306 -17.9907 -0.8899 0.1410 0 2
6.1052 -16.7972 -0.8423 0.9985 0 2
6.3595 -15.5207 -0.7905 0.1396 0 1
6.4460 -14.0875 -0.7302 0.1775 0 1
6.5940 -13.0011 -0.6871 0.1886 0 1
6.7182 -12.0209 -0.6490 0.1985 0 1
6.8329 -11.1477 -0.6162 0.2118 0 1
6.9301 -10.3472 -0.5869 0.2213 0 1
7.0112 -9.6082 -0.5606 0.2254 0 1
7.0737 -8.9168 -0.5364 0.2356 0 1
7.1324 -8.2830 -0.5152 0.2601 0 1
7.1971 -7.7078 -0.4970 0.2696 0 1
7.2725 -7.1858 -0.4819 0.2879 0 1
7.3435 -6.6938 -0.4683 0.2962 0 1
7.3973 -6.2167 -0.4554 0.2620 0 1
7.1404 -5.5261 -0.4255 0.2933 0 2
7.1717 -5.1025 -0.4148 0.3033 0 25
6.2875 -4.1026 -0.3538 0.9181 14 6
6.7345 -4.0175 -0.3696 0.7052 14 6
7.2492 -3.9380 -0.3888 0.3236 0 25
7.2699 -3.5782 -0.3819 0.3295 0 25
7.2883 -3.2297 -0.3757 0.3349 0 25
7.3046 -2.8911 -0.3703 0.3399 0 25
7.3189 -2.5612 -0.3655 0.3443 0 25
7.4001 -2.2597 -0.3647 0.4312 0 2
7.5999 -1.9901 -0.3703 0.3500 0 1
7.5947 -1.6654 -0.3665 0.3554 0 24
4.0690 -0.7220 -0.1948 0.3011 25 14
3.9230 -0.5343 -0.1866 0.9721 25 14
3.9144 -0.3734 -0.1853 0.9788 25 14
3.9058 -0.2145 -0.1844 0.9839 25 14
3.8820 -0.0567 -0.1830 0.9840 25 14
3.8857 0.0997 -0.1832 0.9829 25 14
3.9078 0.2579 -0.1846 0.9828 25 14
3.9168 0.4174 -0.1856 0.9771 25 14
3.9258 0.5789 -0.1870 0.9699 25 14
4.1924 0.7918 -0.2011 0.0278 25 14
7.7813 1.7966 -0.3764 0.3450 0 24
7.8265 2.1422 -0.3824 0.3376 0 1
7.8395 2.4889 -0.3877 0.3331 0 1
7.8511 2.8452 -0.3936 0.3281 0 1
7.8614 3.2124 -0.4003 0.3226 0 1
7.8702 3.5921 -0.4077 0.3167 0 1
7.8775 3.9860 -0.4161 0.3103 0 1
7.8619 4.3840 -0.4243 0.3201 0 1
7.8233 4.7850 -0.4322 0.3142 0 1
7.7813 5.2008 -0.4411 0.3078 0 1
7.7356 5.6335 -0.4510 0.3011 0 1
7.6859 6.0853 -0.4620 0.2958 0 1
7.5891 6.5223 -0.4716 0.3279 0 1
7.4783 6.9694 -0.4818 0.3210 0 1
7.3607 7.4354 -0.4931 0.3136 0 1
7.3309 8.0271 -0.5124 0.2727 0 2
7.1180 8.4534 -0.5208 0.9076 0 2
6.8204 8.7953 -0.5246 0.2392 0 2
6.4811 9.0910 -0.5262 0.5403 22 6
6.6713 10.2029 -0.5745 0.2184 0 2
6.5818 11.0092 -0.6045 0.2076 0 2
6.4800 11.9016 -0.6387 0.1965 0 2
6.3632 12.8974 -0.6778 0.1851 0 2
6.2284 14.0194 -0.7230 0.1735 0 2
6.0713 15.2971 -0.7757 0.1618 0 2
5.8864 16.7701 -0.8377 0.1498 0 2
5.6660 18.4922 -0.9115 0.1377 0 2
5.3994 20.5392 -1.0009 0.1254 0 2
5.0710 23.0211 -1.1110 0.1129 0 2
4.6574 26.1032 -1.2497 0.1004 0 2
2.1439 15.6303 -0.7436 0.8358 0 9
2.0669 21.4505 -1.0157 0.8196 0 20
1.4969 26.7956 -1.2649 0.9971 0 20
-29.6644 37.5403 -2.2550 0.1476 0 3
