ply
format ascii 1.0
element vertex 1392
property float32 x
property float32 y
property float32 z
property float32 CosAngle
property uint32 ObjIdx
property uint32 ObjTag
end_header
-1.9667 7.1607 -3.6524 0.3466 0 1
-2.3244 7.2994 -3.7679 0.3360 0 1
-2.7004 7.4319 -3.8892 0.3255 0 1
-3.0953 7.5570 -4.0167 0.3153 0 1
-3.5099 7.6736 -4.1504 0.3053 0 1
-3.9444 7.7801 -4.2904 0.2953 0 1
-4.3996 7.8754 -4.4370 0.2856 0 1
-4.8769 7.9598 -4.5915 0.2731 0 1
-5.3768 8.0315 -4.7538 0.2638 0 1
-5.8968 8.0846 -4.9218 0.2570 0 1
-6.4353 8.1159 -5.0944 0.2483 0 1
-6.9921 8.1242 -5.2721 0.2429 0 1
-7.5667 8.1079 -5.4548 0.2348 0 1
-8.1675 8.0745 -5.6490 0.2183 0 1
-8.8001 8.0263 -5.8583 0.2105 0 1
-9.4517 7.9482 -6.0741 0.2029 0 1
-10.1198 7.8373 -6.2956 0.1958 0 1
-10.8050 7.6931 -6.5239 0.1877 0 1
-11.5041 7.5124 -6.7580 0.1807 0 1
-12.2107 7.2906 -6.9950 0.1746 0 1
-12.9204 7.0252 -7.2336 0.1680 0 1
-13.6336 6.7171 -7.4755 0.1626 0 1
-14.3327 6.3585 -7.7122 0.1572 0 1
-14.9655 5.9308 -7.9178 0.1503 0 24
-15.6685 5.4910 -8.1662 0.1462 0 1
-16.2748 4.9780 -8.3709 0.1435 0 1
-16.7703 4.4002 -8.5277 0.1400 0 24
-17.2598 3.7938 -8.6920 0.1376 0 24
-17.7496 3.1589 -8.8674 0.1352 0 1
-16.3539 2.2361 -8.1186 0.7460 26 14
-18.3424 1.7599 -9.0632 0.1336 0 1
-18.5109 1.0269 -9.1187 0.1332 0 1
-18.5849 0.2821 -9.1421 0.1329 0 1
-18.5670 -0.4653 -9.1351 0.1330 0 1
-18.4560 -1.2068 -9.0971 0.1343 0 1
-18.2533 -1.9335 -9.0282 0.1353 0 1
-17.9668 -2.6377 -8.9318 0.1367 0 1
-17.6035 -3.3126 -8.8103 0.1392 0 1
-17.1699 -3.9522 -8.6659 0.1415 0 1
-16.6665 -4.5494 -8.4974 0.1441 0 1
-16.1047 -5.1005 -8.3090 0.1473 0 1
-15.4400 -5.5827 -8.0754 0.1516 0 24
-14.8375 -6.0503 -7.8813 0.1542 0 1
-14.1456 -6.4434 -7.6454 0.1573 0 1
-13.3798 -6.7571 -7.3725 0.1624 0 24
-12.7056 -7.0720 -7.1521 0.1677 0 1
-11.9852 -7.3174 -6.9068 0.1786 0 1
-11.2791 -7.5254 -6.6691 0.1849 0 1
-10.5265 -7.6526 -6.4011 0.1999 0 24
-9.9007 -7.8252 -6.2071 0.2060 0 1
-9.2510 -7.9367 -5.9952 0.2133 0 1
-8.6166 -8.0162 -5.7886 0.2209 0 1
-7.9998 -8.0665 -5.5878 0.2289 0 1
-7.3964 -8.0841 -5.3893 0.2325 0 1
-6.8124 -8.0754 -5.1965 0.2412 0 1
-6.2509 -8.0454 -5.0112 0.2501 0 1
-5.6929 -7.9692 -4.8171 0.2594 0 24
-5.1958 -7.9295 -4.6629 0.2688 0 1
-4.7018 -7.8470 -4.4994 0.2786 0 1
-4.2305 -7.7516 -4.3435 0.2886 0 1
-3.7706 -7.6229 -4.1829 0.2998 0 24
-3.3437 -7.5054 -4.0413 0.3097 0 24
-2.9479 -7.4048 -3.9201 0.3201 0 1
-2.5608 -7.2708 -3.7915 0.3310 0 1
-2.1934 -7.1310 -3.6696 0.3420 0 1
-1.8453 -6.9883 -3.5550 0.3560 0 1
-1.5151 -6.8420 -3.4468 0.3672 0 1
-1.2018 -6.6922 -3.3442 0.3784 0 1
-0.9043 -6.5377 -3.2462 0.3888 0 1
-0.6222 -6.3801 -3.1530 0.4003 0 1
-0.3549 -6.2208 -3.0647 0.4117 0 1
-0.1013 -6.0461 -2.9742 0.4238 0 24
0.1386 -5.8986 -2.9021 0.4348 0 1
0.3660 -5.7361 -2.8271 0.4447 0 1
0.5799 -5.5580 -2.7486 0.4581 0 24
0.7856 -5.4100 -2.6888 0.4678 0 1
0.9789 -5.2471 -2.6253 0.4791 0 1
1.1620 -5.0844 -2.5653 0.4905 0 1
1.3349 -4.9205 -2.5077 0.5018 0 1
1.4985 -4.7574 -2.4533 0.5129 0 1
1.6533 -4.5949 -2.4019 0.5239 0 1
1.7896 -4.4085 -2.3402 0.5324 0 24
1.9254 -4.2446 -2.2925 0.5436 0 24
2.0595 -4.0939 -2.2541 0.5385 0 1
2.1773 -3.9262 -2.2082 0.5497 0 1
2.2909 -3.7654 -2.1679 0.5830 0 1
2.3986 -3.6072 -2.1307 0.5932 0 1
2.5001 -3.4503 -2.0957 0.6031 0 1
2.5956 -3.2946 -2.0629 0.6127 0 1
2.6854 -3.1400 -2.0322 0.6219 0 1
2.7697 -2.9865 -2.0034 0.6309 0 1
2.8489 -2.8341 -1.9765 0.6395 0 1
2.9230 -2.6828 -1.9514 0.6477 0 1
2.9923 -2.5324 -1.9281 0.6555 0 1
3.0568 -2.3827 -1.9063 0.6592 0 1
3.1165 -2.2337 -1.8859 0.6663 0 1
3.1727 -2.0860 -1.8676 0.6774 0 1
3.2257 -1.9397 -1.8513 0.6834 0 1
3.2746 -1.7938 -1.8365 0.6889 0 1
3.3196 -1.6485 -1.8230 0.6940 0 1
3.3608 -1.5036 -1.8109 0.6986 0 1
3.3984 -1.3591 -1.8002 0.6952 0 1
3.4328 -1.2151 -1.7911 0.6987 0 1
3.4635 -1.0713 -1.7832 0.7018 0 1
3.4907 -0.9276 -1.7765 0.7045 0 1
3.5144 -0.7840 -1.7711 0.7066 0 1
3.5346 -0.6405 -1.7668 0.7083 0 1
3.5513 -0.4969 -1.7637 0.7096 0 1
3.5646 -0.3533 -1.7619 0.7103 0 1
3.5745 -0.2095 -1.7612 0.7106 0 1
3.5810 -0.0656 -1.7617 0.7104 0 1
3.5863 0.0786 -1.7643 0.7086 0 1
3.5874 0.2233 -1.7679 0.6967 0 1
3.5826 0.3681 -1.7714 0.6953 0 1
3.5743 0.5133 -1.7761 0.6934 0 1
3.5625 0.6588 -1.7819 0.6912 0 1
3.5470 0.8048 -1.7890 0.6885 0 1
3.5279 0.9512 -1.7972 0.6853 0 1
3.5051 1.0980 -1.8066 0.6817 0 1
3.4786 1.2455 -1.8173 0.6777 0 1
3.4481 1.3935 -1.8292 0.6733 0 1
3.4138 1.5421 -1.8425 0.6685 0 1
3.3755 1.6914 -1.8570 0.6632 0 1
3.3330 1.8415 -1.8729 0.6576 0 1
3.2871 1.9928 -1.8907 0.6626 0 1
3.2364 2.1447 -1.9097 0.6558 0 1
3.1815 2.2977 -1.9303 0.6425 0 1
3.1223 2.4519 -1.9526 0.6352 0 1
3.0582 2.6072 -1.9766 0.6274 0 1
2.9892 2.7635 -2.0023 0.6194 0 1
2.9151 2.9210 -2.0298 0.6110 0 1
2.8355 3.0797 -2.0590 0.6023 0 1
2.7504 3.2396 -2.0902 0.5933 0 1
2.6594 3.4008 -2.1234 0.5841 0 1
2.5623 3.5632 -2.1587 0.5745 0 1
2.4575 3.7249 -2.1949 0.5695 0 1
2.3449 3.8858 -2.2323 0.5600 0 1
2.2255 4.0476 -2.2719 0.5502 0 1
2.0990 4.2102 -2.3139 0.5403 0 1
1.9530 4.3471 -2.3440 0.5316 0 24
1.8127 4.5120 -2.3917 0.5211 0 24
1.6727 4.7023 -2.4548 0.5098 0 1
1.5139 4.8675 -2.5072 0.4991 0 1
1.3459 5.0329 -2.5624 0.4888 0 1
1.1683 5.1986 -2.6207 0.4779 0 1
0.9808 5.3648 -2.6824 0.4671 0 1
0.7830 5.5324 -2.7483 0.4559 0 1
0.5739 5.7001 -2.8178 0.4447 0 1
0.3532 5.8676 -2.8912 0.4334 0 1
0.1198 6.0264 -2.9647 0.4211 0 24
-0.1262 6.1997 -3.0500 0.4116 0 1
-0.3861 6.3640 -3.1359 0.4003 0 1
-0.6603 6.5267 -3.2266 0.3891 0 1
-0.9497 6.6874 -3.3222 0.3779 0 1
-1.2547 6.8446 -3.4226 0.3699 0 1
-1.5753 6.9938 -3.5261 0.3591 0 1
-1.9126 7.1386 -3.6350 0.3483 0 1
-2.2675 7.2782 -3.7495 0.3377 0 1
-2.6406 7.4117 -3.8699 0.3272 0 1
-3.0326 7.5381 -3.9964 0.3169 0 1
-3.4441 7.6561 -4.1292 0.3067 0 1
-3.8754 7.7642 -4.2681 0.2969 0 1
-4.3274 7.8613 -4.4137 0.2871 0 1
-4.8010 7.9473 -4.5668 0.2746 0 1
-5.2975 8.0213 -4.7281 0.2652 0 1
-5.8148 8.0780 -4.8955 0.2584 0 1
-6.3501 8.1123 -5.0671 0.2496 0 1
-6.9043 8.1246 -5.2442 0.2442 0 1
-7.4761 8.1121 -5.4260 0.2360 0 1
-8.0707 8.0795 -5.6169 0.2195 0 1
-8.7004 8.0357 -5.8253 0.2117 0 1
-9.3490 7.9624 -6.0401 0.2041 0 1
-10.0148 7.8569 -6.2608 0.1969 0 1
-10.6976 7.7180 -6.4881 0.1887 0 1
-11.3945 7.5431 -6.7212 0.1817 0 1
-12.1005 7.3280 -6.9580 0.1755 0 1
-12.8088 7.0689 -7.1958 0.1689 0 1
-13.5231 6.7683 -7.4380 0.1634 0 1
-14.2252 6.4177 -7.6758 0.1576 0 1
-14.9085 6.0165 -7.9074 0.1509 0 1
-15.5688 5.5658 -8.1322 0.1468 0 1
-16.1834 5.0612 -8.3401 0.1440 0 1
-16.7482 4.5068 -8.5307 0.1408 0 1
-17.1880 3.8910 -8.6679 0.1380 0 24
-17.6885 3.2625 -8.8469 0.1355 0 1
-16.3565 2.3409 -8.1270 0.7453 26 14
-18.3078 1.8724 -9.0517 0.1338 0 1
-18.4909 1.1420 -9.1122 0.1333 0 1
-18.5796 0.3985 -9.1406 0.1329 0 1
-18.5754 -0.3491 -9.1380 0.1330 0 1
-18.4795 -1.0921 -9.1051 0.1341 0 1
-18.2907 -1.8216 -9.0409 0.1351 0 1
-18.0166 -2.5298 -8.9485 0.1365 0 1
-17.6646 -3.2097 -8.8307 0.1389 0 1
-17.1816 -3.8417 -8.6595 0.1405 0 24
-16.7492 -4.4594 -8.5252 0.1438 0 1
-16.1955 -5.0178 -8.3394 0.1468 0 1
-15.5895 -5.5266 -8.1353 0.1497 0 1
-14.9412 -5.9837 -7.9163 0.1538 0 1
-14.2555 -6.3859 -7.6830 0.1565 0 1
-13.5435 -6.7337 -7.4393 0.1617 0 1
-12.8192 -7.0303 -7.1911 0.1667 0 1
-12.0955 -7.2812 -6.9440 0.1777 0 1
-11.3887 -7.4958 -6.7060 0.1839 0 1
-10.6300 -7.6265 -6.4348 0.1989 0 24
-10.0030 -7.8048 -6.2405 0.2049 0 1
-9.3512 -7.9215 -6.0279 0.2121 0 1
-8.7143 -8.0058 -5.8204 0.2197 0 1
-8.0946 -8.0605 -5.6187 0.2276 0 1
-7.4893 -8.0833 -5.4200 0.2312 0 1
-6.9019 -8.0782 -5.2260 0.2398 0 1
-6.3369 -8.0514 -5.0395 0.2487 0 1
-5.7751 -7.9782 -4.8443 0.2579 0 24
-5.2748 -7.9411 -4.6890 0.2673 0 1
-4.7772 -7.8607 -4.5243 0.2771 0 1
-4.3024 -7.7672 -4.3673 0.2870 0 1
-3.8388 -7.6399 -4.2054 0.2987 0 24
-3.4088 -7.5243 -4.0629 0.3081 0 24
-3.0100 -7.4250 -3.9407 0.3185 0 1
-2.6198 -7.2921 -3.8111 0.3293 0 1
-2.2493 -7.1531 -3.6881 0.3403 0 1
-1.8983 -7.0107 -3.5724 0.3543 0 1
-1.5654 -6.8650 -3.4633 0.3654 0 1
-1.2495 -6.7157 -3.3598 0.3767 0 1
-0.9496 -6.5620 -3.2612 0.3870 0 1
-0.6652 -6.4048 -3.1672 0.3985 0 1
-0.3955 -6.2457 -3.0781 0.4099 0 1
-0.1401 -6.0852 -2.9938 0.4215 0 1
0.1021 -5.9238 -2.9141 0.4330 0 1
0.3314 -5.7614 -2.8385 0.4429 0 1
0.5472 -5.5834 -2.7594 0.4563 0 24
0.7545 -5.4354 -2.6991 0.4660 0 1
0.9495 -5.2725 -2.6350 0.4773 0 1
1.1341 -5.1098 -2.5744 0.4886 0 1
1.3086 -4.9460 -2.5164 0.5000 0 1
1.4736 -4.7827 -2.4615 0.5112 0 1
1.6298 -4.6202 -2.4097 0.5222 0 1
1.7677 -4.4341 -2.3479 0.5312 0 24
1.9138 -4.2903 -2.3107 0.5253 0 1
2.0405 -4.1202 -2.2615 0.5368 0 1
2.1594 -3.9521 -2.2151 0.5480 0 1
2.2735 -3.7902 -2.1739 0.5814 0 1
2.3822 -3.6318 -2.1363 0.5916 0 1
2.4847 -3.4747 -2.1010 0.6016 0 1
2.5811 -3.3187 -2.0679 0.6112 0 1
2.6718 -3.1640 -2.0368 0.6205 0 1
2.7569 -3.0104 -2.0078 0.6295 0 1
2.8369 -2.8578 -1.9806 0.6381 0 1
2.9118 -2.7063 -1.9552 0.6464 0 1
2.9818 -2.5557 -1.9316 0.6543 0 1
3.0471 -2.4059 -1.9096 0.6581 0 1
3.1075 -2.2568 -1.8890 0.6652 0 1
3.5218 0.3842 -1.7915 0.7029 0 1
3.5129 0.5270 -1.7963 0.7010 0 1
3.5005 0.6701 -1.8023 0.6987 0 1
3.4845 0.8136 -1.8095 0.6959 0 1
3.4649 0.9575 -1.8178 0.6927 0 1
3.4416 1.1019 -1.8274 0.6891 0 1
3.4145 1.2467 -1.8382 0.6851 0 1
3.3837 1.3921 -1.8503 0.6806 0 1
3.3489 1.5381 -1.8636 0.6757 0 1
3.3105 1.6849 -1.8785 0.6818 0 1
3.2685 1.8327 -1.8950 0.6759 0 1
3.2224 1.9813 -1.9129 0.6696 0 1
3.1709 2.1300 -1.9317 0.6629 0 1
3.1154 2.2798 -1.9522 0.6496 0 1
3.0559 2.4309 -1.9746 0.6422 0 1
2.9916 2.5829 -1.9987 0.6345 0 1
2.9224 2.7359 -2.0244 0.6264 0 1
2.8481 2.8899 -2.0518 0.6180 0 1
2.7684 3.0449 -2.0811 0.6093 0 1
2.6833 3.2010 -2.1122 0.6004 0 1
2.5923 3.3582 -2.1453 0.5911 0 1
2.4953 3.5164 -2.1805 0.5816 0 1
2.3907 3.6736 -2.2164 0.5767 0 1
2.2786 3.8300 -2.2537 0.5672 0 1
2.1598 3.9871 -2.2931 0.5574 0 1
2.0340 4.1448 -2.3348 0.5475 0 1
1.9009 4.3030 -2.3789 0.5373 0 1
1.7504 4.4372 -2.4121 0.5283 0 24
1.6111 4.6206 -2.4746 0.5171 0 1
1.4538 4.7798 -2.5264 0.5065 0 1
1.2876 4.9389 -2.5811 0.4962 0 1
1.1122 5.0980 -2.6387 0.4853 0 1
0.9272 5.2577 -2.6998 0.4745 0 1
0.7322 5.4179 -2.7647 0.4634 0 1
0.5263 5.5777 -2.8331 0.4522 0 1
0.3092 5.7369 -2.9053 0.4410 0 1
0.0803 5.8949 -2.9813 0.4305 0 1
-0.1611 6.0512 -3.0611 0.4193 0 1
-0.4155 6.2058 -3.1453 0.4081 0 1
-0.6836 6.3583 -3.2339 0.3969 0 1
-0.9659 6.5081 -3.3271 0.3858 0 1
-1.2630 6.6543 -3.4251 0.3759 0 1
-1.5746 6.7920 -3.5258 0.3672 0 1
-1.9019 6.9246 -3.6314 0.3565 0 1
-2.2454 7.0514 -3.7423 0.3459 0 1
-2.6058 7.1715 -3.8586 0.3355 0 1
-2.9835 7.2840 -3.9805 0.3252 0 1
-3.3791 7.3875 -4.1081 0.3152 0 1
-3.7927 7.4807 -4.2413 0.3055 0 1
-4.2247 7.5624 -4.3805 0.2957 0 1
-4.6755 7.6311 -4.5257 0.2863 0 1
-5.1463 7.6873 -4.6781 0.2741 0 1
-5.6370 7.7285 -4.8374 0.2651 0 1
-6.1427 7.7469 -4.9997 0.2587 0 1
-6.6654 7.7446 -5.1671 0.2503 0 1
-7.2036 7.7188 -5.3391 0.2452 0 1
-7.7546 7.6664 -5.5143 0.2374 0 1
-8.3334 7.6006 -5.7037 0.2210 0 1
-8.9328 7.5118 -5.9022 0.2135 0 1
-9.5451 7.3922 -6.1052 0.2064 0 1
-10.1669 7.2387 -6.3113 0.1984 0 1
-10.8005 7.0529 -6.5231 0.1915 0 1
-11.4394 6.8300 -6.7374 0.1854 0 1
-12.0771 6.5667 -6.9517 0.1804 0 1
-12.7097 6.2620 -7.1650 0.1726 0 1
-13.2855 5.8939 -7.3498 0.1671 0 24
-13.9331 5.5216 -7.5790 0.1636 0 1
-14.5030 5.0825 -7.7714 0.1595 0 1
-15.0417 4.6008 -7.9543 0.1544 0 1
-15.5304 4.0749 -8.1194 0.1514 0 1
-15.9669 3.5096 -8.2671 0.1487 0 1
-16.3333 2.9068 -8.3894 0.1477 0 1
-16.6319 2.2741 -8.4889 0.1460 0 1
-16.8574 1.6174 -8.5638 0.1446 0 1
-17.0053 0.9433 -8.6127 0.1438 0 1
-17.0722 0.2592 -8.6343 0.1434 0 1
-17.0577 -0.4275 -8.6286 0.1440 0 1
-16.9639 -1.1092 -8.5968 0.1445 0 1
-16.7904 -1.7785 -8.5383 0.1455 0 1
-16.5438 -2.4288 -8.4558 0.1477 0 1
-16.2285 -3.0539 -8.3507 0.1496 0 1
-15.7899 -3.6345 -8.1936 0.1517 0 24
-15.4072 -4.2057 -8.0764 0.1550 0 1
-14.9101 -4.7221 -7.9090 0.1574 0 1
-14.3643 -5.1938 -7.7242 0.1596 0 1
-13.7310 -5.5991 -7.4988 0.1637 0 24
-13.1615 -5.9951 -7.3136 0.1677 0 1
-12.5250 -6.3254 -7.0957 0.1728 0 1
-11.8838 -6.6145 -6.8777 0.1834 0 1
-11.2439 -6.8649 -6.6620 0.1894 0 1
-10.6039 -7.0749 -6.4463 0.1956 0 1
-9.9715 -7.2491 -6.2342 0.2097 0 1
-9.3639 -7.4010 -6.0357 0.2166 0 1
-8.7657 -7.5203 -5.8405 0.2239 0 1
-8.1487 -7.5809 -5.6283 0.2304 0 24
-7.5786 -7.6419 -5.4426 0.2382 0 24
-7.0394 -7.6939 -5.2735 0.2430 0 1
-6.4949 -7.6990 -5.0936 0.2515 0 1
-5.9696 -7.6833 -4.9203 0.2623 0 1
-5.4457 -7.6232 -4.7376 0.2701 0 24
-4.9610 -7.5712 -4.5774 0.2799 0 24
-4.4967 -7.5047 -4.4242 0.2902 0 24
-4.0646 -7.4475 -4.2905 0.2987 0 1
-3.6392 -7.3572 -4.1508 0.3114 0 1
-3.2325 -7.2558 -4.0168 0.3194 0 1
-2.8433 -7.1421 -3.8874 0.3301 0 1
-2.4729 -7.0211 -3.7643 0.3409 0 1
-2.1207 -6.8947 -3.6478 0.3547 0 1
-1.7862 -6.7644 -3.5380 0.3657 0 1
-1.4680 -6.6293 -3.4336 0.3769 0 1
-1.1655 -6.4901 -3.3345 0.3881 0 1
-0.8778 -6.3456 -3.2395 0.3984 0 1
-0.6045 -6.1979 -3.1491 0.4097 0 1
-0.3450 -6.0479 -3.0634 0.4212 0 1
-0.0985 -5.8829 -2.9753 0.4332 0 24
0.1349 -5.7428 -2.9049 0.4425 0 1
0.3557 -5.5744 -2.8247 0.4560 0 24
0.5669 -5.4329 -2.7623 0.4654 0 1
0.7663 -5.2773 -2.6967 0.4769 0 1
0.9554 -5.1213 -2.6345 0.4881 0 1
1.1347 -4.9653 -2.5757 0.4993 0 1
1.3043 -4.8080 -2.5192 0.5107 0 1
1.4650 -4.6508 -2.4658 0.5217 0 1
1.6170 -4.4942 -2.4153 0.5327 0 1
1.7607 -4.3373 -2.3672 0.5243 0 1
1.8922 -4.1714 -2.3163 0.5358 0 1
2.0111 -3.9976 -2.2630 0.5641 0 24
2.1331 -3.8465 -2.2242 0.5810 0 1
2.2459 -3.6916 -2.1851 0.5914 0 1
2.3523 -3.5377 -2.1484 0.6015 0 1
2.4526 -3.3848 -2.1138 0.6114 0 1
2.5470 -3.2330 -2.0813 0.6209 0 1
2.6359 -3.0822 -2.0509 0.6301 0 1
2.7194 -2.9323 -2.0224 0.6390 0 1
2.7978 -2.7834 -1.9957 0.6475 0 1
2.8713 -2.6353 -1.9708 0.6557 0 1
2.9398 -2.4879 -1.9476 0.6597 0 1
3.0035 -2.3412 -1.9258 0.6672 0 1
3.0628 -2.1952 -1.9056 0.6743 0 1
3.1189 -2.0507 -1.8876 0.6853 0 1
3.1714 -1.9070 -1.8714 0.6913 0 1
3.2200 -1.7639 -1.8566 0.6967 0 1
3.2646 -1.6212 -1.8433 0.7018 0 1
3.3055 -1.4788 -1.8312 0.7064 0 1
3.3427 -1.3368 -1.8205 0.7106 0 1
3.3762 -1.1951 -1.8111 0.7142 0 1
3.4066 -1.0537 -1.8032 0.7096 0 1
3.4335 -0.9124 -1.7966 0.7123 0 1
3.4570 -0.7712 -1.7911 0.7144 0 1
3.4770 -0.6300 -1.7869 0.7161 0 1
3.4935 -0.4888 -1.7839 0.7173 0 1
3.5067 -0.3475 -1.7820 0.7181 0 1
3.5165 -0.2061 -1.7813 0.7184 0 1
3.5229 -0.0645 -1.7818 0.7182 0 1
3.5278 0.0774 -1.7844 0.7163 0 1
3.5276 0.2196 -1.7873 0.7046 0 1
3.5228 0.3620 -1.7908 0.7032 0 1
3.5145 0.5047 -1.7955 0.7014 0 1
3.5027 0.6478 -1.8013 0.6991 0 1
3.4872 0.7912 -1.8083 0.6964 0 1
3.4682 0.9350 -1.8165 0.6933 0 1
3.4455 1.0793 -1.8258 0.6897 0 1
3.4190 1.2241 -1.8364 0.6857 0 1
3.3887 1.3695 -1.8483 0.6813 0 1
3.3546 1.5154 -1.8614 0.6765 0 1
3.3167 1.6620 -1.8760 0.6827 0 1
3.2753 1.8096 -1.8923 0.6768 0 1
3.2299 1.9581 -1.9100 0.6706 0 1
3.1794 2.1069 -1.9288 0.6639 0 1
3.1243 2.2564 -1.9489 0.6507 0 1
3.0655 2.4073 -1.9710 0.6434 0 1
3.0019 2.5592 -1.9948 0.6357 0 1
2.9335 2.7120 -2.0203 0.6277 0 1
2.8600 2.8659 -2.0474 0.6194 0 1
2.7812 3.0207 -2.0764 0.6107 0 1
2.6969 3.1766 -2.1072 0.6018 0 1
2.6069 3.3336 -2.1400 0.5926 0 1
2.5109 3.4917 -2.1748 0.5831 0 1
2.4076 3.6492 -2.2108 0.5782 0 1
2.2965 3.8056 -2.2477 0.5687 0 1
2.1788 3.9626 -2.2868 0.5589 0 1
2.0541 4.1202 -2.3281 0.5490 0 1
1.9107 4.2529 -2.3578 0.5404 0 24
1.7726 4.4123 -2.4046 0.5299 0 24
1.6349 4.5958 -2.4667 0.5187 0 1
1.4789 4.7550 -2.5182 0.5081 0 1
1.3141 4.9142 -2.5724 0.4978 0 1
1.1401 5.0732 -2.6295 0.4870 0 1
0.9567 5.2327 -2.6900 0.4763 0 1
0.7632 5.3930 -2.7544 0.4651 0 1
0.5591 5.5529 -2.8222 0.4539 0 1
0.3438 5.7121 -2.8938 0.4427 0 1
0.1167 5.8705 -2.9692 0.4323 0 1
-0.1226 6.0212 -3.0455 0.4199 0 24
-0.3751 6.1819 -3.1319 0.4098 0 1
-0.6409 6.3347 -3.2198 0.3987 0 1
-0.9209 6.4850 -3.3123 0.3875 0 1
-1.2158 6.6321 -3.4097 0.3776 0 1
-1.5251 6.7709 -3.5098 0.3691 0 1
-1.8499 6.9043 -3.6146 0.3581 0 1
-2.1908 7.0321 -3.7247 0.3476 0 1
-2.5485 7.1533 -3.8401 0.3371 0 1
-2.9235 7.2670 -3.9611 0.3268 0 1
-3.3163 7.3720 -4.0878 0.3167 0 1
-3.7271 7.4669 -4.2202 0.3070 0 1
-4.1562 7.5504 -4.3585 0.2972 0 1
-4.6041 7.6213 -4.5027 0.2877 0 1
-5.0717 7.6793 -4.6539 0.2755 0 1
-5.5594 7.7232 -4.8122 0.2664 0 1
-6.0629 7.7454 -4.9741 0.2600 0 1
-6.5829 7.7464 -5.1407 0.2516 0 1
-7.1191 7.7247 -5.3123 0.2465 0 1
-7.6679 7.6763 -5.4868 0.2386 0 1
-8.2414 7.6118 -5.6732 0.2222 0 1
-8.8385 7.5276 -5.8709 0.2147 0 1
-9.4491 7.4130 -6.0733 0.2075 0 1
-10.0695 7.2649 -6.2790 0.2007 0 1
-10.7012 7.0841 -6.4898 0.1924 0 1
-11.3399 6.8673 -6.7041 0.1863 0 1
-11.9781 6.6104 -6.9184 0.1813 0 1
-12.6114 6.3120 -7.1317 0.1734 0 1
-13.1899 5.9506 -7.3174 0.1678 0 24
-13.8416 5.5859 -7.5481 0.1643 0 1
-14.4164 5.1538 -7.7422 0.1602 0 1
-14.9614 4.6790 -7.9272 0.1549 0 1
-15.4574 4.1594 -8.0948 0.1519 0 1
-15.9027 3.6001 -8.2454 0.1491 0 1
-16.2806 3.0028 -8.3718 0.1480 0 1
-16.5294 2.3657 -8.4440 0.1462 0 24
-16.8273 1.7210 -8.5538 0.1448 0 1
-16.9875 1.0491 -8.6068 0.1439 0 1
-17.0041 0.3647 -8.6008 0.1440 0 24
-17.0649 -0.3207 -8.6311 0.1440 0 1
-16.9838 -1.0037 -8.6036 0.1444 0 1
-16.7581 -1.6690 -8.5164 0.1457 0 24
-16.5867 -2.3290 -8.4700 0.1475 0 1
-16.2820 -2.9584 -8.3685 0.1493 0 1
-15.9111 -3.5576 -8.2448 0.1515 0 1
-15.4798 -4.1215 -8.1007 0.1545 0 1
-14.9913 -4.6447 -7.9365 0.1568 0 1
-14.4523 -5.1235 -7.7541 0.1590 0 1
-13.8727 -5.5558 -7.5570 0.1623 0 1
-13.2589 -5.9395 -7.3470 0.1670 0 1
-12.6252 -6.2771 -7.1301 0.1725 0 1
-11.9831 -6.5718 -6.9112 0.1825 0 1
-11.3436 -6.8286 -6.6956 0.1884 0 1
-10.7033 -7.0448 -6.4798 0.1946 0 1
-10.0670 -7.2226 -6.2655 0.2013 0 1
-9.4580 -7.3796 -6.0664 0.2155 0 1
-8.8581 -7.5038 -5.8707 0.2227 0 1
-8.2388 -7.5691 -5.6576 0.2291 0 24
-7.6663 -7.6341 -5.4711 0.2370 0 24
-7.1259 -7.6911 -5.3021 0.2417 0 1
-6.5784 -7.6996 -5.1212 0.2502 0 1
-6.0500 -7.6869 -4.9468 0.2590 0 1
-5.5230 -7.6299 -4.7631 0.2686 0 24
-5.0352 -7.5803 -4.6019 0.2784 0 24
-4.5677 -7.5159 -4.4476 0.2887 0 24
-4.1328 -7.4609 -4.3131 0.2972 0 1
-3.7041 -7.3719 -4.1721 0.3098 0 1
-3.2948 -7.2727 -4.0376 0.3178 0 1
-2.9027 -7.1603 -3.9071 0.3284 0 1
-2.5293 -7.0403 -3.7830 0.3392 0 1
-2.1743 -6.9145 -3.6654 0.3530 0 1
-1.8372 -6.7850 -3.5547 0.3640 0 1
-1.5165 -6.6506 -3.4495 0.3751 0 1
-1.2116 -6.5120 -3.3496 0.3863 0 1
-0.9216 -6.3684 -3.2540 0.3966 0 1
-0.6461 -6.2211 -3.1629 0.4079 0 1
-0.3845 -6.0714 -3.0764 0.4194 0 1
-0.1362 -5.9200 -2.9945 0.4308 0 1
0.0994 -5.7668 -2.9166 0.4408 0 1
0.3229 -5.6123 -2.8428 0.4522 0 1
0.5349 -5.4572 -2.7729 0.4636 0 1
0.7359 -5.3015 -2.7066 0.4751 0 1
0.9266 -5.1456 -2.6440 0.4864 0 1
1.1074 -4.9896 -2.5846 0.4976 0 1
1.2785 -4.8325 -2.5278 0.5089 0 1
1.4405 -4.6753 -2.4739 0.5200 0 1
1.5939 -4.5185 -2.4230 0.5310 0 1
1.7391 -4.3623 -2.3748 0.5417 0 1
1.8646 -4.1800 -2.3146 0.5518 0 24
1.9919 -4.0221 -2.2697 0.5624 0 24
2.1149 -3.8708 -2.2305 0.5794 0 1
2.2288 -3.7156 -2.1911 0.5898 0 1
2.3362 -3.5615 -2.1539 0.6000 0 1
2.4374 -3.4085 -2.1190 0.6099 0 1
2.5327 -3.2566 -2.0862 0.6194 0 1
2.6224 -3.1056 -2.0555 0.6287 0 1
2.7068 -2.9556 -2.0267 0.6376 0 1
2.7859 -2.8065 -1.9997 0.6462 0 1
2.8601 -2.6583 -1.9746 0.6545 0 1
2.9295 -2.5108 -1.9511 0.6585 0 1
2.9939 -2.3640 -1.9291 0.6661 0 1
3.0539 -2.2179 -1.9086 0.6732 0 1
3.4633 0.3778 -1.8105 0.7108 0 1
3.4544 0.5182 -1.8153 0.7089 0 1
3.4420 0.6589 -1.8212 0.7066 0 1
3.4261 0.7999 -1.8284 0.7038 0 1
3.4065 0.9414 -1.8367 0.7006 0 1
3.3833 1.0832 -1.8462 0.6970 0 1
3.3564 1.2255 -1.8569 0.6930 0 1
3.3259 1.3684 -1.8690 0.7003 0 1
3.2920 1.5120 -1.8826 0.6952 0 1
3.2542 1.6563 -1.8976 0.6897 0 1
3.2125 1.8013 -1.9140 0.6838 0 1
3.1666 1.9470 -1.9318 0.6775 0 1
3.1153 2.0927 -1.9504 0.6709 0 1
3.0597 2.2390 -1.9703 0.6577 0 1
3.0006 2.3869 -1.9926 0.6503 0 1
2.9368 2.5356 -2.0164 0.6426 0 1
2.8682 2.6852 -2.0418 0.6346 0 1
2.7946 2.8356 -2.0690 0.6263 0 1
2.7157 2.9869 -2.0979 0.6177 0 1
2.6314 3.1391 -2.1287 0.6087 0 1
2.5414 3.2922 -2.1614 0.5995 0 1
2.4456 3.4463 -2.1961 0.5900 0 1
2.3425 3.5994 -2.2318 0.5852 0 1
2.2319 3.7515 -2.2685 0.5758 0 1
2.1148 3.9039 -2.3074 0.5661 0 1
1.9787 4.0319 -2.3341 0.5579 0 24
1.8598 4.2100 -2.3918 0.5461 0 1
1.7213 4.3634 -2.4377 0.5358 0 1
1.5672 4.4944 -2.4736 0.5264 0 24
1.4205 4.6703 -2.5369 0.5154 0 1
1.2575 4.8235 -2.5905 0.5052 0 1
1.0856 4.9762 -2.6469 0.4944 0 1
0.9046 5.1295 -2.7069 0.4836 0 1
0.7139 5.2827 -2.7703 0.4726 0 1
0.5129 5.4352 -2.8371 0.4614 0 1
0.3011 5.5866 -2.9075 0.4503 0 1
0.0781 5.7368 -2.9816 0.4391 0 1
-0.1566 5.8790 -3.0563 0.4259 0 24
-0.4034 6.0238 -3.1375 0.4184 0 24
-0.6637 6.1738 -3.2269 0.4065 0 1
-0.9370 6.3140 -3.3172 0.3954 0 1
-1.2243 6.4504 -3.4121 0.3856 0 1
-1.5253 6.5792 -3.5098 0.3772 0 1
-1.8405 6.7013 -3.6115 0.3666 0 1
-2.1708 6.8172 -3.7181 0.3558 0 1
-2.5166 6.9262 -3.8297 0.3454 0 1
-2.8783 7.0271 -3.9464 0.3352 0 1
-3.2563 7.1191 -4.0683 0.3252 0 1
-3.6506 7.2005 -4.1954 0.3155 0 1
-4.0615 7.2701 -4.3278 0.3059 0 1
-4.4891 7.3269 -4.4655 0.2965 0 1
-4.9334 7.3692 -4.6086 0.2873 0 1
-5.3952 7.3970 -4.7580 0.2754 0 1
-5.8727 7.4064 -4.9122 0.2690 0 1
-6.3631 7.3933 -5.0693 0.2607 0 1
-6.8673 7.3585 -5.2307 0.2527 0 1
-7.3842 7.3001 -5.3962 0.2449 0 1
-7.9095 7.2139 -5.5633 0.2405 0 1
-8.4630 7.1168 -5.7465 0.2241 0 1
-9.0268 6.9908 -5.9334 0.2170 0 1
-9.5970 6.8330 -6.1225 0.2103 0 1
-10.1721 6.6426 -6.3136 0.2030 0 1
-10.7546 6.4211 -6.5094 0.1969 0 1
-11.3332 6.1622 -6.7040 0.1911 0 1
-11.9012 5.8636 -6.8948 0.1863 0 1
-12.4537 5.5249 -7.0803 0.1785 0 1
-12.9927 5.1490 -7.2630 0.1740 0 1
-13.4526 4.7144 -7.4080 0.1702 0 24
-13.9762 4.2749 -7.5954 0.1670 0 1
-14.4075 3.7803 -7.7408 0.1650 0 1
-14.7903 3.2510 -7.8698 0.1597 0 1
-15.1213 2.6911 -7.9818 0.1586 0 1
-15.3282 2.0959 -8.0400 0.1569 0 24
-15.5845 1.4953 -8.1362 0.1557 0 1
-15.7155 0.8718 -8.1797 0.1553 0 1
-15.7741 0.2395 -8.1985 0.1550 0 1
-15.7633 -0.3951 -8.1946 0.1551 0 1
-15.6825 -1.0254 -8.1674 0.1559 0 1
-15.4709 -1.6387 -8.0850 0.1567 0 24
-15.2574 -2.2399 -8.0141 0.1583 0 24
-15.0359 -2.8294 -7.9511 0.1601 0 1
-14.7003 -3.3837 -7.8393 0.1623 0 1
-14.3090 -3.9059 -7.7083 0.1626 0 1
-13.8616 -4.3901 -7.5563 0.1667 0 1
-13.3332 -4.8210 -7.3681 0.1697 0 24
-12.8467 -5.2385 -7.2100 0.1738 0 1
-12.2543 -5.5819 -6.9979 0.1796 0 24
-11.7367 -5.9274 -6.8331 0.1883 0 1
-11.1630 -6.2133 -6.6393 0.1941 0 1
-10.5821 -6.4608 -6.4433 0.2001 0 1
-10.0006 -6.6724 -6.2478 0.2139 0 1
-9.4371 -6.8606 -6.0634 0.2204 0 1
-8.8766 -7.0158 -5.8800 0.2252 0 1
-8.3217 -7.1394 -5.6981 0.2324 0 1
-7.7756 -7.2339 -5.5192 0.2372 0 1
-7.2367 -7.2971 -5.3408 0.2451 0 1
-6.7119 -7.3359 -5.1673 0.2534 0 1
-6.2030 -7.3530 -4.9994 0.2638 0 1
-5.6918 -7.3258 -4.8212 0.2713 0 24
-5.2346 -7.3277 -4.6800 0.2798 0 1
-4.7749 -7.2870 -4.5275 0.2893 0 1
-4.3332 -7.2317 -4.3812 0.2989 0 1
-3.8990 -7.1441 -4.2297 0.3106 0 24
-3.5056 -7.0873 -4.1091 0.3214 0 1
-3.1170 -6.9964 -3.9805 0.3294 0 1
-2.7449 -6.8948 -3.8566 0.3400 0 1
-2.3899 -6.7856 -3.7387 0.3537 0 1
-2.0522 -6.6719 -3.6276 0.3645 0 1
-1.7301 -6.5521 -3.5218 0.3754 0 1
-1.4233 -6.4272 -3.4211 0.3865 0 1
-1.1310 -6.2978 -3.3253 0.3976 0 1
-0.8525 -6.1626 -3.2331 0.4079 0 1
-0.5875 -6.0239 -3.1454 0.4191 0 1
-0.3356 -5.8826 -3.0621 0.4290 0 1
-0.0959 -5.7265 -2.9764 0.4425 0 24
0.1311 -5.5809 -2.9011 0.4539 0 24
0.3475 -5.4463 -2.8361 0.4632 0 1
0.5528 -5.2982 -2.7684 0.4747 0 1
0.7477 -5.1495 -2.7042 0.4860 0 1
0.9328 -5.0001 -2.6433 0.4972 0 1
1.1085 -4.8503 -2.5856 0.5082 0 1
1.2748 -4.6993 -2.5304 0.5195 0 1
1.4325 -4.5479 -2.4779 0.5305 0 1
1.5819 -4.3966 -2.4283 0.5414 0 1
1.7222 -4.2424 -2.3794 0.5330 0 1
1.8457 -4.0689 -2.3219 0.5617 0 24
1.9701 -3.9162 -2.2782 0.5737 0 24
2.0909 -3.7704 -2.2405 0.5894 0 1
2.2022 -3.6197 -2.2019 0.5997 0 1
2.3073 -3.4700 -2.1656 0.6098 0 1
2.4064 -3.3211 -2.1314 0.6196 0 1
2.4998 -3.1730 -2.0992 0.6291 0 1
2.5877 -3.0258 -2.0691 0.6382 0 1
2.6704 -2.8794 -2.0409 0.6471 0 1
2.7480 -2.7338 -2.0144 0.6555 0 1
2.8207 -2.5888 -1.9897 0.6599 0 1
2.8884 -2.4444 -1.9664 0.6677 0 1
2.9516 -2.3007 -1.9448 0.6751 0 1
3.0104 -2.1576 -1.9248 0.6821 0 1
3.0663 -2.0161 -1.9071 0.6931 0 1
3.1184 -1.8752 -1.8910 0.6990 0 1
3.1666 -1.7346 -1.8764 0.7045 0 1
3.2109 -1.5945 -1.8631 0.7095 0 1
3.2514 -1.4546 -1.8511 0.7141 0 1
3.2883 -1.3151 -1.8405 0.7182 0 1
3.3216 -1.1757 -1.8311 0.7219 0 1
3.3513 -1.0366 -1.8231 0.7251 0 1
3.3776 -0.8975 -1.8162 0.7278 0 1
3.4008 -0.7587 -1.8108 0.7221 0 1
3.4206 -0.6198 -1.8066 0.7238 0 1
3.4370 -0.4809 -1.8036 0.7250 0 1
3.4500 -0.3419 -1.8017 0.7257 0 1
3.4596 -0.2028 -1.8010 0.7260 0 1
3.4659 -0.0635 -1.8015 0.7258 0 1
3.4705 0.0761 -1.8040 0.7133 0 1
3.4692 0.2159 -1.8064 0.7124 0 1
3.4643 0.3560 -1.8098 0.7110 0 1
3.4560 0.4963 -1.8145 0.7092 0 1
3.4442 0.6370 -1.8202 0.7069 0 1
3.4288 0.7779 -1.8272 0.7043 0 1
3.4098 0.9193 -1.8353 0.7011 0 1
3.3872 1.0611 -1.8446 0.6976 0 1
3.3608 1.2033 -1.8552 0.6936 0 1
3.3308 1.3460 -1.8670 0.7010 0 1
3.2975 1.4896 -1.8804 0.6960 0 1
3.2604 1.6338 -1.8952 0.6906 0 1
3.2192 1.7786 -1.9114 0.6847 0 1
3.1740 1.9242 -1.9290 0.6785 0 1
3.1237 2.0700 -1.9475 0.6719 0 1
3.0685 2.2161 -1.9670 0.6588 0 1
3.0101 2.3638 -1.9890 0.6515 0 1
2.9471 2.5124 -2.0126 0.6439 0 1
2.8792 2.6618 -2.0378 0.6359 0 1
2.8064 2.8121 -2.0647 0.6276 0 1
2.7283 2.9633 -2.0933 0.6190 0 1
2.6449 3.1154 -2.1238 0.6101 0 1
2.5558 3.2683 -2.1562 0.6010 0 1
2.4609 3.4222 -2.1906 0.5915 0 1
2.3591 3.5758 -2.2263 0.5867 0 1
2.2495 3.7278 -2.2627 0.5772 0 1
2.1335 3.8802 -2.3012 0.5676 0 1
1.9982 4.0080 -2.3274 0.5595 0 24
1.8807 4.1861 -2.3849 0.5477 0 1
1.7339 4.3158 -2.4171 0.5387 0 24
1.5902 4.4703 -2.4658 0.5280 0 24
1.4451 4.6464 -2.5288 0.5171 0 1
1.2835 4.7997 -2.5820 0.5068 0 1
1.1130 4.9525 -2.6379 0.4961 0 1
0.9334 5.1056 -2.6973 0.4854 0 1
0.7442 5.2589 -2.7602 0.4743 0 1
0.5449 5.4115 -2.8265 0.4632 0 1
0.3348 5.5631 -2.8963 0.4520 0 1
0.1136 5.7135 -2.9698 0.4408 0 1
-0.1192 5.8558 -3.0438 0.4276 0 24
-0.3641 6.0015 -3.1247 0.4185 0 24
-0.6224 6.1516 -3.2132 0.4082 0 1
-0.8936 6.2923 -3.3029 0.3971 0 1
-1.1787 6.4296 -3.3970 0.3861 0 1
-1.4775 6.5597 -3.4944 0.3789 0 1
-1.7905 6.6826 -3.5954 0.3682 0 1
-2.1184 6.7996 -3.7012 0.3574 0 1
-2.4617 6.9097 -3.8120 0.3470 0 1
-2.8209 7.0120 -3.9279 0.3368 0 1
-3.1963 7.1054 -4.0490 0.3268 0 1
-3.5881 7.1885 -4.1753 0.3171 0 1
-3.9964 7.2601 -4.3068 0.3074 0 1
-4.4214 7.3190 -4.4437 0.2979 0 1
-4.8631 7.3636 -4.5860 0.2887 0 1
-5.3221 7.3936 -4.7343 0.2767 0 1
-5.7977 7.4067 -4.8881 0.2704 0 1
-6.2858 7.3967 -5.0445 0.2620 0 1
-6.7880 7.3654 -5.2053 0.2539 0 1
-7.3029 7.3109 -5.3702 0.2461 0 1
-7.8271 7.2291 -5.5371 0.2416 0 1
-8.3760 7.1336 -5.7176 0.2252 0 1
-8.9385 7.0124 -5.9041 0.2181 0 1
-9.5079 6.8597 -6.0929 0.2114 0 1
-10.0826 6.6746 -6.2839 0.2081 0 1
-10.6640 6.4580 -6.4790 0.1978 0 1
-11.2435 6.2051 -6.6739 0.1920 0 1
-11.7603 5.8860 -6.8345 0.1837 0 24
-12.3678 5.5798 -7.0512 0.1792 0 1
-12.9104 5.2102 -7.2351 0.1747 0 1
-13.3757 4.7818 -7.3820 0.1708 0 24
-13.8538 4.3326 -7.5435 0.1673 0 24
-14.3440 3.8598 -7.7196 0.1655 0 1
-14.7337 3.3354 -7.8507 0.1600 0 1
-15.0736 2.7802 -7.9657 0.1577 0 1
-15.2913 2.1885 -8.0277 0.1572 0 24
-15.5577 1.5911 -8.1273 0.1559 0 1
-15.6999 0.9696 -8.1746 0.1554 0 1
-15.7120 0.3370 -8.1672 0.1549 0 24
-15.7695 -0.2964 -8.1966 0.1550 0 1
-15.6998 -0.9278 -8.1732 0.1555 0 1
-15.5586 -1.5495 -8.1256 0.1567 0 1
-15.2949 -2.1476 -8.0265 0.1580 0 24
-15.0831 -2.7406 -7.9668 0.1597 0 1
-14.7562 -3.2994 -7.8580 0.1620 0 1
-14.3736 -3.8270 -7.7300 0.1622 0 1
-13.9343 -4.3172 -7.5811 0.1662 0 1
-13.4110 -4.7543 -7.3945 0.1685 0 24
-12.9307 -5.1785 -7.2388 0.1732 0 1
-12.3819 -5.5467 -7.0509 0.1778 0 1
-11.8250 -5.8793 -6.8630 0.1875 0 1
-11.2529 -6.1714 -6.6697 0.1933 0 1
-10.6728 -6.4247 -6.4739 0.1991 0 1
-10.0894 -6.6407 -6.2771 0.2053 0 1
-9.5247 -6.8335 -6.0920 0.2193 0 1
-8.9637 -6.9939 -5.9085 0.2241 0 1
-8.4075 -7.1221 -5.7263 0.2312 0 1
-7.8603 -7.2213 -5.5471 0.2387 0 1
-7.3197 -7.2889 -5.3683 0.2439 0 1
-6.7926 -7.3314 -5.1940 0.2521 0 1
-6.2811 -7.3516 -5.0251 0.2625 0 1
-5.7673 -7.3278 -4.8462 0.2698 0 24
-5.3078 -7.3326 -4.7042 0.2784 0 1
-4.8452 -7.2944 -4.5509 0.2878 0 1
-4.4007 -7.2412 -4.4036 0.2974 0 1
-3.9751 -7.1762 -4.2633 0.3098 0 1
-3.5675 -7.1001 -4.1294 0.3198 0 1
-3.1765 -7.0115 -4.0003 0.3278 0 1
-2.8017 -6.9111 -3.8755 0.3383 0 1
-2.4440 -6.8029 -3.7566 0.3490 0 1
-2.1037 -6.6900 -3.6445 0.3628 0 1
-1.7793 -6.5711 -3.5379 0.3737 0 1
-1.4701 -6.4470 -3.4364 0.3848 0 1
-1.1756 -6.3182 -3.3399 0.3959 0 1
-0.8949 -6.1839 -3.2472 0.4061 0 1
-0.6279 -6.0457 -3.1588 0.4174 0 1
-0.3740 -5.9048 -3.0748 0.4288 0 1
-0.1326 -5.7613 -2.9949 0.4386 0 1
0.0968 -5.6160 -2.9190 0.4500 0 1
0.3146 -5.4692 -2.8470 0.4614 0 1
0.5216 -5.3213 -2.7787 0.4727 0 1
0.7181 -5.1727 -2.7140 0.4842 0 1
0.9046 -5.0234 -2.6526 0.4954 0 1
1.0817 -4.8737 -2.5944 0.5065 0 1
1.2495 -4.7228 -2.5389 0.5178 0 1
1.4085 -4.5714 -2.4859 0.5288 0 1
1.5592 -4.4202 -2.4358 0.5397 0 1
1.7013 -4.2675 -2.3875 0.5312 0 1
1.8257 -4.0927 -2.3289 0.5600 0 24
1.9512 -3.9399 -2.2848 0.5720 0 24
2.0729 -3.7939 -2.2468 0.5878 0 1
2.1853 -3.6431 -2.2078 0.5981 0 1
2.2913 -3.4932 -2.1711 0.6082 0 1
2.3914 -3.3442 -2.1365 0.6181 0 1
2.4856 -3.1960 -2.1041 0.6276 0 1
2.5744 -3.0487 -2.0737 0.6368 0 1
2.6578 -2.9022 -2.0451 0.6457 0 1
2.7362 -2.7564 -2.0184 0.6542 0 1
2.8097 -2.6114 -1.9934 0.6586 0 1
2.8781 -2.4668 -1.9699 0.6665 0 1
2.9420 -2.3230 -1.9481 0.6740 0 1
3.0015 -2.1798 -1.9278 0.6811 0 1
3.4060 0.3716 -1.8291 0.7185 0 1
3.3972 0.5096 -1.8339 0.7166 0 1
3.3848 0.6479 -1.8398 0.7143 0 1
3.3689 0.7866 -1.8468 0.7116 0 1
3.3494 0.9256 -1.8551 0.7084 0 1
3.3267 1.0651 -1.8647 0.7168 0 1
3.3004 1.2050 -1.8757 0.7126 0 1
3.2704 1.3456 -1.8879 0.7080 0 1
3.2367 1.4866 -1.9014 0.7029 0 1
3.1992 1.6283 -1.9163 0.6975 0 1
3.1577 1.7705 -1.9326 0.6916 0 1
3.1121 1.9135 -1.9503 0.6853 0 1
3.0610 2.0562 -1.9686 0.6788 0 1
3.0053 2.1992 -1.9880 0.6657 0 1
2.9467 2.3440 -2.0101 0.6584 0 1
2.8834 2.4895 -2.0336 0.6507 0 1
2.8154 2.6357 -2.0588 0.6428 0 1
2.7424 2.7827 -2.0857 0.6345 0 1
2.6643 2.9304 -2.1143 0.6259 0 1
2.5809 3.0789 -2.1448 0.6170 0 1
2.4920 3.2281 -2.1771 0.6079 0 1
2.3972 3.3781 -2.2113 0.5984 0 1
2.2956 3.5275 -2.2468 0.5937 0 1
2.1865 3.6752 -2.2830 0.5843 0 1
2.0711 3.8233 -2.3213 0.5746 0 1
1.9373 3.9476 -2.3475 0.5664 0 24
1.8097 4.0965 -2.3908 0.5562 0 24
1.6838 4.2682 -2.4495 0.5446 0 1
1.5400 4.4166 -2.4970 0.5342 0 1
1.3884 4.5645 -2.5470 0.5243 0 1
1.2285 4.7121 -2.5996 0.5141 0 1
1.0600 4.8588 -2.6549 0.5034 0 1
0.8828 5.0060 -2.7137 0.4927 0 1
0.6963 5.1526 -2.7757 0.4817 0 1
0.5000 5.2982 -2.8410 0.4706 0 1
0.2934 5.4425 -2.9096 0.4595 0 1
0.0760 5.5851 -2.9818 0.4484 0 1
-0.1523 5.7189 -3.0541 0.4350 0 24
-0.3926 5.8630 -3.1369 0.4270 0 1
-0.6437 5.9871 -3.2146 0.4177 0 24
-0.9096 6.1290 -3.3078 0.4050 0 1
-1.1875 6.2564 -3.3996 0.3940 0 1
-1.4783 6.3765 -3.4944 0.3845 0 1
-1.7824 6.4896 -3.5927 0.3763 0 1
-2.1003 6.5957 -3.6953 0.3659 0 1
-2.4324 6.6945 -3.8024 0.3556 0 1
-2.7792 6.7852 -3.9143 0.3454 0 1
-3.1408 6.8666 -4.0309 0.3351 0 1
-3.5173 6.9376 -4.1524 0.3256 0 1
-3.9087 6.9967 -4.2785 0.3160 0 1
-4.3151 7.0428 -4.4093 0.3066 0 1
-4.7363 7.0747 -4.5450 0.2975 0 1
-5.1719 7.0908 -4.6853 0.2886 0 1
-5.6223 7.0906 -4.8308 0.2770 0 1
-6.0839 7.0690 -4.9789 0.2711 0 1
-6.5569 7.0259 -5.1303 0.2631 0 1
-7.0403 6.9602 -5.2850 0.2554 0 1
-7.5325 6.8701 -5.4425 0.2480 0 1
-8.0361 6.7578 -5.6053 0.2376 0 1
-8.5592 6.6287 -5.7793 0.2304 0 1
-9.0873 6.4701 -5.9552 0.2236 0 1
-9.6174 6.2803 -6.1319 0.2172 0 1
-10.1410 6.0548 -6.3052 0.2118 0 1
-10.6684 5.8008 -6.4827 0.2019 0 1
-11.1859 5.5112 -6.6569 0.1971 0 1
-11.6850 5.1839 -6.8243 0.1922 0 1
-12.1638 4.8205 -6.9849 0.1878 0 1
-12.5740 4.4065 -7.1128 0.1816 0 24
-13.0463 3.9905 -7.2832 0.1779 0 1
-13.3832 3.5115 -7.3864 0.1754 0 24
-13.7760 3.0280 -7.5298 0.1732 0 1
-14.0661 2.5033 -7.6271 0.1710 0 1
-14.3016 1.9555 -7.7059 0.1691 0 1
-14.4780 1.3891 -7.7645 0.1679 0 1
-14.5941 0.8096 -7.8030 0.1658 0 1
-14.6480 0.2224 -7.8207 0.1654 0 1
-14.6391 -0.3669 -7.8174 0.1660 0 1
-14.5675 -0.9525 -7.7934 0.1665 0 1
-14.4337 -1.5289 -7.7485 0.1676 0 1
-14.2395 -2.0905 -7.6832 0.1692 0 1
-13.9872 -2.6321 -7.5980 0.1685 0 1
-13.6844 -3.1499 -7.4964 0.1708 0 1
-13.2873 -3.6270 -7.3528 0.1742 0 24
-12.9381 -4.0976 -7.2450 0.1776 0 1
-12.4979 -4.5189 -7.0946 0.1804 0 1
-12.0313 -4.9060 -6.9363 0.1901 0 1
-11.4935 -5.2354 -6.7423 0.1898 0 24
-11.0384 -5.5747 -6.6017 0.1991 0 1
-10.5171 -5.8538 -6.4256 0.2045 0 1
-9.9897 -6.0991 -6.2483 0.2164 0 1
-9.4701 -6.3184 -6.0775 0.2225 0 1
-8.9490 -6.5057 -5.9064 0.2289 0 1
-8.4296 -6.6625 -5.7360 0.2357 0 1
-7.9149 -6.7905 -5.5673 0.2429 0 1
-7.4034 -6.8876 -5.3981 0.2477 0 1
-6.9009 -6.9585 -5.2318 0.2556 0 1
-6.4112 -7.0073 -5.0703 0.2657 0 1
-5.9346 -7.0348 -4.9134 0.2742 0 1
-5.4712 -7.0418 -4.7605 0.2810 0 1
-5.0207 -7.0283 -4.6110 0.2901 0 1
-4.5859 -6.9986 -4.4668 0.2994 0 1
-4.1680 -6.9560 -4.3290 0.3115 0 1
-3.7662 -6.9007 -4.1969 0.3214 0 1
-3.3802 -6.8337 -4.0700 0.3314 0 1
-3.0082 -6.7523 -3.9462 0.3393 0 1
-2.6520 -6.6614 -3.8276 0.3498 0 1
-2.3120 -6.5644 -3.7154 0.3635 0 1
-1.9806 -6.4391 -3.5964 0.3732 0 24
-1.6769 -6.3506 -3.5064 0.3851 0 1
-1.3807 -6.2350 -3.4091 0.3961 0 1
-1.0981 -6.1146 -3.3164 0.4072 0 1
-0.8283 -5.9878 -3.2270 0.4172 0 1
-0.5713 -5.8574 -3.1418 0.4270 0 1
-0.3265 -5.7238 -3.0606 0.4383 0 1
-0.0934 -5.5767 -2.9775 0.4519 0 24
0.1280 -5.4496 -2.9101 0.4610 0 1
0.3388 -5.3098 -2.8404 0.4723 0 1
0.5393 -5.1686 -2.7742 0.4838 0 1
0.7299 -5.0264 -2.7114 0.4950 0 1
0.9110 -4.8832 -2.6518 0.5061 0 1
1.0831 -4.7393 -2.5953 0.5171 0 1
1.2463 -4.5942 -2.5412 0.5283 0 1
1.4011 -4.4482 -2.4897 0.5393 0 1
1.5480 -4.3022 -2.4408 0.5500 0 1
1.6849 -4.1505 -2.3913 0.5416 0 1
1.8076 -3.9850 -2.3360 0.5711 0 24
1.9303 -3.8371 -2.2930 0.5821 0 24
2.0498 -3.6963 -2.2564 0.5977 0 1
2.1597 -3.5498 -2.2182 0.6080 0 1
2.2635 -3.4041 -2.1823 0.6180 0 1
2.3614 -3.2590 -2.1485 0.6277 0 1
2.4538 -3.1146 -2.1167 0.6371 0 1
2.5407 -2.9709 -2.0869 0.6462 0 1
2.6225 -2.8278 -2.0589 0.6550 0 1
2.6993 -2.6853 -2.0326 0.6597 0 1
2.7710 -2.5433 -2.0079 0.6678 0 1
2.8381 -2.4019 -1.9849 0.6755 0 1
2.9008 -2.2611 -1.9634 0.6829 0 1
2.9592 -2.1210 -1.9436 0.6946 0 1
3.0149 -1.9823 -1.9262 0.7008 0 1
3.0666 -1.8440 -1.9102 0.7067 0 1
3.1143 -1.7060 -1.8957 0.7121 0 1
3.1583 -1.5684 -1.8825 0.7171 0 1
3.1985 -1.4310 -1.8706 0.7217 0 1
3.2351 -1.2938 -1.8600 0.7258 0 1
3.2681 -1.1568 -1.8507 0.7294 0 1
3.2976 -1.0200 -1.8427 0.7326 0 1
3.3236 -0.8832 -1.8359 0.7353 0 1
3.3463 -0.7465 -1.8303 0.7376 0 1
3.3656 -0.6098 -1.8259 0.7393 0 1
3.3816 -0.4732 -1.8228 0.7326 0 1
3.3945 -0.3364 -1.8210 0.7333 0 1
3.4040 -0.1995 -1.8203 0.7336 0 1
3.4101 -0.0625 -1.8208 0.7334 0 1
3.4134 0.0749 -1.8227 0.7210 0 1
3.4120 0.2124 -1.8250 0.7201 0 1
3.4071 0.3501 -1.8284 0.7187 0 1
3.3988 0.4881 -1.8330 0.7169 0 1
3.3870 0.6264 -1.8388 0.7147 0 1
3.3716 0.7650 -1.8457 0.7120 0 1
3.3527 0.9039 -1.8537 0.7089 0 1
3.3304 1.0433 -1.8631 0.7174 0 1
3.3047 1.1832 -1.8739 0.7133 0 1
3.2754 1.3236 -1.8859 0.7087 0 1
3.2422 1.4646 -1.8992 0.7038 0 1
3.2053 1.6062 -1.9139 0.6984 0 1
3.1644 1.7483 -1.9300 0.6926 0 1
3.1195 1.8912 -1.9474 0.6863 0 1
3.0693 2.0340 -1.9657 0.6798 0 1
3.0140 2.1768 -1.9848 0.6733 0 1
2.9561 2.3214 -2.0065 0.6595 0 1
2.8936 2.4668 -2.0299 0.6519 0 1
2.8263 2.6129 -2.0548 0.6440 0 1
2.7541 2.7598 -2.0814 0.6358 0 1
2.6769 2.9074 -2.1098 0.6273 0 1
2.5943 3.0558 -2.1399 0.6184 0 1
2.5062 3.2049 -2.1719 0.6093 0 1
2.4124 3.3547 -2.2059 0.5999 0 1
2.3120 3.5045 -2.2413 0.5951 0 1
2.2039 3.6522 -2.2772 0.5858 0 1
2.0895 3.8002 -2.3152 0.5762 0 1
1.9565 3.9245 -2.3410 0.5680 0 24
1.8300 4.0733 -2.3839 0.5578 0 24
1.7055 4.2451 -2.4423 0.5462 0 1
1.5629 4.3935 -2.4894 0.5358 0 1
1.4061 4.5210 -2.5275 0.5261 0 24
1.2539 4.6892 -2.5912 0.5157 0 1
1.0868 4.8360 -2.6461 0.5051 0 1
0.9110 4.9831 -2.7043 0.4944 0 1
0.7260 5.1299 -2.7658 0.4834 0 1
0.5312 5.2756 -2.8306 0.4723 0 1
0.3262 5.4201 -2.8987 0.4612 0 1
0.1106 5.5630 -2.9703 0.4501 0 1
-0.1160 5.6969 -3.0419 0.4367 0 24
-0.3544 5.8417 -3.1243 0.4287 0 1
-0.6037 5.9670 -3.2017 0.4193 0 24
-0.8675 6.1088 -3.2939 0.4067 0 1
-1.1433 6.2368 -3.3850 0.3957 0 1
-1.4321 6.3582 -3.4793 0.3862 0 1
-1.7342 6.4725 -3.5772 0.3780 0 1
-2.0499 6.5796 -3.6790 0.3675 0 1
-2.3798 6.6797 -3.7854 0.3572 0 1
-2.7242 6.7716 -3.8966 0.3470 0 1
-3.0835 6.8546 -4.0125 0.3367 0 1
-3.4577 6.9273 -4.1332 0.3271 0 1
-3.8468 6.9883 -4.2585 0.3175 0 1
-4.2508 7.0365 -4.3887 0.3081 0 1
-4.6697 7.0707 -4.5236 0.2989 0 1
-5.1031 7.0894 -4.6631 0.2899 0 1
-5.5511 7.0917 -4.8078 0.2783 0 1
-6.0113 7.0737 -4.9557 0.2724 0 1
-6.4825 7.0340 -5.1065 0.2643 0 1
-6.9644 6.9720 -5.2608 0.2566 0 1
-7.4554 6.8858 -5.4178 0.2491 0 1
-7.9552 6.7753 -5.5784 0.2387 0 1
-8.4774 6.6507 -5.7521 0.2315 0 1
-9.0049 6.4968 -5.9277 0.2246 0 1
-9.5348 6.3120 -6.1044 0.2181 0 1
-10.0598 6.0921 -6.2784 0.2127 0 1
-10.5868 5.8426 -6.4552 0.2027 0 1
-11.1063 5.5587 -6.6302 0.1974 0 1
-11.5549 5.2130 -6.7672 0.1905 0 24
-12.0909 4.8794 -6.9604 0.1885 0 1
-12.5506 4.4868 -7.1153 0.1819 0 1
-12.9822 4.0600 -7.2615 0.1784 0 1
-13.3775 3.5997 -7.3955 0.1752 0 1
-13.7264 3.1074 -7.5132 0.1736 0 1
-14.0243 2.5866 -7.6131 0.1713 0 1
-14.2689 2.0422 -7.6950 0.1694 0 1
-14.4544 1.4783 -7.7567 0.1680 0 1
-14.5801 0.9005 -7.7983 0.1659 0 1
-14.5904 0.3129 -7.7908 0.1658 0 24
-14.6446 -0.2752 -7.8193 0.1660 0 1
-14.5828 -0.8618 -7.7985 0.1664 0 1
-14.4586 -1.4400 -7.7568 0.1674 0 1
-14.2741 -2.0043 -7.6949 0.1688 0 1
-14.0297 -2.5492 -7.6123 0.1682 0 1
-13.7348 -3.0710 -7.5133 0.1704 0 1
-13.3450 -3.5531 -7.3723 0.1738 0 24
-13.0031 -4.0287 -7.2672 0.1770 0 1
-12.5691 -4.4559 -7.1191 0.1798 0 1
-12.1048 -4.8478 -6.9610 0.1894 0 1
-11.6232 -5.2068 -6.7991 0.1940 0 1
-11.1186 -5.5280 -6.6287 0.1982 0 1
-10.5989 -5.8127 -6.4532 0.2036 0 1
-10.0703 -6.0620 -6.2748 0.2097 0 1
-9.5170 -6.2639 -6.0823 0.2224 0 24
-9.0301 -6.4786 -5.9330 0.2279 0 1
-8.5102 -6.6401 -5.7624 0.2347 0 1
-7.9947 -6.7724 -5.5934 0.2418 0 1
-7.4826 -6.8743 -5.4244 0.2465 0 1
-6.9785 -6.9491 -5.2574 0.2543 0 1
-6.4866 -7.0011 -5.0951 0.2644 0 1
-6.0079 -7.0319 -4.9375 0.2728 0 1
-5.5427 -7.0424 -4.7843 0.2796 0 1
-5.0898 -7.0315 -4.6340 0.2886 0 1
-4.6525 -7.0042 -4.4889 0.2980 0 1
-4.2320 -6.9635 -4.3501 0.3100 0 1
-3.8163 -6.8895 -4.2045 0.3192 0 24
-3.4393 -6.8448 -4.0894 0.3298 0 1
-3.0651 -6.7657 -3.9652 0.3377 0 1
-2.7064 -6.6761 -3.8457 0.3482 0 1
-2.3639 -6.5799 -3.7325 0.3618 0 1
-2.0368 -6.4772 -3.6248 0.3725 0 1
-1.7243 -6.3681 -3.5220 0.3834 0 1
-1.4259 -6.2533 -3.4240 0.3944 0 1
-1.1412 -6.1336 -3.3306 0.4054 0 1
-0.8694 -6.0078 -3.2406 0.4155 0 1
-0.6105 -5.8780 -3.1548 0.4252 0 1
-0.3638 -5.7448 -3.0730 0.4366 0 1
-0.1291 -5.6091 -2.9952 0.4479 0 1
0.0943 -5.4713 -2.9212 0.4592 0 1
0.3067 -5.3317 -2.8510 0.4706 0 1
0.5087 -5.1907 -2.7843 0.4820 0 1
0.7008 -5.0486 -2.7210 0.4932 0 1
0.8834 -4.9055 -2.6609 0.5044 0 1
1.0569 -4.7618 -2.6039 0.5154 0 1
1.2215 -4.6169 -2.5495 0.5266 0 1
1.3776 -4.4710 -2.4975 0.5376 0 1
1.5256 -4.3249 -2.4483 0.5484 0 1
1.6643 -4.1747 -2.3992 0.5399 0 1
1.7879 -4.0080 -2.3429 0.5687 0 24
1.9117 -3.8601 -2.2996 0.5804 0 24
2.0321 -3.7192 -2.2625 0.5961 0 1
2.1430 -3.5726 -2.2240 0.6064 0 1
2.2477 -3.4267 -2.1878 0.6164 0 1
2.3465 -3.2815 -2.1536 0.6262 0 1
2.4397 -3.1370 -2.1215 0.6357 0 1
2.5275 -2.9932 -2.0914 0.6448 0 1
2.6101 -2.8500 -2.0631 0.6537 0 1
2.6877 -2.7075 -2.0366 0.6584 0 1
2.7602 -2.5654 -2.0116 0.6665 0 1
2.8280 -2.4239 -1.9883 0.6744 0 1
2.8913 -2.2830 -1.9667 0.6818 0 1
2.9503 -2.1427 -1.9465 0.6888 0 1
3.3502 0.3655 -1.8473 0.7385 0 1
3.3414 0.5012 -1.8522 0.7366 0 1
3.3293 0.6373 -1.8582 0.7342 0 1
3.3138 0.7737 -1.8653 0.7314 0 1
3.2947 0.9105 -1.8737 0.7281 0 1
3.2722 1.0476 -1.8834 0.7244 0 1
3.2460 1.1852 -1.8943 0.7202 0 1
3.2162 1.3232 -1.9064 0.7156 0 1
3.1827 1.4618 -1.9199 0.7106 0 1
3.1453 1.6009 -1.9346 0.7052 0 1
3.1041 1.7405 -1.9508 0.6993 0 1
3.0588 1.8807 -1.9683 0.6931 0 1
3.0080 2.0206 -1.9863 0.6867 0 1
2.9524 2.1605 -2.0055 0.6801 0 1
2.8940 2.3021 -2.0271 0.6663 0 1
2.8313 2.4445 -2.0505 0.6587 0 1
2.7639 2.5875 -2.0754 0.6508 0 1
2.6916 2.7312 -2.1020 0.6426 0 1
2.6143 2.8754 -2.1303 0.6341 0 1
2.5318 3.0203 -2.1604 0.6252 0 1
2.4438 3.1658 -2.1923 0.6161 0 1
2.3502 3.3118 -2.2261 0.6068 0 1
2.2501 3.4575 -2.2613 0.6021 0 1
2.1425 3.6012 -2.2970 0.5927 0 1
2.0160 3.7216 -2.3202 0.5850 0 24
1.9084 3.8888 -2.3746 0.5734 0 1
1.7715 4.0101 -2.4032 0.5648 0 24
1.6474 4.1761 -2.4609 0.5533 0 1
1.5061 4.3194 -2.5076 0.5430 0 1
1.3513 4.4427 -2.5455 0.5332 0 24
1.2004 4.6044 -2.6084 0.5225 0 1
1.0353 4.7455 -2.6625 0.5123 0 1
0.8618 4.8870 -2.7202 0.5017 0 1
0.6794 5.0274 -2.7809 0.4907 0 1
0.4875 5.1665 -2.8447 0.4797 0 1
0.2859 5.3039 -2.9117 0.4687 0 1
0.0741 5.4395 -2.9820 0.4576 0 1
-0.1482 5.5654 -3.0519 0.4442 0 24
-0.3819 5.7027 -3.1330 0.4364 0 1
-0.6267 5.8295 -3.2140 0.4254 0 1
-0.8812 5.9379 -3.2906 0.4159 0 24
-1.1524 6.0714 -3.3876 0.4036 0 1
-1.4335 6.1833 -3.4794 0.3942 0 1
-1.7272 6.2887 -3.5749 0.3860 0 1
-2.0334 6.3858 -3.6737 0.3757 0 1
-2.3529 6.4755 -3.7767 0.3654 0 1
-2.6857 6.5569 -3.8841 0.3553 0 1
-3.0320 6.6289 -3.9958 0.3454 0 1
-3.3920 6.6905 -4.1119 0.3356 0 1
-3.7656 6.7404 -4.2324 0.3274 0 1
-4.1523 6.7771 -4.3568 0.3180 0 1
-4.5522 6.7998 -4.4856 0.3089 0 1
-4.9649 6.8071 -4.6185 0.3000 0 1
-5.3898 6.7974 -4.7554 0.2914 0 1
-5.8261 6.7693 -4.8958 0.2866 0 1
-6.2717 6.7202 -5.0388 0.2785 0 1
-6.7264 6.6499 -5.1849 0.2706 0 1
-7.1888 6.5566 -5.3335 0.2631 0 1
-7.6571 6.4390 -5.4842 0.2559 0 1
-8.1357 6.3007 -5.6407 0.2410 0 1
-8.6247 6.1407 -5.8037 0.2342 0 1
-9.0700 5.9229 -5.9381 0.2283 0 24
-9.5971 5.7301 -6.1272 0.2225 0 1
-10.0718 5.4764 -6.2844 0.2169 0 1
-10.5434 5.1946 -6.4429 0.2073 0 1
-10.9992 4.8796 -6.5961 0.2030 0 1
-11.4341 4.5313 -6.7421 0.1986 0 1
-11.8471 4.1518 -6.8815 0.1953 0 1
-12.2260 3.7396 -7.0084 0.1930 0 1
-12.5735 3.2991 -7.1257 0.1856 0 1
-12.8841 2.8320 -7.2313 0.1829 0 1
-13.0979 2.3310 -7.2927 0.1819 0 24
-13.3552 1.8261 -7.3890 0.1800 0 1
-13.5133 1.2965 -7.4416 0.1787 0 1
-13.6170 0.7554 -7.4759 0.1780 0 1
-13.6649 0.2074 -7.4915 0.1776 0 1
-13.6557 -0.3422 -7.4880 0.1777 0 1
-13.5903 -0.8886 -7.4657 0.1775 0 1
-13.4216 -1.4217 -7.3984 0.1792 0 24
-13.2974 -1.9522 -7.3674 0.1799 0 1
-13.0701 -2.4595 -7.2904 0.1820 0 1
-12.7955 -2.9453 -7.1975 0.1843 0 1
-12.4780 -3.4061 -7.0903 0.1871 0 1
-12.1240 -3.8398 -6.9713 0.1924 0 1
-11.7356 -4.2433 -6.8407 0.1968 0 1
-11.3176 -4.6150 -6.6999 0.2009 0 1
-10.8752 -4.9537 -6.5508 0.2048 0 1
-10.4116 -5.2581 -6.3939 0.2098 0 1
-9.9384 -5.5317 -6.2349 0.2216 0 1
-9.4648 -5.7786 -6.0788 0.2273 0 1
-8.9850 -5.9948 -5.9209 0.2334 0 1
-8.5028 -6.1814 -5.7625 0.2395 0 1
-8.0209 -6.3395 -5.6043 0.2463 0 1
-7.5392 -6.4681 -5.4453 0.2506 0 1
-7.0619 -6.5699 -5.2873 0.2600 0 1
-6.5933 -6.6483 -5.1327 0.2679 0 1
-6.1341 -6.7044 -4.9812 0.2760 0 1
-5.6857 -6.7397 -4.8336 0.2845 0 1
-5.2472 -6.7536 -4.6882 0.2912 0 1
-4.8214 -6.7493 -4.5468 0.3003 0 1
-4.4103 -6.7307 -4.4111 0.3121 0 1
-4.0134 -6.6981 -4.2803 0.3216 0 1
-3.6306 -6.6524 -4.1543 0.3314 0 1
-3.2616 -6.5940 -4.0326 0.3389 0 1
-2.9056 -6.5220 -3.9139 0.3492 0 1
-2.5647 -6.4421 -3.8009 0.3626 0 1
-2.2382 -6.3548 -3.6932 0.3732 0 1
-1.9189 -6.2387 -3.5780 0.3831 0 24
-1.6263 -6.1588 -3.4918 0.3947 0 1
-1.3401 -6.0518 -3.3978 0.4057 0 1
-1.0666 -5.9394 -3.3079 0.4154 0 1
-0.8051 -5.8204 -3.2210 0.4251 0 1
-0.5557 -5.6976 -3.1381 0.4364 0 1
-0.3172 -5.5600 -3.0528 0.4505 0 24
-0.0910 -5.4328 -2.9785 0.4613 0 24
0.1248 -5.3117 -2.9125 0.4701 0 1
0.3305 -5.1785 -2.8445 0.4814 0 1
0.5263 -5.0438 -2.7798 0.4928 0 1
0.7126 -4.9076 -2.7184 0.5039 0 1
0.8899 -4.7703 -2.6601 0.5150 0 1
1.0586 -4.6321 -2.6046 0.5259 0 1
1.2188 -4.4925 -2.5517 0.5370 0 1
1.3707 -4.3517 -2.5010 0.5479 0 1
1.5150 -4.2107 -2.4530 0.5586 0 1
1.6487 -4.0614 -2.4028 0.5502 0 1
1.7708 -3.9036 -2.3497 0.5797 0 24
1.8952 -3.7673 -2.3117 0.5955 0 1
2.0060 -3.6173 -2.2674 0.6017 0 24
2.1183 -3.4818 -2.2341 0.6161 0 1
2.2208 -3.3399 -2.1986 0.6261 0 1
2.3176 -3.1984 -2.1652 0.6358 0 1
2.4089 -3.0576 -2.1337 0.6451 0 1
2.4949 -2.9172 -2.1042 0.6542 0 1
2.5757 -2.7774 -2.0764 0.6591 0 1
2.6515 -2.6378 -2.0502 0.6675 0 1
2.7226 -2.4988 -2.0257 0.6756 0 1
2.7891 -2.3603 -2.0029 0.6833 0 1
2.8511 -2.2224 -1.9816 0.6907 0 1
2.9094 -2.0853 -1.9622 0.7022 0 1
2.9646 -1.9492 -1.9449 0.7085 0 1
3.0158 -1.8135 -1.9290 0.7143 0 1
3.0632 -1.6780 -1.9146 0.7197 0 1
3.1068 -1.5428 -1.9015 0.7247 0 1
3.1466 -1.4078 -1.8896 0.7292 0 1
3.1829 -1.2729 -1.8791 0.7333 0 1
3.2157 -1.1382 -1.8699 0.7369 0 1
3.2449 -1.0037 -1.8619 0.7401 0 1
3.2707 -0.8691 -1.8551 0.7428 0 1
3.2932 -0.7347 -1.8496 0.7450 0 1
3.3123 -0.6002 -1.8453 0.7467 0 1
3.3281 -0.4657 -1.8421 0.7480 0 1
3.3405 -0.3311 -1.8401 0.7488 0 1
3.3497 -0.1963 -1.8394 0.7491 0 1
3.3556 -0.0615 -1.8398 0.7490 0 1
3.3575 0.0736 -1.8409 0.7411 0 1
3.3560 0.2089 -1.8432 0.7402 0 1
3.3512 0.3444 -1.8467 0.7388 0 1
3.3430 0.4801 -1.8513 0.7369 0 1
3.3314 0.6161 -1.8571 0.7346 0 1
3.3164 0.7524 -1.8641 0.7319 0 1
3.2979 0.8891 -1.8724 0.7286 0 1
3.2759 1.0262 -1.8818 0.7250 0 1
3.2503 1.1637 -1.8925 0.7209 0 1
3.2211 1.3017 -1.9044 0.7164 0 1
3.1881 1.4402 -1.9177 0.7114 0 1
3.1514 1.5792 -1.9323 0.7061 0 1
3.1108 1.7187 -1.9482 0.7003 0 1
3.0661 1.8588 -1.9655 0.6941 0 1
3.0162 1.9988 -1.9835 0.6877 0 1
2.9614 2.1387 -2.0024 0.6812 0 1
2.9034 2.2800 -2.0236 0.6675 0 1
2.8414 2.4223 -2.0467 0.6599 0 1
2.7747 2.5652 -2.0714 0.6521 0 1
2.7032 2.7088 -2.0978 0.6439 0 1
2.6267 2.8529 -2.1258 0.6354 0 1
2.5450 2.9977 -2.1556 0.6266 0 1
2.4579 3.1431 -2.1872 0.6176 0 1
2.3652 3.2891 -2.2207 0.6082 0 1
2.2663 3.4351 -2.2559 0.6035 0 1
2.1596 3.5788 -2.2913 0.5942 0 1
2.0468 3.7226 -2.3287 0.5847 0 1
1.9161 3.8434 -2.3541 0.5766 0 24
1.7915 3.9877 -2.3964 0.5664 0 24
1.6687 4.1538 -2.4538 0.5548 0 1
1.5286 4.2971 -2.5001 0.5446 0 1
1.3748 4.4203 -2.5375 0.5349 0 24
1.2254 4.5823 -2.6002 0.5242 0 1
1.0616 4.7236 -2.6539 0.5140 0 1
0.8894 4.8650 -2.7111 0.5034 0 1
0.7084 5.0056 -2.7713 0.4924 0 1
0.5180 5.1449 -2.8345 0.4814 0 1
0.3179 5.2827 -2.9010 0.4704 0 1
0.1077 5.4185 -2.9709 0.4593 0 1
-0.1129 5.5446 -3.0400 0.4459 0 24
-0.3448 5.6827 -3.1208 0.4381 0 1
-0.5878 5.8100 -3.2011 0.4271 0 1
-0.8407 5.9197 -3.2776 0.4176 0 24
-1.1097 6.0532 -3.3735 0.4053 0 1
-1.3889 6.1663 -3.4648 0.3958 0 1
-1.6806 6.2728 -3.5598 0.3853 0 1
-1.9849 6.3712 -3.6580 0.3773 0 1
-2.3023 6.4621 -3.7604 0.3670 0 1
-2.6330 6.5448 -3.8671 0.3569 0 1
-2.9772 6.6183 -3.9781 0.3469 0 1
-3.3351 6.6816 -4.0936 0.3371 0 1
-3.7065 6.7335 -4.2134 0.3289 0 1
-4.0912 6.7723 -4.3372 0.3195 0 1
-4.4891 6.7972 -4.4653 0.3103 0 1
-4.8999 6.8070 -4.5976 0.3014 0 1
-5.3229 6.8001 -4.7338 0.2927 0 1
-5.7576 6.7752 -4.8738 0.2879 0 1
-6.2016 6.7292 -5.0164 0.2797 0 1
-6.6550 6.6623 -5.1620 0.2718 0 1
-7.1164 6.5727 -5.3102 0.2643 0 1
-7.5838 6.4590 -5.4606 0.2570 0 1
-8.0598 6.3230 -5.6155 0.2420 0 1
-8.5484 6.1675 -5.7783 0.2352 0 1
-8.9942 5.9541 -5.9128 0.2292 0 24
-9.5225 5.7667 -6.1025 0.2234 0 1
-9.9986 5.5180 -6.2602 0.2177 0 1
-10.4706 5.2405 -6.4184 0.2081 0 1
-10.9296 4.9309 -6.5728 0.2037 0 1
-11.3679 4.5877 -6.7198 0.1993 0 1
-11.7845 4.2129 -6.8603 0.1959 0 1
-12.1695 3.8058 -6.9895 0.1935 0 1
-12.5214 3.3694 -7.1080 0.1861 0 1
-12.8385 2.9064 -7.2158 0.1833 0 1
-13.0606 2.4089 -7.2802 0.1822 0 24
-13.3259 1.9072 -7.3793 0.1803 0 1
-13.4432 1.3748 -7.4075 0.1789 0 24
-13.6045 0.8402 -7.4718 0.1780 0 1
-13.6611 0.2930 -7.4903 0.1776 0 1
-13.6609 -0.2568 -7.4898 0.1776 0 1
-13.6039 -0.8040 -7.4703 0.1781 0 1
-13.4929 -1.3438 -7.4330 0.1783 0 1
-13.3278 -1.8714 -7.3776 0.1797 0 1
-13.1088 -2.3819 -7.3035 0.1816 0 1
-12.8412 -2.8712 -7.2130 0.1839 0 1
-12.5301 -3.3361 -7.1079 0.1866 0 1
-12.1811 -3.7741 -6.9905 0.1919 0 1
-11.7983 -4.1826 -6.8618 0.1962 0 1
-11.3843 -4.5592 -6.7224 0.2002 0 1
-10.9459 -4.9034 -6.5747 0.2040 0 1
-10.4848 -5.2129 -6.4186 0.2090 0 1
-10.0113 -5.4904 -6.2590 0.2208 0 1
-9.5066 -5.7227 -6.0826 0.2265 0 24
-9.0600 -5.9631 -5.9456 0.2324 0 1
-8.5779 -6.1542 -5.7872 0.2385 0 1
-8.0958 -6.3167 -5.6289 0.2452 0 1
-7.6142 -6.4500 -5.4701 0.2495 0 1
-7.1357 -6.5556 -5.3117 0.2588 0 1
-6.6657 -6.6376 -5.1565 0.2666 0 1
-6.2049 -6.6970 -5.0046 0.2747 0 1
-5.7350 -6.7125 -4.8397 0.2822 0 24
-5.3148 -6.7527 -4.7106 0.2898 0 1
