ply
format ascii 1.0
element vertex 1374
property float32 x
property float32 y
property float32 z
property float32 CosAngle
property uint32 ObjIdx
property uint32 ObjTag
end_header
-21.8435 22.4277 -10.1340 0.0810 0 2
-22.3925 21.2133 -9.9844 0.7901 0 5
-22.4566 19.6220 -9.6531 0.7309 0 5
-22.5403 18.1495 -9.3674 0.7768 0 5
-22.6493 16.7817 -9.1246 0.7615 0 5
-32.3928 22.0399 -12.6823 0.8401 0 3
-28.5351 17.7797 -10.8829 0.5089 0 3
-32.5555 18.5101 -12.1223 0.8789 0 3
-37.4303 19.3327 -13.6367 0.8964 0 3
-29.3831 13.7087 -10.4954 0.4956 0 5
-32.7129 13.6884 -11.4786 0.3824 0 5
-41.9707 13.7153 -14.2927 0.2207 0 5
-24.9021 -17.3833 -9.8304 0.8412 0 20
-36.6019 -27.8051 -14.8788 0.8441 0 9
-30.5293 -25.1910 -12.8120 0.7756 0 9
-27.7934 -24.8786 -12.0744 0.5220 0 9
-24.2771 -23.5570 -10.9498 0.0750 0 2
-20.8997 -21.9794 -9.8176 0.0836 0 2
-18.1849 -20.7340 -8.9271 0.9667 0 2
-16.0365 -19.8405 -8.2578 0.0726 0 1
-13.6689 -18.3766 -7.4135 0.1127 0 1
-11.8928 -17.4096 -6.8248 0.1201 0 1
-10.3277 -16.5067 -6.3028 0.1323 0 1
-8.9600 -15.6908 -5.8488 0.1432 0 1
-7.7476 -14.9320 -5.4453 0.1534 0 1
-6.6742 -14.2364 -5.0895 0.1682 0 1
-5.7250 -13.6106 -4.7796 0.1852 0 1
-4.8603 -12.9939 -4.4907 0.1942 0 24
-4.1077 -12.4915 -4.2565 0.2093 0 1
-3.4120 -11.9794 -4.0319 0.2187 0 1
-2.7805 -11.4994 -3.8296 0.2316 0 1
-2.2036 -11.0399 -3.6441 0.2379 0 1
-1.6741 -10.5899 -3.4705 0.2498 0 1
-1.1898 -10.1619 -3.3118 0.2617 0 1
-0.7456 -9.7496 -3.1651 0.2742 0 1
-0.3379 -9.3552 -3.0302 0.2864 0 1
0.0371 -8.9782 -2.9062 0.2986 0 1
0.3825 -8.6172 -2.7921 0.3108 0 1
0.7013 -8.2708 -2.6868 0.3229 0 1
0.9960 -7.9379 -2.5896 0.3351 0 1
1.2692 -7.6198 -2.5005 0.3522 0 1
1.5224 -7.3120 -2.4176 0.3643 0 1
1.7576 -7.0148 -2.3408 0.3763 0 1
1.9703 -6.7070 -2.2628 0.3861 0 24
2.1795 -6.4478 -2.2031 0.3987 0 1
2.3685 -6.1762 -2.1412 0.4103 0 1
2.5446 -5.9125 -2.0836 0.4216 0 1
2.7088 -5.6560 -2.0300 0.4325 0 1
2.8619 -5.4061 -1.9800 0.4434 0 1
3.0014 -5.1567 -1.9314 0.4385 0 1
3.1244 -4.9031 -1.8820 0.4501 0 1
3.2381 -4.6571 -1.8361 0.4613 0 1
3.3432 -4.4180 -1.7934 0.4723 0 1
3.4418 -4.1870 -1.7544 0.4757 0 1
3.5339 -3.9627 -1.7187 0.4856 0 1
3.6244 -3.7491 -1.6879 0.5145 0 1
3.7110 -3.5419 -1.6605 0.5230 0 1
3.7916 -3.3380 -1.6352 0.5311 0 1
3.8665 -3.1371 -1.6117 0.5388 0 1
3.9361 -2.9391 -1.5901 0.5461 0 1
4.0005 -2.7437 -1.5702 0.5530 0 1
4.0606 -2.5511 -1.5523 0.5595 0 1
4.1164 -2.3608 -1.5360 0.5654 0 1
4.1677 -2.1723 -1.5213 0.5710 0 1
4.2148 -1.9855 -1.5081 0.5760 0 1
4.2576 -1.8002 -1.4963 0.5805 0 1
4.2963 -1.6161 -1.4858 0.5846 0 1
4.3311 -1.4332 -1.4767 0.5882 0 1
4.3625 -1.2513 -1.4690 0.5944 0 1
4.3905 -1.0703 -1.4628 0.5970 0 1
4.4149 -0.8898 -1.4578 0.5990 0 1
4.4356 -0.7097 -1.4540 0.6006 0 1
4.4528 -0.5298 -1.4515 0.6016 0 1
3.9136 -0.3066 -1.2707 0.7757 25 14
3.9025 -0.1482 -1.2641 0.7797 25 14
3.8950 0.0088 -1.2608 0.7818 25 14
3.9004 0.1659 -1.2637 0.7800 25 14
3.9067 0.3239 -1.2689 0.7767 25 14
3.9140 0.4837 -1.2766 0.7721 25 14
3.9206 0.6455 -1.2862 0.7302 25 14
4.4848 0.9251 -1.4823 0.5885 0 1
4.4714 1.1115 -1.4914 0.5762 0 1
4.4507 1.2985 -1.5007 0.5726 0 1
4.4260 1.4869 -1.5114 0.5686 0 1
4.3972 1.6769 -1.5233 0.5641 0 1
4.3642 1.8687 -1.5367 0.5592 0 1
4.3268 2.0624 -1.5515 0.5539 0 1
4.2852 2.2583 -1.5679 0.5477 0 1
4.2389 2.4566 -1.5859 0.5415 0 1
4.1877 2.6576 -1.6055 0.5349 0 1
4.1315 2.8613 -1.6268 0.5279 0 1
4.0704 3.0683 -1.6500 0.5205 0 1
4.0038 3.2788 -1.6751 0.5127 0 1
3.9314 3.4928 -1.7023 0.5045 0 1
3.8528 3.7108 -1.7315 0.4960 0 1
3.7676 3.9329 -1.7629 0.4872 0 1
3.6755 4.1594 -1.7967 0.4780 0 1
3.5753 4.3899 -1.8326 0.4821 0 1
3.4635 4.6204 -1.8691 0.4706 0 1
3.3455 4.8585 -1.9094 0.4607 0 1
3.2184 5.1017 -1.9526 0.4472 0 1
3.0811 5.3493 -1.9982 0.4370 0 1
2.9337 5.6030 -2.0472 0.4265 0 1
2.7754 5.8632 -2.0998 0.4159 0 1
2.6054 6.1303 -2.1561 0.4053 0 1
2.4227 6.4044 -2.2164 0.3943 0 1
2.2254 6.6834 -2.2802 0.4059 0 1
2.0097 6.9578 -2.3443 0.3948 0 1
1.7790 7.2395 -2.4131 0.3835 0 1
1.5357 7.5471 -2.4930 0.3513 0 1
1.2765 7.8846 -2.5854 0.3387 0 1
0.9955 8.2367 -2.6856 0.3261 0 1
0.6889 8.5876 -2.7887 0.3134 0 1
0.3564 8.9453 -2.8979 0.3040 0 1
-0.0038 9.2987 -3.0100 0.3112 0 1
-0.3928 9.6612 -3.1299 0.2992 0 1
-0.8153 10.0601 -3.2671 0.2728 0 1
-1.2768 10.4922 -3.4213 0.2640 0 1
-1.7718 10.8874 -3.5706 0.2504 0 24
-2.3254 11.3807 -3.7600 0.2336 0 1
-2.9172 11.8290 -3.9437 0.2214 0 24
-3.5925 12.3991 -4.1786 0.2080 0 1
-4.3260 12.9569 -4.4217 0.1966 0 1
-5.1385 13.5500 -4.6909 0.1853 0 1
-6.0349 14.1672 -4.9846 0.1779 0 1
-7.0167 14.7917 -5.2994 0.1674 0 1
-8.0995 15.4385 -5.6433 0.1581 0 1
-9.3398 16.1849 -6.0487 0.1389 0 1
-10.7780 17.0538 -6.5303 0.1225 0 1
-12.4779 18.0892 -7.1133 0.1096 0 1
-14.4017 19.1793 -7.7637 0.1115 0 24
-16.7103 20.4832 -8.5568 0.6725 0 2
-18.3560 20.7384 -8.9648 0.0916 0 2
-21.2516 22.1472 -9.9355 0.0826 0 2
-24.6981 23.7487 -11.0910 0.0740 0 25
-22.4650 19.9260 -9.7201 0.7464 0 5
-22.5296 18.4189 -9.4197 0.7808 0 5
-22.6434 17.0398 -9.1731 0.8315 0 5
-32.3757 22.3825 -12.7404 0.8362 0 3
-28.0727 17.7829 -10.7568 0.5149 0 3
-32.5420 18.8242 -12.1691 0.8755 0 3
-33.7352 17.7434 -12.3382 0.4489 0 3
-37.2525 17.7188 -13.3530 0.4148 0 3
-32.0619 13.6972 -11.2857 0.4231 0 5
-40.9622 13.7239 -13.9837 0.3999 0 5
-25.0353 -17.2007 -9.8322 0.5331 0 20
-33.8833 -25.3445 -13.6966 0.4240 0 9
-31.9635 -25.9771 -13.3324 0.8331 0 9
-28.0888 -24.7690 -12.1223 0.8393 0 9
-24.9718 -23.8728 -11.1827 0.0734 0 2
-21.4800 -22.2558 -10.0121 0.0820 0 2
-18.5491 -20.8344 -9.0295 0.0909 0 2
-16.5923 -20.2185 -8.4663 0.0686 0 1
-14.0252 -18.5655 -7.5316 0.1109 0 1
-12.2072 -17.5874 -6.9299 0.1183 0 1
-10.6010 -16.6665 -6.3937 0.1305 0 1
-9.2001 -15.8364 -5.9284 0.1413 0 1
-7.9618 -15.0695 -5.5169 0.1530 0 1
-6.8634 -14.3609 -5.1522 0.1662 0 1
-5.8918 -13.7207 -4.8335 0.1831 0 1
-5.0245 -13.1343 -4.5520 0.1935 0 1
-4.2438 -12.5888 -4.3002 0.2072 0 1
-3.5359 -12.0728 -4.0721 0.2165 0 1
-2.8820 -11.5423 -3.8509 0.2279 0 24
-2.3070 -11.1257 -3.6779 0.2357 0 1
-1.7685 -10.6715 -3.5014 0.2476 0 1
-1.2762 -10.2395 -3.3401 0.2595 0 1
-0.8249 -9.8246 -3.1914 0.2719 0 1
-0.4107 -9.4268 -3.0543 0.2841 0 1
-0.0298 -9.0139 -2.9178 0.2920 0 24
0.3207 -8.6828 -2.8125 0.3085 0 1
0.6442 -8.3338 -2.7057 0.3207 0 1
0.9432 -7.9985 -2.6070 0.3328 0 1
1.2202 -7.6780 -2.5165 0.3500 0 1
1.4770 -7.3682 -2.4325 0.3621 0 1
1.7154 -7.0690 -2.3546 0.3741 0 1
1.9312 -6.7594 -2.2755 0.3845 0 24
2.1430 -6.4989 -2.2151 0.3966 0 1
2.3346 -6.2259 -2.1523 0.4082 0 1
2.5130 -5.9607 -2.0939 0.4195 0 1
2.6793 -5.7029 -2.0396 0.4307 0 1
2.8344 -5.4519 -1.9890 0.4414 0 1
2.9776 -5.2045 -1.9409 0.4364 0 1
3.1023 -4.9494 -1.8908 0.4479 0 1
3.2177 -4.7020 -1.8443 0.4592 0 1
3.3244 -4.4617 -1.8011 0.4703 0 1
3.4240 -4.2290 -1.7613 0.4738 0 1
3.5174 -4.0038 -1.7251 0.4837 0 1
3.6077 -3.7878 -1.6932 0.5129 0 1
3.6954 -3.5799 -1.6654 0.5214 0 1
3.7771 -3.3754 -1.6397 0.5296 0 1
3.8531 -3.1741 -1.6159 0.5374 0 1
3.9236 -2.9756 -1.5940 0.5448 0 1
3.9889 -2.7797 -1.5738 0.5518 0 1
4.0498 -2.5865 -1.5555 0.5584 0 1
4.1065 -2.3958 -1.5389 0.5644 0 1
4.1586 -2.2070 -1.5239 0.5700 0 1
4.2064 -2.0200 -1.5104 0.5751 0 1
4.2500 -1.8344 -1.4984 0.5797 0 1
4.2895 -1.6501 -1.4877 0.5839 0 1
4.3250 -1.4670 -1.4783 0.5876 0 1
4.3569 -1.2849 -1.4703 0.5939 0 1
4.3856 -1.1037 -1.4639 0.5965 0 1
4.4106 -0.9231 -1.4586 0.5987 0 1
4.4320 -0.7429 -1.4546 0.6003 0 1
4.4499 -0.5630 -1.4519 0.6015 0 1
3.9157 -0.3361 -1.2722 0.7748 25 14
3.9045 -0.1774 -1.2652 0.7791 25 14
3.8942 -0.0201 -1.2606 0.7819 25 14
3.8993 0.1368 -1.2630 0.7804 25 14
3.9055 0.2946 -1.2678 0.7775 25 14
3.9126 0.4540 -1.2750 0.7731 25 14
3.9196 0.6154 -1.2843 0.7313 25 14
3.9302 0.7802 -1.2970 0.7156 25 14
4.4748 1.0771 -1.4898 0.5768 0 1
4.4548 1.2638 -1.4989 0.5733 0 1
4.4309 1.4519 -1.5093 0.5694 0 1
4.4028 1.6416 -1.5210 0.5650 0 1
4.3706 1.8330 -1.5341 0.5602 0 1
4.3341 2.0264 -1.5487 0.5549 0 1
4.2932 2.2219 -1.5648 0.5488 0 1
4.2478 2.4198 -1.5824 0.5427 0 1
4.1976 2.6202 -1.6017 0.5362 0 1
4.1423 2.8234 -1.6227 0.5293 0 1
4.0821 3.0297 -1.6455 0.5219 0 1
4.0166 3.2396 -1.6703 0.5142 0 1
3.9452 3.4530 -1.6971 0.5061 0 1
3.8678 3.6701 -1.7259 0.4976 0 1
3.7839 3.8915 -1.7570 0.4888 0 1
3.6931 4.1172 -1.7903 0.4797 0 1
3.5950 4.3476 -1.8261 0.4703 0 1
3.4844 4.5769 -1.8620 0.4724 0 1
3.3680 4.8140 -1.9018 0.4625 0 1
3.2428 5.0566 -1.9444 0.4491 0 1
3.1072 5.3031 -1.9895 0.4389 0 1
2.9617 5.5556 -2.0379 0.4285 0 1
2.8056 5.8146 -2.0898 0.4178 0 1
2.6378 6.0804 -2.1454 0.4073 0 1
2.4575 6.3531 -2.2050 0.3963 0 1
2.2637 6.6335 -2.2688 0.4079 0 1
-2.3212 10.9444 -3.7589 0.2417 0 1
-2.8886 11.3492 -3.9347 0.2301 0 24
-3.5322 11.8602 -4.1578 0.2162 0 1
-4.2287 12.3583 -4.3885 0.2048 0 1
-4.9763 12.8333 -4.6246 0.1925 0 24
-5.8380 13.4269 -4.9192 0.1854 0 1
-6.7551 13.9708 -5.2138 0.1759 0 1
-7.7637 14.5344 -5.5363 0.1682 0 1
-8.8804 15.1276 -5.8936 0.1565 0 1
-10.1534 15.8039 -6.3112 0.1401 0 1
-11.6414 16.6107 -6.8150 0.1205 0 1
-13.3650 17.5256 -7.4051 0.1089 0 1
-15.2803 18.4483 -8.0483 0.1152 0 1
-16.7894 18.6865 -8.4402 0.1117 0 2
-19.2142 19.7280 -9.2525 0.0917 0 2
-17.4317 16.5138 -8.0675 0.7543 0 6
-22.3743 19.5500 -9.9827 0.7647 0 5
-22.4498 18.0766 -9.6840 0.8217 0 5
-22.5435 16.7033 -9.4267 0.7647 0 5
-27.7788 18.9006 -11.2887 0.8407 0 3
-26.1807 16.3127 -10.3640 0.9973 0 3
-28.1146 15.9851 -10.8661 0.2938 0 3
-32.5641 16.8193 -12.3141 0.9907 0 3
-29.4022 13.7176 -10.9008 0.3628 0 5
-32.6521 13.6629 -11.8922 0.3640 0 5
-41.9876 13.7208 -14.8412 0.3450 0 5
-24.7926 -17.3069 -10.1587 0.8418 0 20
-32.4271 -24.6337 -13.6821 0.0620 0 2
-28.0127 -23.1145 -12.2022 0.0696 0 2
-24.3006 -21.7520 -10.9577 0.0775 0 2
-21.1499 -20.5225 -9.9014 0.0857 0 2
-18.8356 -19.8087 -9.1838 0.9955 0 2
-16.4818 -18.7921 -8.3981 0.0854 0 1
-14.1871 -17.5524 -7.5828 0.1139 0 1
-12.4460 -16.7324 -7.0065 0.1250 0 1
-10.8990 -15.9548 -6.4919 0.1329 0 1
-9.5307 -15.2329 -6.0372 0.1435 0 1
-8.3181 -14.5668 -5.6359 0.1587 0 1
-7.2365 -13.9469 -5.2791 0.1677 0 1
-6.2678 -13.3693 -4.9610 0.1845 0 1
-5.4005 -12.8391 -4.6798 0.1946 0 1
-4.6148 -12.3376 -4.4257 0.2074 0 1
-3.8848 -11.8135 -4.1782 0.2187 0 24
-3.2477 -11.4024 -3.9834 0.2303 0 1
-2.6533 -10.9730 -3.7930 0.2418 0 1
-2.1054 -10.5479 -3.6138 0.2481 0 1
-1.6029 -10.1396 -3.4490 0.2641 0 1
-1.1417 -9.7507 -3.2984 0.2724 0 1
-0.7167 -9.3710 -3.1577 0.2842 0 1
-0.3253 -9.0068 -3.0281 0.2964 0 1
0.0358 -8.6570 -2.9086 0.3085 0 1
0.3693 -8.3206 -2.7983 0.3207 0 1
0.6780 -7.9965 -2.6963 0.3328 0 1
0.9645 -7.6869 -2.6029 0.3498 0 1
1.2305 -7.3878 -2.5164 0.3620 0 1
1.4776 -7.0965 -2.4354 0.3740 0 1
1.7074 -6.8144 -2.3603 0.3859 0 1
1.9154 -6.5202 -2.2832 0.3956 0 24
2.1207 -6.2738 -2.2250 0.4083 0 1
2.3063 -6.0141 -2.1641 0.4198 0 1
2.4796 -5.7614 -2.1074 0.4311 0 1
2.6413 -5.5150 -2.0545 0.4419 0 1
2.7923 -5.2746 -2.0052 0.4528 0 1
2.9281 -5.0307 -1.9557 0.4479 0 1
3.0499 -4.7863 -1.9069 0.4594 0 1
3.1628 -4.5488 -1.8614 0.4706 0 1
3.2672 -4.3176 -1.8192 0.4815 0 1
3.3639 -4.0923 -1.7798 0.4921 0 1
3.4559 -3.8753 -1.7445 0.5148 0 1
3.5482 -3.6703 -1.7152 0.5236 0 1
3.6342 -3.4686 -1.6879 0.5321 0 1
3.7143 -3.2699 -1.6626 0.5402 0 1
3.7888 -3.0741 -1.6393 0.5479 0 1
3.8580 -2.8808 -1.6177 0.5552 0 1
3.9221 -2.6900 -1.5979 0.5620 0 1
3.9819 -2.5017 -1.5800 0.5685 0 1
4.0375 -2.3155 -1.5638 0.5744 0 1
4.0886 -2.1310 -1.5491 0.5799 0 1
4.1354 -1.9481 -1.5359 0.5849 0 1
4.1780 -1.7665 -1.5241 0.5894 0 1
4.2166 -1.5861 -1.5136 0.5935 0 1
4.2513 -1.4068 -1.5045 0.6002 0 1
4.2829 -1.2285 -1.4970 0.6033 0 1
4.3107 -1.0508 -1.4907 0.6058 0 1
4.3349 -0.8737 -1.4857 0.6078 0 1
4.3555 -0.6968 -1.4820 0.6094 0 1
4.3725 -0.5202 -1.4794 0.6104 0 1
4.3860 -0.3436 -1.4781 0.6110 0 1
4.3960 -0.1669 -1.4780 0.6110 0 1
4.4050 0.0100 -1.4800 0.6095 0 1
4.4115 0.1876 -1.4835 0.6081 0 1
4.4145 0.3660 -1.4883 0.6061 0 1
4.4140 0.5455 -1.4943 0.6037 0 1
4.4099 0.7261 -1.5016 0.6008 0 1
4.4022 0.9080 -1.5102 0.5974 0 1
4.3868 1.0905 -1.5187 0.5852 0 1
4.3660 1.2738 -1.5280 0.5816 0 1
4.3412 1.4584 -1.5387 0.5776 0 1
4.3123 1.6445 -1.5506 0.5732 0 1
4.2792 1.8323 -1.5640 0.5683 0 1
4.2417 2.0218 -1.5788 0.5629 0 1
4.2000 2.2134 -1.5951 0.5568 0 1
4.1536 2.4073 -1.6130 0.5506 0 1
4.1025 2.6035 -1.6325 0.5441 0 1
4.0464 2.8023 -1.6537 0.5371 0 1
3.9853 3.0042 -1.6768 0.5297 0 1
3.9189 3.2092 -1.7018 0.5219 0 1
3.8467 3.4176 -1.7288 0.5138 0 1
3.7684 3.6295 -1.7579 0.5053 0 1
3.6836 3.8452 -1.7891 0.4965 0 1
3.5921 4.0650 -1.8226 0.4873 0 1
3.4933 4.2891 -1.8585 0.4779 0 1
3.3838 4.5140 -1.8954 0.4799 0 1
3.2669 4.7443 -1.9354 0.4700 0 1
3.1404 4.9780 -1.9775 0.4567 0 1
3.0047 5.2167 -2.0226 0.4465 0 1
2.8592 5.4607 -2.0710 0.4360 0 1
2.7032 5.7106 -2.1228 0.4254 0 1
2.5359 5.9666 -2.1782 0.4149 0 1
2.3563 6.2288 -2.2375 0.4039 0 1
2.1636 6.4979 -2.3010 0.3928 0 1
1.9547 6.7674 -2.3667 0.4044 0 1
1.7290 7.0357 -2.4342 0.3932 0 1
1.4889 7.3175 -2.5089 0.3610 0 1
1.2363 7.6361 -2.5990 0.3485 0 1
0.9629 7.9674 -2.6964 0.3359 0 1
0.6653 8.2938 -2.7955 0.3233 0 1
0.3438 8.6299 -2.9018 0.3140 0 1
-0.0037 8.9749 -3.0154 0.3022 0 1
-0.3788 9.3154 -3.1324 0.3092 0 1
-0.7835 9.6680 -3.2589 0.2828 0 1
-1.2250 10.0666 -3.4071 0.2705 0 1
-1.7013 10.4539 -3.5585 0.2625 0 1
-2.2199 10.8643 -3.7256 0.2438 0 1
-2.7783 11.2659 -3.8986 0.2334 0 24
-3.4105 11.7710 -4.1175 0.2186 0 1
-4.0948 12.2642 -4.3442 0.2069 0 1
-4.8292 12.7344 -4.5758 0.1947 0 24
-5.6772 13.3274 -4.8671 0.1838 0 1
-6.5787 13.8683 -5.1572 0.1767 0 1
-7.5706 14.4302 -5.4750 0.1701 0 1
-8.6646 15.0148 -5.8244 0.1584 0 1
-9.9066 15.6750 -6.2302 0.1419 0 1
-11.3495 16.4534 -6.7157 0.1223 0 1
-13.0255 17.3466 -7.2883 0.1106 0 1
-14.9236 18.2931 -7.9320 0.1168 0 1
-16.7420 18.9150 -8.4869 0.7013 0 2
-18.7376 19.5273 -9.0927 0.0934 0 2
-21.4810 20.6552 -10.0124 0.0848 0 2
-22.3576 19.8307 -10.0409 0.7745 0 5
-22.4299 18.3374 -9.7340 0.7956 0 5
-22.5430 16.9642 -9.4791 0.7815 0 5
-27.7636 19.1940 -11.3402 0.8369 0 3
-28.0714 17.7820 -11.1645 0.5130 0 3
-32.4045 18.7446 -12.5776 0.8760 0 3
-37.2616 19.5982 -14.1453 0.8937 0 3
-37.2502 17.7177 -13.8590 0.4133 0 3
-32.0590 13.6959 -11.7130 0.4149 0 5
-40.9547 13.7214 -14.5118 0.2611 0 5
-22.9876 -4.6525 -7.8800 0.3955 16 6
-29.7181 -17.0758 -11.5156 0.7720 0 6
-25.0680 -17.2232 -10.2187 0.5311 0 20
-33.1458 -24.7929 -13.9071 0.7669 0 9
-28.7714 -23.3829 -12.4565 0.0681 0 2
-24.9412 -21.9934 -11.1725 0.0760 0 2
-21.6956 -20.7408 -10.0844 0.0842 0 2
-18.9813 -19.6668 -9.1833 0.9956 0 2
-17.0054 -19.1006 -8.5923 0.0681 0 1
-14.5509 -17.7310 -7.7065 0.0936 0 1
-12.7506 -16.8783 -7.1071 0.1232 0 1
-11.1710 -16.0945 -6.5824 0.1310 0 1
-9.7711 -15.3618 -6.1169 0.1416 0 1
-8.5305 -14.6838 -5.7056 0.1568 0 1
-7.4286 -14.0603 -5.3428 0.1657 0 1
-6.4377 -13.4702 -5.0161 0.1825 0 1
-5.5550 -12.9363 -4.7301 0.1926 0 1
-4.7544 -12.4283 -4.4708 0.2061 0 1
-4.0274 -11.9470 -4.2359 0.2167 0 1
-3.3636 -11.4843 -4.0206 0.2268 0 1
-2.7593 -11.0510 -3.8269 0.2397 0 1
-2.2032 -10.6255 -3.6459 0.2459 0 1
-1.6926 -10.2137 -3.4784 0.2577 0 1
-1.2242 -9.8223 -3.3257 0.2701 0 1
-0.7926 -9.4400 -3.1828 0.2820 0 1
-0.3953 -9.0730 -3.0513 0.2941 0 1
-0.0288 -8.6853 -2.9181 0.3053 0 24
0.3096 -8.3819 -2.8181 0.3184 0 1
0.6227 -8.0556 -2.7146 0.3306 0 1
0.9131 -7.7431 -2.6196 0.3477 0 1
1.1828 -7.4427 -2.5320 0.3597 0 1
1.4332 -7.1497 -2.4500 0.3718 0 1
1.6661 -6.8659 -2.3738 0.3837 0 1
1.8772 -6.5703 -2.2958 0.3930 0 24
2.0849 -6.3226 -2.2368 0.4062 0 1
2.2730 -6.0616 -2.1751 0.4177 0 1
2.4484 -5.8076 -2.1176 0.4290 0 1
2.6122 -5.5601 -2.0640 0.4399 0 1
2.7651 -5.3186 -2.0140 0.4508 0 1
2.9045 -5.0767 -1.9651 0.4457 0 1
3.0281 -4.8310 -1.9156 0.4573 0 1
3.1426 -4.5922 -1.8696 0.4685 0 1
3.2485 -4.3599 -1.8268 0.4795 0 1
3.3466 -4.1335 -1.7869 0.4902 0 1
3.4388 -3.9144 -1.7506 0.4930 0 1
3.5316 -3.7079 -1.7204 0.5220 0 1
3.6187 -3.5056 -1.6928 0.5305 0 1
3.6999 -3.3064 -1.6672 0.5387 0 1
3.7755 -3.1101 -1.6435 0.5465 0 1
3.8456 -2.9164 -1.6216 0.5538 0 1
3.9106 -2.7251 -1.6015 0.5608 0 1
3.9711 -2.5363 -1.5831 0.5674 0 1
4.0275 -2.3498 -1.5667 0.5733 0 1
4.0794 -2.1650 -1.5517 0.5789 0 1
4.1270 -1.9818 -1.5382 0.5840 0 1
4.1704 -1.8000 -1.5261 0.5886 0 1
4.2097 -1.6194 -1.5154 0.5928 0 1
4.2451 -1.4399 -1.5061 0.5965 0 1
4.2773 -1.2614 -1.4983 0.6027 0 1
4.3058 -1.0836 -1.4918 0.6054 0 1
4.3307 -0.9064 -1.4866 0.6075 0 1
4.3520 -0.7295 -1.4826 0.6091 0 1
4.3696 -0.5529 -1.4798 0.6103 0 1
4.3838 -0.3763 -1.4783 0.6109 0 1
4.3944 -0.1996 -1.4780 0.6110 0 1
4.4034 -0.0228 -1.4795 0.6098 0 1
4.4106 0.1547 -1.4828 0.6084 0 1
4.4142 0.3330 -1.4873 0.6065 0 1
4.4144 0.5122 -1.4931 0.6042 0 1
4.4110 0.6926 -1.5002 0.6014 0 1
4.4039 0.8743 -1.5085 0.5980 0 1
4.3902 1.0567 -1.5172 0.5858 0 1
4.3701 1.2398 -1.5262 0.5823 0 1
4.3460 1.4242 -1.5366 0.5784 0 1
4.3179 1.6100 -1.5483 0.5740 0 1
4.2856 1.7974 -1.5614 0.5692 0 1
4.2490 1.9866 -1.5759 0.5640 0 1
4.2080 2.1778 -1.5919 0.5579 0 1
4.1626 2.3712 -1.6096 0.5518 0 1
4.1123 2.5670 -1.6288 0.5453 0 1
4.0571 2.7653 -1.6496 0.5384 0 1
3.9970 2.9666 -1.6724 0.5311 0 1
3.9316 3.1711 -1.6971 0.5234 0 1
3.8605 3.3788 -1.7237 0.5153 0 1
3.7834 3.5900 -1.7523 0.5069 0 1
3.6998 3.8050 -1.7831 0.4981 0 1
3.6095 4.0240 -1.8162 0.4891 0 1
3.5121 4.2473 -1.8517 0.4797 0 1
3.4047 4.4722 -1.8885 0.4838 0 1
3.2891 4.7013 -1.9278 0.4719 0 1
3.1645 4.9344 -1.9695 0.4585 0 1
3.0305 5.1721 -2.0141 0.4484 0 1
2.8869 5.4152 -2.0618 0.4380 0 1
2.7329 5.6639 -2.1129 0.4274 0 1
2.5677 5.9188 -2.1677 0.4166 0 1
2.3905 6.1798 -2.2262 0.4060 0 1
2.2003 6.4476 -2.2889 0.3948 0 1
-2.2189 10.4619 -3.7256 0.2518 0 1
-2.7555 10.8265 -3.8918 0.2423 0 24
-3.3598 11.2813 -4.1005 0.2288 0 1
-3.9957 11.6775 -4.2995 0.2155 0 24
-4.7044 12.1323 -4.5330 0.2039 0 24
-5.5025 12.6553 -4.8073 0.1922 0 1
-6.3491 13.1312 -5.0810 0.1854 0 1
-7.2736 13.6169 -5.3779 0.1750 0 1
-8.2886 14.1196 -5.7036 0.1671 0 1
-9.4060 14.6405 -6.0620 0.1572 0 1
-10.6726 15.2284 -6.4781 0.1400 0 1
-12.1329 15.9099 -6.9701 0.1230 0 1
-13.8299 16.6973 -7.5528 0.1105 0 1
-15.6902 17.4631 -8.1783 0.1100 0 1
-17.1360 17.5943 -8.5558 0.1025 0 2
-17.3078 16.3964 -8.3053 0.8520 0 6
-22.0709 19.2849 -10.2102 0.0859 0 2
-22.3723 18.0143 -10.0061 0.8041 0 5
-22.4525 16.6359 -9.7346 0.8022 0 5
-27.6561 18.8171 -11.6529 0.8412 0 3
-25.5225 15.9026 -10.4757 0.0222 0 21
-31.2344 17.7590 -12.5166 0.4727 0 3
-34.3410 17.7371 -13.4646 0.4394 0 3
-29.3961 13.7147 -11.3001 0.3481 0 5
-32.7188 13.6908 -12.3556 0.3991 0 5
-26.2622 8.5820 -9.6248 0.3867 0 6
-26.3642 -4.4417 -9.3137 0.1502 0 20
-35.8912 -22.9646 -14.8434 0.0591 0 2
-24.6846 -17.2315 -10.4871 0.9739 0 20
-27.4962 -20.8878 -12.0290 0.0729 0 2
-24.1503 -19.9274 -10.9073 0.0804 0 2
-21.2488 -19.0203 -9.9346 0.0883 0 2
-19.5541 -18.9741 -9.4917 0.9904 0 2
-16.7084 -17.5716 -8.4468 0.0715 0 1
-14.6353 -16.6868 -7.7321 0.1153 0 1
-12.9335 -16.0014 -7.1675 0.1262 0 1
-11.4173 -15.3494 -6.6642 0.1339 0 1
-10.0563 -14.7211 -6.2106 0.1436 0 1
-8.8550 -14.1529 -5.8158 0.1589 0 1
-7.7723 -13.6110 -5.4601 0.1675 0 1
-6.7738 -13.0553 -5.1237 0.1807 0 24
-5.9108 -12.6079 -4.8508 0.1949 0 1
-5.1101 -12.1488 -4.5913 0.2065 0 1
-4.3795 -11.7086 -4.3548 0.2177 0 1
-3.7102 -11.2825 -4.1374 0.2276 0 1
-3.0976 -10.8757 -3.9393 0.2405 0 1
-2.5344 -10.4813 -3.7565 0.2465 0 1
-2.0151 -10.0956 -3.5863 0.2623 0 1
-1.5380 -9.7293 -3.4314 0.2742 0 1
-1.0969 -9.3680 -3.2857 0.2821 0 1
-0.6897 -9.0181 -3.1507 0.2942 0 1
-0.3135 -8.6810 -3.0261 0.3063 0 1
0.0345 -8.3558 -2.9109 0.3184 0 1
0.3570 -8.0417 -2.8042 0.3305 0 1
0.6563 -7.7404 -2.7061 0.3476 0 1
0.9348 -7.4501 -2.6157 0.3596 0 1
1.1939 -7.1679 -2.5314 0.3717 0 1
1.4350 -6.8919 -2.4524 0.3836 0 1
1.6596 -6.6238 -2.3788 0.3955 0 1
1.8632 -6.3422 -2.3027 0.4046 0 24
2.0645 -6.1077 -2.2460 0.4178 0 1
2.2469 -5.8592 -2.1861 0.4293 0 1
2.4173 -5.6167 -2.1302 0.4403 0 1
2.5766 -5.3799 -2.0780 0.4513 0 1
2.7255 -5.1484 -2.0293 0.4622 0 1
2.8577 -4.9098 -1.9790 0.4572 0 1
2.9784 -4.6741 -1.9308 0.4686 0 1
3.0904 -4.4446 -1.8858 0.4798 0 1
3.1941 -4.2209 -1.8440 0.4907 0 1
3.2902 -4.0026 -1.8050 0.5013 0 1
3.3830 -3.7935 -1.7707 0.5239 0 1
3.4746 -3.5941 -1.7415 0.5327 0 1
3.5600 -3.3977 -1.7144 0.5411 0 1
3.6396 -3.2041 -1.6892 0.5492 0 1
3.7137 -3.0131 -1.6660 0.5568 0 1
3.7824 -2.8244 -1.6445 0.5641 0 1
3.8462 -2.6379 -1.6247 0.5710 0 1
3.9057 -2.4538 -1.6068 0.5774 0 1
3.9609 -2.2716 -1.5906 0.5833 0 1
4.0118 -2.0910 -1.5760 0.5888 0 1
4.0583 -1.9118 -1.5628 0.5938 0 1
4.1008 -1.7339 -1.5510 0.5983 0 1
4.1392 -1.5570 -1.5406 0.6023 0 1
4.1742 -1.3813 -1.5317 0.6090 0 1
4.2056 -1.2063 -1.5241 0.6120 0 1
4.2332 -1.0319 -1.5179 0.6146 0 1
4.2572 -0.8580 -1.5129 0.6166 0 1
4.2776 -0.6844 -1.5091 0.6181 0 1
4.2945 -0.5109 -1.5066 0.6192 0 1
4.3078 -0.3375 -1.5053 0.6197 0 1
4.3176 -0.1640 -1.5052 0.6197 0 1
4.3263 0.0098 -1.5071 0.6183 0 1
4.3325 0.1842 -1.5106 0.6168 0 1
4.3352 0.3595 -1.5154 0.6149 0 1
4.3344 0.5356 -1.5214 0.6125 0 1
4.3300 0.7129 -1.5287 0.6095 0 1
4.3218 0.8915 -1.5373 0.5972 0 1
4.3048 1.0701 -1.5453 0.5941 0 1
4.2838 1.2498 -1.5545 0.5905 0 1
4.2589 1.4308 -1.5651 0.5865 0 1
4.2299 1.6131 -1.5771 0.5821 0 1
4.1968 1.7970 -1.5904 0.5772 0 1
4.1593 1.9825 -1.6051 0.5719 0 1
4.1175 2.1699 -1.6214 0.5658 0 1
4.0712 2.3595 -1.6392 0.5597 0 1
4.0201 2.5512 -1.6586 0.5531 0 1
3.9640 2.7453 -1.6797 0.5462 0 1
3.9032 2.9423 -1.7028 0.5388 0 1
3.8370 3.1421 -1.7276 0.5311 0 1
3.7650 3.3450 -1.7545 0.5229 0 1
3.6870 3.5511 -1.7833 0.5145 0 1
3.6027 3.7607 -1.8143 0.5057 0 1
3.5117 3.9741 -1.8475 0.4966 0 1
3.4136 4.1913 -1.8831 0.4872 0 1
3.3071 4.4117 -1.9207 0.4892 0 1
3.1907 4.6336 -1.9598 0.4759 0 1
3.0655 4.8593 -2.0015 0.4660 0 1
2.9314 5.0895 -2.0460 0.4559 0 1
2.7878 5.3245 -2.0937 0.4455 0 1
2.6341 5.5647 -2.1447 0.4349 0 1
2.4695 5.8103 -2.1993 0.4241 0 1
2.2929 6.0613 -2.2576 0.4135 0 1
2.1039 6.3184 -2.3199 0.4024 0 1
1.9012 6.5821 -2.3867 0.3911 0 1
1.6813 6.8417 -2.4543 0.4028 0 1
1.4454 7.1035 -2.5253 0.3915 0 1
1.1982 7.4010 -2.6118 0.3582 0 1
0.9320 7.7113 -2.7059 0.3450 0 1
0.6432 8.0174 -2.8019 0.3332 0 1
0.3320 8.3336 -2.9054 0.3214 0 1
-0.0035 8.6554 -3.0152 0.3121 0 1
-0.3654 8.9877 -3.1335 0.3003 0 1
-0.7549 9.3150 -3.2556 0.3073 0 1
-1.1767 9.6697 -3.3934 0.2805 0 1
-1.6318 10.0273 -3.5391 0.2726 0 1
-2.1235 10.3926 -3.6952 0.2611 0 1
-2.6517 10.7528 -3.8581 0.2449 0 24
-3.2458 11.2027 -4.0631 0.2309 0 1
-3.8715 11.5955 -4.2586 0.2173 0 24
-4.5683 12.0464 -4.4881 0.2059 0 24
-5.3525 12.5651 -4.7578 0.1942 0 1
-6.1873 13.0434 -5.0291 0.1873 0 1
-7.0960 13.5257 -5.3209 0.1769 0 1
-8.0936 14.0253 -5.6410 0.1689 0 1
-9.1910 14.5428 -5.9931 0.1590 0 1
-10.4266 15.1155 -6.3969 0.1417 0 1
-11.8477 15.7780 -6.8735 0.1247 0 1
-13.4972 16.5447 -7.4382 0.1122 0 1
-15.3382 17.3289 -8.0618 0.1116 0 1
-16.7676 17.4743 -8.4365 0.6653 0 2
-17.2869 16.6224 -8.3544 0.9767 0 6
-21.5563 19.1200 -10.0377 0.0873 0 2
-22.3525 18.2741 -10.0578 0.8061 0 5
-22.4403 16.8869 -9.7835 0.8148 0 5
-27.6404 19.1088 -11.7059 0.8374 0 3
-25.3421 16.0531 -10.4504 0.4144 0 21
-30.7069 17.7627 -12.3579 0.4788 0 3
-30.9920 16.3006 -12.1987 0.3632 0 3
-28.8155 13.7058 -11.1159 0.4079 0 5
-31.9837 13.6638 -12.1161 0.3779 0 5
-40.9526 13.7207 -15.0457 0.3674 0 5
-22.8868 -4.6321 -8.1345 0.7172 16 6
-29.6104 -17.0139 -11.8967 0.9884 0 6
-36.8069 -23.1662 -15.1504 0.0579 0 2
-25.0692 -17.2240 -10.5957 0.5291 0 20
-23.9309 -17.9001 -10.4107 0.1968 15 6
-24.7333 -20.1010 -11.1028 0.0790 0 2
-21.7554 -19.1841 -10.1044 0.0868 0 2
-19.7132 -18.8456 -9.5005 0.9895 0 2
-17.2278 -17.8500 -8.6420 0.0699 0 1
-14.9802 -16.8259 -7.8479 0.1136 0 1
-13.2314 -16.1230 -7.2658 0.1245 0 1
-11.6863 -15.4694 -6.7538 0.1321 0 1
-10.2966 -14.8347 -6.2907 0.1418 0 1
-9.0677 -14.2559 -5.8857 0.1570 0 1
-7.9646 -13.7097 -5.5234 0.1673 0 1
-6.9624 -13.1780 -5.1920 0.1821 0 1
-6.0672 -12.6950 -4.9015 0.1929 0 1
-5.2527 -12.2323 -4.6375 0.2045 0 1
-4.5097 -11.7887 -4.3969 0.2156 0 1
-3.8152 -11.3173 -4.1605 0.2266 0 24
-3.2067 -10.9487 -3.9743 0.2384 0 1
-2.6353 -10.5545 -3.7897 0.2443 0 1
-2.1078 -10.1651 -3.6164 0.2560 0 1
-1.6234 -9.7960 -3.4591 0.2720 0 1
-1.1758 -9.4338 -3.3118 0.2802 0 1
-0.7626 -9.0818 -3.1749 0.2920 0 1
-0.3809 -8.7424 -3.0484 0.3041 0 1
-0.0278 -8.3819 -2.9200 0.3199 0 24
0.2991 -8.0990 -2.8233 0.3283 0 1
0.6026 -7.7951 -2.7236 0.3454 0 1
0.8818 -7.4780 -2.6231 0.3575 0 24
1.1474 -7.2198 -2.5467 0.3693 0 1
1.3916 -6.9423 -2.4666 0.3814 0 1
1.6193 -6.6728 -2.3920 0.3933 0 1
1.8257 -6.3901 -2.3151 0.4041 0 24
2.0222 -6.1326 -2.2495 0.4131 0 24
2.2141 -5.9047 -2.1968 0.4272 0 1
2.3867 -5.6611 -2.1402 0.4382 0 1
2.5479 -5.4232 -2.0874 0.4493 0 1
2.6987 -5.1908 -2.0381 0.4602 0 1
2.8344 -4.9541 -1.9883 0.4550 0 1
2.9568 -4.7172 -1.9394 0.4665 0 1
3.0703 -4.4866 -1.8939 0.4777 0 1
3.1755 -4.2619 -1.8515 0.4887 0 1
3.2730 -4.0426 -1.8120 0.4993 0 1
3.3655 -3.8309 -1.7764 0.5303 0 1
3.4581 -3.6308 -1.7467 0.5311 0 1
3.5446 -3.4338 -1.7192 0.5396 0 1
3.6253 -3.2397 -1.6937 0.5477 0 1
3.7004 -3.0482 -1.6701 0.5554 0 1
3.7701 -2.8591 -1.6483 0.5628 0 1
3.8348 -2.6723 -1.6282 0.5697 0 1
3.8949 -2.4876 -1.6100 0.5763 0 1
3.9510 -2.3052 -1.5935 0.5822 0 1
4.0027 -2.1243 -1.5786 0.5878 0 1
4.0500 -1.9449 -1.5651 0.5929 0 1
4.0932 -1.7667 -1.5531 0.5975 0 1
4.1324 -1.5896 -1.5424 0.6016 0 1
4.1680 -1.4137 -1.5332 0.6084 0 1
4.2000 -1.2386 -1.5254 0.6115 0 1
4.2284 -1.0641 -1.5189 0.6141 0 1
4.2531 -0.8901 -1.5137 0.6162 0 1
4.2741 -0.7165 -1.5097 0.6179 0 1
4.2916 -0.5430 -1.5070 0.6190 0 1
4.3056 -0.3696 -1.5054 0.6196 0 1
4.3161 -0.1961 -1.5051 0.6198 0 1
4.3247 -0.0224 -1.5066 0.6185 0 1
4.3316 0.1519 -1.5099 0.6171 0 1
4.3350 0.3270 -1.5144 0.6153 0 1
4.3348 0.5030 -1.5202 0.6130 0 1
4.3311 0.6801 -1.5273 0.6101 0 1
4.3237 0.8584 -1.5356 0.6068 0 1
4.3082 1.0370 -1.5437 0.5947 0 1
4.2880 1.2165 -1.5527 0.5912 0 1
4.2638 1.3972 -1.5631 0.5873 0 1
4.2356 1.5793 -1.5747 0.5830 0 1
4.2032 1.7628 -1.5878 0.5782 0 1
4.1666 1.9481 -1.6023 0.5729 0 1
4.1255 2.1351 -1.6182 0.5669 0 1
4.0801 2.3242 -1.6358 0.5608 0 1
4.0299 2.5155 -1.6549 0.5543 0 1
3.9748 2.7092 -1.6757 0.5475 0 1
3.9148 2.9056 -1.6984 0.5402 0 1
3.8496 3.1049 -1.7229 0.5325 0 1
3.7788 3.3072 -1.7493 0.5245 0 1
3.7019 3.5128 -1.7778 0.5161 0 1
3.6188 3.7217 -1.8084 0.5073 0 1
3.5291 3.9343 -1.8412 0.4983 0 1
3.4323 4.1508 -1.8763 0.4890 0 1
3.3280 4.3714 -1.9139 0.4931 0 1
3.2129 4.5923 -1.9524 0.4777 0 1
3.0893 4.8172 -1.9936 0.4679 0 1
2.9569 5.0465 -2.0376 0.4578 0 1
2.8152 5.2807 -2.0847 0.4474 0 1
2.6633 5.5198 -2.1350 0.4369 0 1
2.5008 5.7645 -2.1889 0.4261 0 1
2.3265 6.0145 -2.2465 0.4156 0 1
2.1398 6.2704 -2.3081 0.4045 0 1
-2.1268 10.0275 -3.6988 0.2691 0 1
-2.6419 10.3800 -3.8649 0.2505 0 1
-3.2031 10.7553 -4.0494 0.2391 0 1
-3.7983 11.1007 -4.2335 0.2255 0 24
-4.4748 11.5402 -4.4662 0.2135 0 1
-5.1997 11.9588 -4.7054 0.2026 0 1
-5.9715 12.3502 -4.9500 0.1912 0 24
-6.8353 12.7964 -5.2349 0.1855 0 1
-7.7613 13.2212 -5.5320 0.1756 0 1
-8.7801 13.6664 -5.8613 0.1685 0 1
-9.8870 14.1074 -6.2161 0.1581 0 1
-11.1368 14.6037 -6.6270 0.1412 0 1
-12.5597 15.1637 -7.1047 0.1207 0 1
-14.2153 15.8215 -7.6748 0.1122 0 1
-16.3277 16.7643 -8.4441 0.1255 0 2
-17.2324 16.3249 -8.5653 0.9855 0 6
-19.5306 17.0653 -9.3586 0.0967 0 2
-21.9569 17.6798 -10.1720 0.0889 0 2
-24.5484 18.1888 -11.0244 0.3228 0 21
-27.5336 18.7337 -12.0167 0.8417 0 3
-28.5309 17.7770 -12.1299 0.5032 0 3
-31.2327 17.7580 -12.9642 0.4709 0 3
-28.0914 14.5092 -11.4086 0.4412 0 21
-29.3888 13.7113 -11.7019 0.3468 0 5
-32.7020 13.6838 -12.7915 0.3740 0 5
-38.3259 14.2544 -14.7549 0.1545 0 21
-26.1353 8.5405 -9.9213 0.8683 0 6
-26.3686 -4.4424 -9.6488 0.1496 0 20
-38.2784 -20.3553 -15.6437 0.0578 0 2
-29.3535 -17.1581 -12.2686 0.9984 0 6
-30.1837 -19.3127 -12.9300 0.0700 0 2
-24.6097 -17.1792 -10.8296 0.5328 0 20
-23.8426 -18.1123 -10.8042 0.0837 0 2
-21.3821 -17.6433 -10.0029 0.8949 0 2
-19.6252 -17.5669 -9.5041 0.0686 0 1
-16.9481 -16.4453 -8.5213 0.0918 0 1
-15.0224 -15.7985 -7.8664 0.1169 0 1
-13.3592 -15.2318 -7.3106 0.1279 0 1
-11.8757 -14.6927 -6.8169 0.1352 0 1
-10.5379 -14.1672 -6.3712 0.1446 0 1
-9.3476 -13.6837 -5.9797 0.1584 0 1
-8.2727 -13.2222 -5.6279 0.1694 0 1
-7.2888 -12.7641 -5.3038 0.1839 0 1
-6.4015 -12.3377 -5.0155 0.1954 0 1
-5.5908 -11.9253 -4.7525 0.2059 0 1
-4.8476 -11.5246 -4.5114 0.2168 0 1
-4.1648 -11.1344 -4.2895 0.2265 0 1
-3.5365 -10.7543 -4.0850 0.2379 0 1
-2.9591 -10.3892 -3.8979 0.2451 0 1
-2.4249 -10.0287 -3.7230 0.2607 0 1
-1.9250 -9.6440 -3.5486 0.2692 0 24
-1.4770 -9.3434 -3.4133 0.2805 0 1
-1.0551 -9.0114 -3.2738 0.2921 0 1
-0.6645 -8.6884 -3.1442 0.3042 0 1
-0.3025 -8.3757 -3.0242 0.3162 0 1
0.0333 -8.0728 -2.9130 0.3283 0 1
0.3454 -7.7811 -2.8105 0.3454 0 1
0.6339 -7.4755 -2.7071 0.3575 0 24
0.9066 -7.2258 -2.6278 0.3693 0 1
1.1591 -6.9591 -2.5457 0.3813 0 1
1.3944 -6.6973 -2.4684 0.3932 0 1
1.6141 -6.4422 -2.3964 0.4051 0 1
1.8133 -6.1724 -2.3213 0.4150 0 24
2.0032 -5.9264 -2.2573 0.4243 0 24
2.1901 -5.7109 -2.2070 0.4384 0 1
2.3576 -5.4780 -2.1520 0.4496 0 1
2.5145 -5.2502 -2.1005 0.4607 0 1
2.6613 -5.0271 -2.0525 0.4714 0 1
2.7902 -4.7937 -2.0014 0.4664 0 1
2.9097 -4.5662 -1.9537 0.4778 0 1
3.0207 -4.3444 -1.9093 0.4889 0 1
3.1236 -4.1278 -1.8679 0.4998 0 1
3.2191 -3.9161 -1.8292 0.5103 0 1
3.3138 -3.7160 -1.7966 0.5410 0 1
3.4034 -3.5205 -1.7669 0.5417 0 1
3.4882 -3.3292 -1.7399 0.5501 0 1
3.5673 -3.1404 -1.7149 0.5581 0 1
3.6408 -2.9540 -1.6918 0.5657 0 1
3.7092 -2.7697 -1.6704 0.5730 0 1
3.7726 -2.5875 -1.6507 0.5798 0 1
3.8317 -2.4073 -1.6328 0.5862 0 1
3.8867 -2.2290 -1.6167 0.5921 0 1
3.9372 -2.0522 -1.6021 0.5976 0 1
3.9836 -1.8766 -1.5889 0.6025 0 1
4.0258 -1.7022 -1.5772 0.6070 0 1
4.0643 -1.5288 -1.5669 0.6142 0 1
4.0992 -1.3565 -1.5580 0.6177 0 1
4.1304 -1.1847 -1.5505 0.6207 0 1
4.1579 -1.0136 -1.5443 0.6232 0 1
4.1817 -0.8428 -1.5393 0.6253 0 1
4.2020 -0.6723 -1.5355 0.6268 0 1
4.2186 -0.5019 -1.5330 0.6278 0 1
4.2318 -0.3316 -1.5317 0.6284 0 1
4.2414 -0.1611 -1.5316 0.6284 0 1
4.2497 0.0096 -1.5335 0.6270 0 1
4.2557 0.1810 -1.5370 0.6255 0 1
4.2581 0.3531 -1.5418 0.6236 0 1
4.2570 0.5261 -1.5478 0.6212 0 1
4.2524 0.7001 -1.5551 0.6182 0 1
4.2423 0.8750 -1.5630 0.6060 0 1
4.2251 1.0503 -1.5710 0.6029 0 1
4.2041 1.2266 -1.5802 0.5994 0 1
4.1791 1.4040 -1.5908 0.5954 0 1
4.1501 1.5827 -1.6027 0.5910 0 1
4.1169 1.7628 -1.6160 0.5861 0 1
4.0795 1.9445 -1.6307 0.5808 0 1
4.0376 2.1278 -1.6468 0.5751 0 1
3.9913 2.3132 -1.6646 0.5686 0 1
3.9403 2.5006 -1.6839 0.5621 0 1
3.8844 2.6901 -1.7049 0.5552 0 1
3.8237 2.8824 -1.7278 0.5478 0 1
3.7578 3.0773 -1.7526 0.5401 0 1
3.6861 3.2749 -1.7792 0.5320 0 1
3.6085 3.4755 -1.8078 0.5236 0 1
3.5247 3.6793 -1.8385 0.5149 0 1
3.4343 3.8865 -1.8715 0.5058 0 1
3.3370 4.0972 -1.9067 0.4965 0 1
3.2326 4.3123 -1.9447 0.4904 0 1
3.1173 4.5271 -1.9833 0.4852 0 1
2.9936 4.7452 -2.0245 0.4754 0 1
2.8611 4.9674 -2.0685 0.4653 0 1
2.7195 5.1939 -2.1155 0.4549 0 1
2.5680 5.4250 -2.1658 0.4444 0 1
2.4059 5.6608 -2.2195 0.4336 0 1
2.2325 5.9015 -2.2767 0.4231 0 1
2.0469 6.1473 -2.3379 0.4120 0 1
1.8483 6.3988 -2.4033 0.4008 0 1
1.6357 6.6563 -2.4733 0.3894 0 1
1.4052 6.9060 -2.5430 0.4011 0 1
1.1622 7.1784 -2.6240 0.3678 0 1
0.9027 7.4690 -2.7147 0.3548 0 1
0.6223 7.7570 -2.8080 0.3431 0 1
0.3208 8.0532 -2.9082 0.3312 0 1
-0.0034 8.3556 -3.0150 0.3221 0 1
-0.3523 8.6646 -3.1291 0.3103 0 1
-0.7280 8.9827 -3.2519 0.2986 0 1
-1.1318 9.3002 -3.3806 0.2905 0 1
-1.5674 9.6313 -3.5210 0.2827 0 1
-2.0361 9.9648 -3.6699 0.2713 0 1
-2.5430 10.3119 -3.8324 0.2526 0 1
-3.0958 10.6849 -4.0141 0.2412 0 1
-3.6819 11.0277 -4.1951 0.2282 0 24
-4.3477 11.4645 -4.4243 0.2165 0 1
-5.0608 11.8803 -4.6596 0.2046 0 1
-5.8198 12.2687 -4.8998 0.1931 0 24
-6.6720 12.7175 -5.1821 0.1814 0 24
-7.5600 13.1006 -5.4578 0.1745 0 24
-8.5862 13.5858 -5.7992 0.1703 0 1
-9.6745 14.0251 -6.1480 0.1599 0 1
-10.8953 14.5096 -6.5473 0.1429 0 1
-12.2800 15.0527 -7.0097 0.1262 0 1
-13.8941 15.6974 -7.5643 0.1134 0 1
-15.9601 16.6328 -8.3178 0.0988 0 1
-17.0014 16.3478 -8.5107 0.1063 0 2
-19.1124 16.9523 -9.2184 0.0981 0 2
-21.4861 17.5658 -10.0142 0.0903 0 2
-24.1608 18.1816 -10.9108 0.0829 0 25
-24.0970 16.6591 -10.5706 0.8100 0 21
-28.0686 17.7803 -11.9892 0.5091 0 3
-30.7053 17.7617 -12.7997 0.4769 0 3
-27.5906 14.5116 -11.2487 0.4474 0 21
-28.8187 13.7073 -11.5152 0.4080 0 5
-32.0570 13.6951 -12.5787 0.3247 0 5
-41.7760 15.8924 -16.1282 0.8051 0 3
-40.9780 13.7292 -15.5942 0.2886 0 5
-22.7909 -4.6127 -8.3905 0.9292 16 6
-39.1306 -20.4365 -15.9294 0.0568 0 2
-29.4187 -16.9038 -12.2429 0.6039 0 6
-30.8523 -19.4184 -13.1541 0.0688 0 2
-25.0081 -17.1820 -10.9484 0.5270 0 20
-23.7409 -17.7581 -10.6979 0.8258 15 6
-21.6685 -17.6102 -10.0753 0.0898 0 2
-20.1847 -17.7990 -9.7106 0.0672 0 1
-17.3884 -16.6232 -8.6803 0.0901 0 1
-15.3543 -15.9088 -7.9780 0.1153 0 1
-13.6518 -15.3338 -7.4081 0.1262 0 1
-12.1389 -14.7918 -6.9046 0.1333 0 1
-10.7750 -14.2631 -6.4502 0.1428 0 1
-9.5569 -13.7690 -6.0479 0.1567 0 1
-8.4647 -13.3079 -5.6910 0.1675 0 1
-7.4625 -12.8454 -5.3605 0.1760 0 1
-6.5595 -12.4154 -5.0667 0.1934 0 1
-5.7145 -11.9569 -4.7819 0.2042 0 24
-4.9617 -11.5546 -4.5375 0.2146 0 24
-4.2869 -11.2061 -4.3293 0.2245 0 1
-3.6487 -10.8236 -4.1215 0.2358 0 1
-3.0628 -10.4576 -3.9320 0.2486 0 1
-2.5203 -10.0939 -3.7540 0.2586 0 1
-2.0209 -9.7461 -3.5915 0.2703 0 1
-1.5588 -9.4060 -3.4403 0.2783 0 1
-1.1307 -9.0721 -3.2989 0.2902 0 1
-0.7345 -8.7473 -3.1675 0.3019 0 1
-0.3674 -8.4328 -3.0458 0.3140 0 1
-0.0268 -8.1007 -2.9230 0.3322 0 24
0.2893 -7.8340 -2.8287 0.3431 0 1
0.5819 -7.5270 -2.7241 0.3555 0 24
0.8580 -7.2758 -2.6436 0.3671 0 1
1.1137 -7.0080 -2.5605 0.3790 0 1
1.3521 -6.7452 -2.4823 0.3910 0 1
1.5746 -6.4889 -2.4094 0.4029 0 1
1.7766 -6.2183 -2.3336 0.4129 0 24
1.9692 -5.9716 -2.2689 0.4221 0 24
2.1578 -5.7545 -2.2176 0.4366 0 1
2.3275 -5.5207 -2.1619 0.4476 0 1
2.4863 -5.2920 -2.1098 0.4586 0 1
2.6349 -5.0680 -2.0611 0.4695 0 1
2.7671 -4.8365 -2.0106 0.4643 0 1
2.8882 -4.6079 -1.9623 0.4757 0 1
3.0008 -4.3850 -1.9173 0.4869 0 1
3.1052 -4.1675 -1.8753 0.4978 0 1
3.2020 -3.9549 -1.8362 0.5084 0 1
3.2966 -3.7526 -1.8024 0.5393 0 1
3.3871 -3.5562 -1.7721 0.5401 0 1
3.4730 -3.3644 -1.7448 0.5486 0 1
3.5531 -3.1752 -1.7194 0.5566 0 1
3.6276 -2.9883 -1.6959 0.5644 0 1
3.6970 -2.8037 -1.6742 0.5717 0 1
3.7613 -2.6210 -1.6542 0.5786 0 1
3.8210 -2.4404 -1.6360 0.5851 0 1
3.8768 -2.2619 -1.6196 0.5910 0 1
3.9282 -2.0848 -1.6047 0.5966 0 1
3.9753 -1.9090 -1.5913 0.6016 0 1
4.0183 -1.7344 -1.5792 0.6062 0 1
4.0574 -1.5608 -1.5686 0.6135 0 1
4.0931 -1.3883 -1.5596 0.6171 0 1
4.1249 -1.2165 -1.5518 0.6202 0 1
4.1531 -1.0452 -1.5453 0.6228 0 1
4.1776 -0.8743 -1.5401 0.6249 0 1
4.1985 -0.7038 -1.5361 0.6265 0 1
4.2158 -0.5334 -1.5334 0.6277 0 1
4.2296 -0.3631 -1.5318 0.6283 0 1
4.2399 -0.1926 -1.5315 0.6284 0 1
4.2483 -0.0220 -1.5329 0.6272 0 1
4.2549 0.1492 -1.5363 0.6258 0 1
4.2580 0.3212 -1.5408 0.6240 0 1
4.2575 0.4940 -1.5466 0.6216 0 1
4.2535 0.6679 -1.5536 0.6188 0 1
4.2450 0.8427 -1.5617 0.6065 0 1
4.2286 1.0178 -1.5694 0.6035 0 1
4.2083 1.1939 -1.5784 0.6001 0 1
4.1840 1.3711 -1.5887 0.5962 0 1
4.1558 1.5495 -1.6004 0.5918 0 1
4.1234 1.7294 -1.6134 0.5870 0 1
4.0867 1.9107 -1.6278 0.5818 0 1
4.0457 2.0938 -1.6437 0.5762 0 1
4.0002 2.2787 -1.6612 0.5698 0 1
3.9501 2.4657 -1.6802 0.5633 0 1
3.8951 2.6549 -1.7009 0.5565 0 1
3.8353 2.8466 -1.7235 0.5492 0 1
3.7704 3.0410 -1.7479 0.5416 0 1
3.6998 3.2381 -1.7741 0.5336 0 1
3.6233 3.4382 -1.8024 0.5252 0 1
3.5407 3.6414 -1.8327 0.5165 0 1
3.4515 3.8479 -1.8652 0.5075 0 1
3.3555 4.0580 -1.9000 0.4982 0 1
3.2524 4.2721 -1.9374 0.4923 0 1
3.1393 4.4871 -1.9760 0.4870 0 1
3.0171 4.7046 -2.0167 0.4772 0 1
2.8863 4.9260 -2.0601 0.4671 0 1
2.7464 5.1517 -2.1066 0.4569 0 1
2.5968 5.3819 -2.1562 0.4463 0 1
2.4367 5.6168 -2.2093 0.4356 0 1
2.2654 5.8566 -2.2659 0.4251 0 1
2.0821 6.1014 -2.3263 0.4140 0 1
-2.0414 9.6249 -3.6740 0.2793 0 1
-2.5294 9.9380 -3.8293 0.2679 0 1
-3.0593 10.2725 -4.0024 0.2493 0 1
-3.6327 10.6167 -4.1900 0.2398 0 1
-4.2520 10.9654 -4.3917 0.2248 0 1
-4.9096 11.2917 -4.5978 0.2137 0 24
-5.6403 11.6652 -4.8384 0.2022 0 24
-6.4441 12.0640 -5.1072 0.1961 0 1
-7.2932 12.4238 -5.3795 0.1861 0 1
-8.2192 12.7933 -5.6781 0.1729 0 1
-9.2319 13.1727 -6.0066 0.1694 0 1
-10.3243 13.5383 -6.3576 0.1549 0 1
-11.5409 13.9336 -6.7559 0.1427 0 1
-12.9204 14.3802 -7.2188 0.1224 0 1
-14.4361 14.8222 -7.7261 0.1061 0 24
-16.5609 15.6888 -8.5184 0.1291 0 2
-17.5001 15.2911 -8.6779 0.1074 0 2
-19.4981 15.6999 -9.3477 0.0997 0 2
-21.7076 16.0840 -10.0884 0.0924 0 2
-24.1493 16.4311 -10.9070 0.0855 0 25
-26.8436 16.7257 -11.8102 0.0789 0 25
-29.8087 16.9484 -12.8043 0.0728 0 25
-27.9819 14.4526 -11.7602 0.4411 0 21
-29.3879 13.7109 -12.1094 0.3930 0 5
-32.7044 13.6848 -13.2382 0.3725 0 5
-38.9933 14.5026 -15.5350 0.9857 0 21
-26.0355 8.5079 -10.2279 0.9489 0 6
-26.3731 -4.4432 -9.9868 0.1490 0 20
-43.3328 -16.7102 -17.3424 0.2701 0 2
-39.2565 -16.9820 -15.9716 0.0584 0 2
-35.5145 -17.0903 -14.7171 0.0634 0 2
-32.0605 -17.0488 -13.5592 0.0688 0 2
-28.8965 -16.8909 -12.4985 0.0746 0 2
-26.0137 -16.6445 -11.5320 0.0808 0 2
-23.9047 -16.6871 -10.8860 0.6855 0 2
-22.0728 -16.7679 -10.3508 0.0544 0 1
-19.3544 -15.9702 -9.3699 0.0752 0 1
-17.1870 -15.3845 -8.6134 0.0936 0 1
-15.3225 -14.8680 -7.9725 0.1189 0 1
-13.7177 -14.4264 -7.4336 0.1287 0 1
-12.2774 -13.9984 -6.9528 0.1376 0 1
-10.9653 -13.5663 -6.5137 0.1458 0 1
-9.7492 -13.1069 -6.0997 0.1592 0 24
-8.7281 -12.7768 -5.7779 0.1690 0 1
-7.7594 -12.4018 -5.4627 0.1849 0 1
-6.8703 -12.0312 -5.1735 0.1952 0 1
-6.0321 -11.6257 -4.8907 0.2058 0 24
-5.3015 -11.3083 -4.6637 0.2162 0 1
-4.6085 -10.9561 -4.4383 0.2257 0 1
-3.9681 -10.6086 -4.2294 0.2368 0 1
-3.3771 -10.2696 -4.0368 0.2481 0 1
-2.8305 -9.9379 -3.8585 0.2593 0 1
-2.3158 -9.5774 -3.6794 0.2686 0 24
-1.8560 -9.2984 -3.5406 0.2787 0 1
-1.4203 -8.9842 -3.3965 0.2905 0 1
-1.0161 -8.6783 -3.2627 0.3021 0 1
-0.6408 -8.3796 -3.1382 0.3141 0 1
-0.2921 -8.0890 -3.0225 0.3261 0 1
0.0322 -7.8081 -2.9157 0.3431 0 1
0.3335 -7.5136 -2.8084 0.3555 0 24
0.6166 -7.2715 -2.7250 0.3670 0 1
0.8799 -7.0129 -2.6392 0.3789 0 1
1.1260 -6.7604 -2.5592 0.3908 0 1
1.3558 -6.5119 -2.4838 0.4028 0 1
1.5707 -6.2689 -2.4133 0.4146 0 1
1.7716 -6.0306 -2.3470 0.4252 0 1
1.9519 -5.7744 -2.2761 0.4339 0 24
2.1356 -5.5688 -2.2271 0.4478 0 1
2.3004 -5.3450 -2.1729 0.4590 0 1
2.4548 -5.1257 -2.1222 0.4699 0 1
2.5979 -4.9074 -2.0734 0.4640 0 1
2.7252 -4.6822 -2.0230 0.4756 0 1
2.8435 -4.4624 -1.9759 0.4869 0 1
2.9535 -4.2478 -1.9319 0.4980 0 1
3.0557 -4.0380 -1.8909 0.5088 0 1
3.1525 -3.8350 -1.8538 0.5404 0 1
3.2471 -3.6411 -1.8218 0.5499 0 1
3.3355 -3.4503 -1.7920 0.5590 0 1
3.4187 -3.2629 -1.7647 0.5590 0 1
3.4972 -3.0788 -1.7398 0.5670 0 1
3.5703 -2.8968 -1.7168 0.5746 0 1
3.6382 -2.7167 -1.6955 0.5818 0 1
3.7013 -2.5385 -1.6759 0.5886 0 1
3.7599 -2.3622 -1.6581 0.5950 0 1
3.8146 -2.1877 -1.6420 0.6009 0 1
3.8649 -2.0145 -1.6275 0.6063 0 1
3.9109 -1.8424 -1.6143 0.6112 0 1
3.9530 -1.6714 -1.6026 0.6189 0 1
3.9916 -1.5015 -1.5925 0.6229 0 1
4.0264 -1.3324 -1.5837 0.6263 0 1
4.0574 -1.1638 -1.5762 0.6293 0 1
4.0847 -0.9957 -1.5699 0.6318 0 1
4.1083 -0.8280 -1.5649 0.6338 0 1
4.1283 -0.6605 -1.5612 0.6354 0 1
4.1448 -0.4931 -1.5586 0.6364 0 1
4.1578 -0.3258 -1.5573 0.6369 0 1
4.1673 -0.1583 -1.5572 0.6370 0 1
4.1753 0.0095 -1.5591 0.6355 0 1
4.1810 0.1778 -1.5626 0.6341 0 1
4.1832 0.3469 -1.5674 0.6322 0 1
4.1818 0.5168 -1.5734 0.6298 0 1
4.1768 0.6877 -1.5807 0.6269 0 1
4.1650 0.8591 -1.5880 0.6147 0 1
4.1478 1.0311 -1.5960 0.6117 0 1
4.1267 1.2040 -1.6052 0.6081 0 1
4.1017 1.3779 -1.6157 0.6042 0 1
4.0726 1.5531 -1.6276 0.5998 0 1
4.0394 1.7296 -1.6408 0.5949 0 1
4.0020 1.9075 -1.6555 0.5897 0 1
3.9601 2.0870 -1.6716 0.5840 0 1
3.9139 2.2683 -1.6892 0.5775 0 1
3.8630 2.4515 -1.7085 0.5710 0 1
3.8073 2.6367 -1.7293 0.5642 0 1
3.7469 2.8244 -1.7521 0.5568 0 1
3.6812 3.0145 -1.7767 0.5491 0 1
3.6099 3.2072 -1.8031 0.5411 0 1
3.5327 3.4025 -1.8315 0.5327 0 1
3.4494 3.6007 -1.8620 0.5240 0 1
3.3597 3.8020 -1.8946 0.5149 0 1
3.2632 4.0067 -1.9296 0.5094 0 1
3.1604 4.2160 -1.9675 0.4996 0 1
3.0467 4.4245 -2.0060 0.4945 0 1
2.9244 4.6356 -2.0466 0.4846 0 1
2.7936 4.8502 -2.0901 0.4746 0 1
2.6539 5.0686 -2.1364 0.4643 0 1
2.5046 5.2910 -2.1859 0.4538 0 1
2.3451 5.5177 -2.2387 0.4431 0 1
2.1746 5.7486 -2.2951 0.4325 0 1
1.9813 5.9505 -2.3419 0.4212 0 24
1.7978 6.2241 -2.4192 0.4103 0 1
1.5898 6.4694 -2.4876 0.3991 0 1
1.3669 6.7178 -2.5599 0.4107 0 1
1.1280 6.9671 -2.6355 0.3774 0 1
0.8750 7.2398 -2.7231 0.3646 0 1
0.6025 7.5110 -2.8137 0.3529 0 1
0.3103 7.7890 -2.9108 0.3411 0 1
-0.0033 8.0738 -3.0148 0.3320 0 1
-0.3400 8.3616 -3.1249 0.3203 0 1
-0.7016 8.6567 -3.2431 0.3086 0 1
-1.0903 8.9593 -3.3702 0.2970 0 1
-1.5074 9.2625 -3.5042 0.2928 0 1
-1.9550 9.5677 -3.6465 0.2814 0 1
-2.4364 9.8796 -3.7997 0.2700 0 1
-2.9580 10.2093 -3.9691 0.2514 0 1
-3.5237 10.5537 -4.1547 0.2418 0 1
-4.1331 10.8987 -4.3525 0.2268 0 1
-4.7812 11.2239 -4.5555 0.2160 0 24
-5.5198 11.6362 -4.8092 0.2043 0 1
-6.2945 11.9978 -5.0593 0.1980 0 1
-7.1309 12.3570 -5.3274 0.1880 0 1
-8.0398 12.7212 -5.6194 0.1747 0 1
-9.0403 13.1057 -5.9452 0.1712 0 1
-10.1125 13.4672 -6.2887 0.1618 0 1
-11.3074 13.8604 -6.6794 0.1497 0 1
-12.6450 14.2862 -7.1241 0.1241 0 1
-14.1965 14.7948 -7.6565 0.1153 0 1
-17.1521 15.2136 -8.5612 0.1089 0 2
-19.1132 15.6258 -9.2186 0.1011 0 2
-21.2820 16.0153 -9.9457 0.0937 0 2
-23.6793 16.3703 -10.7494 0.0867 0 25
-26.3254 16.6760 -11.6365 0.0801 0 25
-26.1748 15.1411 -11.2914 0.6609 0 21
-27.4845 14.4558 -11.5960 0.4473 0 21
-28.8234 13.7095 -11.9184 0.4020 0 5
-32.0565 13.6949 -13.0169 0.3958 0 5
-41.8415 15.9173 -16.7165 0.8549 0 3
-40.8437 13.6842 -16.0847 0.2898 0 5
-22.7006 -4.5944 -8.6485 0.9292 16 6
-39.9791 -16.9425 -16.2138 0.0575 0 2
-36.1851 -17.0826 -14.9419 0.0624 0 2
-32.6773 -17.0662 -13.7660 0.0677 0 2
-29.3767 -16.8796 -12.6515 0.4658 0 6
-26.5296 -16.6977 -11.7053 0.4022 0 2
-24.2099 -16.6336 -10.9683 0.6399 0 2
-22.6235 -16.9222 -10.5497 0.1069 0 2
-19.8352 -16.1203 -9.5443 0.0738 0 1
-17.5908 -15.5117 -8.7577 0.0952 0 1
-15.6403 -14.9520 -8.0797 0.1173 0 1
-13.9998 -14.5054 -7.5277 0.1271 0 1
-12.5333 -14.0775 -7.0382 0.1359 0 1
-11.1972 -13.6443 -6.5909 0.1441 0 1
-9.9915 -13.2260 -6.1896 0.1578 0 1
-8.9168 -12.8467 -5.8394 0.1672 0 1
-7.9315 -12.4695 -5.5184 0.1769 0 1
-7.0290 -12.0993 -5.2251 0.1933 0 1
-6.1994 -11.7337 -4.9555 0.2036 0 1
-5.4360 -11.3741 -4.7074 0.2142 0 1
-4.7327 -11.0213 -4.4789 0.2236 0 1
-4.0827 -10.6723 -4.2668 0.2347 0 1
-3.4829 -10.3317 -4.0713 0.2460 0 1
-2.9284 -9.9987 -3.8905 0.2571 0 1
-2.4154 -9.6738 -3.7232 0.2687 0 1
-1.9318 -9.3165 -3.5529 0.2770 0 24
-1.4984 -9.0416 -3.4223 0.2883 0 1
-1.0887 -8.7345 -3.2868 0.2999 0 1
-0.7082 -8.4342 -3.1605 0.3119 0 1
-0.3547 -8.1421 -3.0432 0.3239 0 1
-0.0259 -7.8364 -2.9262 0.3421 0 24
0.2794 -7.5634 -2.8262 0.3532 0 24
0.5659 -7.3200 -2.7415 0.3648 0 1
0.8325 -7.0603 -2.6546 0.3767 0 1
1.0817 -6.8066 -2.5736 0.3886 0 1
1.3145 -6.5575 -2.4973 0.4006 0 1
1.5321 -6.3135 -2.4259 0.4124 0 1
1.7355 -6.0743 -2.3590 0.4230 0 1
1.9184 -5.8177 -2.2875 0.4317 0 24
2.1039 -5.6107 -2.2375 0.4457 0 1
2.2707 -5.3861 -2.1826 0.4569 0 1
2.4270 -5.1659 -2.1313 0.4679 0 1
2.5733 -4.9497 -2.0831 0.4619 0 1
2.7024 -4.7234 -2.0320 0.4735 0 1
2.8223 -4.5027 -1.9843 0.4848 0 1
2.9338 -4.2871 -1.9398 0.4960 0 1
3.0373 -4.0764 -1.8983 0.5068 0 1
3.1342 -3.8712 -1.8599 0.5386 0 1
3.2301 -3.6768 -1.8275 0.5482 0 1
3.3196 -3.4854 -1.7973 0.5574 0 1
3.4036 -3.2972 -1.7695 0.5575 0 1
3.4831 -3.1127 -1.7443 0.5655 0 1
3.5572 -2.9303 -1.7209 0.5732 0 1
3.6260 -2.7499 -1.6993 0.5805 0 1
3.6900 -2.5713 -1.6794 0.5874 0 1
3.7493 -2.3946 -1.6612 0.5939 0 1
3.8048 -2.2199 -1.6449 0.5998 0 1
3.8559 -2.0464 -1.6300 0.6053 0 1
3.9027 -1.8741 -1.6166 0.6103 0 1
3.9455 -1.7029 -1.6047 0.6149 0 1
3.9848 -1.5329 -1.5943 0.6222 0 1
4.0202 -1.3636 -1.5852 0.6257 0 1
4.0519 -1.1949 -1.5775 0.6288 0 1
4.0799 -1.0268 -1.5710 0.6314 0 1
4.1042 -0.8590 -1.5658 0.6335 0 1
4.1249 -0.6915 -1.5618 0.6351 0 1
4.1421 -0.5241 -1.5590 0.6362 0 1
4.1557 -0.3567 -1.5575 0.6369 0 1
4.1658 -0.1893 -1.5572 0.6370 0 1
4.1739 -0.0216 -1.5586 0.6358 0 1
4.1802 0.1466 -1.5619 0.6344 0 1
4.1830 0.3155 -1.5664 0.6326 0 1
4.1823 0.4853 -1.5722 0.6302 0 1
4.1780 0.6560 -1.5792 0.6274 0 1
4.1678 0.8274 -1.5867 0.6152 0 1
4.1512 0.9992 -1.5944 0.6123 0 1
4.1309 1.1719 -1.6034 0.6088 0 1
4.1066 1.3457 -1.6137 0.6049 0 1
4.0783 1.5206 -1.6253 0.6006 0 1
4.0459 1.6968 -1.6383 0.5959 0 1
4.0092 1.8745 -1.6526 0.5907 0 1
3.9682 2.0537 -1.6685 0.5851 0 1
3.9228 2.2346 -1.6858 0.5787 0 1
3.8728 2.4175 -1.7048 0.5722 0 1
3.8180 2.6023 -1.7253 0.5654 0 1
3.7584 2.7895 -1.7478 0.5582 0 1
3.6937 2.9792 -1.7720 0.5506 0 1
3.6235 3.1713 -1.7981 0.5426 0 1
3.5474 3.3661 -1.8261 0.5343 0 1
3.4653 3.5638 -1.8562 0.5256 0 1
3.3768 3.7645 -1.8884 0.5166 0 1
3.2815 3.9684 -1.9229 0.5074 0 1
3.1800 4.1770 -1.9603 0.5014 0 1
3.0684 4.3859 -1.9987 0.4963 0 1
2.9476 4.5963 -2.0389 0.4865 0 1
2.8185 4.8102 -2.0818 0.4765 0 1
2.6804 5.0279 -2.1276 0.4662 0 1
2.5329 5.2496 -2.1765 0.4557 0 1
2.3754 5.4755 -2.2287 0.4450 0 1
2.2070 5.7056 -2.2844 0.4346 0 1
2.0155 5.9061 -2.3303 0.4234 0 24
-1.9619 9.2504 -3.6509 0.2893 0 1
-2.4270 9.5357 -3.7990 0.2781 0 1
-2.9269 9.8277 -3.9591 0.2595 0 1
-3.4692 10.1389 -4.1373 0.2500 0 1
-4.0506 10.4461 -4.3257 0.2391 0 1
-4.6635 10.7257 -4.5156 0.2246 0 24
-5.3621 11.0899 -4.7559 0.2137 0 1
-6.0926 11.4060 -4.9926 0.2069 0 1
-6.8752 11.7118 -5.2433 0.1910 0 24
-7.6903 11.9701 -5.4931 0.1826 0 24
-8.6103 12.2857 -5.7923 0.1761 0 24
-9.5984 12.5864 -6.1113 0.1694 0 24
-10.6593 12.8693 -6.4518 0.1634 0 24
-11.9029 13.2478 -6.8762 0.1497 0 1
-13.2125 13.5659 -7.3113 0.1305 0 1
-14.6938 13.9200 -7.8146 0.1163 0 1
-16.7135 14.6038 -8.5692 0.1332 0 2
-17.5198 14.1070 -8.6845 0.1105 0 2
-19.3496 14.3368 -9.2979 0.1032 0 2
-21.3380 14.5183 -9.9645 0.0963 0 2
-23.4184 14.5915 -10.6531 0.9108 0 21
-25.8158 14.6781 -11.4657 0.0837 0 25
-28.3077 14.6209 -12.3011 0.0780 0 25
-30.9594 14.4441 -13.1900 0.0728 0 25
-33.7528 14.1235 -14.1265 0.0680 0 25
-36.6574 13.6338 -15.1003 0.0636 0 2
-25.9499 8.4800 -10.5404 0.9481 0 6
-42.5991 12.0475 -17.0922 0.0562 0 2
-26.3776 -4.4439 -10.3277 0.1483 0 20
-43.8849 -12.9809 -17.6693 0.0620 0 1
-40.6818 -13.8357 -16.5904 0.0622 0 1
-37.4641 -14.4471 -15.5028 0.0648 0 1
-34.4245 -14.8917 -14.4813 0.0720 0 1
-31.5710 -15.1926 -13.5272 0.0658 0 1
-28.7465 -15.2866 -12.5705 0.0696 0 1
-26.0724 -15.2402 -11.6599 0.0755 0 1
-23.5848 -15.0905 -10.8103 0.0750 0 1
-21.1102 -14.7363 -9.9399 0.0739 0 1
-19.0184 -14.4475 -9.2213 0.1071 0 1
-17.2219 -14.2106 -8.6206 0.1187 0 1
-15.5523 -13.9212 -8.0588 0.1239 0 1
-14.0148 -13.5990 -7.5396 0.1303 0 1
-12.6134 -13.2650 -7.0672 0.1393 0 1
-11.3435 -12.9335 -6.6420 0.1474 0 1
-10.1785 -12.5929 -6.2516 0.1566 0 1
-9.1441 -12.2934 -5.9154 0.1778 0 1
-8.1953 -11.9968 -5.6094 0.1875 0 1
-7.3131 -11.6886 -5.3234 0.1953 0 1
-6.4949 -11.3739 -5.0569 0.2054 0 1
-5.7183 -11.0209 -4.7937 0.2157 0 24
-5.0386 -10.7476 -4.5829 0.2250 0 1
-4.3892 -10.4348 -4.3707 0.2359 0 1
-3.7878 -10.1266 -4.1744 0.2476 0 1
-3.2302 -9.8229 -3.9923 0.2580 0 1
-2.7126 -9.5238 -3.8233 0.2694 0 1
-2.2319 -9.2305 -3.6665 0.2809 0 1
-1.7839 -8.9372 -3.5186 0.2887 0 1
-1.3673 -8.6489 -3.3807 0.3005 0 1
-0.9796 -8.3666 -3.2523 0.3121 0 1
-0.6187 -8.0896 -3.1325 0.3240 0 1
-0.2825 -7.8210 -3.0216 0.3409 0 1
0.0311 -7.5387 -2.9107 0.3538 0 24
0.3243 -7.3049 -2.8231 0.3648 0 1
0.5982 -7.0551 -2.7337 0.3767 0 1
0.8545 -6.8106 -2.6501 0.3885 0 1
1.0945 -6.5711 -2.5720 0.4004 0 1
1.3190 -6.3351 -2.4984 0.4123 0 1
1.5292 -6.1034 -2.4293 0.4229 0 1
1.7260 -5.8753 -2.3643 0.4346 0 1
1.9104 -5.6517 -2.3034 0.4458 0 1
2.0833 -5.4324 -2.2464 0.4571 0 1
2.2454 -5.2173 -2.1930 0.4682 0 1
2.3975 -5.0060 -2.1430 0.4791 0 1
2.5369 -4.7921 -2.0935 0.4732 0 1
2.6627 -4.5748 -2.0437 0.4847 0 1
2.7798 -4.3624 -1.9972 0.4960 0 1
2.8888 -4.1547 -1.9537 0.5070 0 1
2.9901 -3.9513 -1.9131 0.5178 0 1
3.0887 -3.7574 -1.8779 0.5492 0 1
3.1825 -3.5687 -1.8461 0.5587 0 1
3.2702 -3.3827 -1.8166 0.5678 0 1
3.3521 -3.1993 -1.7891 0.5765 0 1
3.4293 -3.0190 -1.7640 0.5758 0 1
3.5018 -2.8412 -1.7411 0.5833 0 1
3.5693 -2.6653 -1.7199 0.5905 0 1
3.6320 -2.4910 -1.7004 0.5973 0 1
3.6903 -2.3184 -1.6826 0.6037 0 1
