ply
format ascii 1.0
element vertex 1376
property float32 x
property float32 y
property float32 z
property float32 CosAngle
property uint32 ObjIdx
property uint32 ObjTag
end_header
-27.0092 7.8391 -7.4106 0.9285 0 22
-46.4437 9.5197 -12.4924 0.9868 0 22
-46.4508 7.5925 -12.4022 0.9857 0 22
-30.5971 -15.9456 -9.0915 0.9399 0 22
-30.5215 -17.4987 -9.2705 0.3124 0 22
-32.2892 -33.3555 -12.2327 0.8037 0 20
-28.5649 -31.9832 -11.2995 0.6982 0 20
-28.0200 -34.0295 -11.6153 0.6685 0 20
-25.1896 -33.2250 -10.9865 0.6195 0 9
-22.3663 -32.1006 -10.3092 0.0659 0 2
-17.4910 -27.3852 -8.5623 0.5841 0 6
-15.5921 -26.7192 -8.1516 0.0738 0 1
-12.6557 -23.8367 -7.1114 0.0827 0 1
-10.4385 -21.7238 -6.3508 0.1009 0 24
-8.6472 -20.0167 -5.7455 0.1152 0 1
-7.1257 -18.5017 -5.2243 0.1286 0 1
-5.8567 -17.2403 -4.7978 0.1468 0 1
-4.7775 -16.1675 -4.4422 0.1605 0 1
-3.8430 -15.2299 -4.1389 0.1758 0 1
-3.0228 -14.3923 -3.8751 0.1898 0 1
-2.2963 -13.6335 -3.6430 0.2019 0 1
-1.6461 -12.9212 -3.4323 0.2156 0 24
-1.0700 -12.3308 -3.2614 0.2291 0 1
-0.5436 -11.7056 -3.0877 0.2317 0 1
-0.0695 -11.1077 -2.9269 0.2411 0 24
0.3587 -10.5794 -2.7893 0.2555 0 1
0.7470 -10.0694 -2.6606 0.2679 0 1
1.0961 -9.5561 -2.5345 0.2801 0 24
1.4220 -9.1395 -2.4372 0.2947 0 1
1.7159 -8.7100 -2.3392 0.3071 0 1
1.9788 -8.2772 -2.2425 0.3238 0 24
2.2332 -7.9206 -2.1685 0.3327 0 1
2.4620 -7.5566 -2.0942 0.3480 0 1
2.6735 -7.2093 -2.0261 0.3597 0 1
2.8684 -6.8749 -1.9629 0.3703 0 1
3.0485 -6.5532 -1.9045 0.3816 0 1
3.2154 -6.2435 -1.8505 0.3928 0 1
3.3700 -5.9447 -1.8006 0.4037 0 1
3.5142 -5.6569 -1.7548 0.3998 0 1
3.6381 -5.3634 -1.7077 0.4043 0 1
3.7511 -5.0785 -1.6637 0.4150 0 1
3.8551 -4.8031 -1.6229 0.4255 0 1
3.9507 -4.5365 -1.5851 0.4356 0 1
4.0386 -4.2778 -1.5502 0.4454 0 1
4.1193 -4.0265 -1.5178 0.4549 0 1
4.1980 -3.7861 -1.4896 0.4824 0 1
4.2761 -3.5559 -1.4654 0.4903 0 1
4.3484 -3.3300 -1.4432 0.4979 0 1
4.4152 -3.1082 -1.4228 0.5050 0 1
4.4776 -2.8905 -1.4043 0.5117 0 1
4.5357 -2.6764 -1.3877 0.5178 0 1
4.5890 -2.4651 -1.3726 0.5235 0 1
4.6379 -2.2563 -1.3590 0.5288 0 1
4.6826 -2.0499 -1.3469 0.5336 0 1
4.7231 -1.8454 -1.3362 0.5379 0 1
4.7597 -1.6427 -1.3268 0.5417 0 1
4.7923 -1.4414 -1.3187 0.5450 0 1
4.1258 -1.0624 -1.1226 0.6831 25 14
3.8884 -0.8364 -1.0480 0.6675 25 14
3.8371 -0.6654 -1.0262 0.8927 25 14
3.8278 -0.5065 -1.0174 0.9004 25 14
3.8189 -0.3501 -1.0105 0.9065 25 14
3.8121 -0.1956 -1.0058 0.8590 25 14
3.8067 -0.0423 -1.0031 0.8613 25 14
3.8070 0.1106 -1.0036 0.8610 25 14
3.8109 0.2641 -1.0066 0.9101 25 14
3.8171 0.4191 -1.0118 0.9053 25 14
3.8236 0.5760 -1.0189 0.8991 25 14
3.8305 0.7353 -1.0278 0.8913 25 14
4.1096 0.9614 -1.1121 0.9036 25 14
4.9223 1.3621 -1.3458 0.5363 0 1
4.9033 1.5713 -1.3567 0.5241 0 1
4.8770 1.7817 -1.3682 0.5197 0 1
4.8466 1.9946 -1.3810 0.5149 0 1
4.8120 2.2102 -1.3953 0.5093 0 1
4.7730 2.4289 -1.4112 0.5035 0 1
4.7294 2.6509 -1.4286 0.4974 0 1
4.6809 2.8765 -1.4477 0.4908 0 1
4.6272 3.1061 -1.4685 0.4839 0 1
4.5682 3.3401 -1.4912 0.4765 0 1
4.5041 3.5793 -1.5159 0.4688 0 1
4.4340 3.8238 -1.5428 0.4606 0 1
4.3575 4.0740 -1.5719 0.4521 0 1
4.2740 4.3303 -1.6032 0.4560 0 1
4.1766 4.5861 -1.6345 0.4472 0 1
4.0716 4.8482 -1.6683 0.4382 0 1
3.9591 5.1183 -1.7051 0.4268 0 1
3.8402 5.3992 -1.7458 0.4169 0 1
3.7116 5.6888 -1.7898 0.4066 0 1
3.5727 5.9881 -1.8374 0.3961 0 1
3.4224 6.2979 -1.8887 0.3853 0 1
3.2578 6.6149 -1.9430 0.4143 0 1
3.0734 6.9291 -1.9974 0.3834 0 1
2.8736 7.2509 -2.0552 0.3726 0 1
2.6587 7.5842 -2.1177 0.3616 0 1
2.4272 7.9301 -2.1853 0.3504 0 1
2.1846 8.3169 -2.2658 0.3198 0 1
1.9248 8.7421 -2.3587 0.3072 0 1
1.6365 9.1725 -2.4551 0.3184 0 1
1.3199 9.6159 -2.5575 0.3033 0 1
0.9743 10.0910 -2.6714 0.2904 0 1
0.5933 10.5649 -2.7882 0.2779 0 1
0.1768 11.0826 -2.9206 0.2525 0 1
-0.2823 11.6633 -3.0742 0.2378 0 1
-0.7897 12.2539 -3.2356 0.2309 0 24
-1.3602 12.9680 -3.4358 0.2137 0 1
-1.9946 13.6918 -3.6459 0.2014 0 1
-2.7132 14.5132 -3.8905 0.1777 0 1
-3.5293 15.4226 -4.1689 0.1682 0 1
-4.4492 16.3871 -4.4743 0.1606 0 1
-5.4959 17.4407 -4.8184 0.1502 0 1
-6.6873 18.5836 -5.2042 0.1385 0 1
-8.0636 19.8663 -5.6495 0.1276 0 1
-9.7531 21.5082 -6.2229 0.1132 0 1
-11.7857 23.4405 -6.9134 0.1027 0 1
-14.1912 25.6085 -7.7147 0.0962 0 1
-16.7694 27.5871 -8.5069 0.5596 0 2
-19.9398 30.0179 -9.4958 0.0715 0 2
-24.6194 34.0163 -11.0646 0.0614 0 25
-46.2862 8.5559 -12.9625 0.9733 0 22
-24.7380 -17.6706 -8.3720 1.0000 15 6
-31.7393 -31.4535 -12.3055 0.6754 0 20
-23.8105 -25.5707 -9.6220 0.9338 0 20
-26.0529 -30.3343 -11.0117 0.9035 0 9
-24.2090 -30.5909 -10.7432 0.8665 0 9
-21.1943 -29.1107 -9.9163 0.0714 0 2
-17.5299 -26.2292 -8.6879 0.0815 0 2
-15.0977 -24.6800 -7.9674 0.0764 0 1
-12.3788 -22.1901 -6.9974 0.1009 0 24
-10.4011 -20.5422 -6.3408 0.1109 0 1
-8.6872 -19.0149 -5.7570 0.1232 0 1
-7.2384 -17.6901 -5.2637 0.1330 0 1
-6.0150 -16.5687 -4.8542 0.1484 0 1
-4.9649 -15.6018 -4.5088 0.1648 0 1
-4.0492 -14.7491 -4.2120 0.1800 0 1
-3.2410 -13.9814 -3.9524 0.1939 0 1
-2.5209 -13.2775 -3.7218 0.2060 0 1
-1.8733 -12.6096 -3.5106 0.2192 0 24
-1.2988 -12.0546 -3.3389 0.2238 0 1
-0.7715 -11.4685 -3.1654 0.2355 0 1
-0.2951 -10.9191 -3.0081 0.2478 0 1
0.1366 -10.4018 -2.8648 0.2592 0 1
0.5289 -9.9170 -2.7349 0.2735 0 1
0.8867 -9.4622 -2.6172 0.2858 0 1
1.2136 -9.0307 -2.5093 0.2983 0 1
1.5125 -8.6175 -2.4094 0.3106 0 1
1.7808 -8.1984 -2.3104 0.3275 0 24
2.0397 -7.8552 -2.2349 0.3364 0 1
2.2735 -7.5035 -2.1591 0.3517 0 1
2.4896 -7.1666 -2.0893 0.3634 0 1
2.6893 -6.8421 -2.0245 0.3741 0 1
2.8740 -6.5291 -1.9645 0.3855 0 1
3.0451 -6.2273 -1.9090 0.3967 0 1
3.2040 -5.9358 -1.8576 0.4077 0 1
3.3515 -5.6536 -1.8099 0.4184 0 1
3.4810 -5.3685 -1.7620 0.4083 0 1
3.5984 -5.0896 -1.7165 0.4191 0 1
3.7066 -4.8198 -1.6744 0.4297 0 1
3.8062 -4.5583 -1.6354 0.4399 0 1
3.8979 -4.3044 -1.5992 0.4499 0 1
3.9823 -4.0576 -1.5657 0.4595 0 1
4.0629 -3.8202 -1.5358 0.4875 0 1
4.1439 -3.5940 -1.5106 0.4956 0 1
4.2189 -3.3721 -1.4873 0.5034 0 1
4.2884 -3.1541 -1.4660 0.5107 0 1
4.3526 -2.9396 -1.4464 0.5177 0 1
4.4130 -2.7291 -1.4289 0.5240 0 1
4.4687 -2.5213 -1.4130 0.5299 0 1
4.5198 -2.3161 -1.3986 0.5354 0 1
4.5665 -2.1131 -1.3857 0.5405 0 1
4.6091 -1.9121 -1.3742 0.5450 0 1
4.6476 -1.7128 -1.3640 0.5490 0 1
4.6822 -1.5150 -1.3552 0.5526 0 1
4.7130 -1.3185 -1.3477 0.5557 0 1
4.1547 -0.9843 -1.1758 0.6796 25 14
3.8639 -0.7530 -1.0841 0.7494 25 14
3.8423 -0.5899 -1.0705 0.8410 25 14
3.8354 -0.4320 -1.0629 0.8470 25 14
3.8290 -0.2762 -1.0572 0.8516 25 14
3.8233 -0.1219 -1.0534 0.8547 25 14
3.8199 0.0316 -1.0520 0.8558 25 14
3.8217 0.1853 -1.0537 0.8544 25 14
3.8240 0.3397 -1.0572 0.8516 25 14
3.8278 0.4955 -1.0629 0.8980 25 14
3.8346 0.6539 -1.0712 0.8910 25 14
3.8905 0.8254 -1.0952 0.6656 25 14
4.8312 1.2295 -1.3729 0.5478 0 1
4.8153 1.4335 -1.3836 0.5355 0 1
4.7908 1.6383 -1.3943 0.5314 0 1
4.7623 1.8452 -1.4065 0.5268 0 1
4.7295 2.0545 -1.4200 0.5217 0 1
4.6925 2.2665 -1.4351 0.5159 0 1
4.6510 2.4815 -1.4517 0.5100 0 1
4.6048 2.6997 -1.4700 0.5037 0 1
4.5536 2.9214 -1.4899 0.4970 0 1
4.4971 3.1470 -1.5116 0.4898 0 1
4.4355 3.3770 -1.5352 0.4823 0 1
4.3684 3.6118 -1.5609 0.4744 0 1
4.2951 3.8517 -1.5888 0.4661 0 1
4.2153 4.0971 -1.6188 0.4574 0 1
4.1281 4.3480 -1.6511 0.4613 0 1
4.0276 4.5985 -1.6834 0.4525 0 1
3.9193 4.8550 -1.7183 0.4433 0 1
3.8046 5.1206 -1.7568 0.4317 0 1
3.6819 5.3951 -1.7988 0.4216 0 1
3.5495 5.6780 -1.8440 0.4112 0 1
3.4066 5.9699 -1.8929 0.4006 0 1
3.2523 6.2716 -1.9455 0.3898 0 1
3.0845 6.5818 -2.0017 0.3764 0 1
2.8951 6.8843 -2.0567 0.3880 0 1
2.6918 7.1963 -2.1159 0.3771 0 1
2.4732 7.5190 -2.1798 0.3661 0 1
2.2382 7.8534 -2.2488 0.3548 0 1
1.9932 8.2348 -2.3332 0.3236 0 1
1.7284 8.6450 -2.4278 0.3110 0 1
1.4372 9.0684 -2.5285 0.3221 0 1
1.1163 9.4960 -2.6331 0.3070 0 1
0.7654 9.9378 -2.7448 0.2942 0 1
0.3814 10.3835 -2.8614 0.2822 0 1
-0.0374 10.8767 -2.9953 0.2565 0 1
-0.4983 11.4244 -3.1491 0.2440 0 1
-1.0054 11.9774 -3.3100 0.2356 0 24
-1.5749 12.6467 -3.5096 0.2180 0 1
-2.2052 13.3217 -3.7185 0.2057 0 1
-2.9113 14.0583 -3.9536 0.1822 0 1
-3.7130 14.8916 -4.2265 0.1736 0 1
-4.6131 15.7745 -4.5260 0.1667 0 1
-5.6296 16.7266 -4.8602 0.1552 0 1
-6.7734 17.7359 -5.2283 0.1466 0 1
-8.0832 18.8572 -5.6500 0.1330 0 1
-9.6980 20.3293 -6.2028 0.1142 0 1
-11.6097 22.0162 -6.8543 0.1055 0 1
-13.8527 23.8930 -7.6057 0.1002 0 1
-16.6031 26.1574 -8.5320 0.0972 0 2
-18.9381 27.3445 -9.1599 0.0773 0 2
-22.9880 30.4993 -10.5176 0.0673 0 25
-25.3092 30.9144 -11.0026 0.7384 0 21
-22.5859 25.4327 -9.3670 0.7044 0 5
-22.6712 23.5524 -9.0026 0.6997 0 5
-22.7850 21.8436 -8.6923 0.7189 0 5
-22.8788 20.2351 -8.4112 0.6540 0 5
-22.9702 18.7277 -8.1617 0.8143 0 5
-23.0369 17.2903 -7.9322 0.7372 0 5
-32.8442 22.6487 -10.9868 0.5529 0 3
-28.4498 17.9774 -9.2678 0.8537 0 3
-33.0958 19.0988 -10.5229 0.8729 0 3
-33.4910 17.5739 -10.4156 0.6190 0 3
-37.3449 17.7224 -11.3836 0.4195 0 3
-41.5091 17.6936 -12.4262 0.3843 0 3
-26.9065 8.9951 -7.8128 0.9429 0 22
-26.9315 7.8166 -7.7226 0.9883 0 22
-46.2595 9.4819 -13.0041 0.9731 0 22
-46.2766 7.5641 -12.9131 0.9713 0 22
-33.0142 -31.4721 -12.5609 0.6617 0 20
-30.0475 -31.0398 -11.8970 0.6879 0 20
-28.0472 -31.4034 -11.5951 0.6978 0 20
-26.2191 -31.8423 -11.3591 0.5468 0 9
-22.7742 -30.0391 -10.3810 0.6525 0 9
-19.1914 -27.5440 -9.2449 0.0765 0 2
-16.5642 -25.9342 -8.4744 0.6192 0 2
-13.5855 -23.2806 -7.4229 0.0825 0 1
-11.3067 -21.2960 -6.6400 0.1075 0 24
-9.4788 -19.7264 -6.0270 0.1144 0 1
-7.9123 -18.3156 -5.4944 0.1291 0 1
-6.5841 -17.0955 -5.0450 0.1454 0 1
-5.4543 -16.0559 -4.6697 0.1591 0 1
-4.4764 -15.1487 -4.3501 0.1743 0 1
-3.6186 -14.3407 -4.0730 0.1886 0 1
-2.8585 -13.6103 -3.8299 0.2002 0 1
-2.1805 -12.9457 -3.6153 0.2172 0 1
-1.5722 -12.3408 -3.4259 0.2292 0 1
-1.0194 -11.7477 -3.2473 0.2295 0 1
-0.5192 -11.1797 -3.0821 0.2418 0 1
-0.0665 -10.6281 -2.9269 0.2514 0 24
0.3441 -10.1469 -2.7959 0.2656 0 1
0.7180 -9.6786 -2.6727 0.2799 0 1
1.0595 -9.2368 -2.5604 0.2922 0 1
1.3714 -8.8143 -2.4565 0.3047 0 1
1.6572 -8.4122 -2.3611 0.3170 0 1
1.9144 -8.0079 -2.2674 0.3333 0 24
2.1629 -7.6713 -2.1949 0.3459 0 1
2.3874 -7.3275 -2.1223 0.3578 0 1
2.5949 -6.9975 -2.0553 0.3685 0 1
2.7866 -6.6787 -1.9929 0.3800 0 1
2.9641 -6.3717 -1.9352 0.3913 0 1
3.1288 -6.0753 -1.8819 0.4024 0 1
3.2816 -5.7887 -1.8325 0.4133 0 1
3.4210 -5.5068 -1.7853 0.4090 0 1
3.5429 -5.2231 -1.7381 0.4139 0 1
3.6555 -4.9490 -1.6943 0.4246 0 1
3.7591 -4.6835 -1.6538 0.4350 0 1
3.8546 -4.4261 -1.6163 0.4451 0 1
3.9424 -4.1760 -1.5815 0.4549 0 1
4.0232 -3.9326 -1.5493 0.4644 0 1
4.1055 -3.7027 -1.5225 0.4917 0 1
4.1834 -3.4788 -1.4983 0.4997 0 1
4.2555 -3.2589 -1.4761 0.5072 0 1
4.3222 -3.0428 -1.4556 0.5143 0 1
4.3845 -2.8304 -1.4372 0.5210 0 1
4.4424 -2.6213 -1.4205 0.5271 0 1
4.4957 -2.4149 -1.4054 0.5328 0 1
4.5445 -2.2108 -1.3917 0.5381 0 1
4.5891 -2.0089 -1.3796 0.5428 0 1
4.6295 -1.8088 -1.3688 0.5471 0 1
4.6660 -1.6104 -1.3593 0.5509 0 1
4.6986 -1.4132 -1.3512 0.5542 0 1
4.7274 -1.2173 -1.3443 0.5571 0 1
3.9015 -0.8392 -1.0990 0.7392 25 14
3.8459 -0.6670 -1.0749 0.8376 25 14
3.8386 -0.5080 -1.0663 0.8443 25 14
3.8320 -0.3513 -1.0597 0.8496 25 14
3.8260 -0.1963 -1.0550 0.8534 25 14
3.8205 -0.0424 -1.0522 0.8557 25 14
3.8208 0.1110 -1.0526 0.8553 25 14
3.8229 0.2650 -1.0553 0.8531 25 14
3.8254 0.4200 -1.0598 0.8495 25 14
3.8313 0.5771 -1.0670 0.8946 25 14
3.8504 0.7392 -1.0797 0.6752 25 14
4.1162 0.9630 -1.1641 0.8995 25 14
4.8246 1.3351 -1.3786 0.5455 0 1
4.8031 1.5392 -1.3890 0.5334 0 1
4.7766 1.7450 -1.4004 0.5290 0 1
4.7459 1.9532 -1.4133 0.5242 0 1
4.7109 2.1638 -1.4276 0.5186 0 1
4.6716 2.3773 -1.4435 0.5129 0 1
4.6277 2.5939 -1.4610 0.5068 0 1
4.5790 2.8139 -1.4801 0.5003 0 1
4.5251 3.0376 -1.5009 0.4933 0 1
4.4658 3.2652 -1.5235 0.4860 0 1
4.4015 3.4978 -1.5483 0.4783 0 1
4.3313 3.7352 -1.5751 0.4701 0 1
4.2547 3.9779 -1.6040 0.4616 0 1
4.1713 4.2263 -1.6353 0.4528 0 1
4.0771 4.4768 -1.6675 0.4568 0 1
3.9726 4.7304 -1.7011 0.4478 0 1
3.8605 4.9908 -1.7376 0.4364 0 1
3.7423 5.2616 -1.7781 0.4265 0 1
3.6147 5.5403 -1.8217 0.4163 0 1
3.4770 5.8278 -1.8688 0.4058 0 1
3.3283 6.1247 -1.9196 0.3950 0 1
3.1673 6.4312 -1.9742 0.3813 0 1
2.9883 6.7372 -2.0296 0.3931 0 1
2.7918 7.0444 -2.0867 0.3824 0 1
2.5807 7.3618 -2.1483 0.3714 0 1
2.3538 7.6904 -2.2148 0.3603 0 1
2.1130 8.0442 -2.2904 0.3296 0 1
1.8592 8.4442 -2.3811 0.3171 0 1
1.5819 8.8660 -2.4801 0.3044 0 1
1.2745 9.2855 -2.5811 0.3155 0 1
0.9393 9.7286 -2.6916 0.3003 0 1
0.5709 10.1655 -2.8038 0.2880 0 1
0.1695 10.6249 -2.9263 0.2626 0 1
-0.2700 11.1554 -3.0729 0.2500 0 1
-0.7542 11.7037 -3.2297 0.2423 0 24
-1.2942 12.3390 -3.4166 0.2239 0 1
-1.8820 12.9188 -3.5952 0.2129 0 24
-2.5598 13.6927 -3.8361 0.1994 0 1
-3.3145 14.4840 -4.0918 0.1785 0 1
-4.1664 15.3455 -4.3789 0.1676 0 1
-5.1224 16.2554 -4.6935 0.1596 0 1
-6.2041 17.2407 -5.0459 0.1519 0 1
-7.4262 18.2960 -5.4377 0.1381 0 1
-8.8843 19.5923 -5.9243 0.1196 0 1
-10.6406 21.1629 -6.5232 0.1108 0 1
-12.7333 22.9777 -7.2344 0.1053 0 1
-15.0956 24.8336 -8.0032 0.1057 0 1
-17.3032 26.0486 -8.6119 0.0822 0 2
-20.9073 28.8873 -9.8201 0.0721 0 2
-46.1007 8.5216 -13.4712 0.9744 0 22
-24.6888 -17.6354 -8.7182 0.7049 15 6
-33.9737 -31.0661 -13.2282 0.6435 0 20
-25.7241 -25.4925 -10.4065 0.4065 0 20
-23.7381 -25.4929 -10.0093 0.9977 0 20
-24.2605 -28.2473 -10.6994 0.9033 0 9
-21.9968 -27.7955 -10.1854 0.0723 0 2
-18.3788 -25.2436 -8.9724 0.0820 0 2
-16.1144 -24.1112 -8.3331 0.0760 0 1
-13.1813 -21.5474 -7.2582 0.1011 0 24
-11.1987 -20.0747 -6.6052 0.1102 0 1
-9.4665 -18.6962 -6.0217 0.1211 0 1
-7.9801 -17.4671 -5.5181 0.1337 0 1
-6.7068 -16.3908 -5.0888 0.1472 0 1
-5.6139 -15.4638 -4.7272 0.1636 0 1
-4.6602 -14.6445 -4.4159 0.1789 0 1
-3.8181 -13.9072 -4.1440 0.1928 0 1
-3.0679 -13.2348 -3.9038 0.2043 0 1
-2.3962 -12.6205 -3.6912 0.2213 0 1
-1.7899 -12.0485 -3.5001 0.2272 0 1
-1.2382 -11.4927 -3.3215 0.2340 0 1
-0.7373 -10.9598 -3.1564 0.2456 0 1
-0.2826 -10.4564 -3.0057 0.2570 0 1
0.1311 -9.9818 -2.8685 0.2713 0 1
0.5068 -9.5032 -2.7346 0.2806 0 24
0.8540 -9.1138 -2.6303 0.2958 0 1
1.1708 -8.7121 -2.5259 0.3082 0 1
1.4612 -8.3252 -2.4288 0.3205 0 1
1.7287 -7.9585 -2.3402 0.3341 0 1
1.9706 -7.5892 -2.2530 0.3488 0 24
2.2051 -7.2777 -2.1851 0.3615 0 1
2.4171 -6.9577 -2.1165 0.3732 0 1
2.6131 -6.6482 -2.0526 0.3838 0 1
2.7949 -6.3494 -1.9934 0.3952 0 1
2.9637 -6.0607 -1.9386 0.4064 0 1
3.1205 -5.7811 -1.8877 0.4173 0 1
3.2663 -5.5099 -1.8405 0.4278 0 1
3.3911 -5.2298 -1.7910 0.4241 0 1
3.5072 -4.9606 -1.7457 0.4287 0 1
3.6149 -4.7005 -1.7039 0.4392 0 1
3.7142 -4.4481 -1.6651 0.4494 0 1
3.8057 -4.2026 -1.6292 0.4593 0 1
3.8900 -3.9636 -1.5958 0.4689 0 1
3.9741 -3.7366 -1.5674 0.4968 0 1
4.0547 -3.5167 -1.5423 0.5049 0 1
4.1295 -3.3007 -1.5190 0.5127 0 1
4.1988 -3.0882 -1.4977 0.5200 0 1
4.2628 -2.8790 -1.4781 0.5269 0 1
4.3231 -2.6735 -1.4606 0.5333 0 1
4.3786 -2.4705 -1.4446 0.5391 0 1
4.4295 -2.2699 -1.4302 0.5446 0 1
4.4762 -2.0713 -1.4172 0.5496 0 1
4.5187 -1.8746 -1.4057 0.5542 0 1
4.5571 -1.6794 -1.3956 0.5582 0 1
4.5916 -1.4857 -1.3867 0.5617 0 1
4.6223 -1.2931 -1.3792 0.5648 0 1
4.1899 -0.9927 -1.2373 0.6718 25 14
3.8775 -0.7557 -1.1351 0.7333 25 14
3.8651 -0.5933 -1.1236 0.7496 25 14
3.8557 -0.4343 -1.1149 0.7554 25 14
3.8473 -0.2776 -1.1084 0.7599 25 14
3.8400 -0.1224 -1.1040 0.7629 25 14
3.8356 0.0318 -1.1022 0.7641 25 14
3.8370 0.1860 -1.1038 0.7630 25 14
3.8393 0.3410 -1.1075 0.7605 25 14
3.8425 0.4974 -1.1133 0.7565 25 14
3.8467 0.6559 -1.1213 0.7511 25 14
3.9037 0.8282 -1.1467 0.7370 25 14
4.7370 1.2055 -1.4045 0.5570 0 1
4.7187 1.4048 -1.4147 0.5447 0 1
4.6940 1.6052 -1.4255 0.5406 0 1
4.6652 1.8076 -1.4376 0.5361 0 1
4.6322 2.0122 -1.4512 0.5310 0 1
4.5949 2.2194 -1.4663 0.5252 0 1
4.5532 2.4293 -1.4829 0.5194 0 1
4.5067 2.6422 -1.5011 0.5130 0 1
4.4553 2.8584 -1.5210 0.5063 0 1
4.3987 3.0781 -1.5427 0.4992 0 1
4.3370 3.3020 -1.5663 0.4917 0 1
4.2698 3.5303 -1.5920 0.4838 0 1
4.1965 3.7633 -1.6197 0.4755 0 1
4.1167 4.0013 -1.6496 0.4669 0 1
4.0301 4.2448 -1.6819 0.4579 0 1
3.9324 4.4898 -1.7150 0.4620 0 1
3.8248 4.7379 -1.7497 0.4528 0 1
3.7106 4.9941 -1.7878 0.4412 0 1
3.5888 5.2587 -1.8294 0.4312 0 1
3.4576 5.5309 -1.8743 0.4208 0 1
3.3161 5.8113 -1.9226 0.4103 0 1
3.1631 6.0996 -1.9743 0.3966 0 1
2.9972 6.3955 -2.0295 0.3862 0 1
2.8156 6.6952 -2.0870 0.3977 0 1
2.6158 6.9931 -2.1454 0.3869 0 1
2.4014 7.3005 -2.2083 0.3758 0 1
2.1711 7.6182 -2.2762 0.3646 0 1
1.9284 7.9671 -2.3554 0.3334 0 1
1.6700 8.3529 -2.4477 0.3208 0 1
1.3881 8.7590 -2.5483 0.3082 0 1
1.0782 9.1718 -2.6536 0.3168 0 1
0.7379 9.5810 -2.7612 0.3042 0 1
0.3672 9.9954 -2.8741 0.2922 0 1
-0.0359 10.4330 -2.9979 0.2666 0 1
-0.4770 10.9355 -3.1452 0.2541 0 1
-0.9607 11.4455 -3.3004 0.2459 0 24
-1.4997 12.0429 -3.4872 0.2282 0 1
-2.0825 12.5805 -3.6641 0.2165 0 24
-2.7549 13.3029 -3.9036 0.2038 0 1
-3.4928 14.0084 -4.1485 0.1840 0 1
-4.3254 14.7908 -4.4281 0.1724 0 1
-5.2574 15.6208 -4.7360 0.1657 0 1
-6.3013 16.4996 -5.0751 0.1571 0 1
-7.4723 17.4319 -5.4498 0.1458 0 1
-8.8422 18.5353 -5.9010 0.1222 0 1
-10.4998 19.9113 -6.4682 0.1068 0 1
-12.4774 21.5209 -7.1481 0.1089 0 1
-14.7002 23.1594 -7.8821 0.1117 0 1
-16.7767 24.2237 -8.4669 0.6094 0 2
-19.7749 26.2364 -9.4405 0.0780 0 2
-23.7500 29.0100 -10.7731 0.0683 0 25
-22.4674 25.2992 -9.7224 0.6954 0 5
-22.5576 23.4344 -9.3465 0.7253 0 5
-22.6699 21.7333 -9.0240 0.7371 0 5
-22.7977 20.1634 -8.7454 0.8448 0 5
-22.8501 18.6298 -8.4715 0.7093 0 5
-22.9152 17.1989 -8.2329 0.8291 0 5
-32.8089 22.6244 -11.4517 0.8991 0 3
-26.7899 16.9285 -9.1061 0.8547 0 3
-28.2341 16.2932 -9.3669 0.8898 0 3
-33.8184 17.7457 -10.9742 0.4526 0 3
-37.3427 17.7213 -11.8772 0.4182 0 3
-41.8139 17.8235 -13.0610 0.9235 0 3
-26.8291 7.7868 -8.0273 0.9547 0 22
-46.1188 9.4531 -13.5275 0.9820 0 22
-46.0998 7.5352 -13.4223 0.9503 0 22
-35.7900 -31.4750 -13.6952 0.6312 0 20
-32.5801 -31.0583 -12.9340 0.6581 0 20
-30.0517 -31.0442 -12.4153 0.6856 0 20
-26.4944 -29.6648 -11.4288 0.8825 0 9
-22.6399 -27.4955 -10.2344 0.8649 0 9
-20.0252 -26.4133 -9.5244 0.0773 0 2
-16.8245 -24.1469 -8.4566 0.6021 0 2
-14.3890 -22.5286 -7.6812 0.0699 0 24
-12.0986 -20.7326 -6.8976 0.1070 0 24
-10.2683 -19.3400 -6.2920 0.1157 0 1
-8.6694 -18.0421 -5.7518 0.1283 0 1
-7.2972 -16.8918 -5.2873 0.1417 0 1
-6.1213 -15.8939 -4.8940 0.1581 0 1
-5.1042 -15.0253 -4.5598 0.1729 0 1
-4.2122 -14.2544 -4.2710 0.1849 0 1
-3.4201 -13.5540 -4.0168 0.1989 0 1
-2.7108 -12.9066 -3.7896 0.2155 0 1
-2.0757 -12.3234 -3.5909 0.2215 0 1
-1.4982 -11.7599 -3.4065 0.2282 0 1
-0.9731 -11.2138 -3.2343 0.2397 0 1
-0.4968 -10.6963 -3.0768 0.2511 0 1
-0.0637 -10.1859 -2.9269 0.2615 0 24
0.3306 -9.7482 -2.8027 0.2776 0 1
0.6910 -9.3149 -2.6840 0.2899 0 1
1.0213 -8.9038 -2.5752 0.3022 0 1
1.3240 -8.5097 -2.4746 0.3146 0 1
1.6022 -8.1331 -2.3819 0.3283 0 1
1.8537 -7.7538 -2.2908 0.3431 0 24
2.0967 -7.4367 -2.2202 0.3557 0 1
2.3167 -7.1107 -2.1489 0.3675 0 1
2.5203 -6.7963 -2.0829 0.3782 0 1
2.7088 -6.4924 -2.0214 0.3897 0 1
2.8837 -6.1989 -1.9645 0.4010 0 1
3.0462 -5.9150 -1.9118 0.4121 0 1
3.1973 -5.6399 -1.8629 0.4229 0 1
3.3327 -5.3647 -1.8148 0.4185 0 1
3.4521 -5.0891 -1.7670 0.4235 0 1
3.5640 -4.8251 -1.7237 0.4342 0 1
3.6672 -4.5691 -1.6835 0.4445 0 1
3.7625 -4.3203 -1.6462 0.4546 0 1
3.8502 -4.0783 -1.6116 0.4644 0 1
3.9330 -3.8443 -1.5803 0.4928 0 1
4.0165 -3.6224 -1.5542 0.5011 0 1
4.0941 -3.4045 -1.5300 0.5090 0 1
4.1660 -3.1904 -1.5078 0.5165 0 1
4.2325 -2.9796 -1.4873 0.5236 0 1
4.2946 -2.7724 -1.4688 0.5303 0 1
4.3523 -2.5682 -1.4521 0.5364 0 1
4.4055 -2.3665 -1.4370 0.5420 0 1
4.4542 -2.1669 -1.4233 0.5473 0 1
4.4987 -1.9694 -1.4111 0.5520 0 1
4.5391 -1.7735 -1.4003 0.5563 0 1
4.5754 -1.5791 -1.3908 0.5601 0 1
4.6079 -1.3860 -1.3827 0.5634 0 1
4.6366 -1.1939 -1.3758 0.5662 0 1
3.9122 -0.8415 -1.1499 0.7349 25 14
3.8700 -0.6711 -1.1286 0.7463 25 14
3.8601 -0.5108 -1.1188 0.7528 25 14
3.8512 -0.3530 -1.1113 0.7579 25 14
3.8434 -0.1972 -1.1058 0.7616 25 14
3.8363 -0.0426 -1.1024 0.8018 25 14
3.8362 0.1115 -1.1028 0.7637 25 14
3.8381 0.2660 -1.1055 0.7619 25 14
3.8409 0.4217 -1.1103 0.7586 25 14
3.8446 0.5791 -1.1172 0.7539 25 14
3.8676 0.7424 -1.1316 0.7468 25 14
4.1458 0.9699 -1.2234 0.6794 25 14
4.7292 1.3087 -1.4100 0.5466 0 1
4.7064 1.5082 -1.4201 0.5427 0 1
4.6796 1.7096 -1.4316 0.5383 0 1
4.6487 1.9132 -1.4445 0.5335 0 1
4.6134 2.1190 -1.4588 0.5279 0 1
4.5739 2.3276 -1.4747 0.5223 0 1
4.5298 2.5390 -1.4921 0.5161 0 1
4.4808 2.7536 -1.5112 0.5096 0 1
4.4267 2.9715 -1.5320 0.5027 0 1
4.3674 3.1933 -1.5546 0.4954 0 1
4.3030 3.4195 -1.5793 0.4877 0 1
4.2326 3.6502 -1.6060 0.4796 0 1
4.1561 3.8857 -1.6349 0.4711 0 1
4.0728 4.1265 -1.6660 0.4623 0 1
3.9816 4.3720 -1.6992 0.4663 0 1
3.8777 4.6174 -1.7326 0.4573 0 1
3.7662 4.8688 -1.7687 0.4460 0 1
3.6488 5.1301 -1.8089 0.4361 0 1
3.5222 5.3985 -1.8522 0.4259 0 1
3.3858 5.6749 -1.8988 0.4154 0 1
3.2386 5.9597 -1.9490 0.4047 0 1
3.0788 6.2515 -2.0024 0.3911 0 1
2.9062 6.5521 -2.0596 0.3805 0 1
2.7140 6.8481 -2.1167 0.3921 0 1
2.5068 7.1509 -2.1774 0.3812 0 1
2.2844 7.4635 -2.2428 0.3701 0 1
2.0455 7.7874 -2.3136 0.3394 0 1
1.7975 8.1642 -2.4021 0.3269 0 1
1.5273 8.5603 -2.4986 0.3143 0 1
1.2321 8.9765 -2.6035 0.3254 0 1
0.9064 9.3876 -2.7100 0.3099 0 1
0.5500 9.7929 -2.8184 0.2980 0 1
0.1630 10.2176 -2.9364 0.2860 0 1
-0.2588 10.6890 -3.0723 0.2601 0 1
-0.7216 11.1975 -3.2242 0.2527 0 24
-1.2340 11.7646 -3.3990 0.2331 0 1
-1.7901 12.2879 -3.5681 0.2235 0 24
-2.4268 12.9814 -3.7948 0.2097 0 1
-3.1262 13.6610 -4.0269 0.1976 0 1
-3.9110 14.4045 -4.2889 0.1780 0 1
-4.7949 15.2161 -4.5842 0.1712 0 1
-5.7642 16.0185 -4.8918 0.1605 0 24
-6.8885 16.9712 -5.2630 0.1509 0 1
-8.1409 17.9529 -5.6643 0.1346 0 1
-9.6614 19.2154 -6.1801 0.1167 0 1
-11.4915 20.7368 -6.8124 0.1102 0 1
-13.5965 22.3676 -7.5215 0.1035 0 1
-15.8816 23.9085 -8.2476 0.1067 0 1
-18.1533 25.0822 -8.8969 0.0827 0 2
-33.9806 -31.0724 -13.7851 0.6406 0 20
-25.6166 -25.3859 -10.7970 0.9983 0 20
-23.7273 -25.4814 -10.4238 0.3417 0 20
-22.6240 -26.3419 -10.3956 0.0735 0 2
-19.0984 -24.1330 -9.2137 0.0830 0 2
-16.9710 -23.3099 -8.6322 0.8306 0 2
-13.9914 -20.9347 -7.5383 0.0991 0 1
-11.9353 -19.5106 -6.8473 0.1104 0 1
-10.1905 -18.2674 -6.2623 0.1221 0 1
-8.6800 -17.1430 -5.7527 0.1316 0 1
-7.3814 -16.1567 -5.3179 0.1463 0 1
-6.2508 -15.2765 -4.9415 0.1626 0 1
-5.2636 -14.4986 -4.6178 0.1776 0 1
-4.3907 -13.7976 -4.3349 0.1892 0 1
-3.6123 -13.1578 -4.0849 0.2031 0 1
-2.9125 -12.5641 -3.8612 0.2197 0 1
-2.2811 -12.0145 -3.6612 0.2256 0 1
-1.7066 -11.4877 -3.4769 0.2322 0 1
-1.1827 -10.9777 -3.3055 0.2442 0 1
-0.7058 -10.4914 -3.1480 0.2548 0 1
-0.2711 -10.0291 -3.0036 0.2691 0 1
0.1256 -9.5654 -2.8639 0.2777 0 24
0.4897 -9.1812 -2.7526 0.2936 0 1
0.8235 -8.7881 -2.6425 0.3058 0 1
1.1306 -8.4131 -2.5414 0.3180 0 1
1.4130 -8.0508 -2.4471 0.3318 0 1
1.6742 -7.7074 -2.3613 0.3474 0 1
1.9106 -7.3581 -2.2759 0.3586 0 24
2.1403 -7.0638 -2.2097 0.3712 0 1
2.3481 -6.7592 -2.1422 0.3819 0 1
2.5407 -6.4639 -2.0793 0.3935 0 1
2.7196 -6.1784 -2.0209 0.4048 0 1
2.8860 -5.9017 -1.9668 0.4160 0 1
3.0408 -5.6334 -1.9165 0.4269 0 1
3.1836 -5.3704 -1.8691 0.4220 0 1
3.3064 -5.0991 -1.8194 0.4335 0 1
3.4200 -4.8372 -1.7736 0.4382 0 1
3.5271 -4.5864 -1.7321 0.4487 0 1
3.6260 -4.3425 -1.6937 0.4589 0 1
3.7172 -4.1049 -1.6579 0.4688 0 1
3.8022 -3.8741 -1.6251 0.4977 0 1
3.8885 -3.6562 -1.5979 0.5061 0 1
3.9688 -3.4422 -1.5728 0.5142 0 1
4.0433 -3.2317 -1.5496 0.5219 0 1
4.1123 -3.0246 -1.5283 0.5292 0 1
4.1762 -2.8205 -1.5087 0.5361 0 1
4.2361 -2.6197 -1.4911 0.5424 0 1
4.2915 -2.4214 -1.4752 0.5483 0 1
4.3423 -2.2251 -1.4607 0.5538 0 1
4.3888 -2.0309 -1.4478 0.5588 0 1
4.4312 -1.8383 -1.4362 0.5633 0 1
4.4695 -1.6472 -1.4261 0.5673 0 1
4.5039 -1.4573 -1.4172 0.5708 0 1
4.5344 -1.2685 -1.4096 0.5739 0 1
4.2893 -1.0162 -1.3197 0.3395 25 14
3.9027 -0.7606 -1.1904 0.7262 25 14
3.8896 -0.5971 -1.1781 0.7424 25 14
3.8799 -0.4371 -1.1689 0.7483 25 14
3.8714 -0.2793 -1.1620 0.7527 25 14
3.8609 -0.1231 -1.1565 0.7937 25 14
3.8556 0.0319 -1.1543 0.7952 25 14
3.8609 0.1872 -1.1572 0.7558 25 14
3.8633 0.3431 -1.1612 0.7533 25 14
3.8667 0.5006 -1.1673 0.7493 25 14
3.8711 0.6601 -1.1757 0.7440 25 14
3.9157 0.8307 -1.1984 0.7323 25 14
4.6458 1.1823 -1.4352 0.5660 0 1
4.6253 1.3770 -1.4448 0.5539 0 1
4.6004 1.5732 -1.4556 0.5498 0 1
4.5714 1.7713 -1.4677 0.5453 0 1
4.5382 1.9714 -1.4813 0.5403 0 1
4.5007 2.1739 -1.4964 0.5345 0 1
4.4588 2.3789 -1.5130 0.5286 0 1
4.4122 2.5868 -1.5312 0.5223 0 1
4.3606 2.7976 -1.5511 0.5157 0 1
4.3039 3.0118 -1.5727 0.5086 0 1
4.2422 3.2298 -1.5962 0.5011 0 1
4.1749 3.4519 -1.6218 0.4932 0 1
4.1017 3.6783 -1.6494 0.4849 0 1
4.0220 3.9093 -1.6792 0.4763 0 1
3.9356 4.1453 -1.7113 0.4674 0 1
3.8410 4.3855 -1.7453 0.4714 0 1
3.7341 4.6257 -1.7798 0.4623 0 1
3.6206 4.8729 -1.8175 0.4507 0 1
3.4998 5.1283 -1.8588 0.4407 0 1
3.3698 5.3904 -1.9032 0.4304 0 1
3.2298 5.6600 -1.9509 0.4199 0 1
3.0777 5.9350 -2.0015 0.4063 0 1
2.9141 6.2183 -2.0559 0.3955 0 1
2.7377 6.5100 -2.1143 0.3849 0 1
2.5435 6.7999 -2.1735 0.3966 0 1
2.3331 7.0931 -2.2354 0.3856 0 1
2.1076 7.3952 -2.3021 0.3744 0 1
1.8673 7.7147 -2.3763 0.3432 0 1
1.6151 8.0783 -2.4664 0.3307 0 1
1.3407 8.4596 -2.5643 0.3180 0 1
1.0416 8.8605 -2.6709 0.3053 0 1
0.7122 9.2469 -2.7765 0.3141 0 1
0.3538 9.6331 -2.8859 0.3022 0 1
-0.0345 10.0365 -3.0048 0.2903 0 1
-0.4573 10.4839 -3.1417 0.2642 0 1
-0.9196 10.9561 -3.2916 0.2564 0 24
-1.4304 11.4862 -3.4653 0.2339 0 1
-1.9822 11.9743 -3.6337 0.2272 0 24
-2.6119 12.6125 -3.8560 0.2102 0 1
-3.2999 13.2347 -4.0835 0.1985 0 1
-4.0667 13.9063 -4.3376 0.1866 0 1
-4.9297 14.6469 -4.6267 0.1714 0 1
-5.8881 15.4176 -4.9409 0.1672 0 1
-6.9468 16.2059 -5.2787 0.1563 0 1
-8.1418 17.0672 -5.6612 0.1398 0 1
-9.5527 18.1155 -6.1313 0.1291 0 1
-11.2608 19.4224 -6.7213 0.1068 0 1
-13.2590 20.8889 -7.4072 0.1090 0 1
-15.4017 22.2383 -8.0985 0.1118 0 1
-17.3363 23.0010 -8.6230 0.0886 0 2
-20.4650 24.9974 -9.6718 0.0790 0 2
-24.3138 27.3784 -10.9621 0.0697 0 25
-22.4689 23.3422 -9.6997 0.7170 0 5
-22.5592 21.6272 -9.3561 0.7383 0 5
-22.6648 20.0458 -9.0586 0.8034 0 5
-22.7401 18.5401 -8.7839 0.7836 0 5
-22.8147 17.1235 -8.5401 0.7706 0 5
-32.6655 22.5255 -11.8791 0.8352 0 3
-28.2079 17.8246 -9.9896 0.9158 0 3
-28.7501 16.5910 -9.9376 0.3746 0 3
-32.0829 16.8350 -10.8470 0.4511 0 3
-37.3405 17.7203 -12.3740 0.4168 0 3
-41.6480 17.7528 -13.5541 0.9242 0 3
-45.9412 9.4167 -14.0398 0.9766 0 22
-45.9250 7.5066 -13.9315 0.9668 0 22
-35.3412 -31.0803 -14.0899 0.6267 0 20
-31.4033 -29.9364 -12.9890 0.8922 0 9
-26.7924 -27.6772 -11.5324 0.1660 0 9
-23.5180 -26.3323 -10.5698 0.9546 0 9
-20.7093 -25.1508 -9.7537 0.0784 0 2
-17.5366 -23.1307 -8.6901 0.0880 0 2
-15.2873 -21.9407 -8.0058 0.0621 0 24
-12.8880 -20.1785 -7.1681 0.1051 0 1
-10.9987 -18.8479 -6.5332 0.1170 0 1
-9.3822 -17.6711 -5.9898 0.1264 0 1
-7.9870 -16.6219 -5.5209 0.1424 0 1
-6.7740 -15.6808 -5.1138 0.1571 0 1
-5.7241 -14.8624 -4.7681 0.1685 0 1
-4.7998 -14.1293 -4.4674 0.1836 0 1
-3.9775 -13.4602 -4.2020 0.1975 0 1
-3.2410 -12.8442 -3.9658 0.2088 0 1
-2.5787 -12.2781 -3.7560 0.2199 0 1
-1.9697 -11.6942 -3.5503 0.2286 0 24
-1.4294 -11.2201 -3.3862 0.2384 0 1
-0.9305 -10.7232 -3.2224 0.2499 0 1
-0.4760 -10.2488 -3.0716 0.2612 0 1
-0.0612 -9.7765 -2.9269 0.2716 0 24
0.3180 -9.3780 -2.8092 0.2877 0 1
0.6658 -8.9756 -2.6945 0.2999 0 1
0.9855 -8.5921 -2.5892 0.3121 0 1
1.2795 -8.2236 -2.4916 0.3245 0 1
1.5505 -7.8706 -2.4016 0.3381 0 1
1.7963 -7.5139 -2.3129 0.3530 0 24
2.0284 -7.1943 -2.2378 0.3647 0 24
2.2497 -6.9050 -2.1742 0.3773 0 1
2.4495 -6.6052 -2.1091 0.3879 0 1
2.6348 -6.3151 -2.0486 0.3994 0 1
2.8071 -6.0342 -1.9924 0.4106 0 1
2.9674 -5.7620 -1.9403 0.4216 0 1
3.1166 -5.4975 -1.8919 0.4322 0 1
3.2483 -5.2289 -1.8429 0.4280 0 1
3.3661 -4.9623 -1.7952 0.4394 0 1
3.4764 -4.7066 -1.7518 0.4436 0 1
3.5792 -4.4594 -1.7119 0.4540 0 1
3.6741 -4.2188 -1.6749 0.4640 0 1
3.7616 -3.9844 -1.6405 0.4737 0 1
3.8476 -3.7609 -1.6108 0.5021 0 1
3.9307 -3.5450 -1.5847 0.5104 0 1
4.0080 -3.3329 -1.5606 0.5182 0 1
4.0796 -3.1242 -1.5384 0.5257 0 1
4.1460 -2.9187 -1.5179 0.5328 0 1
4.2077 -2.7163 -1.4994 0.5394 0 1
4.2653 -2.5168 -1.4827 0.5455 0 1
4.3183 -2.3196 -1.4675 0.5512 0 1
4.3669 -2.1245 -1.4539 0.5564 0 1
4.4113 -1.9311 -1.4416 0.5611 0 1
4.4515 -1.7393 -1.4308 0.5654 0 1
4.4878 -1.5488 -1.4213 0.5692 0 1
4.5201 -1.3596 -1.4131 0.5725 0 1
4.5487 -1.1713 -1.4062 0.5753 0 1
3.9231 -0.8438 -1.2014 0.7305 25 14
3.8946 -0.6754 -1.1834 0.7391 25 14
3.8844 -0.5140 -1.1731 0.7456 25 14
3.8754 -0.3552 -1.1651 0.7507 25 14
3.8659 -0.1983 -1.1589 0.7921 25 14
3.8558 -0.0428 -1.1544 0.7951 25 14
3.8583 0.1121 -1.1556 0.7943 25 14
3.8621 0.2677 -1.1590 0.7547 25 14
3.8650 0.4243 -1.1640 0.7514 25 14
3.8689 0.5828 -1.1713 0.7467 25 14
3.8793 0.7447 -1.1826 0.7421 25 14
4.1810 0.9781 -1.2855 0.6715 25 14
4.6359 1.2829 -1.4401 0.5558 0 1
4.6130 1.4783 -1.4502 0.5519 0 1
4.5860 1.6754 -1.4617 0.5475 0 1
4.5548 1.8745 -1.4746 0.5427 0 1
4.5193 2.0758 -1.4889 0.5375 0 1
4.4796 2.2796 -1.5048 0.5315 0 1
4.4353 2.4860 -1.5222 0.5254 0 1
4.3862 2.6954 -1.5413 0.5189 0 1
4.3320 2.9079 -1.5620 0.5120 0 1
4.2726 3.1240 -1.5846 0.5048 0 1
4.2081 3.3441 -1.6092 0.4971 0 1
4.1378 3.5684 -1.6358 0.4890 0 1
4.0613 3.7971 -1.6645 0.4805 0 1
3.9782 4.0307 -1.6955 0.4718 0 1
3.8882 4.2694 -1.7288 0.4627 0 1
3.7867 4.5091 -1.7628 0.4668 0 1
3.6758 4.7519 -1.7986 0.4554 0 1
3.5592 5.0042 -1.8384 0.4456 0 1
3.4337 5.2630 -1.8813 0.4354 0 1
3.2986 5.5289 -1.9274 0.4250 0 1
3.1525 5.8012 -1.9767 0.4114 0 1
2.9946 6.0805 -2.0292 0.4008 0 1
2.8245 6.3681 -2.0856 0.3902 0 1
2.6400 6.6614 -2.1452 0.4018 0 1
2.4365 6.9504 -2.2050 0.3909 0 1
2.2185 7.2482 -2.2693 0.3798 0 1
1.9845 7.5553 -2.3386 0.3686 0 1
1.7395 7.9006 -2.4219 0.3367 0 1
1.4761 8.2732 -2.5159 0.3241 0 1
1.1893 8.6644 -2.6183 0.3115 0 1
0.8754 9.0661 -2.7268 0.3199 0 1
0.5304 9.4446 -2.8320 0.3080 0 1
0.1570 9.8395 -2.9461 0.2961 0 1
-0.2483 10.2574 -3.0718 0.2702 0 1
-0.6915 10.7307 -3.2192 0.2630 0 24
-1.1788 11.2389 -3.3832 0.2453 0 1
-1.7065 11.7142 -3.5440 0.2343 0 24
-2.3045 12.3270 -3.7544 0.2159 0 1
-2.9444 12.8667 -3.9516 0.2057 0 24
-3.6859 13.5755 -4.2114 0.1922 0 1
-4.5003 14.2811 -4.4827 0.1769 0 1
-5.4120 15.0396 -4.7852 0.1703 0 1
-6.4210 15.8194 -5.1113 0.1640 0 1
-7.5460 16.6410 -5.4703 0.1508 0 1
-8.8470 17.5956 -5.8961 0.1343 0 1
-10.3859 18.7417 -6.4148 0.1119 0 1
-12.2813 20.2039 -7.0785 0.1007 0 1
-14.3483 21.6002 -7.7634 0.1178 0 24
-16.7298 23.1154 -8.5426 0.6273 0 2
-35.1198 -25.0864 -13.4440 0.3396 0 20
-34.7375 -29.2930 -14.1543 0.7080 0 9
-29.6906 -27.1496 -12.5322 0.9981 0 9
-25.5642 -25.3340 -11.2110 0.6832 0 20
-23.0697 -24.7752 -10.5451 0.0752 0 2
-19.6789 -22.9129 -9.4083 0.0842 0 2
-17.4454 -22.0443 -8.7568 0.9264 0 2
-14.6838 -20.1685 -7.7711 0.0753 0 1
-12.6027 -18.8569 -7.0649 0.1140 0 1
-10.8622 -17.7563 -6.4839 0.1221 0 1
-9.3467 -16.7549 -5.9762 0.1364 0 1
-8.0308 -15.8607 -5.5378 0.1472 0 1
-6.8713 -15.0401 -5.1507 0.1617 0 1
-5.8541 -14.3070 -4.8152 0.1775 0 1
-4.9562 -13.6521 -4.5241 0.1880 0 1
-4.1390 -13.0065 -4.2517 0.1983 0 24
-3.4264 -12.4807 -4.0315 0.2134 0 1
-2.7708 -11.9529 -3.8220 0.2241 0 1
-2.1748 -11.4544 -3.6317 0.2358 0 1
-1.6293 -10.9674 -3.4538 0.2424 0 1
-1.1317 -10.5040 -3.2909 0.2544 0 1
-0.6766 -10.0577 -3.1400 0.2669 0 1
-0.2604 -9.6352 -3.0024 0.2791 0 1
0.1212 -9.2332 -2.8763 0.2913 0 1
0.4720 -8.8496 -2.7605 0.3035 0 1
0.7949 -8.4830 -2.6540 0.3157 0 1
1.0928 -8.1318 -2.5558 0.3279 0 1
1.3679 -7.7936 -2.4648 0.3451 0 1
1.6229 -7.4712 -2.3815 0.3571 0 1
1.8538 -7.1393 -2.2976 0.3684 0 24
2.0787 -6.8608 -2.2330 0.3809 0 1
2.2825 -6.5703 -2.1666 0.3916 0 1
2.4717 -6.2884 -2.1047 0.4031 0 1
2.6478 -6.0152 -2.0472 0.4144 0 1
2.8117 -5.7500 -1.9938 0.4255 0 1
2.9645 -5.4920 -1.9441 0.4361 0 1
3.1034 -5.2351 -1.8957 0.4315 0 1
3.2253 -4.9740 -1.8466 0.4429 0 1
3.3378 -4.7210 -1.8010 0.4542 0 1
3.4429 -4.4769 -1.7592 0.4581 0 1
3.5413 -4.2411 -1.7211 0.4682 0 1
3.6322 -4.0111 -1.6856 0.4781 0 1
3.7202 -3.7905 -1.6544 0.5069 0 1
3.8060 -3.5786 -1.6273 0.5153 0 1
3.8858 -3.3703 -1.6023 0.5234 0 1
3.9600 -3.1652 -1.5791 0.5311 0 1
4.0288 -2.9632 -1.5578 0.5383 0 1
4.0924 -2.7639 -1.5383 0.5452 0 1
4.1521 -2.5677 -1.5207 0.5515 0 1
4.2072 -2.3738 -1.5047 0.5574 0 1
4.2579 -2.1819 -1.4903 0.5629 0 1
4.3043 -1.9917 -1.4773 0.5678 0 1
4.3465 -1.8031 -1.4658 0.5723 0 1
4.3846 -1.6159 -1.4556 0.5763 0 1
4.4189 -1.4298 -1.4467 0.5798 0 1
4.4493 -1.2447 -1.4392 0.5860 0 1
4.4768 -1.0607 -1.4331 0.5884 0 1
3.9285 -0.7656 -1.2467 0.7190 25 14
3.9145 -0.6009 -1.2336 0.7352 25 14
3.9032 -0.4397 -1.2235 0.7780 25 14
3.8915 -0.2808 -1.2153 0.7832 25 14
3.8807 -0.1237 -1.2094 0.7870 25 14
3.8755 0.0321 -1.2072 0.7884 25 14
3.8809 0.1881 -1.2103 0.7864 25 14
3.8873 0.3453 -1.2156 0.7830 25 14
3.8914 0.5038 -1.2223 0.7421 25 14
3.8960 0.6643 -1.2311 0.7367 25 14
3.9680 0.8418 -1.2635 0.0419 25 14
4.5561 1.1595 -1.4644 0.5667 0 1
4.5350 1.3501 -1.4739 0.5631 0 1
4.5099 1.5423 -1.4847 0.5590 0 1
4.4808 1.7362 -1.4969 0.5544 0 1
4.4474 1.9320 -1.5104 0.5495 0 1
4.4097 2.1299 -1.5254 0.5437 0 1
4.3676 2.3303 -1.5420 0.5378 0 1
4.3209 2.5333 -1.5602 0.5316 0 1
4.2693 2.7390 -1.5800 0.5249 0 1
4.2125 2.9478 -1.6016 0.5178 0 1
4.1508 3.1602 -1.6251 0.5104 0 1
4.0836 3.3764 -1.6505 0.5025 0 1
4.0105 3.5965 -1.6780 0.4943 0 1
3.9310 3.8208 -1.7076 0.4857 0 1
3.8449 4.0497 -1.7395 0.4768 0 1
3.7517 4.2835 -1.7737 0.4676 0 1
3.6472 4.5179 -1.8086 0.4717 0 1
3.5343 4.7568 -1.8459 0.4602 0 1
3.4145 5.0033 -1.8869 0.4502 0 1
3.2857 5.2560 -1.9308 0.4399 0 1
3.1465 5.5140 -1.9776 0.4264 0 1
2.9964 5.7781 -2.0275 0.4159 0 1
2.8350 6.0495 -2.0811 0.4052 0 1
2.6614 6.3285 -2.1385 0.3946 0 1
2.4746 6.6158 -2.2002 0.3836 0 1
2.2682 6.8958 -2.2612 0.3953 0 1
2.0473 7.1836 -2.3268 0.3841 0 1
1.8105 7.4800 -2.3973 0.3728 0 1
1.5633 7.8195 -2.4839 0.3405 0 1
1.2961 8.1782 -2.5793 0.3279 0 1
1.0056 8.5539 -2.6829 0.3152 0 1
0.6877 8.9292 -2.7897 0.3050 0 1
0.3414 9.2940 -2.8970 0.3122 0 1
-0.0332 9.6692 -3.0119 0.3003 0 1
-0.4390 10.0655 -3.1383 0.2742 0 1
-0.8826 10.5150 -3.2869 0.2618 0 1
-1.3676 10.9819 -3.4472 0.2530 0 1
-1.8908 11.4224 -3.6065 0.2391 0 24
-2.4817 11.9840 -3.8122 0.2205 0 1
-3.1262 12.5384 -4.0252 0.2088 0 1
-3.8267 13.0855 -4.2468 0.1960 0 24
-4.6332 13.7659 -4.5244 0.1855 0 1
-5.5196 14.4528 -4.8191 0.1753 0 1
-6.4922 15.1456 -5.1330 0.1669 0 1
-7.5675 15.8633 -5.4748 0.1588 0 1
-8.8011 16.6900 -5.8774 0.1381 0 1
-10.2221 17.6309 -6.3482 0.1279 0 1
-11.9493 18.8256 -6.9457 0.1065 0 1
-13.9568 20.1520 -7.6357 0.0995 0 1
-16.0172 21.2508 -8.2892 0.1132 0 1
-17.9638 21.9422 -8.8333 0.0897 0 2
-20.9998 23.6466 -9.8511 0.0805 0 2
-24.6757 25.6348 -11.0835 0.0715 0 25
-22.4488 21.5213 -9.6871 0.7396 0 5
-22.5436 19.9386 -9.3747 0.7675 0 5
-22.6691 18.4822 -9.1108 0.7801 0 5
-22.7230 17.0547 -8.8500 0.8687 0 5
-32.5218 22.4264 -12.3055 0.8361 0 3
-28.1426 17.7833 -10.3698 0.5158 0 3
-32.6815 18.8597 -11.7536 0.8754 0 3
-33.8147 17.7438 -11.8952 0.4496 0 3
-37.3383 17.7192 -12.8739 0.4155 0 3
-32.2224 13.7350 -10.9110 0.3421 0 5
-31.3661 -27.5844 -13.0112 0.7495 0 9
-27.6121 -26.3223 -11.8830 0.9900 0 9
-24.2242 -25.0242 -10.8489 0.4329 0 9
-21.2350 -23.7761 -9.9300 0.0798 0 2
-18.1594 -22.0541 -8.8989 0.0891 0 2
-16.0693 -21.1954 -8.2852 0.0650 0 24
-13.5303 -19.4190 -7.3724 0.1051 0 1
-11.6737 -18.2772 -6.7554 0.1172 0 1
-10.0524 -17.2262 -6.2127 0.1276 0 1
-8.6446 -16.2820 -5.7423 0.1420 0 1
-7.4106 -15.4224 -5.3298 0.1514 0 1
-6.3304 -14.6538 -4.9723 0.1663 0 1
-5.3780 -13.9639 -4.6611 0.1825 0 1
-4.5286 -13.3307 -4.3855 0.1962 0 1
-3.7673 -12.7488 -4.1410 0.2078 0 1
-3.0794 -12.2038 -3.9206 0.2185 0 1
-2.4556 -11.6916 -3.7214 0.2302 0 1
-1.8790 -11.1557 -3.5239 0.2385 0 24
-1.3663 -10.7246 -3.3677 0.2486 0 1
-0.8913 -10.2708 -3.2113 0.2590 0 1
-0.4568 -9.8365 -3.0673 0.2732 0 1
-0.0588 -9.3962 -2.9269 0.2815 0 24
0.3063 -9.0326 -2.8152 0.2976 0 1
0.6423 -8.6580 -2.7043 0.3098 0 1
0.9520 -8.2996 -2.6022 0.3220 0 1
1.2377 -7.9545 -2.5076 0.3358 0 1
1.5022 -7.6253 -2.4209 0.3513 0 1
1.7473 -7.3091 -2.3409 0.3633 0 1
1.9691 -6.9838 -2.2602 0.3744 0 24
2.1861 -6.7097 -2.1982 0.3869 0 1
2.3820 -6.4234 -2.1340 0.3975 0 1
2.5643 -6.1461 -2.0744 0.4090 0 1
2.7340 -5.8771 -2.0191 0.4202 0 1
2.8921 -5.6157 -1.9676 0.4309 0 1
3.0393 -5.3613 -1.9197 0.4416 0 1
3.1676 -5.0990 -1.8699 0.4374 0 1
3.2846 -4.8422 -1.8226 0.4488 0 1
3.3926 -4.5931 -1.7787 0.4599 0 1
3.4948 -4.3542 -1.7391 0.4634 0 1
3.5892 -4.1214 -1.7024 0.4734 0 1
3.6765 -3.8943 -1.6682 0.4831 0 1
3.7653 -3.6805 -1.6401 0.5113 0 1
3.8480 -3.4704 -1.6141 0.5196 0 1
3.9249 -3.2638 -1.5901 0.5274 0 1
3.9962 -3.0604 -1.5679 0.5349 0 1
4.0623 -2.8598 -1.5475 0.5419 0 1
4.1238 -2.6621 -1.5290 0.5486 0 1
4.1812 -2.4672 -1.5123 0.5546 0 1
4.2340 -2.2743 -1.4971 0.5602 0 1
4.2824 -2.0833 -1.4834 0.5655 0 1
4.3266 -1.8940 -1.4712 0.5702 0 1
4.3667 -1.7061 -1.4603 0.5744 0 1
4.4028 -1.5195 -1.4508 0.5782 0 1
4.4351 -1.3340 -1.4426 0.5815 0 1
4.4640 -1.1494 -1.4359 0.5873 0 1
3.9377 -0.8470 -1.2546 0.7144 25 14
3.9197 -0.6798 -1.2392 0.7319 25 14
3.9092 -0.5173 -1.2283 0.7749 25 14
3.8970 -0.3572 -1.2190 0.7808 25 14
3.8858 -0.1993 -1.2120 0.7853 25 14
3.8756 -0.0430 -1.2073 0.7884 25 14
3.8782 0.1127 -1.2086 0.7876 25 14
3.8841 0.2692 -1.2128 0.7848 25 14
3.8895 0.4270 -1.2188 0.7441 25 14
3.8936 0.5865 -1.2265 0.7395 25 14
3.9021 0.7491 -1.2377 0.7242 25 14
4.2771 1.0006 -1.3683 0.3395 25 14
4.5457 1.2579 -1.4692 0.5649 0 1
4.5225 1.4493 -1.4793 0.5610 0 1
4.4954 1.6423 -1.4908 0.5567 0 1
4.4641 1.8372 -1.5037 0.5519 0 1
4.4284 2.0341 -1.5180 0.5467 0 1
4.3885 2.2332 -1.5338 0.5407 0 1
4.3441 2.4349 -1.5512 0.5346 0 1
4.2948 2.6393 -1.5702 0.5282 0 1
4.2406 2.8466 -1.5909 0.5213 0 1
4.1812 3.0572 -1.6134 0.5141 0 1
4.1168 3.2715 -1.6380 0.5064 0 1
4.0466 3.4897 -1.6645 0.4983 0 1
3.9702 3.7120 -1.6930 0.4899 0 1
3.8874 3.9386 -1.7238 0.4812 0 1
3.7976 4.1700 -1.7569 0.4721 0 1
3.6993 4.4050 -1.7918 0.4762 0 1
3.5893 4.6401 -1.8273 0.4669 0 1
3.4734 4.8835 -1.8667 0.4550 0 1
3.3491 5.1332 -1.9092 0.4449 0 1
3.2152 5.3889 -1.9547 0.4314 0 1
3.0702 5.6497 -2.0029 0.4210 0 1
2.9144 5.9175 -2.0547 0.4104 0 1
2.7469 6.1929 -2.1103 0.3999 0 1
2.5665 6.4760 -2.1699 0.3889 0 1
2.3697 6.7597 -2.2312 0.4006 0 1
2.1559 7.0436 -2.2945 0.3895 0 1
1.9269 7.3358 -2.3626 0.3783 0 1
1.6847 7.6519 -2.4406 0.3465 0 1
1.4279 8.0030 -2.5323 0.3340 0 1
1.1489 8.3703 -2.6317 0.3213 0 1
0.8447 8.7489 -2.7379 0.3083 0 1
0.5121 9.1181 -2.8447 0.3179 0 1
0.1513 9.4862 -2.9553 0.3060 0 1
-0.2389 9.8693 -3.0752 0.2941 0 1
-0.6634 10.2949 -3.2135 0.2678 0 1
-1.1255 10.7306 -3.3609 0.2595 0 24
-1.6349 11.2229 -3.5328 0.2401 0 1
-2.1925 11.7281 -3.7166 0.2262 0 1
-2.7948 12.2131 -3.9027 0.2167 0 24
-3.4860 12.8392 -4.1442 0.2025 0 1
-4.2396 13.4538 -4.3939 0.1910 0 1
-5.0795 14.1156 -4.6730 0.1759 0 1
-6.0110 14.8094 -4.9786 0.1720 0 1
-7.0340 15.5119 -5.3055 0.1639 0 1
-8.1758 16.2608 -5.6694 0.1448 0 1
-9.5126 17.1658 -6.1132 0.1328 0 1
-11.0730 18.2161 -6.6403 0.1114 0 1
-12.9528 19.4994 -7.2919 0.1041 0 1
-15.0156 20.7468 -7.9776 0.1176 0 1
-35.1580 -25.1137 -13.9857 0.8356 0 20
-36.0888 -28.0329 -14.7920 0.7658 0 9
-29.7073 -25.0511 -12.5787 0.5002 0 9
-27.1920 -24.8648 -11.9270 0.0688 0 2
-23.3334 -23.1234 -10.6335 0.0772 0 2
-20.1146 -21.6016 -9.5544 0.0859 0 2
-18.0080 -20.9674 -8.9466 0.9646 0 2
-15.3080 -19.3435 -7.9849 0.0751 0 1
-13.1948 -18.1233 -7.2565 0.1149 0 1
-11.4765 -17.1718 -6.6856 0.1226 0 1
-9.9680 -16.2946 -6.1831 0.1355 0 1
-8.6459 -15.4984 -5.7446 0.1458 0 1
-7.4703 -14.7538 -5.3530 0.1611 0 1
-6.4300 -14.0741 -5.0087 0.1709 0 1
-5.5105 -13.4672 -4.7101 0.1870 0 1
-4.6822 -12.8973 -4.4414 0.2006 0 1
-3.9355 -12.3672 -4.2010 0.2113 0 1
-3.2567 -11.8625 -3.9819 0.2227 0 1
-2.6403 -11.3902 -3.7847 0.2343 0 1
-2.0758 -10.9328 -3.6021 0.2406 0 1
-1.5582 -10.4890 -3.4325 0.2525 0 1
-1.0846 -10.0665 -3.2773 0.2648 0 1
-0.6498 -9.6582 -3.1334 0.2769 0 1
-0.2505 -9.2686 -3.0013 0.2891 0 1
0.1168 -8.8961 -2.8799 0.3013 0 1
0.4554 -8.5391 -2.7680 0.3135 0 1
0.7681 -8.1965 -2.6648 0.3256 0 1
1.0573 -7.8673 -2.5695 0.3427 0 1
1.3211 -7.5271 -2.4737 0.3547 0 24
1.5743 -7.2475 -2.4007 0.3669 0 1
1.7999 -6.9318 -2.3182 0.3782 0 24
2.0141 -6.6475 -2.2484 0.3886 0 24
2.2200 -6.3905 -2.1898 0.4012 0 1
2.4059 -6.1211 -2.1289 0.4126 0 1
2.5792 -5.8594 -2.0723 0.4239 0 1
2.7407 -5.6048 -2.0195 0.4347 0 1
2.8914 -5.3567 -1.9704 0.4456 0 1
3.0266 -5.1056 -1.9212 0.4409 0 1
3.1475 -4.8540 -1.8726 0.4523 0 1
3.2593 -4.6099 -1.8275 0.4635 0 1
3.3626 -4.3725 -1.7855 0.4744 0 1
3.4600 -4.1436 -1.7474 0.4776 0 1
3.5505 -3.9208 -1.7122 0.4874 0 1
3.6411 -3.7100 -1.6826 0.5161 0 1
3.7264 -3.5037 -1.6557 0.5245 0 1
3.8058 -3.3008 -1.6307 0.5325 0 1
3.8796 -3.1009 -1.6077 0.5402 0 1
3.9480 -2.9038 -1.5864 0.5474 0 1
4.0114 -2.7092 -1.5669 0.5542 0 1
4.0708 -2.5174 -1.5493 0.5606 0 1
4.1257 -2.3278 -1.5334 0.5664 0 1
4.1761 -2.1400 -1.5189 0.5719 0 1
4.2223 -1.9538 -1.5060 0.5768 0 1
4.2644 -1.7691 -1.4944 0.5813 0 1
4.3024 -1.5856 -1.4842 0.5853 0 1
4.3365 -1.4031 -1.4753 0.5888 0 1
4.3673 -1.2218 -1.4679 0.5949 0 1
4.3946 -1.0412 -1.4619 0.5973 0 1
4.4184 -0.8611 -1.4571 0.5993 0 1
4.4385 -0.6814 -1.4536 0.6008 0 1
4.4551 -0.5019 -1.4512 0.6017 0 1
3.9118 -0.2822 -1.2695 0.7764 25 14
3.9009 -0.1244 -1.2634 0.7802 25 14
3.8957 0.0323 -1.2611 0.7816 25 14
3.9013 0.1891 -1.2643 0.7796 25 14
3.9077 0.3471 -1.2699 0.7762 25 14
3.9151 0.5068 -1.2779 0.7713 25 14
3.9217 0.6687 -1.2878 0.7208 25 14
4.4835 0.9512 -1.4836 0.5880 0 1
4.4688 1.1373 -1.4926 0.5757 0 1
4.4476 1.3241 -1.5021 0.5721 0 1
4.4223 1.5123 -1.5129 0.5680 0 1
4.3931 1.7022 -1.5250 0.5635 0 1
4.3596 1.8938 -1.5386 0.5586 0 1
4.3217 2.0874 -1.5535 0.5532 0 1
4.2795 2.2833 -1.5701 0.5470 0 1
4.2328 2.4816 -1.5882 0.5407 0 1
4.1811 2.6824 -1.6080 0.5341 0 1
4.1244 2.8861 -1.6294 0.5271 0 1
4.0627 3.0932 -1.6529 0.5196 0 1
3.9956 3.3036 -1.6782 0.5118 0 1
3.9226 3.5177 -1.7055 0.5036 0 1
3.8435 3.7357 -1.7349 0.4950 0 1
3.7577 3.9579 -1.7666 0.4862 0 1
3.6650 4.1845 -1.8006 0.4770 0 1
3.5636 4.4144 -1.8364 0.4811 0 1
3.4514 4.6453 -1.8733 0.4696 0 1
3.3327 4.8835 -1.9138 0.4596 0 1
3.2049 5.1267 -1.9571 0.4462 0 1
3.0668 5.3744 -2.0030 0.4360 0 1
2.9186 5.6282 -2.0522 0.4255 0 1
2.7596 5.8886 -2.1050 0.4148 0 1
2.5888 6.1558 -2.1616 0.4043 0 1
2.4052 6.4301 -2.2222 0.3933 0 1
2.2065 6.7080 -2.2858 0.4049 0 1
1.9899 6.9824 -2.3502 0.3938 0 1
1.7583 7.2643 -2.4193 0.3826 0 1
1.5145 7.5752 -2.5006 0.3502 0 1
1.2541 7.9131 -2.5934 0.3377 0 1
0.9717 8.2659 -2.6941 0.3250 0 1
0.6636 8.6157 -2.7971 0.3125 0 1
0.3296 8.9734 -2.9066 0.3031 0 1
-0.0320 9.3255 -3.0186 0.3103 0 1
-0.4226 9.6883 -3.1390 0.2984 0 1
-0.8470 10.0903 -3.2777 0.2719 0 1
-1.3102 10.5210 -3.4319 0.2632 0 1
-1.8072 10.9171 -3.5819 0.2496 0 24
-2.3633 11.4121 -3.7724 0.2328 0 1
-2.9575 11.8614 -3.9570 0.2207 0 24
-3.6228 12.3882 -4.1779 0.2065 0 24
-4.3725 12.9914 -4.4370 0.1959 0 1
-5.1884 13.5856 -4.7074 0.1846 0 1
-6.0875 14.2013 -5.0014 0.1773 0 1
-7.0730 14.8266 -5.3174 0.1668 0 1
-8.1600 15.4744 -5.6627 0.1575 0 1
-9.4072 16.2255 -6.0710 0.1384 0 1
-10.8551 17.1017 -6.5567 0.1220 0 1
-12.5639 18.1409 -7.1429 0.1107 0 1
-14.5393 19.2900 -7.8190 0.1161 0 1
-16.7179 20.4205 -8.5426 0.6735 0 2
-18.4655 20.7929 -9.0015 0.0912 0 2
-21.3751 22.2059 -9.9769 0.0823 0 2
-24.8387 23.8125 -11.1381 0.0737 0 25
-22.4636 19.8679 -9.7073 0.6953 0 5
-22.5318 18.3702 -9.4103 0.7816 0 5
-22.6461 16.9970 -9.1655 0.8163 0 5
-32.3785 22.3275 -12.7311 0.8368 0 3
-28.1412 17.7824 -10.7754 0.5140 0 3
-32.5439 18.7803 -12.1625 0.8760 0 3
-33.8128 17.7428 -12.3604 0.4481 0 3
-37.3361 17.7182 -13.3773 0.4140 0 3
-32.1246 13.6933 -11.3038 0.4224 0 5
-41.0259 13.7154 -14.0023 0.3981 0 5
-23.0933 -4.6657 -7.6262 0.3951 16 6
-25.0954 -17.2011 -9.8483 0.5322 0 20
-36.7147 -27.3946 -14.8280 0.8153 0 9
-33.4388 -27.1061 -13.9335 0.6946 0 9
-28.2507 -24.8447 -12.1778 0.8094 0 9
-25.1064 -23.9337 -11.2278 0.0731 0 2
-21.5986 -22.3119 -10.0519 0.0817 0 2
-18.6543 -20.8866 -9.0648 0.0905 0 2
-16.7216 -20.3079 -8.5152 0.0682 0 1
-14.1088 -18.6095 -7.5593 0.1105 0 1
-12.2835 -17.6296 -6.9552 0.1199 0 1
-10.6709 -16.7071 -6.4170 0.1300 0 1
-9.2638 -15.8749 -5.9496 0.1408 0 1
-8.0208 -15.1069 -5.5365 0.1525 0 1
-6.9176 -14.3964 -5.1701 0.1656 0 1
-5.9414 -13.7532 -4.8495 0.1825 0 1
-5.0709 -13.1663 -4.5670 0.1928 0 1
-4.2869 -12.6195 -4.3141 0.2065 0 1
-3.5765 -12.1033 -4.0852 0.2158 0 1
-2.9199 -11.5717 -3.8631 0.2277 0 24
-2.3429 -11.1551 -3.6896 0.2404 0 1
-1.8023 -10.7005 -3.5125 0.2468 0 1
-1.3081 -10.2680 -3.3505 0.2587 0 1
-0.8550 -9.8529 -3.2013 0.2711 0 1
-0.4391 -9.4545 -3.0637 0.2832 0 1
-0.0566 -9.0416 -2.9268 0.2911 0 24
0.2953 -8.7096 -2.8209 0.3076 0 1
0.6202 -8.3602 -2.7136 0.3198 0 1
0.9204 -8.0245 -2.6145 0.3319 0 1
1.1986 -7.7035 -2.5236 0.3490 0 1
1.4565 -7.3933 -2.4392 0.3611 0 1
1.6959 -7.0939 -2.3610 0.3730 0 1
1.9127 -6.7839 -2.2815 0.3835 0 24
2.1254 -6.5235 -2.2209 0.3956 0 1
2.3178 -6.2502 -2.1578 0.4071 0 1
2.4970 -5.9848 -2.0991 0.4185 0 1
2.6641 -5.7269 -2.0445 0.4297 0 1
2.8200 -5.4757 -1.9937 0.4404 0 1
2.9648 -5.2299 -1.9460 0.4352 0 1
3.0903 -4.9745 -1.8957 0.4468 0 1
3.2064 -4.7269 -1.8489 0.4581 0 1
3.3137 -4.4863 -1.8054 0.4691 0 1
3.4137 -4.2531 -1.7653 0.4727 0 1
3.5077 -4.0277 -1.7289 0.4827 0 1
3.5977 -3.8108 -1.6964 0.5119 0 1
3.6860 -3.6029 -1.6684 0.5205 0 1
3.7682 -3.3984 -1.6425 0.5287 0 1
3.8446 -3.1971 -1.6186 0.5365 0 1
3.9156 -2.9986 -1.5964 0.5440 0 1
3.9814 -2.8028 -1.5761 0.5510 0 1
4.0426 -2.6097 -1.5576 0.5576 0 1
4.0997 -2.4191 -1.5409 0.5637 0 1
4.1523 -2.2305 -1.5257 0.5693 0 1
4.2006 -2.0435 -1.5121 0.5745 0 1
4.2446 -1.8581 -1.4998 0.5792 0 1
4.2845 -1.6740 -1.4890 0.5834 0 1
4.3205 -1.4911 -1.4795 0.5871 0 1
4.3527 -1.3092 -1.4713 0.5935 0 1
4.3819 -1.1283 -1.4647 0.5962 0 1
4.4074 -0.9480 -1.4593 0.5984 0 1
4.4292 -0.7681 -1.4551 0.6001 0 1
4.4476 -0.5885 -1.4522 0.6013 0 1
3.9174 -0.3591 -1.2734 0.7740 25 14
3.9061 -0.2004 -1.2660 0.7785 25 14
3.8957 -0.0433 -1.2611 0.7816 25 14
3.8985 0.1133 -1.2625 0.7807 25 14
3.9045 0.2706 -1.2669 0.7780 25 14
3.9114 0.4294 -1.2737 0.7738 25 14
3.9188 0.5903 -1.2828 0.7321 25 14
3.9282 0.7541 -1.2948 0.7169 25 14
4.4776 1.0475 -1.4885 0.5773 0 1
4.4583 1.2337 -1.4974 0.5739 0 1
4.4350 1.4212 -1.5075 0.5701 0 1
4.4077 1.6103 -1.5190 0.5658 0 1
4.3763 1.8010 -1.5318 0.5610 0 1
4.3405 1.9937 -1.5461 0.5558 0 1
4.3005 2.1884 -1.5619 0.5498 0 1
4.2559 2.3855 -1.5793 0.5438 0 1
4.2067 2.5851 -1.5982 0.5373 0 1
4.1524 2.7874 -1.6189 0.5305 0 1
4.0931 2.9927 -1.6413 0.5233 0 1
4.0287 3.2016 -1.6657 0.5156 0 1
3.9586 3.4139 -1.6921 0.5076 0 1
3.8825 3.6300 -1.7205 0.4992 0 1
3.8000 3.8501 -1.7510 0.4905 0 1
3.7107 4.0745 -1.7839 0.4815 0 1
3.6142 4.3036 -1.8191 0.4721 0 1
3.5062 4.5327 -1.8549 0.4763 0 1
3.3911 4.7678 -1.8939 0.4644 0 1
3.2680 5.0089 -1.9359 0.4544 0 1
3.1347 5.2541 -1.9804 0.4409 0 1
2.9915 5.5049 -2.0280 0.4306 0 1
2.8378 5.7621 -2.0791 0.4200 0 1
2.6728 6.0260 -2.1338 0.4092 0 1
2.4954 6.2967 -2.1924 0.3986 0 1
2.3049 6.5751 -2.2553 0.3875 0 1
2.0963 6.8490 -2.3185 0.3992 0 1
1.8721 7.1272 -2.3853 0.3880 0 1
1.6330 7.4169 -2.4583 0.3562 0 1
1.3824 7.7482 -2.5477 0.3437 0 1
1.1109 8.0936 -2.6444 0.3311 0 1
0.8155 8.4458 -2.7466 0.3182 0 1
0.4942 8.7993 -2.8528 0.3088 0 1
0.1460 9.1551 -2.9638 0.3160 0 1
-0.2302 9.5115 -3.0797 0.3041 0 1
-0.6372 9.8881 -3.2074 0.2779 0 1
-1.0817 10.3124 -3.3564 0.2655 0 1
-1.5642 10.7375 -3.5124 0.2572 0 1
-2.0842 11.1488 -3.6713 0.2425 0 24
-2.6593 11.6208 -3.8588 0.2278 0 24
-3.3056 12.1750 -4.0836 0.2131 0 1
-3.9936 12.6732 -4.3011 0.2008 0 24
-4.7838 13.2940 -4.5733 0.1900 0 1
-5.6452 13.9081 -4.8587 0.1789 0 1
-6.5843 14.5201 -5.1607 0.1719 0 1
-7.5867 15.0890 -5.4669 0.1620 0 24
-8.7820 15.8473 -5.8647 0.1458 0 1
-10.1209 16.6498 -6.3071 0.1333 0 1
-11.7084 17.6260 -6.8495 0.1168 0 1
-13.5537 18.7270 -7.4829 0.1057 0 1
-24.7672 -17.6915 -10.2262 0.8363 0 20
-31.1676 -24.2103 -13.2598 0.0640 0 2
-26.9646 -22.7383 -11.8508 0.0716 0 2
-23.4200 -21.4157 -10.6625 0.0796 0 2
-20.4037 -20.2200 -9.6513 0.0880 0 2
-18.6330 -20.0105 -9.1866 0.9881 0 2
-15.8708 -18.4789 -8.1841 0.0876 0 1
-13.7191 -17.3356 -7.4277 0.1163 0 1
-12.0357 -16.5312 -6.8703 0.1257 0 1
-10.5377 -15.7671 -6.3717 0.1354 0 1
-9.2133 -15.0608 -5.9319 0.1460 0 1
