ply
format ascii 1.0
element vertex 1584
property float32 x
property float32 y
property float32 z
property float32 I
end_header
-3.1314 -9.1091 -3.9664 0.9592
-1.3959 -8.1222 -3.3936 0.9650
-0.3672 -7.4100 -3.0550 0.9684
1.1803 -6.0762 -2.5488 0.9736
1.5787 -5.6534 -2.4170 0.9749
1.7600 -5.4466 -2.3570 0.9755
2.2410 -4.8452 -2.1982 0.9772
2.3787 -4.6431 -2.1483 0.9777
2.5045 -4.4390 -2.0988 0.9782
2.6218 -4.2390 -2.0524 0.9787
2.7312 -4.0428 -2.0090 0.9791
2.8343 -3.8520 -1.9693 0.9795
2.9349 -3.6698 -1.9350 0.9799
3.1173 -3.3125 -1.8731 0.9805
3.1998 -3.1372 -1.8453 0.9808
3.5379 -2.2896 -1.7353 0.9819
3.6437 -1.9619 -1.7041 0.9823
3.6908 -1.7997 -1.6909 0.9824
3.7339 -1.6383 -1.6790 0.9825
3.8400 -1.1575 -1.6515 0.9828
3.8921 -0.8390 -1.6395 0.9829
3.9128 -0.6801 -1.6354 0.9830
3.9300 -0.5213 -1.6325 0.9830
3.9436 -0.3624 -1.6308 0.9830
3.9538 -0.2035 -1.6303 0.9830
3.9672 0.1153 -1.6343 0.9830
3.9631 0.5979 -1.6504 0.9828
3.9508 0.7596 -1.6566 0.9827
3.9148 1.0852 -1.6728 0.9826
3.8910 1.2492 -1.6828 0.9825
3.8634 1.4140 -1.6941 0.9824
3.8317 1.5799 -1.7067 0.9822
3.7958 1.7469 -1.7206 0.9821
3.7557 1.9151 -1.7360 0.9819
3.7113 2.0846 -1.7528 0.9818
3.6089 2.4281 -1.7911 0.9814
3.5510 2.6025 -1.8129 0.9811
3.4880 2.7787 -1.8363 0.9809
3.3459 3.1368 -1.8886 0.9804
2.9930 3.8826 -2.0187 0.9790
2.0708 5.2587 -2.3273 0.9758
1.3277 6.1028 -2.5718 0.9733
1.1111 6.3215 -2.6430 0.9726
0.6352 6.7715 -2.8006 0.9710
0.3736 7.0023 -2.8875 0.9701
0.0947 7.2365 -2.9801 0.9692
-0.2030 7.4742 -3.0789 0.9682
-1.6058 8.4377 -3.5368 0.9635
-2.0167 8.6801 -3.6695 0.9622
-3.9595 9.6543 -4.2968 0.9559
-4.5323 9.8972 -4.4825 0.9540
-5.1472 10.1415 -4.6832 0.9520
-10.7546 11.5152 -6.4882 0.9341
-11.8094 11.6665 -6.8357 0.9307
-12.9970 11.8456 -7.2413 0.9268
-15.5873 12.0631 -8.1162 0.9183
-19.4867 11.6265 -9.3440 0.9065
-21.0740 11.4503 -9.8761 0.9015
-24.4063 10.8190 -10.9932 0.8909
-29.4873 9.0109 -12.6966 0.8751
-38.5571 2.1306 -15.9013 0.8462
-35.7547 -3.7938 -14.8058 0.8560
-34.8216 -5.1182 -14.4930 0.8588
-35.1049 -6.6119 -14.7097 0.8568
-33.7699 -7.7787 -14.2700 0.8608
-15.9177 -10.9746 -8.2132 0.9194
-12.3168 -10.8967 -6.9859 0.9310
-11.2771 -10.8160 -6.6378 0.9343
-10.2995 -10.7062 -6.3109 0.9375
-9.4023 -10.5953 -6.0176 0.9403
-8.5643 -10.4705 -5.7463 0.9429
-7.7742 -10.3256 -5.4906 0.9454
-7.0232 -10.1536 -5.2445 0.9478
-5.0198 -9.5384 -4.5788 0.9542
-3.8965 -9.1146 -4.2109 0.9578
-3.3975 -8.9243 -4.0565 0.9593
-2.4682 -8.4777 -3.7509 0.9624
-2.0458 -8.2498 -3.6107 0.9637
-1.2795 -7.7988 -3.3572 0.9662
-0.2995 -7.1392 -3.0354 0.9694
0.2586 -6.7094 -2.8523 0.9712
0.9768 -6.0836 -2.6174 0.9736
1.1885 -5.8799 -2.5483 0.9743
1.5740 -5.4759 -2.4204 0.9755
2.0709 -4.8904 -2.2560 0.9772
2.3489 -4.5004 -2.1565 0.9782
2.8952 -3.5644 -1.9507 0.9802
2.9874 -3.3897 -1.9194 0.9806
3.1545 -3.0462 -1.8629 0.9811
3.2299 -2.8772 -1.8375 0.9814
3.3003 -2.7099 -1.8140 0.9816
3.3657 -2.5441 -1.7923 0.9818
3.4271 -2.3801 -1.7725 0.9820
3.6346 -1.7383 -1.7115 0.9826
3.7148 -1.4223 -1.6898 0.9829
3.7491 -1.2650 -1.6809 0.9830
3.8068 -0.9517 -1.6669 0.9831
3.8302 -0.7953 -1.6618 0.9831
3.8500 -0.6392 -1.6579 0.9832
3.8663 -0.4830 -1.6552 0.9832
3.8955 -0.0140 -1.6548 0.9832
3.9025 0.3005 -1.6627 0.9831
3.8787 0.7763 -1.6804 0.9830
3.7885 1.4193 -1.7186 0.9826
3.7196 1.7461 -1.7455 0.9823
3.6788 1.9112 -1.7611 0.9821
3.6337 2.0774 -1.7781 0.9820
3.5301 2.4141 -1.8167 0.9816
3.4079 2.7574 -1.8622 0.9811
3.2651 3.1079 -1.9149 0.9806
3.1006 3.4674 -1.9760 0.9800
2.6895 4.2081 -2.1215 0.9785
2.5666 4.3960 -2.1624 0.9781
2.2963 4.7780 -2.2519 0.9772
2.1481 4.9725 -2.3010 0.9767
1.9786 5.1386 -2.3391 0.9764
1.8129 5.3394 -2.3954 0.9758
1.2493 5.9594 -2.5866 0.9739
0.5702 6.6177 -2.8216 0.9715
0.3128 6.8361 -2.9070 0.9707
-0.2530 7.2807 -3.0947 0.9688
-0.5637 7.5061 -3.1976 0.9678
-0.8944 7.7301 -3.3057 0.9667
-1.2464 7.9553 -3.4207 0.9656
-1.6207 8.1778 -3.5415 0.9644
-2.0190 8.4003 -3.6701 0.9631
-2.8945 8.8430 -3.9526 0.9604
-3.3753 9.0617 -4.1078 0.9588
-3.8882 9.2794 -4.2740 0.9572
-5.0170 9.7021 -4.6399 0.9536
-5.6417 9.9115 -4.8447 0.9516
-6.2963 10.0943 -5.0538 0.9496
-7.7283 10.4200 -5.5110 0.9452
-10.2768 10.8377 -6.3446 0.9372
-12.2625 11.0071 -6.9999 0.9309
-13.3066 11.0109 -7.3370 0.9277
-14.4506 11.0092 -7.7172 0.9241
-15.8296 11.0828 -8.2088 0.9194
-17.1983 11.0378 -8.6811 0.9150
-18.5095 10.8540 -9.1151 0.9110
-20.5943 9.9457 -9.7153 0.9054
-23.3691 9.0491 -10.6455 0.8968
-24.7317 8.4496 -11.1023 0.8926
-26.5833 7.9036 -11.7812 0.8865
-18.4243 2.3727 -7.8913 0.9224
-32.8459 2.8929 -14.0070 0.8665
-33.2570 1.5849 -14.1437 0.8653
-29.7972 -4.6108 -12.8085 0.8772
-22.4644 -4.4078 -9.7249 0.9053
-28.7238 -6.8461 -12.5437 0.8796
-25.9815 -8.4498 -11.6060 0.8880
-24.5186 -9.0798 -11.1068 0.8926
-23.0340 -9.6002 -10.6007 0.8972
-21.5868 -10.0342 -10.1124 0.9017
-18.8459 -10.6800 -9.2019 0.9102
-16.1638 -10.9643 -8.2971 0.9186
-14.8863 -10.9972 -7.8621 0.9227
-12.5252 -10.9129 -7.0570 0.9303
-10.4794 -10.7291 -6.3710 0.9369
-9.5321 -10.5789 -6.0491 0.9400
-7.1611 -10.1870 -5.2897 0.9473
-6.4479 -10.0049 -5.0563 0.9496
-1.7227 -8.0655 -3.5035 0.9648
-0.9926 -7.5940 -3.2534 0.9673
-0.6658 -7.3990 -3.1558 0.9682
-0.3558 -7.1802 -3.0539 0.9692
-0.0645 -6.9455 -2.9506 0.9703
0.2089 -6.7495 -2.8686 0.9711
0.4661 -6.5378 -2.7843 0.9719
0.7079 -6.3287 -2.7052 0.9727
1.1496 -5.9183 -2.5611 0.9741
1.7175 -5.3152 -2.3728 0.9760
2.0423 -4.9265 -2.2655 0.9771
2.1905 -4.7360 -2.2166 0.9776
2.3248 -4.5378 -2.1659 0.9781
2.4490 -4.3406 -2.1171 0.9786
2.5649 -4.1470 -2.0714 0.9790
2.6731 -3.9569 -2.0285 0.9795
3.0579 -3.2494 -1.8955 0.9808
3.3538 -2.5752 -1.7962 0.9818
3.4157 -2.4108 -1.7760 0.9820
3.4740 -2.2483 -1.7579 0.9822
3.5286 -2.0872 -1.7416 0.9823
3.5794 -1.9273 -1.7270 0.9825
3.6690 -1.6098 -1.7020 0.9827
3.8020 -0.9811 -1.6680 0.9831
3.8465 -0.6686 -1.6585 0.9832
3.8770 -0.3563 -1.6539 0.9832
3.9000 0.1133 -1.6574 0.9832
3.9024 0.2708 -1.6617 0.9831
3.8939 0.5874 -1.6729 0.9830
3.8815 0.7463 -1.6791 0.9830
3.8654 0.9058 -1.6865 0.9829
3.7625 1.5514 -1.7289 0.9825
3.7268 1.7152 -1.7427 0.9823
3.6868 1.8800 -1.7580 0.9822
3.6425 2.0460 -1.7747 0.9820
3.5406 2.3821 -1.8128 0.9816
3.4829 2.5526 -1.8344 0.9814
3.3525 2.8986 -1.8826 0.9809
3.2794 3.0745 -1.9096 0.9807
3.1171 3.4331 -1.9699 0.9800
2.9300 3.8008 -2.0386 0.9794
2.8258 3.9876 -2.0761 0.9790
2.7118 4.1729 -2.1141 0.9786
2.4610 4.5499 -2.1974 0.9778
2.1767 4.9356 -2.2915 0.9768
2.0087 5.1011 -2.3289 0.9765
1.8552 5.3308 -2.3977 0.9758
1.4916 5.7351 -2.5173 0.9746
1.2879 5.9196 -2.5735 0.9740
1.0809 6.1493 -2.6523 0.9732
0.6170 6.5769 -2.8062 0.9717
0.3625 6.7947 -2.8905 0.9709
0.0918 7.0153 -2.9804 0.9700
-0.1966 7.2384 -3.0760 0.9690
-0.5036 7.4638 -3.1778 0.9680
-1.1784 7.9129 -3.3985 0.9658
-1.5483 8.1358 -3.5181 0.9646
-2.3610 8.5805 -3.7805 0.9621
-2.8072 8.8015 -3.9245 0.9606
-3.7890 9.2386 -4.2418 0.9575
-4.9044 9.6632 -4.6034 0.9540
-6.8562 10.2322 -5.2322 0.9479
-8.3675 10.5443 -5.7182 0.9432
-9.2042 10.6862 -5.9912 0.9405
-11.0539 10.9201 -6.6007 0.9347
-15.5134 11.0376 -8.0879 0.9206
-18.4056 10.9814 -9.1046 0.9111
-20.3340 10.0109 -9.6280 0.9062
-21.7205 9.6284 -10.0928 0.9019
-28.1773 7.3856 -12.3741 0.8811
-16.6231 3.6495 -7.2297 0.9287
-17.6513 2.4094 -7.5678 0.9255
-33.1984 1.8345 -14.1243 0.8655
-30.6628 -3.2535 -13.0987 0.8746
-29.0559 -5.4726 -12.5600 0.8794
-28.8233 -6.6392 -12.5648 0.8794
-14.6365 -10.0912 -7.7858 0.9253
-13.5249 -10.1509 -7.4058 0.9288
-12.4645 -10.1637 -7.0435 0.9322
-10.5461 -10.1148 -6.3995 0.9382
-9.6758 -10.0578 -6.1121 0.9409
-8.0956 -9.8975 -5.5999 0.9457
-6.6482 -9.6114 -5.1181 0.9502
-5.3928 -9.3176 -4.7148 0.9541
-4.8104 -9.1405 -4.5235 0.9559
-4.2621 -8.9552 -4.3434 0.9576
-3.2616 -8.5675 -4.0148 0.9608
-0.9021 -7.3343 -3.2362 0.9682
-0.5870 -7.1284 -3.1324 0.9692
0.4986 -6.3188 -2.7759 0.9727
1.5358 -5.3432 -2.4348 0.9760
2.0121 -4.7514 -2.2597 0.9777
2.1670 -4.5935 -2.2243 0.9781
2.5307 -4.0232 -2.0815 0.9795
2.7416 -3.6673 -2.0053 0.9802
2.8390 -3.4951 -1.9720 0.9805
3.0159 -3.1564 -1.9119 0.9811
3.0959 -2.9897 -1.8848 0.9814
3.1708 -2.8245 -1.8597 0.9816
3.2406 -2.6609 -1.8363 0.9819
3.3660 -2.3376 -1.7947 0.9823
3.4761 -2.0207 -1.7609 0.9826
3.5259 -1.8641 -1.7467 0.9827
3.6133 -1.5528 -1.7224 0.9830
3.6512 -1.3979 -1.7122 0.9831
3.7157 -1.0894 -1.6958 0.9832
3.7425 -0.9356 -1.6894 0.9833
3.7656 -0.7819 -1.6843 0.9833
3.8015 -0.4749 -1.6778 0.9834
3.8141 -0.3214 -1.6763 0.9834
3.8234 -0.1677 -1.6760 0.9834
3.8351 0.1405 -1.6807 0.9834
3.8366 0.2954 -1.6852 0.9833
3.8244 0.6066 -1.6958 0.9832
3.8113 0.7628 -1.7022 0.9832
3.7494 1.2351 -1.7288 0.9829
3.7211 1.3941 -1.7402 0.9828
3.6888 1.5539 -1.7530 0.9827
3.6118 1.8764 -1.7825 0.9824
3.5668 2.0392 -1.7994 0.9822
3.5175 2.2033 -1.8177 0.9820
3.4638 2.3688 -1.8377 0.9818
3.4055 2.5358 -1.8595 0.9816
3.3423 2.7043 -1.8829 0.9814
3.2742 2.8747 -1.9082 0.9812
3.2011 3.0470 -1.9355 0.9809
3.0379 3.3974 -1.9959 0.9803
2.8501 3.7558 -2.0648 0.9796
2.7454 3.9372 -2.1021 0.9793
2.5102 4.2994 -2.1803 0.9785
2.3812 4.4833 -2.2232 0.9781
2.2439 4.6689 -2.2686 0.9776
2.0980 4.8565 -2.3169 0.9772
1.7689 5.2097 -2.4095 0.9763
1.6035 5.4309 -2.4799 0.9756
1.0088 6.0061 -2.6672 0.9738
0.7897 6.2254 -2.7482 0.9730
-0.2451 7.0546 -3.0914 0.9696
-0.8650 7.4760 -3.2959 0.9677
-1.5638 7.8909 -3.5230 0.9655
-2.3511 8.2980 -3.7771 0.9630
-2.7816 8.4982 -3.9161 0.9617
-3.7239 8.8875 -4.2201 0.9588
-4.2410 9.0786 -4.3884 0.9572
-5.3709 9.4358 -4.7549 0.9537
-6.6324 9.7377 -5.1598 0.9499
-8.8103 10.0733 -5.8608 0.9432
-11.4287 10.2587 -6.7258 0.9351
-12.4031 10.2633 -7.0504 0.9321
-13.4222 10.2258 -7.3898 0.9290
-16.8885 9.9034 -8.5741 0.9181
-18.1001 9.6574 -8.9846 0.9143
-21.6839 8.3966 -10.1835 0.9034
-17.7557 2.2866 -7.8402 0.9248
-28.2767 2.4905 -12.4316 0.8834
-28.7732 0.2127 -12.6014 0.8819
-28.1997 -2.0641 -12.3830 0.8838
-26.1247 -4.0425 -11.5773 0.8910
-22.2828 -4.3721 -9.9447 0.9056
-23.0947 -7.5109 -10.6357 0.8994
-21.9532 -8.1297 -10.2524 0.9028
-20.7631 -8.6537 -9.8513 0.9064
-18.4017 -9.4715 -9.0638 0.9136
-13.7307 -10.1435 -7.4762 0.9282
-10.7180 -10.1248 -6.4571 0.9376
-9.8334 -10.0677 -6.1633 0.9404
-7.4978 -9.8029 -5.4049 0.9475
-6.1316 -9.5141 -4.9570 0.9518
-4.3630 -8.9907 -4.3766 0.9573
-3.8295 -8.7731 -4.1922 0.9591
-3.3507 -8.6047 -4.0440 0.9605
-2.8895 -8.4054 -3.8926 0.9619
-0.9637 -7.3732 -3.2565 0.9681
-0.6449 -7.1671 -3.1515 0.9691
-0.0626 -6.7414 -2.9525 0.9710
0.2029 -6.5566 -2.8728 0.9718
0.4531 -6.3563 -2.7908 0.9726
0.9109 -5.9614 -2.6411 0.9740
1.3125 -5.5535 -2.4991 0.9754
1.5021 -5.3792 -2.4459 0.9759
1.8323 -4.9769 -2.3226 0.9771
1.9845 -4.7870 -2.2695 0.9776
2.6176 -3.8747 -2.0478 0.9798
2.7226 -3.7000 -2.0118 0.9801
2.8211 -3.5275 -1.9781 0.9805
2.9135 -3.3568 -1.9466 0.9808
3.2278 -2.6916 -1.8406 0.9818
3.4118 -2.2080 -1.7798 0.9824
3.7377 -0.9646 -1.6905 0.9833
3.7615 -0.8109 -1.6852 0.9833
3.7987 -0.5038 -1.6782 0.9834
3.8219 -0.1967 -1.6760 0.9834
3.8288 -0.0428 -1.6769 0.9834
3.8366 0.2662 -1.6843 0.9833
3.8353 0.4216 -1.6898 0.9833
3.8265 0.5773 -1.6947 0.9832
3.7780 1.0473 -1.7169 0.9830
3.7543 1.2053 -1.7268 0.9829
3.6952 1.5237 -1.7505 0.9827
3.6595 1.6842 -1.7643 0.9826
3.6197 1.8458 -1.7795 0.9824
3.5756 2.0084 -1.7961 0.9823
3.4169 2.5042 -1.8553 0.9817
3.3546 2.6725 -1.8783 0.9814
3.2153 3.0144 -1.9302 0.9809
3.1377 3.1882 -1.9591 0.9807
2.5337 4.2650 -2.1726 0.9786
2.4061 4.4485 -2.2149 0.9782
2.2704 4.6338 -2.2598 0.9777
1.9612 4.9805 -2.3442 0.9769
1.8003 5.1731 -2.3988 0.9764
1.4537 5.5892 -2.5292 0.9751
1.2588 5.7860 -2.5932 0.9745
0.5996 6.3916 -2.8115 0.9724
0.3520 6.5975 -2.8934 0.9716
-0.4876 7.2260 -3.1718 0.9689
-0.8033 7.4366 -3.2758 0.9679
-1.4944 7.8522 -3.5006 0.9657
-2.6985 8.4607 -3.8892 0.9620
-3.1505 8.6583 -4.0351 0.9606
-4.1411 9.0431 -4.3559 0.9575
-6.5080 9.7126 -5.1202 0.9502
-7.1826 9.8392 -5.3350 0.9482
-7.8958 9.9499 -5.5628 0.9460
-8.6612 10.0557 -5.8122 0.9437
-9.4786 10.1490 -6.0817 0.9412
-10.3435 10.2183 -6.3676 0.9385
-11.2507 10.2540 -6.6666 0.9357
-13.2267 10.2362 -7.3246 0.9296
-16.6633 9.9419 -8.4978 0.9188
-21.4429 8.4908 -10.1002 0.9042
-22.9351 8.0305 -10.6422 0.8993
-23.7992 7.2727 -10.8985 0.8970
-16.4681 2.9268 -7.3251 0.9296
-16.9550 2.3143 -7.4942 0.9280
-28.1872 2.6982 -12.4009 0.8837
-28.5789 1.5792 -12.5351 0.8825
-28.7654 0.4308 -12.5991 0.8819
-28.7014 -0.7250 -12.5737 0.8822
-28.3962 -1.8621 -12.4627 0.8831
-24.6931 -5.6879 -11.0974 0.8952
-9.1255 -9.4858 -5.9392 0.9439
-8.3811 -9.4445 -5.6976 0.9461
-7.6486 -9.3510 -5.4510 0.9484
-6.3414 -9.1679 -5.0299 0.9523
-5.1494 -8.8970 -4.6384 0.9559
-3.1350 -8.2349 -3.9759 0.9621
-1.8966 -7.6482 -3.5555 0.9660
-1.5392 -7.4835 -3.4474 0.9670
-0.0111 -6.5110 -2.9379 0.9718
0.4851 -6.1474 -2.7824 0.9733
0.7124 -5.9591 -2.7080 0.9740
0.9268 -5.7720 -2.6378 0.9747
1.1253 -5.5676 -2.5630 0.9754
1.6685 -5.0328 -2.3924 0.9770
1.9671 -4.6451 -2.2762 0.9781
2.1182 -4.4900 -2.2401 0.9784
2.2460 -4.3032 -2.1902 0.9789
2.4773 -3.9383 -2.0994 0.9798
2.5854 -3.7652 -2.0609 0.9802
2.7844 -3.4279 -1.9927 0.9808
2.8748 -3.2619 -1.9619 0.9811
3.0390 -2.9347 -1.9062 0.9816
3.1132 -2.7732 -1.8812 0.9819
3.2470 -2.4543 -1.8365 0.9823
3.4648 -1.8318 -1.7684 0.9829
3.5101 -1.6788 -1.7556 0.9831
3.5515 -1.5262 -1.7442 0.9832
3.5891 -1.3742 -1.7341 0.9833
3.6797 -0.9199 -1.7114 0.9835
3.7506 -0.3160 -1.6983 0.9836
3.7597 -0.1649 -1.6981 0.9836
3.7662 -0.0136 -1.6994 0.9836
3.7710 0.1382 -1.7027 0.9836
3.7454 0.7497 -1.7235 0.9834
3.7286 0.9036 -1.7311 0.9833
3.6837 1.2135 -1.7500 0.9831
3.6554 1.3695 -1.7613 0.9830
3.6232 1.5262 -1.7740 0.9829
3.5465 1.8425 -1.8033 0.9826
3.5018 2.0020 -1.8201 0.9825
3.4527 2.1627 -1.8383 0.9823
3.3993 2.3247 -1.8582 0.9821
3.2116 2.8197 -1.9284 0.9814
3.1391 2.9879 -1.9555 0.9812
2.9772 3.3294 -2.0153 0.9806
2.8874 3.5029 -2.0483 0.9803
2.7912 3.6782 -2.0834 0.9799
2.6880 3.8547 -2.1204 0.9796
2.5754 4.0297 -2.1579 0.9792
2.1933 4.5637 -2.2847 0.9780
2.0497 4.7448 -2.3322 0.9776
1.3822 5.4846 -2.5521 0.9755
1.1893 5.6732 -2.6155 0.9749
0.9848 5.8634 -2.6827 0.9742
0.5387 6.2515 -2.8312 0.9728
0.2950 6.4467 -2.9119 0.9721
0.0365 6.6429 -2.9974 0.9713
-0.8372 7.2359 -3.2867 0.9685
-1.8769 7.8090 -3.6239 0.9654
-2.6763 8.1764 -3.8819 0.9629
-3.5724 8.5257 -4.1710 0.9602
-4.5779 8.8528 -4.4970 0.9572
-5.1254 9.0045 -4.6751 0.9556
-5.7039 9.1445 -4.8630 0.9538
-6.3064 9.2592 -5.0549 0.9520
-6.9401 9.3572 -5.2567 0.9502
-7.6052 9.4359 -5.4684 0.9482
-8.3113 9.5029 -5.6965 0.9461
-9.0689 9.5639 -5.9471 0.9438
-13.4308 9.4033 -7.3979 0.9306
-14.4125 9.2499 -7.7273 0.9276
-15.4539 9.0622 -8.0836 0.9244
-16.5098 8.8089 -8.4436 0.9212
-17.5716 8.4860 -8.8048 0.9179
-19.6573 7.6118 -9.5115 0.9116
-16.3797 4.1608 -7.6255 0.9285
-16.3305 3.4557 -7.5318 0.9294
-16.3677 2.7811 -7.4912 0.9297
-24.8131 2.1854 -11.2395 0.8965
-25.2070 0.1863 -11.3741 0.8953
-25.1572 -0.8264 -11.3575 0.8954
-24.9187 -1.8239 -11.2738 0.8962
-23.7143 -2.6982 -10.7693 0.9006
-22.0320 -4.3229 -10.1308 0.9062
-21.9201 -5.2245 -10.1678 0.9058
-21.7031 -6.1049 -10.1729 0.9058
-20.8153 -6.7696 -9.8764 0.9084
-19.8894 -7.3654 -9.5700 0.9111
-18.9226 -7.8866 -9.2501 0.9140
-17.8863 -8.3141 -8.8999 0.9171
-15.7828 -8.9441 -8.1855 0.9235
-13.7191 -9.3061 -7.4801 0.9298
-11.7934 -9.4686 -6.8243 0.9358
-10.9050 -9.5012 -6.5262 0.9385
-9.2697 -9.4906 -5.9861 0.9434
-8.5188 -9.4543 -5.7422 0.9457
-7.8026 -9.3931 -5.5099 0.9478
-5.2563 -8.9248 -4.6735 0.9556
-4.7024 -8.7732 -4.4914 0.9573
-4.1790 -8.6116 -4.3191 0.9589
-3.2198 -8.2684 -4.0037 0.9618
-2.7793 -8.0849 -3.8576 0.9632
-1.6009 -7.4950 -3.4582 0.9669
-0.9332 -7.1397 -3.2490 0.9689
-0.6252 -6.9473 -3.1474 0.9699
-0.3348 -6.7551 -3.0518 0.9708
0.1972 -6.3727 -2.8769 0.9724
0.6705 -5.9945 -2.7217 0.9739
1.0918 -5.6209 -2.5837 0.9752
1.2845 -5.4349 -2.5199 0.9758
1.6373 -5.0671 -2.4027 0.9769
1.7903 -4.8627 -2.3381 0.9775
1.9399 -4.6795 -2.2857 0.9780
2.4568 -3.9722 -2.1075 0.9797
2.5653 -3.7973 -2.0678 0.9801
2.6692 -3.6275 -2.0321 0.9804
2.8582 -3.2931 -1.9675 0.9810
3.0996 -2.8036 -1.8858 0.9818
3.1698 -2.6432 -1.8623 0.9821
3.2352 -2.4842 -1.8405 0.9823
3.3521 -2.1694 -1.8016 0.9826
3.4056 -2.0144 -1.7854 0.9828
3.4558 -1.8607 -1.7710 0.9829
3.5019 -1.7076 -1.7579 0.9830
3.6749 -0.9484 -1.7125 0.9835
3.6986 -0.7973 -1.7072 0.9835
3.7187 -0.6464 -1.7031 0.9836
3.7354 -0.4955 -1.7002 0.9836
3.7485 -0.3445 -1.6985 0.9836
3.7649 -0.0421 -1.6989 0.9836
3.7704 0.1095 -1.7020 0.9836
3.7724 0.2617 -1.7062 0.9835
3.7695 0.4144 -1.7111 0.9835
3.7607 0.5673 -1.7161 0.9834
3.7482 0.7207 -1.7222 0.9834
3.6885 1.1842 -1.7480 0.9831
3.6610 1.3400 -1.7591 0.9830
3.6296 1.4966 -1.7715 0.9829
3.5941 1.6541 -1.7852 0.9828
3.5106 1.9719 -1.8168 0.9825
3.4623 2.1323 -1.8347 0.9823
3.4096 2.2940 -1.8543 0.9821
3.2247 2.7881 -1.9235 0.9815
3.1531 2.9561 -1.9502 0.9812
2.8099 3.6450 -2.0766 0.9800
2.4789 4.1727 -2.1900 0.9789
2.3531 4.3505 -2.2318 0.9785
2.2194 4.5298 -2.2761 0.9781
1.9155 4.8644 -2.3590 0.9773
1.7574 5.0498 -2.4126 0.9768
1.5972 5.2624 -2.4815 0.9762
1.0242 5.8272 -2.6697 0.9744
-0.1847 6.8029 -3.0707 0.9706
-0.7777 7.1990 -3.2672 0.9687
-1.4436 7.5853 -3.4840 0.9667
-2.1902 7.9597 -3.7251 0.9644
-2.5970 8.1424 -3.8563 0.9632
-4.4781 8.8231 -4.4646 0.9575
-5.0199 8.9767 -4.6408 0.9559
-8.1742 9.4904 -5.6517 0.9465
-8.9233 9.5543 -5.8989 0.9442
-9.7113 9.5938 -6.1596 0.9419
-10.5350 9.6017 -6.4317 0.9394
-16.3087 8.8612 -8.3749 0.9218
-18.4321 8.1707 -9.0974 0.9153
-19.4671 7.7084 -9.4475 0.9122
-20.4664 7.1661 -9.7845 0.9092
-21.4272 6.5478 -10.1097 0.9064
-22.3051 5.8464 -10.4044 0.9038
-16.3277 3.5846 -7.5428 0.9293
-16.3615 2.9078 -7.4983 0.9297
-16.6255 2.2693 -7.5713 0.9290
-24.7503 2.3692 -11.2188 0.8966
-25.1941 0.3773 -11.3693 0.8953
-24.9753 -1.6378 -11.2935 0.8960
-24.1157 -2.5588 -10.9425 0.8990
-23.3336 -3.4296 -10.6417 0.9017
-22.0614 -5.0817 -10.2151 0.9054
-12.5699 -8.6664 -7.0938 0.9349
-10.0877 -8.9246 -6.2580 0.9423
-7.2804 -8.9008 -5.3427 0.9505
-6.0432 -8.7369 -4.9358 0.9542
-4.9247 -8.5087 -4.5678 0.9576
-4.4076 -8.3752 -4.3973 0.9591
-3.9060 -8.2069 -4.2230 0.9607
-3.4549 -8.0815 -4.0836 0.9620
-3.0157 -7.9214 -3.9382 0.9633
-2.6004 -7.7553 -3.8004 0.9646
-2.2010 -7.5600 -3.6584 0.9659
-1.8379 -7.4116 -3.5479 0.9669
-1.1589 -7.0633 -3.3256 0.9689
-0.8468 -6.8846 -3.2228 0.9699
-0.5521 -6.7045 -3.1256 0.9708
0.2375 -6.1633 -2.8657 0.9732
0.4722 -5.9835 -2.7887 0.9739
0.9032 -5.6254 -2.6471 0.9752
1.4638 -5.0925 -2.4619 0.9769
1.6300 -4.9168 -2.4067 0.9774
1.7782 -4.7191 -2.3431 0.9780
2.0712 -4.3902 -2.2554 0.9788
2.3151 -4.0316 -2.1601 0.9797
2.4266 -3.8577 -2.1175 0.9801
2.5345 -3.6910 -2.0803 0.9804
2.6360 -3.5260 -2.0454 0.9808
2.7313 -3.3626 -2.0128 0.9811
2.8209 -3.2007 -1.9822 0.9814
2.9049 -3.0402 -1.9537 0.9816
2.9835 -2.8811 -1.9271 0.9819
3.1258 -2.5667 -1.8792 0.9823
3.2492 -2.2566 -1.8380 0.9827
3.3046 -2.1032 -1.8200 0.9829
3.4501 -1.6501 -1.7769 0.9833
3.5621 -1.2019 -1.7467 0.9836
3.5920 -1.0531 -1.7392 0.9836
3.6184 -0.9046 -1.7329 0.9837
3.6411 -0.7561 -1.7278 0.9837
3.6762 -0.4593 -1.7213 0.9838
3.6886 -0.3108 -1.7199 0.9838
3.7038 -0.0133 -1.7209 0.9838
3.7096 0.2857 -1.7287 0.9837
3.7039 0.4357 -1.7328 0.9837
3.6944 0.5860 -1.7380 0.9836
3.6644 0.8881 -1.7519 0.9835
3.6439 1.0399 -1.7606 0.9834
3.6196 1.1924 -1.7706 0.9833
3.4829 1.8094 -1.8236 0.9828
3.4385 1.9658 -1.8403 0.9827
3.3896 2.1232 -1.8583 0.9825
3.0013 3.0963 -2.0035 0.9812
2.9183 3.2636 -2.0341 0.9809
2.8293 3.4324 -2.0667 0.9806
2.7342 3.6030 -2.1015 0.9802
2.4031 4.1159 -2.2144 0.9792
2.2777 4.2884 -2.2561 0.9788
1.9910 4.6088 -2.3326 0.9781
1.8429 4.7861 -2.3829 0.9776
1.6946 4.9908 -2.4489 0.9770
1.3479 5.3487 -2.5628 0.9760
0.7479 5.8953 -2.7611 0.9741
0.2867 6.2657 -2.9142 0.9727
0.0355 6.4511 -2.9974 0.9719
-0.2306 6.6366 -3.0854 0.9711
-0.5123 6.8221 -3.1786 0.9703
-2.1844 7.7096 -3.7230 0.9653
-2.5777 7.8751 -3.8500 0.9641
-6.0095 8.8233 -4.9601 0.9540
-8.5577 9.0248 -5.7786 0.9466
-9.2850 9.0346 -6.0193 0.9445
-10.8335 8.9644 -6.5333 0.9399
-12.4984 8.7505 -7.0888 0.9349
-17.0177 7.3898 -8.6201 0.9214
-17.9141 6.9368 -8.9255 0.9188
-18.7812 6.4166 -9.2214 0.9162
-19.5714 5.8188 -9.4867 0.9139
-16.2475 4.1272 -7.7887 0.9287
-16.2316 2.7579 -7.6496 0.9300
-22.4788 -0.7384 -10.4498 0.9056
-22.2871 -1.6313 -10.3828 0.9061
-18.9561 -6.1649 -9.2615 0.9158
-18.1471 -6.7203 -8.9911 0.9182
-16.3394 -7.5951 -8.3717 0.9236
-15.4849 -7.9702 -8.0917 0.9261
-13.6400 -8.4721 -7.4604 0.9316
-11.8692 -8.7684 -6.8563 0.9370
-11.0390 -8.8629 -6.5775 0.9395
-10.2358 -8.9182 -6.3077 0.9419
-8.0706 -8.9568 -5.6017 0.9482
-7.4032 -8.9123 -5.3832 0.9502
-6.7637 -8.8431 -5.1727 0.9521
-5.0253 -8.5327 -4.6010 0.9573
-4.5029 -8.4011 -4.4287 0.9588
-4.0083 -8.2599 -4.2657 0.9603
-3.0967 -7.9522 -3.9650 0.9631
-2.6769 -7.7869 -3.8258 0.9643
-2.2729 -7.5921 -3.6821 0.9656
-1.9000 -7.4208 -3.5591 0.9668
-1.5530 -7.2710 -3.4545 0.9677
-1.2196 -7.0964 -3.3455 0.9687
-0.6064 -6.7385 -3.1435 0.9706
0.1918 -6.1972 -2.8807 0.9730
1.0646 -5.4810 -2.5942 0.9757
1.7581 -4.7753 -2.3643 0.9778
1.9079 -4.6021 -2.3147 0.9783
2.1740 -4.2435 -2.2153 0.9792
2.2935 -4.0650 -2.1686 0.9796
2.5146 -3.7223 -2.0871 0.9804
2.6173 -3.5570 -2.0518 0.9807
2.7138 -3.3933 -2.0188 0.9810
2.8894 -3.0704 -1.9589 0.9816
2.9691 -2.9110 -1.9319 0.9818
3.0436 -2.7529 -1.9068 0.9821
3.1781 -2.4404 -1.8617 0.9825
3.3473 -1.9799 -1.8069 0.9830
3.3962 -1.8287 -1.7922 0.9831
3.4420 -1.6784 -1.7792 0.9833
3.5561 -1.2300 -1.7483 0.9835
3.6371 -0.7841 -1.7287 0.9837
3.6571 -0.6357 -1.7246 0.9838
3.6961 -0.1902 -1.7196 0.9838
3.6965 0.5576 -1.7369 0.9836
3.6840 0.7083 -1.7430 0.9836
3.6679 0.8595 -1.7503 0.9835
3.5970 1.3166 -1.7797 0.9832
3.5657 1.4703 -1.7920 0.9831
3.5303 1.6247 -1.8056 0.9830
3.3992 2.0935 -1.8548 0.9825
3.3468 2.2518 -1.8742 0.9824
3.2904 2.4116 -1.8954 0.9822
3.2295 2.5728 -1.9185 0.9820
3.1637 2.7354 -1.9432 0.9817
3.0927 2.8994 -1.9697 0.9815
2.9344 3.2319 -2.0282 0.9809
2.8466 3.4005 -2.0604 0.9806
2.4259 4.0836 -2.2069 0.9793
2.0179 4.5755 -2.3235 0.9782
1.7252 4.9572 -2.4387 0.9771
1.3823 5.3148 -2.5515 0.9761
1.1955 5.4951 -2.6129 0.9755
0.9978 5.6765 -2.6779 0.9749
0.5671 6.0455 -2.8212 0.9736
0.3325 6.2308 -2.8991 0.9729
0.0839 6.4161 -2.9813 0.9721
-0.1793 6.6016 -3.0684 0.9713
-0.4580 6.7872 -3.1606 0.9704
-0.7532 6.9725 -3.2584 0.9695
-1.3956 7.3334 -3.4684 0.9676
-2.5019 7.8443 -3.8255 0.9643
-2.9130 8.0056 -3.9582 0.9631
-3.8046 8.3082 -4.2457 0.9605
-4.7984 8.5807 -4.5678 0.9576
-5.3364 8.7016 -4.7427 0.9560
-6.4871 8.8865 -5.1119 0.9526
-9.1456 9.0350 -5.9731 0.9449
-10.6820 8.9764 -6.4828 0.9403
-11.4963 8.8971 -6.7542 0.9379
-14.0857 8.4040 -7.6209 0.9302
-17.7469 7.0273 -8.8685 0.9193
-18.6207 6.5199 -9.1666 0.9167
-16.2012 3.5569 -7.7067 0.9295
-22.1918 2.1243 -10.3579 0.9064
-22.4114 1.2384 -10.4287 0.9057
-22.5181 0.3372 -10.4636 0.9054
-22.5001 -0.5683 -10.4574 0.9055
-22.3333 -1.4645 -10.3988 0.9060
-22.0374 -2.3383 -10.2965 0.9069
-20.5029 -4.7227 -9.7755 0.9114
-10.9770 -8.2386 -6.5627 0.9410
-9.4916 -8.3972 -6.0598 0.9454
-8.1808 -8.5038 -5.6424 0.9490
-7.5421 -8.4990 -5.4334 0.9509
-6.3336 -8.4122 -5.0351 0.9544
-5.7512 -8.3147 -4.8342 0.9562
-5.2302 -8.2521 -4.6717 0.9576
-4.7163 -8.1486 -4.5020 0.9591
-4.2276 -8.0332 -4.3406 0.9606
-3.7633 -7.9072 -4.1873 0.9619
-2.8946 -7.6033 -3.8902 0.9646
-2.1322 -7.3238 -3.6474 0.9667
-1.7770 -7.1659 -3.5303 0.9678
-1.1228 -6.8438 -3.3162 0.9697
-0.8213 -6.6767 -3.2166 0.9706
0.2311 -5.9972 -2.8698 0.9737
1.0742 -5.3146 -2.5926 0.9762
1.2570 -5.1442 -2.5322 0.9768
1.4297 -4.9741 -2.4747 0.9773
1.8817 -4.4434 -2.3073 0.9788
2.1499 -4.1191 -2.2218 0.9796
2.3784 -3.7811 -2.1359 0.9804
2.4850 -3.6190 -2.0992 0.9807
2.7684 -3.1411 -2.0021 0.9816
2.8516 -2.9845 -1.9738 0.9819
2.9295 -2.8290 -1.9473 0.9821
3.0025 -2.6746 -1.9227 0.9823
3.0706 -2.5213 -1.8998 0.9825
3.1341 -2.3690 -1.8786 0.9827
3.1927 -2.2173 -1.8587 0.9829
3.2999 -1.9183 -1.8251 0.9832
3.3477 -1.7699 -1.8107 0.9834
3.3916 -1.6221 -1.7977 0.9835
3.5027 -1.1819 -1.7676 0.9837
3.5323 -1.0357 -1.7601 0.9838
3.6158 -0.4517 -1.7424 0.9840
3.6280 -0.3057 -1.7409 0.9840
3.6473 0.2809 -1.7492 0.9839
3.6317 0.5761 -1.7583 0.9838
3.6018 0.8729 -1.7721 0.9837
3.5570 1.1718 -1.7908 0.9835
3.4970 1.4731 -1.8144 0.9833
3.4610 1.6248 -1.8282 0.9832
3.4210 1.7773 -1.8434 0.9831
3.3768 1.9306 -1.8599 0.9829
3.3282 2.0847 -1.8779 0.9827
3.2758 2.2403 -1.8977 0.9826
3.2192 2.3971 -1.9192 0.9824
3.0915 2.7143 -1.9672 0.9819
2.9434 3.0365 -2.0221 0.9814
2.7730 3.3641 -2.0846 0.9809
2.6788 3.5301 -2.1190 0.9805
2.5783 3.6975 -2.1554 0.9802
2.4687 3.8626 -2.1919 0.9799
2.3521 4.0286 -2.2307 0.9795
2.2285 4.1958 -2.2717 0.9792
2.0973 4.3640 -2.3152 0.9788
1.9465 4.5059 -2.3470 0.9785
1.8008 4.6770 -2.3964 0.9780
1.3150 5.2181 -2.5731 0.9764
1.1301 5.3910 -2.6338 0.9759
0.9347 5.5651 -2.6983 0.9753
0.5098 5.9168 -2.8397 0.9740
0.2788 6.0928 -2.9164 0.9733
0.0345 6.2682 -2.9973 0.9726
-0.4970 6.6172 -3.1730 0.9710
-1.4122 7.1260 -3.4737 0.9683
-2.1085 7.4416 -3.6984 0.9663
-2.4852 7.5924 -3.8200 0.9652
-3.2997 7.8751 -4.0828 0.9628
-3.7392 8.0044 -4.2245 0.9616
-4.2010 8.1239 -4.3732 0.9603
-6.2903 8.4812 -5.0491 0.9543
-6.8672 8.5202 -5.2326 0.9526
-7.4668 8.5373 -5.4233 0.9510
-8.0944 8.5362 -5.6250 0.9492
-8.7626 8.5262 -5.8461 0.9472
-9.4549 8.4870 -6.0752 0.9452
-10.1710 8.4163 -6.3126 0.9431
-13.2383 7.7629 -7.3382 0.9342
-14.0402 7.4912 -7.6094 0.9319
-14.8467 7.1700 -7.8837 0.9295
-15.6464 6.7943 -8.1565 0.9272
-16.4226 6.3593 -8.4209 0.9249
-17.8530 5.3079 -8.9060 0.9207
-16.1618 2.7461 -7.8388 0.9299
-20.1424 1.7740 -9.6687 0.9142
-20.3777 0.1506 -9.7442 0.9136
-19.5554 -3.0260 -9.4620 0.9160
-18.6031 -4.4339 -9.1446 0.9187
-18.0113 -5.0664 -8.9467 0.9204
-17.3009 -5.6266 -8.6992 0.9225
-16.6527 -6.1668 -8.4912 0.9243
-14.3122 -7.3667 -7.6970 0.9311
-13.4452 -7.6194 -7.3896 0.9338
-11.8894 -8.0649 -6.8697 0.9383
-11.1201 -8.2149 -6.6108 0.9405
-7.6418 -8.4810 -5.4587 0.9506
-7.0389 -8.4737 -5.2674 0.9523
-5.3299 -8.2702 -4.7046 0.9573
-4.8112 -8.1691 -4.5333 0.9588
-4.3179 -8.0558 -4.3705 0.9603
-3.4045 -7.7996 -4.0693 0.9630
-2.5809 -7.5078 -3.7962 0.9654
-2.2014 -7.3534 -3.6703 0.9665
-1.1815 -6.8746 -3.3354 0.9695
-0.8768 -6.7084 -3.2350 0.9704
-0.5885 -6.5399 -3.1398 0.9713
-0.3157 -6.3703 -3.0498 0.9721
0.1866 -6.0294 -2.8844 0.9736
1.2234 -5.1764 -2.5434 0.9767
1.3979 -5.0061 -2.4853 0.9772
1.5629 -4.8367 -2.4305 0.9777
1.7188 -4.6685 -2.3788 0.9782
1.8553 -4.4754 -2.3166 0.9787
2.2450 -3.9790 -2.1846 0.9799
2.5669 -3.4885 -2.0710 0.9810
2.6624 -3.3290 -2.0383 0.9813
2.7521 -3.1708 -2.0076 0.9816
2.9152 -2.8582 -1.9522 0.9821
3.0582 -2.5501 -1.9040 0.9825
3.1820 -2.2458 -1.8623 0.9829
3.2378 -2.0954 -1.8441 0.9830
3.3390 -1.7978 -1.8133 0.9833
3.4250 -1.5027 -1.7884 0.9836
3.5770 -0.7711 -1.7497 0.9839
3.6417 -0.0407 -1.7414 0.9840
3.6467 0.1059 -1.7445 0.9840
3.6480 0.2531 -1.7486 0.9839
3.6427 0.4005 -1.7523 0.9839
3.6338 0.5482 -1.7572 0.9838
3.5619 1.1435 -1.7888 0.9836
3.5033 1.4446 -1.8120 0.9833
3.4289 1.7485 -1.8404 0.9831
3.3377 2.0556 -1.8744 0.9828
3.2302 2.3674 -1.9150 0.9824
3.1698 2.5252 -1.9378 0.9822
3.1044 2.6842 -1.9624 0.9820
2.9583 3.0059 -2.0166 0.9815
2.2523 4.1642 -2.2638 0.9792
1.9730 4.4737 -2.3380 0.9786
1.5216 5.0134 -2.5052 0.9770
1.3487 5.1856 -2.5621 0.9765
1.1658 5.3584 -2.6221 0.9760
0.7681 5.7076 -2.7538 0.9748
0.5519 5.8836 -2.8257 0.9741
-0.4443 6.5845 -3.1556 0.9712
-0.7300 6.7577 -3.2501 0.9703
-1.0320 6.9297 -3.3501 0.9694
-1.3503 7.0954 -3.4537 0.9685
-2.0397 7.4126 -3.6762 0.9665
-2.4126 7.5644 -3.7966 0.9654
-2.8056 7.7105 -3.9234 0.9643
-3.2194 7.8497 -4.0569 0.9631
-3.6547 7.9808 -4.1972 0.9618
-4.1122 8.1022 -4.3446 0.9605
-4.5936 8.2145 -4.5003 0.9591
-5.1003 8.3167 -4.6650 0.9577
-5.6316 8.4047 -4.8376 0.9561
-6.1837 8.4709 -5.0149 0.9546
-6.7567 8.5144 -5.1975 0.9529
-7.3521 8.5358 -5.3868 0.9513
-8.6347 8.5303 -5.8038 0.9476
-10.7711 8.3358 -6.5126 0.9414
-12.3031 8.0285 -7.0247 0.9369
-15.4972 6.8697 -8.1057 0.9276
-16.2787 6.4459 -8.3719 0.9253
-16.9715 5.9424 -8.5983 0.9234
-16.1583 2.8717 -7.8474 0.9298
-20.0975 1.9238 -9.6539 0.9144
-20.3747 0.3051 -9.7436 0.9136
-20.2152 -1.3256 -9.6870 0.9141
-19.6297 -2.8852 -9.4871 0.9158
-19.2091 -3.6180 -9.3467 0.9170
-18.7070 -4.3090 -9.1793 0.9184
-11.0136 -7.5934 -6.5798 0.9421
-10.3199 -7.7455 -6.3465 0.9441
-9.6534 -7.8715 -6.1265 0.9460
-9.0093 -7.9706 -5.9165 0.9478
-8.3815 -8.0387 -5.7121 0.9495
-7.1735 -8.0836 -5.3158 0.9530
-6.5980 -8.0666 -5.1258 0.9546
-6.0452 -8.0292 -4.9434 0.9562
-5.5155 -7.9739 -4.7688 0.9577
-4.5218 -7.8126 -4.4399 0.9606
-4.0591 -7.7129 -4.2869 0.9619
-3.6077 -7.5801 -4.1290 0.9633
-3.1999 -7.4851 -4.0039 0.9644
-2.4207 -7.2191 -3.7450 0.9666
-2.0605 -7.0776 -3.6257 0.9677
-1.7195 -6.9340 -3.5138 0.9687
-1.0886 -6.6353 -3.3072 0.9705
-0.7970 -6.4790 -3.2108 0.9713
-0.5205 -6.3208 -3.1194 0.9721
-0.0102 -5.9858 -2.9442 0.9737
1.0483 -5.1866 -2.6026 0.9767
1.5571 -4.6969 -2.4339 0.9782
1.7087 -4.5348 -2.3836 0.9786
1.8411 -4.3476 -2.3222 0.9792
1.9739 -4.1840 -2.2754 0.9796
2.1041 -4.0315 -2.2367 0.9799
2.3316 -3.7067 -2.1539 0.9807
2.4370 -3.5490 -2.1175 0.9810
2.7173 -3.0831 -2.0214 0.9818
2.8769 -2.7781 -1.9671 0.9823
3.0794 -2.3276 -1.8986 0.9829
3.1375 -2.1790 -1.8789 0.9831
3.1928 -2.0321 -1.8615 0.9833
3.2917 -1.7403 -1.8314 0.9835
3.3353 -1.5952 -1.8184 0.9837
3.3751 -1.4504 -1.8069 0.9838
3.4446 -1.1623 -1.7881 0.9839
3.4999 -0.8749 -1.7744 0.9840
3.5223 -0.7314 -1.7694 0.9841
3.5567 -0.4443 -1.7630 0.9841
3.5774 -0.1569 -1.7612 0.9842
3.5875 0.1315 -1.7657 0.9841
3.5861 0.2762 -1.7691 0.9841
3.5705 0.5664 -1.7781 0.9840
3.5573 0.7120 -1.7844 0.9840
3.4960 1.1516 -1.8104 0.9837
3.4362 1.4475 -1.8339 0.9835
3.3606 1.7459 -1.8627 0.9833
3.2695 2.0480 -1.8975 0.9829
3.1606 2.3535 -1.9382 0.9826
3.0997 2.5080 -1.9612 0.9824
2.9631 2.8204 -2.0121 0.9819
2.8870 2.9783 -2.0402 0.9817
2.7183 3.2977 -2.1020 0.9811
2.3028 3.9441 -2.2464 0.9798
2.0517 4.2690 -2.3296 0.9791
1.7603 4.5716 -2.4095 0.9784
1.1023 5.2582 -2.6425 0.9763
0.9112 5.4250 -2.7057 0.9758
0.7095 5.5926 -2.7728 0.9752
0.2708 5.9177 -2.9137 0.9739
-0.2175 6.2587 -3.0802 0.9725
-1.0567 6.7442 -3.3576 0.9700
-1.3671 6.8984 -3.4590 0.9691
-1.6935 7.0461 -3.5643 0.9682
-2.3981 7.3266 -3.7918 0.9662
-2.7778 7.4577 -3.9143 0.9651
-3.5950 7.6958 -4.1779 0.9628
-4.0336 7.8002 -4.3192 0.9616
-4.4928 7.8930 -4.4671 0.9603
-4.9746 7.9754 -4.6233 0.9590
-5.4788 8.0440 -4.7870 0.9575
-6.5445 8.1199 -5.1295 0.9546
-7.1046 8.1231 -5.3079 0.9530
-8.2911 8.0674 -5.6899 0.9497
-9.5824 7.9292 -6.1175 0.9461
-10.2538 7.8119 -6.3403 0.9442
-11.6429 7.4724 -6.8046 0.9402
-15.0953 5.8453 -7.9619 0.9304
-17.3474 3.6709 -8.7213 0.9240
-18.3830 1.6191 -9.0768 0.9210
-18.5330 0.8832 -9.1259 0.9206
-17.9029 -2.7703 -8.9104 0.9224
-17.5259 -3.4388 -8.7846 0.9235
-16.5630 -4.6590 -8.4628 0.9262
-15.9917 -5.2009 -8.2711 0.9278
-14.7097 -6.1308 -7.8383 0.9314
-13.2944 -6.8427 -7.3542 0.9355
-12.5668 -7.1216 -7.1046 0.9376
-11.8505 -7.3606 -6.8615 0.9397
-11.1456 -7.5604 -6.6242 0.9417
-10.4497 -7.7197 -6.3901 0.9437
-8.4985 -8.0281 -5.7502 0.9492
-7.2844 -8.0844 -5.3524 0.9526
-6.7048 -8.0715 -5.1610 0.9543
-6.1477 -8.0377 -4.9772 0.9559
-5.6137 -7.9858 -4.8012 0.9574
-4.1446 -7.7326 -4.3152 0.9616
-3.6890 -7.6018 -4.1560 0.9630
-3.2776 -7.5088 -4.0297 0.9641
-1.4555 -6.8145 -3.4273 0.9694
-1.1453 -6.6641 -3.3258 0.9703
-0.8507 -6.5087 -3.2285 0.9712
-0.5715 -6.3508 -3.1363 0.9720
-0.0559 -6.0163 -2.9593 0.9735
0.6184 -5.5280 -2.7359 0.9755
0.8221 -5.3801 -2.6769 0.9760
1.1945 -5.0543 -2.5545 0.9771
1.5276 -4.7276 -2.4437 0.9781
1.6808 -4.5653 -2.3928 0.9785
1.8151 -4.3785 -2.3313 0.9791
1.9494 -4.2147 -2.2840 0.9795
2.0816 -4.0632 -2.2455 0.9799
2.5179 -3.4219 -2.0896 0.9812
2.6124 -3.2665 -2.0572 0.9815
2.9360 -2.6555 -1.9471 0.9825
3.0044 -2.5053 -1.9241 0.9827
3.1826 -2.0597 -1.8646 0.9832
3.2830 -1.7677 -1.8340 0.9835
3.3679 -1.4777 -1.8089 0.9837
3.4049 -1.3333 -1.7985 0.9838
3.4687 -1.0456 -1.7819 0.9840
3.5183 -0.7585 -1.7703 0.9841
3.5379 -0.6149 -1.7662 0.9841
3.5540 -0.4714 -1.7634 0.9841
3.5667 -0.3278 -1.7617 0.9842
3.5760 -0.1840 -1.7612 0.9842
3.5869 0.2489 -1.7685 0.9841
3.5815 0.3938 -1.7722 0.9841
3.5601 0.6845 -1.7831 0.9840
3.5440 0.8305 -1.7904 0.9839
3.5243 0.9769 -1.7988 0.9838
3.5008 1.1239 -1.8084 0.9837
3.4736 1.2714 -1.8193 0.9836
3.3684 1.7176 -1.8597 0.9833
3.2787 2.0193 -1.8940 0.9830
3.2270 2.1711 -1.9130 0.9828
3.1116 2.4788 -1.9567 0.9824
2.9768 2.7908 -2.0070 0.9820
2.6432 3.4288 -2.1294 0.9809
2.5450 3.5914 -2.1650 0.9806
2.4386 3.7526 -2.2012 0.9802
2.3250 3.9136 -2.2390 0.9799
1.7879 4.5404 -2.4001 0.9785
1.6463 4.7305 -2.4636 0.9779
1.4859 4.8958 -2.5165 0.9775
1.1372 5.2269 -2.6310 0.9764
0.9480 5.3934 -2.6934 0.9759
0.7483 5.5610 -2.7599 0.9753
0.3146 5.8960 -2.9041 0.9740
-0.4313 6.3917 -3.1509 0.9718
-1.9709 7.1625 -3.6539 0.9674
-2.3287 7.3012 -3.7693 0.9664
-2.7048 7.4335 -3.8907 0.9654
-4.4046 7.8765 -4.4387 0.9606
-5.9021 8.0852 -4.9236 0.9564
-6.4407 8.1163 -5.0963 0.9549
-6.9977 8.1243 -5.2739 0.9533
-8.1733 8.0744 -5.6510 0.9501
-8.8060 8.0259 -5.8603 0.9483
-10.1257 7.8364 -6.2976 0.9445
-10.8110 7.6919 -6.5260 0.9426
-11.5100 7.5109 -6.7600 0.9406
-12.9261 7.0232 -7.2356 0.9365
-14.9705 5.9279 -7.9195 0.9307
-15.6732 5.4878 -8.1678 0.9286
-16.7740 4.3966 -8.5291 0.9256
-16.3538 2.2323 -8.1183 0.9291
-18.5671 -0.4690 -9.1353 0.9205
-18.4557 -1.2102 -9.0970 0.9209
-18.2526 -1.9367 -9.0280 0.9214
-17.1685 -3.9546 -8.6655 0.9245
-9.7408 -7.3108 -6.1589 0.9469
-9.1365 -7.4500 -5.9616 0.9485
-7.3878 -7.6795 -5.3887 0.9534
-4.7838 -7.5479 -4.5190 0.9607
-4.3406 -7.4996 -4.3819 0.9619
-3.0841 -7.2141 -3.9675 0.9654
-2.7021 -7.0976 -3.8405 0.9665
-2.3385 -6.9741 -3.7197 0.9676
-1.3529 -6.5777 -3.3959 0.9703
-0.7738 -6.2907 -3.2052 0.9720
-0.5058 -6.1421 -3.1165 0.9728
-0.2514 -5.9915 -3.0325 0.9735
-0.0099 -5.8258 -2.9461 0.9742
0.2191 -5.6853 -2.8771 0.9748
0.8380 -5.2192 -2.6731 0.9766
1.1990 -4.9069 -2.5544 0.9776
1.6715 -4.4361 -2.3973 0.9790
1.8018 -4.2549 -2.3366 0.9795
2.0599 -3.9467 -2.2513 0.9802
2.1758 -3.7890 -2.2095 0.9806
2.3902 -3.4810 -2.1353 0.9813
2.6675 -3.0267 -2.0402 0.9821
2.8973 -2.5809 -1.9621 0.9828
2.9639 -2.4337 -1.9394 0.9830
3.0260 -2.2873 -1.9182 0.9831
3.0837 -2.1416 -1.8986 0.9833
3.1388 -1.9977 -1.8815 0.9835
3.3555 -1.2847 -1.8170 0.9840
3.4426 -0.8606 -1.7945 0.9842
3.4648 -0.7195 -1.7895 0.9843
3.5107 -0.2958 -1.7817 0.9843
3.5263 0.2716 -1.7885 0.9843
3.5203 0.4141 -1.7924 0.9842
3.5107 0.5569 -1.7975 0.9842
3.4975 0.7000 -1.8038 0.9841
3.4604 0.9876 -1.8198 0.9840
3.4364 1.1320 -1.8296 0.9839
3.4085 1.2770 -1.8407 0.9838
3.3768 1.4225 -1.8530 0.9837
3.3413 1.5685 -1.8666 0.9836
3.3022 1.7156 -1.8818 0.9835
3.2594 1.8635 -1.8986 0.9833
3.1036 2.3110 -1.9568 0.9828
3.0431 2.4622 -1.9795 0.9826
2.8322 2.9218 -2.0577 0.9819
2.7515 3.0770 -2.0874 0.9817
2.3683 3.7056 -2.2239 0.9805
1.9951 4.1513 -2.3292 0.9796
1.7211 4.4698 -2.4221 0.9788
1.4208 4.8123 -2.5374 0.9778
1.0755 5.1303 -2.6508 0.9768
0.8886 5.2903 -2.7127 0.9762
0.6914 5.4504 -2.7783 0.9757
0.0325 5.9197 -2.9936 0.9738
-0.4684 6.2368 -3.1628 0.9724
-0.7392 6.3888 -3.2523 0.9716
-1.0244 6.5380 -3.3465 0.9708
-1.9694 6.9506 -3.6533 0.9681
-2.3162 7.0762 -3.7652 0.9672
-2.6799 7.1948 -3.8826 0.9662
-3.0611 7.3055 -4.0056 0.9651
-3.8773 7.4981 -4.2687 0.9629
-4.3131 7.5773 -4.4090 0.9617
-5.7363 7.7342 -4.8695 0.9578
-6.2451 7.7483 -5.0325 0.9564
-7.8653 7.6531 -5.5496 0.9520
-8.4507 7.5855 -5.7425 0.9504
-9.0528 7.4910 -5.9420 0.9487
-11.5649 6.7817 -6.7796 0.9417
-12.2017 6.5103 -6.9937 0.9399
-12.8333 6.1976 -7.2069 0.9381
-13.4052 5.8211 -7.3905 0.9366
-15.1409 4.5016 -7.9879 0.9316
-16.0437 3.3950 -8.2928 0.9291
-16.6820 2.1483 -8.5056 0.9274
-17.0250 0.8114 -8.6192 0.9264
-17.0758 0.1262 -8.6354 0.9263
-17.0462 -0.5599 -8.6248 0.9264
-16.9369 -1.2397 -8.5878 0.9267
-16.4888 -2.5515 -8.4375 0.9279
-16.1604 -3.1709 -8.3280 0.9288
-15.2634 -4.2935 -8.0182 0.9314
-14.2552 -5.2790 -7.6872 0.9341
-13.6147 -5.6744 -7.4589 0.9360
-12.4013 -6.3831 -7.0532 0.9394
-11.7622 -6.6656 -6.8368 0.9412
-11.1221 -6.9081 -6.6210 0.9430
-9.8556 -7.2808 -6.1964 0.9466
-7.4946 -7.6732 -5.4240 0.9531
-6.3943 -7.6977 -5.0605 0.9561
-5.8731 -7.6787 -4.8887 0.9576
-5.3529 -7.6148 -4.7070 0.9591
-4.8722 -7.5599 -4.5481 0.9605
-3.9831 -7.4313 -4.2637 0.9629
-3.1582 -7.2352 -3.9922 0.9652
-2.7726 -7.1201 -3.8640 0.9663
-2.4056 -6.9978 -3.7420 0.9674
-1.7256 -6.7397 -3.5181 0.9693
-1.4105 -6.6038 -3.4148 0.9702
-1.1109 -6.4639 -3.3167 0.9710
-0.8259 -6.3185 -3.2224 0.9718
-0.2983 -6.0200 -3.0480 0.9733
0.1769 -5.7144 -2.8911 0.9747
0.3954 -5.5459 -2.8116 0.9754
0.6045 -5.4043 -2.7500 0.9759
0.9892 -5.0927 -2.6235 0.9770
1.3346 -4.7792 -2.5092 0.9780
1.4935 -4.6221 -2.4564 0.9785
1.6441 -4.4656 -2.4064 0.9789
1.7763 -4.2848 -2.3456 0.9794
2.0377 -3.9774 -2.2599 0.9802
2.3711 -3.5098 -2.1419 0.9812
2.4703 -3.3572 -2.1078 0.9815
2.6515 -3.0549 -2.0456 0.9820
2.7341 -2.9053 -2.0174 0.9823
2.9517 -2.4614 -1.9435 0.9829
3.0146 -2.3148 -1.9221 0.9831
3.0731 -2.1690 -1.9021 0.9833
3.1287 -2.0248 -1.8846 0.9834
3.1805 -1.8813 -1.8687 0.9836
3.2284 -1.7383 -1.8542 0.9837
3.2723 -1.5957 -1.8410 0.9838
3.3125 -1.4534 -1.8293 0.9839
3.3490 -1.3115 -1.8188 0.9840
3.3819 -1.1698 -1.8096 0.9841
3.4117 -1.0284 -1.8020 0.9842
3.4609 -0.7461 -1.7903 0.9843
3.4803 -0.6049 -1.7863 0.9843
3.4962 -0.4637 -1.7835 0.9843
3.5179 -0.1810 -1.7813 0.9843
3.5238 -0.0394 -1.7821 0.9843
3.5285 0.1025 -1.7851 0.9843
3.5271 0.2447 -1.7879 0.9843
3.5217 0.3872 -1.7916 0.9842
3.5128 0.5299 -1.7965 0.9842
3.5003 0.6730 -1.8025 0.9841
3.4842 0.8165 -1.8097 0.9841
3.4645 0.9604 -1.8181 0.9840
3.4141 1.2496 -1.8385 0.9838
3.3831 1.3950 -1.8505 0.9837
3.2678 1.8355 -1.8953 0.9833
3.2216 1.9841 -1.9133 0.9832
3.1145 2.2826 -1.9527 0.9828
3.0548 2.4337 -1.9751 0.9826
2.9212 2.7386 -2.0249 0.9822
2.7671 3.0476 -2.0816 0.9817
2.6818 3.2037 -2.1128 0.9814
2.2768 3.8326 -2.2543 0.9802
2.1579 3.9897 -2.2938 0.9799
2.0194 4.1215 -2.3209 0.9796
1.8988 4.3055 -2.3796 0.9791
1.7483 4.4397 -2.4129 0.9788
1.6089 4.6231 -2.4754 0.9783
1.2852 4.9414 -2.5819 0.9774
1.1096 5.1004 -2.6396 0.9769
0.9246 5.2601 -2.7008 0.9763
0.7294 5.4202 -2.7657 0.9758
0.5235 5.5800 -2.8342 0.9752
0.3062 5.7391 -2.9064 0.9746
0.0771 5.8971 -2.9824 0.9739
-0.1644 6.0534 -3.0623 0.9732
-0.6871 6.3603 -3.2351 0.9717
-1.9059 6.9263 -3.6328 0.9683
-2.2495 7.0530 -3.7437 0.9674
-2.6100 7.1730 -3.8600 0.9664
-2.9879 7.2853 -3.9819 0.9653
-3.7973 7.4818 -4.2429 0.9631
-4.6804 7.6319 -4.5274 0.9607
-6.1478 7.7472 -5.0014 0.9566
-6.6706 7.7446 -5.1689 0.9552
-7.2088 7.7186 -5.3409 0.9538
-8.9383 7.5111 -5.9041 0.9490
-10.1723 7.2375 -6.3132 0.9456
-11.4446 6.8283 -6.7393 0.9420
-12.0822 6.5647 -6.9535 0.9402
-13.2902 5.8914 -7.3515 0.9369
-14.5071 5.0795 -7.7728 0.9334
-15.0454 4.5976 -7.9556 0.9319
-15.5337 4.0715 -8.1206 0.9305
-15.9697 3.5061 -8.2681 0.9293
-16.3357 2.9032 -8.3903 0.9283
-16.6338 2.2705 -8.4896 0.9275
-16.2274 -3.0564 -8.3504 0.9287
-15.7887 -3.6368 -8.1933 0.9300
-9.7871 -6.7478 -6.1780 0.9478
-9.2247 -6.9235 -5.9940 0.9493
-8.6659 -7.0663 -5.8110 0.9508
-8.1143 -7.1787 -5.6303 0.9523
-7.5705 -7.2609 -5.4514 0.9538
-4.6064 -7.2680 -4.4718 0.9620
-4.1719 -7.2080 -4.3281 0.9632
-3.3580 -7.0554 -4.0607 0.9654
-2.9751 -6.9594 -3.9333 0.9665
-2.6096 -6.8547 -3.8117 0.9675
-2.2613 -6.7438 -3.6964 0.9684
-1.6133 -6.5060 -3.4835 0.9702
-1.3121 -6.3793 -3.3847 0.9711
-1.0251 -6.2479 -3.2904 0.9719
-0.7517 -6.1111 -3.1998 0.9726
-0.0097 -5.6725 -2.9479 0.9748
0.6268 -5.2429 -2.7441 0.9765
0.8179 -5.0939 -2.6812 0.9770
1.3346 -4.6430 -2.5106 0.9785
1.6355 -4.3406 -2.4106 0.9793
2.1330 -3.7144 -2.2260 0.9809
2.2420 -3.5642 -2.1882 0.9812
2.4417 -3.2662 -2.1193 0.9818
2.5330 -3.1185 -2.0879 0.9821
2.9123 -2.3913 -1.9583 0.9832
2.9738 -2.2478 -1.9373 0.9833
3.0861 -1.9641 -1.9011 0.9836
3.1367 -1.8234 -1.8855 0.9838
3.1834 -1.6831 -1.8714 0.9839
3.2263 -1.5430 -1.8586 0.9840
3.2655 -1.4033 -1.8471 0.9841
3.3010 -1.2639 -1.8369 0.9842
3.4540 -0.2910 -1.8014 0.9845
3.4679 0.2671 -1.8075 0.9844
3.4021 0.9709 -1.8386 0.9842
3.3504 1.2552 -1.8593 0.9840
3.3192 1.3982 -1.8717 0.9839
3.2845 1.5419 -1.8857 0.9838
3.2460 1.6863 -1.9009 0.9836
3.1567 1.9773 -1.9357 0.9833
3.1041 2.1228 -1.9543 0.9832
2.9231 2.5664 -2.0215 0.9826
2.8535 2.7161 -2.0473 0.9824
2.6135 3.1706 -2.1353 0.9816
2.5223 3.3238 -2.1684 0.9814
2.3204 3.6306 -2.2392 0.9808
2.2085 3.7827 -2.2763 0.9804
2.0901 3.9352 -2.3156 0.9801
1.9528 4.0634 -2.3429 0.9799
1.8218 4.2172 -2.3874 0.9795
1.5367 4.5260 -2.4840 0.9787
1.0497 5.0073 -2.6588 0.9772
0.8668 5.1607 -2.7195 0.9767
0.6741 5.3137 -2.7836 0.9761
0.4710 5.4660 -2.8511 0.9756
0.0317 5.7670 -2.9971 0.9743
-0.2053 5.9089 -3.0726 0.9737
-0.9936 6.3418 -3.3360 0.9715
-1.2836 6.4769 -3.4314 0.9707
-1.5873 6.6043 -3.5299 0.9698
-1.9055 6.7251 -3.6325 0.9690
-3.7312 7.2155 -4.2215 0.9640
-4.5762 7.3367 -4.4937 0.9618
-5.0237 7.3759 -4.6378 0.9606
-5.9689 7.4056 -4.9431 0.9580
-6.9687 7.3491 -5.2633 0.9554
-8.0177 7.1969 -5.5991 0.9526
-8.5737 7.0945 -5.7832 0.9511
-9.1388 6.9625 -5.9706 0.9495
-10.2869 6.6021 -6.3523 0.9464
-10.8688 6.3735 -6.5479 0.9448
-11.4460 6.1071 -6.7421 0.9432
-12.0108 5.8004 -6.9316 0.9416
-12.5613 5.4547 -7.1168 0.9401
-13.5972 4.6455 -7.4673 0.9373
-14.0648 4.1816 -7.6255 0.9360
-15.7328 0.7498 -8.1854 0.9315
-15.6589 -1.1461 -8.1595 0.9317
-15.4937 -1.7629 -8.1038 0.9321
-15.2648 -2.3621 -8.0273 0.9327
-14.6298 -3.4869 -7.8159 0.9344
-14.2281 -4.0022 -7.6811 0.9355
-13.7710 -4.4786 -7.5256 0.9368
-13.2758 -4.9163 -7.3572 0.9382
-12.7430 -5.3111 -7.1746 0.9397
-12.1465 -5.6461 -6.9610 0.9414
-11.6283 -5.9852 -6.7966 0.9427
-10.4712 -6.5038 -6.4060 0.9459
-8.2175 -7.1597 -5.6641 0.9521
-6.6145 -7.3408 -5.1352 0.9564
-6.1090 -7.3543 -4.9685 0.9578
-5.6206 -7.3486 -4.8080 0.9592
-4.6904 -7.2779 -4.4996 0.9617
-4.2522 -7.2200 -4.3545 0.9629
-3.8219 -7.1304 -4.2043 0.9642
-3.4317 -7.0717 -4.0849 0.9652
-2.3256 -6.7650 -3.7176 0.9683
-1.9844 -6.6283 -3.5957 0.9693
-1.6718 -6.5293 -3.5027 0.9701
-1.0781 -6.2733 -3.3079 0.9717
-0.8022 -6.1371 -3.2165 0.9725
-0.5397 -5.9980 -3.1297 0.9732
-0.0529 -5.6999 -2.9623 0.9746
0.1719 -5.5538 -2.8876 0.9753
0.3863 -5.4191 -2.8234 0.9758
0.5896 -5.2709 -2.7563 0.9764
1.6085 -4.3690 -2.4195 0.9792
1.9921 -3.8884 -2.2705 0.9805
2.1117 -3.7429 -2.2334 0.9808
2.2219 -3.5924 -2.1952 0.9811
2.3258 -3.4428 -2.1592 0.9814
2.4239 -3.2941 -2.1254 0.9817
2.5162 -3.1463 -2.0937 0.9820
2.6032 -2.9992 -2.0639 0.9823
2.6849 -2.8530 -2.0360 0.9825
2.7616 -2.7076 -2.0099 0.9827
2.9002 -2.4184 -1.9625 0.9831
3.0207 -2.1320 -1.9214 0.9835
3.1274 -1.8499 -1.8883 0.9838
3.1749 -1.7095 -1.8739 0.9839
3.2584 -1.4296 -1.8492 0.9841
3.3272 -1.1509 -1.8296 0.9843
3.3564 -1.0118 -1.8218 0.9843
3.4238 -0.5951 -1.8060 0.9845
3.4520 -0.3172 -1.8015 0.9845
3.4611 -0.1781 -1.8011 0.9845
3.4668 -0.0388 -1.8017 0.9845
3.4706 0.1008 -1.8044 0.9845
3.4686 0.2407 -1.8069 0.9844
3.4632 0.3807 -1.8106 0.9844
3.4418 0.6618 -1.8214 0.9843
3.4062 0.9442 -1.8369 0.9842
3.2535 1.6591 -1.8980 0.9837
3.1658 1.9497 -1.9322 0.9834
2.8670 2.6878 -2.0423 0.9824
2.7144 2.9896 -2.0985 0.9820
2.6300 3.1418 -2.1293 0.9817
2.1129 3.9064 -2.3081 0.9802
1.9767 4.0344 -2.3348 0.9800
1.8471 4.1881 -2.3788 0.9796
1.7192 4.3658 -2.4384 0.9791
1.4182 4.6727 -2.5377 0.9782
1.2551 4.8258 -2.5913 0.9778
0.9020 5.1318 -2.7078 0.9768
0.7112 5.2849 -2.7713 0.9762
0.2982 5.5888 -2.9086 0.9751
-0.1597 5.8810 -3.0574 0.9738
-0.9406 6.3158 -3.3184 0.9716
-1.2279 6.4522 -3.4133 0.9708
-1.5290 6.5809 -3.5111 0.9700
-2.5207 6.9275 -3.8311 0.9673
-3.2606 7.1202 -4.0698 0.9653
-3.6550 7.2014 -4.1969 0.9642
-4.0660 7.2710 -4.3293 0.9631
-4.9381 7.3697 -4.6102 0.9608
-5.4000 7.3974 -4.7597 0.9596
-6.3679 7.3932 -5.0709 0.9570
-7.3891 7.2997 -5.3978 0.9543
-9.0318 6.9897 -5.9351 0.9498
-9.6020 6.8317 -6.1242 0.9483
-10.1770 6.6411 -6.3153 0.9467
-10.7593 6.4194 -6.5111 0.9451
-11.9056 5.8614 -6.8964 0.9419
-13.9795 4.2719 -7.5966 0.9362
-14.4104 3.7771 -7.7419 0.9351
-15.5857 1.4919 -8.1367 0.9319
-15.7164 0.8685 -8.1800 0.9315
-15.7746 0.2362 -8.1988 0.9314
-15.6823 -1.0284 -8.1674 0.9316
-15.4705 -1.6415 -8.0849 0.9323
-15.0351 -2.8318 -7.9509 0.9334
-8.7521 -6.5688 -5.8418 0.9516
-8.2343 -6.7144 -5.6720 0.9530
-7.2124 -6.9174 -5.3349 0.9557
-6.7145 -6.9796 -5.1703 0.9570
-6.2298 -7.0203 -5.0106 0.9583
-5.2996 -7.0389 -4.7036 0.9608
-4.0149 -6.9368 -4.2787 0.9643
-3.2386 -6.8047 -4.0231 0.9664
-2.5224 -6.6258 -3.7848 0.9684
-1.8691 -6.4202 -3.5697 0.9701
-1.5642 -6.3080 -3.4695 0.9710
-1.2732 -6.1905 -3.3739 0.9717
-0.4783 -5.8079 -3.1110 0.9739
-0.0094 -5.5255 -2.9497 0.9753
0.9762 -4.8298 -2.6305 0.9779
1.1450 -4.6857 -2.5750 0.9784
2.0914 -3.6420 -2.2420 0.9811
2.1989 -3.4958 -2.2047 0.9814
2.3963 -3.2055 -2.1365 0.9820
2.4866 -3.0613 -2.1055 0.9823
2.5716 -2.9179 -2.0763 0.9825
2.6516 -2.7752 -2.0490 0.9827
2.7264 -2.6328 -2.0233 0.9830
2.7964 -2.4910 -1.9993 0.9832
2.8618 -2.3499 -1.9768 0.9833
3.2477 -1.2435 -1.8565 0.9844
3.3719 -0.5598 -1.8247 0.9846
3.3868 -0.4231 -1.8221 0.9846
3.3984 -0.2863 -1.8207 0.9847
3.3950 0.5385 -1.8350 0.9845
3.3819 0.6769 -1.8412 0.9845
3.3652 0.8156 -1.8485 0.9844
3.3216 1.0942 -1.8669 0.9843
3.2945 1.2343 -1.8781 0.9842
3.2293 1.5160 -1.9045 0.9840
3.1910 1.6578 -1.9196 0.9838
3.1486 1.8001 -1.9362 0.9837
2.9936 2.2291 -1.9925 0.9832
2.9341 2.3740 -2.0148 0.9830
2.8699 2.5196 -2.0387 0.9828
2.8009 2.6660 -2.0643 0.9826
2.7269 2.8131 -2.0915 0.9824
2.5632 3.1096 -2.1513 0.9819
2.3771 3.4090 -2.2186 0.9813
2.2738 3.5578 -2.2541 0.9810
2.1635 3.7056 -2.2907 0.9807
2.0467 3.8536 -2.3294 0.9804
1.9119 3.9781 -2.3562 0.9802
1.7828 4.1270 -2.4000 0.9798
1.6551 4.2986 -2.4590 0.9793
1.5026 4.4254 -2.4949 0.9790
1.1950 4.7420 -2.6106 0.9781
1.0248 4.8887 -2.6665 0.9776
0.6574 5.1823 -2.7887 0.9766
0.4591 5.3276 -2.8546 0.9760
-0.1999 5.7535 -3.0733 0.9742
-0.9644 6.1551 -3.3259 0.9721
-1.8450 6.5116 -3.6130 0.9698
-2.1656 6.6162 -3.7164 0.9689
-2.8502 6.8023 -3.9373 0.9671
-3.2147 6.8818 -4.0549 0.9661
-3.9885 7.0071 -4.3042 0.9641
-4.3977 7.0505 -4.4360 0.9630
-4.8217 7.0794 -4.5726 0.9619
-5.7133 7.0885 -4.8603 0.9596
-6.1768 7.0623 -5.0087 0.9583
-7.1370 6.9445 -5.3161 0.9559
-8.1389 6.7347 -5.6395 0.9532
-8.6631 6.6000 -5.8140 0.9518
-9.1917 6.4354 -5.9901 0.9504
-12.6599 4.3253 -7.1420 0.9411
-13.1256 3.9024 -7.3101 0.9398
-13.8368 2.9280 -7.5502 0.9379
-14.3408 1.8468 -7.7190 0.9365
-14.5056 1.2776 -7.7737 0.9361
-14.6305 -0.4806 -7.8146 0.9358
-14.3466 -1.6324 -7.7083 0.9366
-14.1952 -2.1965 -7.6682 0.9369
-13.6208 -3.2464 -7.4751 0.9385
-11.9404 -4.9766 -6.9058 0.9430
-11.4512 -5.3229 -6.7413 0.9443
-9.8911 -6.1436 -6.2160 0.9486
-8.3316 -6.6892 -5.7039 0.9527
-7.3075 -6.9031 -5.3664 0.9554
-5.3851 -7.0408 -4.7320 0.9606
-4.5059 -6.9915 -4.4403 0.9630
-3.6925 -6.8892 -4.1727 0.9652
-1.6206 -6.3295 -3.4880 0.9708
-1.3270 -6.2130 -3.3916 0.9716
-1.0469 -6.0914 -3.2995 0.9724
-0.7795 -5.9640 -3.2109 0.9731
-0.5249 -5.8329 -3.1265 0.9738
-0.0516 -5.5514 -2.9637 0.9751
0.5752 -5.1425 -2.7624 0.9768
0.9434 -4.8568 -2.6413 0.9778
1.2754 -4.5675 -2.5316 0.9787
1.4287 -4.4215 -2.4806 0.9792
1.5741 -4.2755 -2.4322 0.9796
1.8307 -3.9580 -2.3280 0.9804
1.9520 -3.8102 -2.2854 0.9808
2.0704 -3.6696 -2.2493 0.9811
2.1791 -3.5233 -2.2116 0.9814
2.3787 -3.2327 -2.1426 0.9820
2.5560 -2.9449 -2.0817 0.9825
2.6369 -2.8020 -2.0541 0.9827
2.7127 -2.6596 -2.0281 0.9829
2.8498 -2.3764 -1.9809 0.9833
2.9117 -2.2358 -1.9598 0.9835
3.0755 -1.8192 -1.9076 0.9839
3.2413 -1.2693 -1.8583 0.9843
3.3280 -0.8588 -1.8348 0.9845
3.3965 -0.3121 -1.8208 0.9847
3.4135 0.0992 -1.8230 0.9846
3.3970 0.5125 -1.8340 0.9845
3.3846 0.6508 -1.8399 0.9845
3.3686 0.7894 -1.8470 0.9844
3.3491 0.9284 -1.8553 0.9844
3.3262 1.0678 -1.8650 0.9843
3.2999 1.2078 -1.8759 0.9842
3.1985 1.6310 -1.9167 0.9839
3.1569 1.7733 -1.9330 0.9837
2.9456 2.3466 -2.0105 0.9831
2.8823 2.4921 -2.0341 0.9829
2.6630 2.9330 -2.1149 0.9822
2.5795 3.0815 -2.1453 0.9819
2.3957 3.3807 -2.2119 0.9814
2.2939 3.5299 -2.2474 0.9811
2.1848 3.6777 -2.2836 0.9808
2.0693 3.8257 -2.3219 0.9805
1.6817 4.2706 -2.4502 0.9794
1.0576 4.8610 -2.6557 0.9777
0.8803 5.0082 -2.7146 0.9772
0.6937 5.1548 -2.7767 0.9767
