ply
format ascii 1.0
element vertex 1380
property float32 x
property float32 y
property float32 z
property float32 CosAngle
property uint32 ObjIdx
property uint32 ObjTag
end_header
4.1321 -3.6278 -1.5143 0.4944 0 1
4.2083 -3.4046 -1.4907 0.5023 0 1
4.2788 -3.1853 -1.4690 0.5097 0 1
4.3439 -2.9697 -1.4491 0.5167 0 1
4.4051 -2.7579 -1.4312 0.5232 0 1
4.4615 -2.5491 -1.4151 0.5292 0 1
4.5134 -2.3429 -1.4004 0.5347 0 1
4.5609 -2.1390 -1.3873 0.5398 0 1
4.6041 -1.9371 -1.3756 0.5444 0 1
4.6432 -1.7370 -1.3652 0.5486 0 1
4.6784 -1.5384 -1.3562 0.5522 0 1
4.7097 -1.3411 -1.3485 0.5553 0 1
4.1560 -1.0044 -1.1774 0.6787 25 14
3.8722 -0.7722 -1.0874 0.7471 25 14
3.8431 -0.6066 -1.0714 0.8403 25 14
3.8360 -0.4480 -1.0636 0.8465 25 14
3.8296 -0.2916 -1.0577 0.8512 25 14
3.8238 -0.1366 -1.0537 0.8544 25 14
3.8198 0.0175 -1.0519 0.8559 25 14
3.8215 0.1715 -1.0535 0.8546 25 14
3.8238 0.3263 -1.0569 0.8519 25 14
3.8273 0.4826 -1.0623 0.8985 25 14
3.8341 0.6412 -1.0705 0.8916 25 14
3.8841 0.8116 -1.0927 0.6671 25 14
4.1163 1.0347 -1.1688 0.8959 25 14
4.8169 1.4193 -1.3829 0.5358 0 1
4.7926 1.6246 -1.3936 0.5316 0 1
4.7643 1.8321 -1.4057 0.5271 0 1
4.7316 2.0419 -1.4192 0.5221 0 1
4.6948 2.2544 -1.4342 0.5163 0 1
4.6534 2.4699 -1.4508 0.5103 0 1
4.6073 2.6886 -1.4690 0.5040 0 1
4.5562 2.9109 -1.4889 0.4973 0 1
4.4998 3.1370 -1.5106 0.4902 0 1
4.4382 3.3675 -1.5342 0.4826 0 1
4.3711 3.6030 -1.5600 0.4747 0 1
4.2978 3.8435 -1.5878 0.4663 0 1
4.2179 4.0895 -1.6179 0.4577 0 1
4.1308 4.3412 -1.6502 0.4616 0 1
4.0302 4.5923 -1.6826 0.4527 0 1
3.9217 4.8495 -1.7175 0.4435 0 1
3.8068 5.1157 -1.7561 0.4318 0 1
3.6839 5.3910 -1.7981 0.4217 0 1
3.5512 5.6747 -1.8435 0.4114 0 1
3.4079 5.9675 -1.8925 0.4007 0 1
3.2532 6.2701 -1.9453 0.3898 0 1
3.0849 6.5813 -2.0016 0.3764 0 1
2.8949 6.8847 -2.0568 0.3880 0 1
2.6909 7.1978 -2.1162 0.3771 0 1
2.4715 7.5216 -2.1803 0.3660 0 1
2.2355 7.8572 -2.2496 0.3547 0 1
1.9896 8.2405 -2.3345 0.3234 0 1
1.7236 8.6524 -2.4296 0.3107 0 1
1.4308 9.0771 -2.5306 0.3218 0 1
1.1084 9.5067 -2.6357 0.3067 0 1
0.7554 9.9497 -2.7479 0.2938 0 1
0.3693 10.3975 -2.8651 0.2818 0 1
-0.0521 10.8946 -3.0003 0.2561 0 1
-0.5162 11.4456 -3.1552 0.2414 0 1
-1.0267 12.0006 -3.3169 0.2342 0 24
-1.6008 12.6749 -3.5182 0.2174 0 1
-2.2362 13.3545 -3.7289 0.2052 0 1
-2.9490 14.0989 -3.9667 0.1816 0 1
-3.7581 14.9372 -4.2417 0.1730 0 1
-4.6667 15.8256 -4.5437 0.1660 0 1
-5.6942 16.7860 -4.8814 0.1545 0 1
-6.8500 17.8021 -5.2529 0.1459 0 1
-8.1815 18.9479 -5.6836 0.1246 0 1
-9.8197 20.4385 -6.2444 0.1175 0 1
-11.7626 22.1501 -6.9066 0.1047 0 1
-14.0372 24.0430 -7.6670 0.0994 0 1
-30.9270 -25.4273 -11.5047 0.9669 0 20
-35.2770 -31.4683 -13.5836 0.6364 0 20
-32.1119 -31.0557 -12.8364 0.6631 0 20
-29.6123 -31.0418 -12.3273 0.6905 0 20
-25.2918 -28.7466 -11.0021 0.9901 0 9
-22.8055 -28.1283 -10.4053 0.2588 0 9
-19.3501 -25.9356 -9.2981 0.0792 0 2
-16.7288 -24.4153 -8.5044 0.7626 0 2
-13.9076 -22.1621 -7.5183 0.0848 0 1
-11.7397 -20.4970 -6.7873 0.1072 0 1
-9.9218 -19.0646 -6.1756 0.1180 0 1
-8.3661 -17.7902 -5.6490 0.1306 0 1
-7.0339 -16.6694 -5.1988 0.1441 0 1
-5.8920 -15.7004 -4.8187 0.1605 0 1
-4.9008 -14.8517 -4.4939 0.1755 0 1
-4.0288 -14.0929 -4.2117 0.1875 0 1
-3.2543 -13.4047 -3.9637 0.2012 0 1
-2.5607 -12.7708 -3.7427 0.2182 0 1
-1.9306 -12.1484 -3.5346 0.2237 0 24
-1.3658 -11.5881 -3.3528 0.2321 0 24
-0.8559 -11.0882 -3.1956 0.2426 0 1
-0.3889 -10.5761 -3.0410 0.2540 0 1
0.0356 -10.0924 -2.9000 0.2664 0 1
0.4226 -9.6392 -2.7724 0.2807 0 1
0.7763 -9.2102 -2.6559 0.2930 0 1
1.1005 -8.8030 -2.5492 0.3052 0 1
1.3976 -8.4112 -2.4501 0.3178 0 1
1.6709 -8.0388 -2.3593 0.3314 0 1
1.9179 -7.6639 -2.2701 0.3462 0 24
2.1570 -7.3487 -2.2007 0.3589 0 1
2.3732 -7.0251 -2.1307 0.3707 0 1
2.5732 -6.7124 -2.0657 0.3814 0 1
2.7584 -6.4105 -2.0053 0.3929 0 1
2.9303 -6.1188 -1.9494 0.4041 0 1
3.0900 -5.8365 -1.8976 0.4151 0 1
3.2384 -5.5629 -1.8496 0.4257 0 1
3.3680 -5.2838 -1.8005 0.4219 0 1
3.4857 -5.0112 -1.7540 0.4266 0 1
3.5954 -4.7488 -1.7115 0.4372 0 1
3.6965 -4.4941 -1.6721 0.4476 0 1
3.7897 -4.2466 -1.6355 0.4576 0 1
3.8756 -4.0057 -1.6016 0.4673 0 1
3.9594 -3.7755 -1.5721 0.4954 0 1
4.0413 -3.5542 -1.5465 0.5036 0 1
4.1174 -3.3368 -1.5228 0.5114 0 1
4.1878 -3.1231 -1.5011 0.5188 0 1
4.2529 -2.9127 -1.4812 0.5258 0 1
4.3139 -2.7059 -1.4632 0.5323 0 1
4.3703 -2.5019 -1.4470 0.5383 0 1
4.4221 -2.3002 -1.4323 0.5438 0 1
4.4696 -2.1008 -1.4191 0.5489 0 1
4.5128 -1.9031 -1.4073 0.5535 0 1
4.5519 -1.7072 -1.3969 0.5576 0 1
4.5871 -1.5126 -1.3879 0.5613 0 1
4.6184 -1.3192 -1.3801 0.5644 0 1
4.1915 -1.0167 -1.2393 0.6707 25 14
3.8844 -0.7780 -1.1383 0.7423 25 14
3.8663 -0.6136 -1.1249 0.7487 25 14
3.8568 -0.4537 -1.1159 0.7548 25 14
3.8483 -0.2962 -1.1091 0.7594 25 14
3.8408 -0.1404 -1.1044 0.7626 25 14
3.8355 0.0143 -1.1021 0.8020 25 14
3.8368 0.1690 -1.1036 0.7632 25 14
3.8390 0.3244 -1.1071 0.7608 25 14
3.8422 0.4812 -1.1127 0.7570 25 14
3.8463 0.6399 -1.1204 0.7517 25 14
3.8963 0.8107 -1.1436 0.7390 25 14
4.7382 1.1868 -1.4036 0.5574 0 1
4.7208 1.3867 -1.4138 0.5451 0 1
4.6964 1.5876 -1.4245 0.5410 0 1
4.6679 1.7905 -1.4366 0.5365 0 1
4.6351 1.9956 -1.4501 0.5315 0 1
4.5980 2.2032 -1.4651 0.5257 0 1
4.5565 2.4136 -1.4816 0.5198 0 1
4.5103 2.6269 -1.4998 0.5135 0 1
4.4590 2.8436 -1.5196 0.5068 0 1
4.4026 3.0638 -1.5412 0.4997 0 1
4.3410 3.2881 -1.5648 0.4922 0 1
4.2739 3.5169 -1.5904 0.4843 0 1
4.2007 3.7504 -1.6181 0.4760 0 1
4.1211 3.9889 -1.6480 0.4674 0 1
4.0345 4.2328 -1.6803 0.4584 0 1
3.9371 4.4787 -1.7135 0.4624 0 1
3.8295 4.7274 -1.7482 0.4532 0 1
3.7152 4.9840 -1.7862 0.4416 0 1
3.5934 5.2492 -1.8279 0.4315 0 1
3.4621 5.5220 -1.8728 0.4212 0 1
3.3205 5.8030 -1.9211 0.4106 0 1
3.1673 6.0921 -1.9730 0.3969 0 1
3.0011 6.3888 -2.0282 0.3864 0 1
2.8194 6.6895 -2.0859 0.3979 0 1
2.6192 6.9882 -2.1444 0.3870 0 1
2.4043 7.2965 -2.2075 0.3760 0 1
2.1735 7.6150 -2.2755 0.3647 0 1
1.9301 7.9646 -2.3548 0.3335 0 1
1.6709 8.3517 -2.4474 0.3209 0 1
1.3882 8.7590 -2.5483 0.3082 0 1
1.0773 9.1731 -2.6540 0.3168 0 1
0.7357 9.5836 -2.7619 0.3041 0 1
0.3635 9.9996 -2.8752 0.2921 0 1
-0.0412 10.4393 -2.9997 0.2664 0 1
-0.4843 10.9438 -3.1477 0.2539 0 1
-0.9704 11.4557 -3.3035 0.2457 0 24
-1.5124 12.0562 -3.4914 0.2279 0 1
-2.0985 12.5965 -3.6694 0.2162 0 24
-2.7750 13.3226 -3.9104 0.2035 0 1
-3.5180 14.0326 -4.1570 0.1836 0 1
-4.3567 14.8198 -4.4386 0.1720 0 1
-5.2956 15.6541 -4.7485 0.1652 0 1
-6.3473 16.5371 -5.0898 0.1567 0 1
-7.5286 17.4760 -5.4678 0.1453 0 1
-8.9158 18.5970 -5.9261 0.1217 0 1
-10.5959 19.9936 -6.5020 0.1063 0 1
-12.5912 21.6077 -7.1861 0.1083 0 1
-14.8286 23.2421 -7.9220 0.1111 0 1
-16.7919 24.1190 -8.4447 0.4897 0 2
-20.0043 26.3987 -9.5174 0.0773 0 2
-24.0545 29.2198 -10.8752 0.0677 0 25
-22.4769 25.1655 -9.6956 0.6973 0 5
-22.5661 23.3043 -9.3213 0.7272 0 5
-22.6762 21.6048 -8.9998 0.7391 0 5
-22.8137 20.0465 -8.7266 0.7547 0 5
-22.8570 18.5079 -8.4510 0.7255 0 5
-22.9235 17.0804 -8.2144 0.8309 0 5
-32.8169 22.4550 -11.4260 0.8362 0 3
-26.7955 16.7918 -9.0865 0.8565 0 3
-32.9637 18.8525 -10.9116 0.8756 0 3
-34.1461 17.7435 -11.0573 0.4492 0 3
-37.7395 17.7186 -11.9800 0.4146 0 3
-41.9945 17.6891 -13.0937 0.3793 0 3
-26.8335 7.6528 -8.0179 0.9558 0 22
-46.1210 9.2175 -13.5147 0.9787 0 22
-46.0846 7.2941 -13.4070 0.9926 0 22
-30.9197 -25.4647 -11.5099 0.7959 0 20
-35.2166 -31.4675 -13.5705 0.6370 0 20
-32.0578 -31.0553 -12.8252 0.6637 0 20
-29.5624 -31.0415 -12.3174 0.6911 0 20
-26.3799 -30.0340 -11.4864 0.9930 0 9
-22.9772 -28.3888 -10.4945 0.8036 0 9
-19.2784 -25.8847 -9.2741 0.0794 0 2
-16.7186 -24.4444 -8.5097 0.7622 0 2
-13.8564 -22.1217 -7.5006 0.0972 0 1
-11.6986 -20.4651 -6.7735 0.1075 0 1
-9.8869 -19.0365 -6.1638 0.1183 0 1
-8.3362 -17.7653 -5.6388 0.1308 0 1
-7.0083 -16.6477 -5.1902 0.1444 0 1
-5.8700 -15.6818 -4.8114 0.1608 0 1
-4.8816 -14.8352 -4.4877 0.1757 0 1
-4.0117 -14.0778 -4.2062 0.1878 0 1
-3.2391 -13.3909 -3.9588 0.2014 0 1
-2.5471 -12.7584 -3.7384 0.2185 0 1
-1.9183 -12.1365 -3.5307 0.2239 0 24
-1.3546 -11.5767 -3.3492 0.2323 0 24
-0.8457 -11.0772 -3.1922 0.2429 0 1
-0.3797 -10.5657 -3.0380 0.2543 0 1
0.0440 -10.0826 -2.8972 0.2666 0 1
0.4302 -9.6301 -2.7699 0.2809 0 1
0.7834 -9.2016 -2.6536 0.2932 0 1
1.1070 -8.7947 -2.5471 0.3055 0 1
1.4035 -8.4033 -2.4481 0.3180 0 1
1.6764 -8.0312 -2.3575 0.3317 0 1
1.9230 -7.6568 -2.2685 0.3464 0 24
2.1617 -7.3419 -2.1992 0.3591 0 1
2.3775 -7.0185 -2.1293 0.3709 0 1
2.5772 -6.7061 -2.0643 0.3816 0 1
2.7621 -6.4043 -2.0041 0.3931 0 1
2.9338 -6.1128 -1.9483 0.4043 0 1
3.0932 -5.8307 -1.8966 0.4154 0 1
3.2414 -5.5572 -1.8486 0.4259 0 1
3.3705 -5.2780 -1.7995 0.4221 0 1
3.4881 -5.0057 -1.7531 0.4269 0 1
3.5976 -4.7434 -1.7107 0.4375 0 1
3.6985 -4.4889 -1.6713 0.4478 0 1
3.7916 -4.2416 -1.6348 0.4578 0 1
3.8773 -4.0008 -1.6009 0.4675 0 1
3.9612 -3.7709 -1.5715 0.4956 0 1
4.0430 -3.5496 -1.5459 0.5038 0 1
4.1189 -3.3323 -1.5224 0.5116 0 1
4.1892 -3.1186 -1.5007 0.5189 0 1
4.2542 -2.9083 -1.4808 0.5259 0 1
4.3151 -2.7016 -1.4629 0.5324 0 1
4.3714 -2.4977 -1.4467 0.5384 0 1
4.4232 -2.2961 -1.4320 0.5439 0 1
4.4705 -2.0966 -1.4188 0.5490 0 1
4.5137 -1.8990 -1.4071 0.5536 0 1
4.5527 -1.7031 -1.3967 0.5577 0 1
4.5878 -1.5086 -1.3877 0.5613 0 1
4.6190 -1.3152 -1.3800 0.5645 0 1
4.1913 -1.0129 -1.2390 0.6709 25 14
3.8828 -0.7743 -1.1377 0.7428 25 14
3.8661 -0.6103 -1.1247 0.7489 25 14
3.8566 -0.4504 -1.1157 0.7549 25 14
3.8481 -0.2930 -1.1089 0.7595 25 14
3.8406 -0.1372 -1.1043 0.7627 25 14
3.8356 0.0175 -1.1021 0.8020 25 14
3.8369 0.1722 -1.1036 0.7632 25 14
3.8391 0.3276 -1.1071 0.7607 25 14
3.8422 0.4844 -1.1128 0.7569 25 14
3.8464 0.6433 -1.1206 0.7516 25 14
3.8979 0.8145 -1.1442 0.7385 25 14
4.7379 1.1910 -1.4038 0.5573 0 1
4.7203 1.3909 -1.4140 0.5450 0 1
4.6958 1.5918 -1.4247 0.5409 0 1
4.6672 1.7948 -1.4368 0.5364 0 1
4.6343 1.9999 -1.4504 0.5314 0 1
4.5972 2.2075 -1.4654 0.5256 0 1
4.5556 2.4180 -1.4820 0.5197 0 1
4.5093 2.6314 -1.5002 0.5134 0 1
4.4579 2.8481 -1.5201 0.5067 0 1
4.4014 3.0684 -1.5417 0.4995 0 1
4.3397 3.2928 -1.5653 0.4921 0 1
4.2725 3.5217 -1.5910 0.4841 0 1
4.1991 3.7553 -1.6187 0.4758 0 1
4.1193 3.9939 -1.6487 0.4672 0 1
4.0326 4.2380 -1.6810 0.4582 0 1
3.9350 4.4838 -1.7142 0.4622 0 1
3.8272 4.7326 -1.7489 0.4530 0 1
3.7128 4.9894 -1.7871 0.4414 0 1
3.5908 5.2548 -1.8288 0.4313 0 1
3.4592 5.5278 -1.8738 0.4210 0 1
3.3174 5.8090 -1.9222 0.4104 0 1
3.1640 6.0982 -1.9741 0.3967 0 1
2.9975 6.3950 -2.0294 0.3862 0 1
2.8154 6.6956 -2.0871 0.3977 0 1
2.6149 6.9946 -2.1457 0.3868 0 1
2.3997 7.3030 -2.2089 0.3758 0 1
2.1685 7.6218 -2.2770 0.3645 0 1
1.9249 7.9725 -2.3567 0.3332 0 1
1.6653 8.3599 -2.4494 0.3206 0 1
1.3821 8.7677 -2.5505 0.3079 0 1
1.0705 9.1818 -2.6562 0.3165 0 1
0.7283 9.5921 -2.7642 0.3038 0 1
0.3554 10.0084 -2.8777 0.2919 0 1
-0.0500 10.4495 -3.0026 0.2662 0 1
-0.4940 10.9547 -3.1510 0.2536 0 1
-0.9810 11.4666 -3.3069 0.2455 0 24
-1.5242 12.0684 -3.4954 0.2277 0 1
-2.1115 12.6094 -3.6737 0.2156 0 24
-2.7896 13.3368 -3.9152 0.2032 0 1
-3.5344 14.0483 -4.1625 0.1834 0 1
-4.3752 14.8370 -4.4448 0.1718 0 1
-5.3163 15.6720 -4.7553 0.1650 0 1
-6.3704 16.5558 -5.0972 0.1564 0 1
-7.5548 17.4965 -5.4762 0.1451 0 1
-8.9478 18.6237 -5.9370 0.1215 0 1
-10.6352 20.0272 -6.5158 0.1061 0 1
-12.6348 21.6409 -7.2007 0.1081 0 1
-30.8292 -25.3469 -11.9486 0.8664 0 20
-34.8387 -31.0773 -13.9767 0.6318 0 20
-31.4730 -30.4378 -13.1080 0.9350 0 9
-26.3678 -27.6407 -11.4364 0.9032 0 9
-23.4356 -26.6368 -10.6217 0.6149 0 9
-20.0609 -24.7431 -9.5364 0.0802 0 2
-17.1274 -22.9565 -8.5748 0.8361 0 2
-14.7347 -21.5050 -7.8044 0.0723 0 1
-12.4872 -19.8986 -7.0331 0.1071 0 1
-10.6541 -18.6016 -6.4177 0.1191 0 1
-9.0783 -17.4437 -5.8872 0.1286 0 1
-7.7222 -16.4209 -5.4326 0.1432 0 1
-6.5412 -15.5018 -5.0372 0.1595 0 1
-5.5153 -14.6966 -4.6995 0.1743 0 1
-4.6126 -13.9783 -4.4068 0.1861 0 1
-3.8080 -13.3206 -4.1477 0.2001 0 1
-3.0859 -12.7111 -3.9160 0.2115 0 1
-2.4368 -12.1531 -3.7108 0.2226 0 1
-1.8392 -11.5733 -3.5083 0.2312 0 24
-1.3085 -11.1020 -3.3467 0.2412 0 1
-0.8189 -10.6087 -3.1855 0.2528 0 1
-0.3728 -10.1386 -3.0373 0.2641 0 1
0.0342 -9.6962 -2.9029 0.2784 0 1
0.4067 -9.2769 -2.7800 0.2907 0 1
0.7483 -8.8781 -2.6673 0.3030 0 1
1.0624 -8.4978 -2.5639 0.3152 0 1
1.3511 -8.1312 -2.4677 0.3276 0 1
1.6176 -7.7825 -2.3797 0.3447 0 1
1.8591 -7.4288 -2.2926 0.3560 0 24
2.0932 -7.1312 -2.2250 0.3686 0 1
2.3051 -6.8236 -2.1563 0.3804 0 1
2.5014 -6.5252 -2.0921 0.3910 0 1
2.6837 -6.2368 -2.0327 0.4025 0 1
2.8531 -5.9575 -1.9775 0.4137 0 1
3.0107 -5.6866 -1.9263 0.4247 0 1
3.1573 -5.4234 -1.8788 0.4352 0 1
3.2834 -5.1511 -1.8288 0.4313 0 1
3.3988 -4.8862 -1.7819 0.4427 0 1
3.5077 -4.6329 -1.7397 0.4467 0 1
3.6084 -4.3870 -1.7006 0.4570 0 1
3.7013 -4.1475 -1.6642 0.4670 0 1
3.7870 -3.9141 -1.6305 0.4766 0 1
3.8739 -3.6940 -1.6025 0.5047 0 1
3.9555 -3.4786 -1.5770 0.5128 0 1
4.0312 -3.2669 -1.5534 0.5206 0 1
4.1013 -3.0586 -1.5317 0.5280 0 1
4.1662 -2.8533 -1.5118 0.5350 0 1
4.2270 -2.6514 -1.4938 0.5415 0 1
4.2832 -2.4520 -1.4776 0.5474 0 1
4.3349 -2.2549 -1.4629 0.5529 0 1
4.3822 -2.0597 -1.4496 0.5581 0 1
4.4253 -1.8662 -1.4379 0.5626 0 1
4.4643 -1.6743 -1.4274 0.5667 0 1
4.4994 -1.4837 -1.4184 0.5704 0 1
4.5305 -1.2941 -1.4106 0.5735 0 1
4.2944 -1.0416 -1.3230 0.3387 25 14
3.9051 -0.7822 -1.1923 0.7250 25 14
3.8909 -0.6175 -1.1794 0.7416 25 14
3.8810 -0.4566 -1.1699 0.7476 25 14
3.8723 -0.2981 -1.1627 0.7523 25 14
3.8621 -0.1412 -1.1570 0.7934 25 14
3.8550 0.0144 -1.1541 0.7953 25 14
3.8603 0.1700 -1.1568 0.7935 25 14
3.8630 0.3264 -1.1606 0.7536 25 14
3.8663 0.4842 -1.1665 0.7498 25 14
3.8706 0.6440 -1.1747 0.7446 25 14
3.9082 0.8132 -1.1951 0.7343 25 14
4.6470 1.1640 -1.4342 0.5664 0 1
4.6274 1.3593 -1.4439 0.5543 0 1
4.6028 1.5560 -1.4546 0.5502 0 1
4.5741 1.7546 -1.4667 0.5457 0 1
4.5411 1.9552 -1.4802 0.5407 0 1
4.5038 2.1581 -1.4951 0.5349 0 1
4.4621 2.3636 -1.5117 0.5291 0 1
4.4157 2.5719 -1.5299 0.5228 0 1
4.3644 2.7832 -1.5497 0.5161 0 1
4.3078 2.9978 -1.5712 0.5090 0 1
4.2462 3.2163 -1.5947 0.5016 0 1
4.1791 3.4389 -1.6203 0.4937 0 1
4.1059 3.6657 -1.6478 0.4854 0 1
4.0264 3.8972 -1.6776 0.4768 0 1
3.9401 4.1337 -1.7097 0.4679 0 1
3.8457 4.3748 -1.7438 0.4718 0 1
3.7389 4.6155 -1.7783 0.4627 0 1
3.6252 4.8632 -1.8159 0.4511 0 1
3.5043 5.1191 -1.8573 0.4411 0 1
3.3742 5.3818 -1.9017 0.4308 0 1
3.2340 5.6520 -1.9495 0.4202 0 1
3.0819 5.9278 -2.0002 0.4066 0 1
2.9180 6.2118 -2.0547 0.3958 0 1
2.7413 6.5043 -2.1131 0.3852 0 1
2.5469 6.7953 -2.1726 0.3967 0 1
2.3360 7.0892 -2.2346 0.3857 0 1
2.1099 7.3923 -2.3015 0.3745 0 1
1.8690 7.7124 -2.3758 0.3433 0 1
1.6160 8.0771 -2.4661 0.3307 0 1
1.3408 8.4596 -2.5643 0.3180 0 1
1.0407 8.8618 -2.6713 0.3053 0 1
0.7101 9.2493 -2.7772 0.3141 0 1
0.3503 9.6370 -2.8870 0.3021 0 1
-0.0396 10.0419 -3.0064 0.2901 0 1
-0.4643 10.4916 -3.1440 0.2640 0 1
-0.9289 10.9653 -3.2945 0.2562 0 24
-1.4424 11.4982 -3.4693 0.2337 0 1
-1.9972 11.9886 -3.6386 0.2269 0 24
-2.6176 12.5667 -3.8430 0.2125 0 24
-3.3232 13.2555 -4.0913 0.1981 0 1
-4.0954 13.9311 -4.3472 0.1862 0 1
-4.9650 14.6769 -4.6386 0.1709 0 1
-5.9301 15.4499 -4.9544 0.1667 0 1
-6.9975 16.2432 -5.2949 0.1558 0 1
-8.2055 17.1154 -5.6825 0.1393 0 1
-9.6309 18.1726 -6.1573 0.1286 0 1
-11.3645 19.5027 -6.7577 0.1062 0 1
-13.3802 20.9719 -7.4476 0.1084 0 1
-15.5353 22.3141 -8.1400 0.1113 0 1
-17.5199 23.1201 -8.6845 0.0880 0 2
-20.7002 25.1453 -9.7507 0.0784 0 2
-24.6200 27.5650 -11.0648 0.0691 0 25
-22.4779 23.2132 -9.6738 0.7386 0 5
-22.5657 21.4996 -9.3311 0.7403 0 5
-22.6814 19.9302 -9.0394 0.8212 0 5
-22.7479 18.4195 -8.7629 0.8056 0 5
-22.8200 17.0032 -8.5198 0.8498 0 5
-32.6732 22.3567 -11.8524 0.8371 0 3
-28.3764 17.7825 -10.0256 0.5145 0 3
-28.7141 16.4221 -9.9030 0.3759 0 3
-32.4010 16.8367 -10.9317 0.1432 0 3
-36.8066 17.2806 -12.1732 0.9205 0 3
-37.8008 15.9226 -12.2798 0.8287 0 3
-45.9500 9.1833 -14.0286 0.9623 0 22
-45.9465 7.2722 -13.9267 0.9920 0 22
-30.8002 -25.3663 -11.9456 0.9910 0 20
-34.7796 -31.0770 -13.9635 0.6324 0 20
-30.4678 -29.5151 -12.6996 0.8102 0 9
-26.7435 -28.0815 -11.6096 0.8064 0 9
-22.6523 -25.7901 -10.2765 0.7981 0 9
-19.9907 -24.6988 -9.5129 0.0804 0 2
-17.1163 -22.9817 -8.5788 0.8357 0 2
-14.6707 -21.4502 -7.7801 0.0725 0 1
-12.4458 -19.8696 -7.0192 0.1073 0 1
-10.6190 -18.5764 -6.4060 0.1193 0 1
-9.0478 -17.4208 -5.8769 0.1288 0 1
-7.6958 -16.4006 -5.4237 0.1435 0 1
-6.5185 -15.4843 -5.0297 0.1597 0 1
-5.4954 -14.6810 -4.6930 0.1745 0 1
-4.5949 -13.9640 -4.4011 0.1864 0 1
-3.7922 -13.3076 -4.1426 0.2003 0 1
-3.0717 -12.6988 -3.9114 0.2117 0 1
-2.4239 -12.1417 -3.7067 0.2228 0 1
-1.8276 -11.5624 -3.5045 0.2314 0 24
-1.2978 -11.0915 -3.3432 0.2415 0 1
-0.8092 -10.5987 -3.1823 0.2530 0 1
-0.3640 -10.1290 -3.0344 0.2644 0 1
0.0423 -9.6873 -2.9002 0.2787 0 1
0.4141 -9.2684 -2.7775 0.2909 0 1
0.7551 -8.8700 -2.6651 0.3032 0 1
1.0686 -8.4901 -2.5618 0.3154 0 1
1.3568 -8.1237 -2.4658 0.3279 0 1
1.6230 -7.7754 -2.3780 0.3449 0 1
1.8640 -7.4221 -2.2910 0.3563 0 24
2.0977 -7.1247 -2.2235 0.3689 0 1
2.3094 -6.8173 -2.1549 0.3806 0 1
2.5053 -6.5191 -2.0909 0.3913 0 1
2.6873 -6.2309 -2.0315 0.4027 0 1
2.8565 -5.9518 -1.9764 0.4139 0 1
3.0138 -5.6811 -1.9253 0.4249 0 1
3.1602 -5.4180 -1.8778 0.4354 0 1
3.2859 -5.1455 -1.8278 0.4316 0 1
3.4011 -4.8808 -1.7810 0.4429 0 1
3.5099 -4.6277 -1.7389 0.4469 0 1
3.6104 -4.3819 -1.6998 0.4572 0 1
3.7032 -4.1426 -1.6635 0.4672 0 1
3.7887 -3.9094 -1.6298 0.4768 0 1
3.8757 -3.6895 -1.6020 0.5048 0 1
3.9571 -3.4742 -1.5765 0.5130 0 1
4.0327 -3.2626 -1.5529 0.5208 0 1
4.1027 -3.0543 -1.5313 0.5282 0 1
4.1675 -2.8491 -1.5114 0.5351 0 1
4.2282 -2.6472 -1.4935 0.5416 0 1
4.2844 -2.4479 -1.4773 0.5475 0 1
4.3359 -2.2508 -1.4626 0.5530 0 1
4.3832 -2.0557 -1.4494 0.5582 0 1
4.4262 -1.8622 -1.4376 0.5627 0 1
4.4651 -1.6703 -1.4272 0.5668 0 1
4.5001 -1.4797 -1.4182 0.5704 0 1
4.5312 -1.2902 -1.4105 0.5736 0 1
4.2936 -1.0376 -1.3224 0.3388 25 14
3.9047 -0.7787 -1.1920 0.7252 25 14
3.8906 -0.6141 -1.1792 0.7417 25 14
3.8808 -0.4533 -1.1697 0.7477 25 14
3.8722 -0.2948 -1.1626 0.7523 25 14
3.8619 -0.1380 -1.1569 0.7934 25 14
3.8551 0.0176 -1.1542 0.7953 25 14
3.8604 0.1733 -1.1569 0.7934 25 14
3.8631 0.3297 -1.1607 0.7535 25 14
3.8664 0.4875 -1.1667 0.7497 25 14
3.8707 0.6473 -1.1749 0.7445 25 14
3.9098 0.8170 -1.1958 0.7339 25 14
4.6468 1.1681 -1.4344 0.5663 0 1
4.6270 1.3634 -1.4441 0.5542 0 1
4.6023 1.5601 -1.4548 0.5501 0 1
4.5735 1.7587 -1.4670 0.5456 0 1
4.5404 1.9594 -1.4805 0.5406 0 1
4.5030 2.1623 -1.4955 0.5348 0 1
4.4612 2.3679 -1.5121 0.5290 0 1
4.4147 2.5762 -1.5303 0.5227 0 1
4.3632 2.7876 -1.5501 0.5160 0 1
4.3066 3.0023 -1.5717 0.5089 0 1
4.2448 3.2209 -1.5952 0.5014 0 1
4.1776 3.4435 -1.6208 0.4935 0 1
4.1043 3.6705 -1.6484 0.4852 0 1
4.0247 3.9021 -1.6782 0.4766 0 1
3.9382 4.1387 -1.7104 0.4677 0 1
3.8436 4.3797 -1.7445 0.4717 0 1
3.7366 4.6205 -1.7790 0.4625 0 1
3.6227 4.8684 -1.8168 0.4509 0 1
3.5017 5.1245 -1.8581 0.4409 0 1
3.3714 5.3874 -1.9027 0.4305 0 1
3.2310 5.6577 -1.9506 0.4200 0 1
3.0786 5.9337 -2.0013 0.4063 0 1
2.9145 6.2178 -2.0558 0.3956 0 1
2.7375 6.5104 -2.1144 0.3849 0 1
2.5426 6.8013 -2.1738 0.3965 0 1
2.3315 7.0954 -2.2360 0.3855 0 1
2.1050 7.3987 -2.3029 0.3743 0 1
1.8639 7.7198 -2.3776 0.3430 0 1
1.6105 8.0849 -2.4680 0.3304 0 1
1.3348 8.4678 -2.5664 0.3178 0 1
1.0342 8.8704 -2.6736 0.3050 0 1
0.7029 9.2573 -2.7794 0.3138 0 1
0.3425 9.6452 -2.8894 0.3019 0 1
-0.0481 10.0505 -3.0090 0.2899 0 1
-0.4736 10.5015 -3.1471 0.2637 0 1
-0.9390 10.9751 -3.2977 0.2559 0 24
-1.4536 11.5092 -3.4730 0.2334 0 1
-2.0094 12.0001 -3.6426 0.2266 0 24
-2.6312 12.5793 -3.8475 0.2123 0 24
-3.3384 13.2690 -4.0963 0.1979 0 1
-4.1124 13.9457 -4.3528 0.1860 0 1
-4.9841 14.6928 -4.6449 0.1754 0 1
-5.9511 15.4660 -4.9612 0.1665 0 1
-7.0211 16.2605 -5.3025 0.1556 0 1
-8.2332 17.1363 -5.6917 0.1391 0 1
-9.6629 18.1962 -6.1681 0.1214 0 1
-11.4044 19.5334 -6.7716 0.1060 0 1
-30.8409 -27.5111 -12.8736 0.9456 0 9
-25.6697 -24.8254 -11.1236 0.6735 0 9
-24.2263 -25.3958 -10.9328 0.0725 0 2
-20.6206 -23.4373 -9.7240 0.0815 0 2
-17.6393 -21.7563 -8.7246 0.0909 0 2
-15.3858 -20.6221 -8.0146 0.0595 0 24
-13.1458 -19.1861 -7.2447 0.1112 0 1
-11.3335 -18.0601 -6.6416 0.1192 0 1
-9.7500 -17.0232 -6.1108 0.1285 0 1
-8.3796 -16.1011 -5.6540 0.1442 0 1
-7.1725 -15.2521 -5.2501 0.1587 0 1
-6.1183 -14.4997 -4.9022 0.1687 0 1
-5.1879 -13.8242 -4.5994 0.1849 0 1
-4.3561 -13.2009 -4.3301 0.1987 0 1
-3.6093 -12.6252 -4.0903 0.2104 0 1
-2.9343 -12.0865 -3.8743 0.2211 0 1
-2.3124 -11.5328 -3.6639 0.2305 0 24
-1.7622 -11.0884 -3.4973 0.2394 0 1
-1.2513 -10.6171 -3.3301 0.2514 0 1
-0.7847 -10.1654 -3.1759 0.2619 0 1
-0.3580 -9.7358 -3.0347 0.2761 0 1
0.0329 -9.3277 -2.9056 0.2884 0 1
0.3918 -8.9387 -2.7870 0.3007 0 1
0.7221 -8.5670 -2.6781 0.3129 0 1
1.0266 -8.2112 -2.5777 0.3251 0 1
1.3074 -7.8684 -2.4846 0.3423 0 1
1.5627 -7.5184 -2.3920 0.3541 0 24
1.8034 -7.2063 -2.3140 0.3659 0 24
2.0267 -6.9049 -2.2416 0.3775 0 24
2.2403 -6.6317 -2.1804 0.3891 0 1
2.4331 -6.3470 -2.1174 0.4007 0 1
2.6124 -6.0711 -2.0588 0.4121 0 1
2.7793 -5.8034 -2.0044 0.4233 0 1
2.9348 -5.5433 -1.9538 0.4340 0 1
3.0783 -5.2877 -1.9059 0.4292 0 1
3.2024 -5.0240 -1.8559 0.4407 0 1
3.3171 -4.7687 -1.8094 0.4520 0 1
3.4236 -4.5219 -1.7667 0.4562 0 1
3.5238 -4.2841 -1.7279 0.4664 0 1
3.6164 -4.0523 -1.6918 0.4763 0 1
3.7043 -3.8287 -1.6594 0.5054 0 1
3.7915 -3.6154 -1.6319 0.5139 0 1
3.8726 -3.4058 -1.6064 0.5221 0 1
3.9480 -3.1995 -1.5829 0.5298 0 1
4.0178 -2.9963 -1.5612 0.5372 0 1
4.0825 -2.7960 -1.5413 0.5441 0 1
4.1430 -2.5987 -1.5234 0.5506 0 1
4.1990 -2.4038 -1.5071 0.5565 0 1
4.2505 -2.2110 -1.4924 0.5621 0 1
4.2977 -2.0200 -1.4792 0.5671 0 1
4.3406 -1.8305 -1.4674 0.5717 0 1
4.3795 -1.6425 -1.4570 0.5758 0 1
4.4144 -1.4556 -1.4479 0.5794 0 1
4.4454 -1.2698 -1.4401 0.5825 0 1
4.4735 -1.0850 -1.4339 0.5881 0 1
3.9309 -0.7873 -1.2488 0.7178 25 14
3.9159 -0.6215 -1.2350 0.7344 25 14
3.9047 -0.4594 -1.2247 0.7772 25 14
3.8928 -0.2997 -1.2162 0.7826 25 14
3.8819 -0.1419 -1.2100 0.7866 25 14
3.8749 0.0145 -1.2070 0.7886 25 14
3.8803 0.1709 -1.2099 0.7867 25 14
3.8865 0.3284 -1.2150 0.7834 25 14
3.8909 0.4873 -1.2215 0.7425 25 14
3.8955 0.6481 -1.2301 0.7373 25 14
3.9203 0.8157 -1.2473 0.7296 25 14
4.5579 1.1417 -1.4636 0.5670 0 1
4.5371 1.3328 -1.4730 0.5634 0 1
4.5124 1.5254 -1.4837 0.5593 0 1
4.4835 1.7198 -1.4958 0.5548 0 1
4.4503 1.9161 -1.5093 0.5499 0 1
4.4128 2.1145 -1.5242 0.5445 0 1
4.3710 2.3153 -1.5408 0.5383 0 1
4.3245 2.5187 -1.5589 0.5320 0 1
4.2730 2.7249 -1.5786 0.5254 0 1
4.2164 2.9342 -1.6001 0.5183 0 1
4.1548 3.1471 -1.6236 0.5109 0 1
4.0878 3.3637 -1.6490 0.5030 0 1
4.0147 3.5843 -1.6764 0.4948 0 1
3.9354 3.8091 -1.7060 0.4862 0 1
3.8493 4.0385 -1.7379 0.4773 0 1
3.7562 4.2729 -1.7721 0.4680 0 1
3.6518 4.5080 -1.8072 0.4721 0 1
3.5388 4.7473 -1.8444 0.4605 0 1
3.4190 4.9945 -1.8854 0.4505 0 1
3.2901 5.2478 -1.9294 0.4403 0 1
3.1507 5.5064 -1.9762 0.4267 0 1
3.0004 5.7712 -2.0261 0.4162 0 1
2.8389 6.0433 -2.0798 0.4055 0 1
2.6650 6.3231 -2.1374 0.3949 0 1
2.4778 6.6111 -2.1992 0.3838 0 1
2.2711 6.8921 -2.2604 0.3954 0 1
2.0496 7.1808 -2.3261 0.3842 0 1
1.8122 7.4780 -2.3968 0.3729 0 1
1.5642 7.8184 -2.4837 0.3405 0 1
1.2962 8.1782 -2.5793 0.3279 0 1
1.0047 8.5551 -2.6832 0.3152 0 1
0.6857 8.9317 -2.7904 0.3049 0 1
0.3380 9.2976 -2.8981 0.3121 0 1
-0.0382 9.6742 -3.0135 0.3001 0 1
-0.4458 10.0726 -3.1406 0.2740 0 1
-0.8915 10.5240 -3.2899 0.2616 0 1
-1.3789 10.9922 -3.4509 0.2528 0 1
-1.9050 11.4351 -3.6111 0.2388 0 24
-2.4994 11.9996 -3.8181 0.2202 0 1
-3.1480 12.5569 -4.0325 0.2085 0 1
-3.8533 13.1076 -4.2557 0.1956 0 24
-4.6655 13.7915 -4.5351 0.1851 0 1
-5.5585 14.4819 -4.8319 0.1749 0 1
-6.5384 15.1777 -5.1478 0.1664 0 1
-7.5863 15.8239 -5.4663 0.1561 0 24
-8.8698 16.7365 -5.9002 0.1376 0 1
-10.3062 17.6865 -6.3764 0.1211 0 1
-12.0592 18.9014 -6.9840 0.1059 0 1
-14.0898 20.2378 -7.6813 0.0989 0 1
-16.4453 21.7019 -8.4817 0.1095 0 2
-18.1522 22.0501 -8.8965 0.0891 0 2
-21.2372 23.7775 -9.9307 0.0798 0 2
-24.9787 25.7957 -11.1851 0.0709 0 25
-27.6330 26.3273 -11.8888 0.7455 0 3
-22.5535 19.8179 -9.3522 0.8235 0 5
-22.6748 18.3603 -9.0882 0.7821 0 5
-22.7376 16.9419 -8.8326 0.8339 0 5
-32.5299 22.2586 -12.2780 0.8380 0 3
-28.3751 17.7817 -10.4308 0.5128 0 3
-29.2939 16.7537 -10.5118 0.7689 0 3
-37.5806 19.5282 -13.1923 0.8948 0 3
-29.1824 13.7010 -10.0422 0.3736 0 5
-32.6046 13.7338 -11.0204 0.3903 0 5
-42.4439 15.8978 -14.1181 0.9711 0 3
-45.7588 7.2425 -14.4311 0.4003 0 22
-30.7608 -25.3339 -12.4131 0.6008 0 20
-30.9722 -27.6749 -12.9381 0.7283 0 9
-27.0598 -26.2137 -11.7355 0.9611 0 9
-24.1114 -25.3177 -10.8905 0.6639 0 9
-20.5528 -23.3997 -9.7013 0.0817 0 2
-17.6224 -21.7728 -8.7252 0.7213 0 2
-15.3139 -20.5616 -7.9860 0.0619 0 24
-13.1057 -19.1619 -7.2314 0.1114 0 1
-11.2982 -18.0375 -6.6298 0.1194 0 1
-9.7192 -17.0023 -6.1004 0.1287 0 1
-8.3529 -16.0829 -5.6451 0.1444 0 1
-7.1493 -15.2358 -5.2424 0.1589 0 1
-6.0977 -14.4846 -4.8954 0.1689 0 1
-5.1696 -13.8107 -4.5935 0.1852 0 1
-4.3397 -13.1885 -4.3249 0.1990 0 1
-3.5945 -12.6136 -4.0855 0.2106 0 1
-2.9210 -12.0757 -3.8700 0.2213 0 1
-2.3003 -11.5225 -3.6600 0.2303 0 24
-1.7511 -11.0784 -3.4937 0.2396 0 1
-1.2412 -10.6076 -3.3268 0.2516 0 1
-0.7754 -10.1561 -3.1728 0.2622 0 1
-0.3495 -9.7271 -3.0319 0.2764 0 1
0.0407 -9.3194 -2.9030 0.2887 0 1
0.3990 -8.9308 -2.7847 0.3009 0 1
0.7287 -8.5595 -2.6759 0.3131 0 1
1.0326 -8.2040 -2.5757 0.3253 0 1
1.3130 -7.8615 -2.4827 0.3426 0 1
1.5679 -7.5118 -2.3903 0.3542 0 24
1.8082 -7.1999 -2.3124 0.3661 0 24
2.0371 -6.9187 -2.2466 0.3786 0 1
2.2445 -6.6257 -2.1791 0.3893 0 1
2.4370 -6.3412 -2.1161 0.4009 0 1
2.6160 -6.0655 -2.0576 0.4123 0 1
2.7827 -5.7980 -2.0033 0.4235 0 1
2.9379 -5.5379 -1.9527 0.4342 0 1
3.0809 -5.2821 -1.9048 0.4294 0 1
3.2049 -5.0187 -1.8549 0.4410 0 1
3.3193 -4.7635 -1.8085 0.4523 0 1
3.4258 -4.5169 -1.7659 0.4564 0 1
3.5258 -4.2792 -1.7271 0.4666 0 1
3.6182 -4.0476 -1.6911 0.4765 0 1
3.7062 -3.8242 -1.6588 0.5056 0 1
3.7932 -3.6110 -1.6314 0.5141 0 1
3.8742 -3.4014 -1.6059 0.5222 0 1
3.9495 -3.1953 -1.5824 0.5300 0 1
4.0192 -2.9921 -1.5608 0.5373 0 1
4.0838 -2.7918 -1.5409 0.5442 0 1
4.1442 -2.5946 -1.5230 0.5507 0 1
4.2001 -2.3998 -1.5068 0.5566 0 1
4.2515 -2.2070 -1.4921 0.5622 0 1
4.2986 -2.0160 -1.4789 0.5672 0 1
4.3415 -1.8266 -1.4672 0.5718 0 1
4.3803 -1.6386 -1.4568 0.5758 0 1
4.4151 -1.4518 -1.4477 0.5794 0 1
4.4460 -1.2660 -1.4400 0.5826 0 1
4.4740 -1.0812 -1.4338 0.5882 0 1
3.9305 -0.7838 -1.2485 0.7180 25 14
3.9156 -0.6181 -1.2348 0.7345 25 14
3.9044 -0.4560 -1.2245 0.7773 25 14
3.8926 -0.2964 -1.2160 0.7827 25 14
3.8817 -0.1387 -1.2099 0.7867 25 14
3.8750 0.0177 -1.2071 0.7886 25 14
3.8804 0.1742 -1.2100 0.7867 25 14
3.8867 0.3317 -1.2151 0.7833 25 14
3.8910 0.4906 -1.2216 0.7424 25 14
3.8956 0.6515 -1.2303 0.7372 25 14
3.9219 0.8195 -1.2480 0.7292 25 14
4.5575 1.1456 -1.4638 0.5670 0 1
4.5367 1.3368 -1.4732 0.5633 0 1
4.5118 1.5294 -1.4840 0.5593 0 1
4.4828 1.7238 -1.4961 0.5547 0 1
4.4496 1.9202 -1.5096 0.5498 0 1
4.4120 2.1186 -1.5245 0.5444 0 1
4.3701 2.3195 -1.5411 0.5382 0 1
4.3234 2.5230 -1.5593 0.5319 0 1
4.2719 2.7293 -1.5791 0.5252 0 1
4.2152 2.9386 -1.6006 0.5182 0 1
4.1535 3.1515 -1.6241 0.5107 0 1
4.0863 3.3683 -1.6495 0.5028 0 1
4.0131 3.5889 -1.6770 0.4946 0 1
3.9336 3.8138 -1.7067 0.4860 0 1
3.8475 4.0433 -1.7386 0.4771 0 1
3.7542 4.2778 -1.7729 0.4678 0 1
3.6495 4.5129 -1.8079 0.4719 0 1
3.5364 4.7524 -1.8452 0.4603 0 1
3.4164 4.9997 -1.8862 0.4503 0 1
3.2873 5.2531 -1.9303 0.4401 0 1
3.1477 5.5119 -1.9772 0.4265 0 1
2.9972 5.7768 -2.0272 0.4160 0 1
2.8354 6.0491 -2.0810 0.4052 0 1
2.6612 6.3290 -2.1386 0.3946 0 1
2.4738 6.6172 -2.2005 0.3835 0 1
2.2666 6.8981 -2.2617 0.3952 0 1
2.0448 7.1869 -2.3275 0.3840 0 1
1.8070 7.4843 -2.3983 0.3727 0 1
1.5589 7.8257 -2.4856 0.3402 0 1
1.2904 8.1859 -2.5814 0.3276 0 1
0.9984 8.5632 -2.6855 0.3149 0 1
0.6787 8.9395 -2.7926 0.3047 0 1
0.3305 9.3053 -2.9004 0.3118 0 1
-0.0463 9.6822 -3.0160 0.2999 0 1
-0.4547 10.0817 -3.1436 0.2738 0 1
-0.9012 10.5336 -3.2932 0.2613 0 1
-1.3895 11.0017 -3.4542 0.2525 0 1
-1.9165 11.4454 -3.6148 0.2385 0 24
-2.5123 12.0109 -3.8223 0.2199 0 1
-3.1622 12.5688 -4.0371 0.2082 0 1
-3.8823 13.1654 -4.2756 0.1963 0 1
-4.6831 13.8052 -4.5410 0.1848 0 1
-5.5780 14.4964 -4.8383 0.1746 0 1
-6.5599 15.1925 -5.1547 0.1662 0 1
-7.6104 15.8402 -5.4741 0.1557 0 24
-8.8978 16.7554 -5.9095 0.1373 0 1
-10.3396 17.7097 -6.3879 0.1209 0 1
-24.9063 -17.3168 -9.8192 0.8422 0 20
-37.1046 -28.0804 -15.0623 0.7492 0 9
-32.3413 -26.5901 -13.5527 0.6755 0 9
-28.2355 -25.1870 -12.2476 0.8010 0 9
-24.4307 -23.6272 -11.0014 0.0746 0 2
-21.0240 -22.0389 -9.8593 0.0833 0 2
-18.2115 -20.6991 -8.9243 0.7488 0 2
-16.1468 -19.9155 -8.2991 0.0723 0 1
-13.7379 -18.4134 -7.4364 0.1124 0 1
-11.9515 -17.4430 -6.8444 0.1198 0 1
-10.3768 -16.5356 -6.3191 0.1320 0 1
-9.0014 -15.7161 -5.8626 0.1429 0 1
-7.7833 -14.9554 -5.4573 0.1531 0 1
-6.7042 -14.2563 -5.0995 0.1679 0 1
-5.7503 -13.6274 -4.7878 0.1849 0 1
-4.8821 -13.0092 -4.4978 0.1939 0 24
-4.1264 -12.5050 -4.2625 0.2091 0 1
-3.4282 -11.9917 -4.0372 0.2184 0 1
-2.7944 -11.5102 -3.8340 0.2313 0 1
-2.2156 -11.0500 -3.6480 0.2376 0 1
-1.6844 -10.5989 -3.4739 0.2495 0 1
-1.1986 -10.1699 -3.3147 0.2615 0 1
-0.7531 -9.7569 -3.1676 0.2739 0 1
-0.3442 -9.3616 -3.0323 0.2862 0 1
0.0317 -8.9839 -2.9080 0.2984 0 1
0.3780 -8.6221 -2.7936 0.3106 0 1
0.6975 -8.2751 -2.6881 0.3228 0 1
0.9928 -7.9416 -2.5907 0.3349 0 1
1.2666 -7.6229 -2.5013 0.3521 0 1
1.5204 -7.3147 -2.4183 0.3642 0 1
1.7560 -7.0169 -2.3414 0.3762 0 1
1.9691 -6.7087 -2.2632 0.3860 0 24
2.1786 -6.4491 -2.2034 0.3987 0 1
2.3680 -6.1771 -2.1414 0.4102 0 1
2.5444 -5.9130 -2.0837 0.4216 0 1
2.7088 -5.6562 -2.0300 0.4325 0 1
2.8621 -5.4060 -1.9800 0.4434 0 1
3.0017 -5.1562 -1.9313 0.4386 0 1
3.1248 -4.9023 -1.8818 0.4501 0 1
3.2386 -4.6560 -1.8359 0.4614 0 1
3.3439 -4.4166 -1.7932 0.4723 0 1
3.4425 -4.1853 -1.7542 0.4757 0 1
3.5347 -3.9608 -1.7184 0.4856 0 1
3.6253 -3.7470 -1.6877 0.5146 0 1
3.7120 -3.5396 -1.6603 0.5231 0 1
3.7926 -3.3354 -1.6349 0.5312 0 1
3.8676 -3.1344 -1.6114 0.5389 0 1
3.9371 -2.9362 -1.5898 0.5462 0 1
4.0015 -2.7405 -1.5699 0.5532 0 1
4.0617 -2.5477 -1.5520 0.5596 0 1
4.1175 -2.3572 -1.5358 0.5655 0 1
4.1688 -2.1685 -1.5211 0.5711 0 1
4.2158 -1.9815 -1.5078 0.5761 0 1
4.2586 -1.7959 -1.4960 0.5806 0 1
4.2973 -1.6116 -1.4856 0.5847 0 1
4.3320 -1.4285 -1.4765 0.5883 0 1
4.3633 -1.2464 -1.4689 0.5945 0 1
4.3913 -1.0651 -1.4626 0.5970 0 1
4.4156 -0.8844 -1.4577 0.5991 0 1
4.4362 -0.7041 -1.4540 0.6006 0 1
4.4533 -0.5239 -1.4515 0.6016 0 1
3.9132 -0.3012 -1.2704 0.7758 25 14
3.9022 -0.1427 -1.2640 0.7798 25 14
3.8952 0.0146 -1.2609 0.7817 25 14
3.9006 0.1718 -1.2638 0.7799 25 14
3.9070 0.3301 -1.2692 0.7766 25 14
3.9143 0.4902 -1.2769 0.7719 25 14
3.9208 0.6523 -1.2866 0.7300 25 14
4.4845 0.9331 -1.4827 0.5883 0 1
4.4706 1.1198 -1.4918 0.5761 0 1
4.4497 1.3071 -1.5012 0.5725 0 1
4.4248 1.4958 -1.5119 0.5684 0 1
4.3957 1.6861 -1.5240 0.5639 0 1
4.3625 1.8782 -1.5374 0.5590 0 1
4.3249 2.0723 -1.5524 0.5536 0 1
4.2829 2.2686 -1.5688 0.5474 0 1
4.2363 2.4674 -1.5869 0.5412 0 1
4.1848 2.6687 -1.6066 0.5346 0 1
4.1282 2.8728 -1.6280 0.5275 0 1
4.0667 3.0803 -1.6514 0.5201 0 1
3.9998 3.2913 -1.6767 0.5123 0 1
3.9269 3.5059 -1.7040 0.5040 0 1
3.8478 3.7243 -1.7334 0.4955 0 1
3.7621 3.9470 -1.7650 0.4866 0 1
3.6694 4.1742 -1.7990 0.4774 0 1
3.5682 4.4048 -1.8349 0.4815 0 1
3.4559 4.6361 -1.8718 0.4699 0 1
3.3372 4.8749 -1.9123 0.4600 0 1
3.2092 5.1188 -1.9556 0.4465 0 1
3.0710 5.3671 -2.0016 0.4363 0 1
2.9227 5.6216 -2.0509 0.4258 0 1
2.7634 5.8827 -2.1038 0.4151 0 1
2.5923 6.1505 -2.1605 0.4045 0 1
2.4083 6.4256 -2.2212 0.3934 0 1
2.2092 6.7045 -2.2850 0.4051 0 1
1.9922 6.9797 -2.3495 0.3939 0 1
1.7599 7.2625 -2.4189 0.3826 0 1
1.5154 7.5741 -2.5003 0.3502 0 1
1.2542 7.9132 -2.5934 0.3377 0 1
0.9709 8.2671 -2.6944 0.3250 0 1
0.6616 8.6180 -2.7978 0.3124 0 1
0.3263 8.9769 -2.9077 0.3030 0 1
-0.0368 9.3301 -3.0201 0.3101 0 1
-0.4290 9.6943 -3.1411 0.2982 0 1
-0.8555 10.0986 -3.2806 0.2717 0 1
-1.3210 10.5304 -3.4353 0.2629 0 1
-1.8206 10.9286 -3.5863 0.2494 0 24
-2.3800 11.4261 -3.7779 0.2325 0 1
-2.9778 11.8778 -3.9638 0.2204 0 24
-3.6475 12.4075 -4.1862 0.2066 0 24
-4.4024 13.0138 -4.4470 0.1954 0 1
-5.2244 13.6114 -4.7193 0.1842 0 1
-6.1297 14.2288 -5.0150 0.1769 0 1
-7.1229 14.8572 -5.3333 0.1688 0 1
-8.2197 15.5099 -5.6819 0.1570 0 1
-9.4806 16.2697 -6.0953 0.1379 0 1
-10.9477 17.1592 -6.5885 0.1214 0 1
-12.6771 18.2087 -7.1818 0.1101 0 1
-14.6610 19.3473 -7.8576 0.1156 0 1
-16.7297 20.3221 -8.5204 0.6753 0 2
-18.6560 20.8876 -9.0654 0.0905 0 2
-21.6110 22.3179 -10.0561 0.0816 0 2
-25.1337 23.9462 -11.2370 0.0730 0 25
-22.4581 19.7340 -9.6773 0.7386 0 5
-22.5370 18.2488 -9.3868 0.7835 0 5
-22.6514 16.8776 -9.1437 0.7841 0 5
-27.8000 19.0222 -10.9037 0.6122 0 3
-28.1327 17.6298 -10.7468 0.9420 0 3
-32.5509 18.6164 -12.1381 0.8777 0 3
-37.4258 19.4477 -13.6525 0.8954 0 3
-29.1911 13.7051 -10.4386 0.3875 0 5
-32.4962 13.6881 -11.4139 0.3697 0 5
-42.5210 15.9267 -14.6977 0.5930 0 3
-41.5816 13.6922 -14.1707 0.2540 0 5
-24.9044 -17.3465 -9.8242 0.8417 0 20
-37.1826 -28.1885 -15.1035 0.8936 0 9
-30.4639 -25.0893 -12.7748 0.3514 0 9
-27.9652 -24.9881 -12.1395 0.8640 0 9
-24.3534 -23.5919 -10.9754 0.0748 0 2
-20.9594 -22.0080 -9.8376 0.0834 0 2
-18.1972 -20.7178 -8.9258 0.9669 0 2
-16.0854 -19.8738 -8.2762 0.0725 0 1
-13.6981 -18.3922 -7.4232 0.1126 0 1
-11.9164 -17.4231 -6.8327 0.1200 0 1
-10.3463 -16.5177 -6.3090 0.1322 0 1
-8.9746 -15.6998 -5.8537 0.1431 0 1
-7.7592 -14.9397 -5.4492 0.1533 0 1
-6.6831 -14.2423 -5.0925 0.1681 0 1
-5.7316 -13.6151 -4.7817 0.1851 0 1
-4.8652 -12.9974 -4.4923 0.1942 0 24
-4.1112 -12.4941 -4.2576 0.2093 0 1
-3.4143 -11.9813 -4.0327 0.2186 0 1
-2.7818 -11.5005 -3.8300 0.2316 0 1
-2.2041 -11.0404 -3.6442 0.2379 0 1
-1.6738 -10.5898 -3.4704 0.2498 0 1
-1.1890 -10.1612 -3.3116 0.2618 0 1
-0.7443 -9.7484 -3.1647 0.2742 0 1
-0.3361 -9.3536 -3.0297 0.2864 0 1
0.0392 -8.9762 -2.9056 0.2986 0 1
0.3849 -8.6148 -2.7913 0.3109 0 1
0.7039 -8.2680 -2.6860 0.3230 0 1
0.9987 -7.9348 -2.5887 0.3352 0 1
1.2721 -7.6164 -2.4995 0.3524 0 1
1.5255 -7.3084 -2.4167 0.3645 0 1
1.7607 -7.0108 -2.3398 0.3764 0 1
1.9735 -6.7028 -2.2618 0.3863 0 24
2.1827 -6.4433 -2.2021 0.3989 0 1
2.3718 -6.1716 -2.1401 0.4105 0 1
2.5479 -5.9076 -2.0825 0.4218 0 1
2.7121 -5.6509 -2.0289 0.4327 0 1
2.8652 -5.4008 -1.9790 0.4436 0 1
3.0044 -5.1508 -1.9302 0.4388 0 1
3.1273 -4.8971 -1.8808 0.4503 0 1
3.2409 -4.6509 -1.8349 0.4616 0 1
3.3460 -4.4117 -1.7923 0.4726 0 1
3.4445 -4.1806 -1.7534 0.4759 0 1
3.5365 -3.9562 -1.7177 0.4858 0 1
3.6272 -3.7427 -1.6871 0.5148 0 1
3.7137 -3.5353 -1.6597 0.5232 0 1
3.7943 -3.3312 -1.6344 0.5314 0 1
3.8691 -3.1302 -1.6110 0.5391 0 1
3.9385 -2.9321 -1.5894 0.5464 0 1
4.0028 -2.7365 -1.5695 0.5533 0 1
4.0629 -2.5437 -1.5516 0.5598 0 1
4.1186 -2.3532 -1.5354 0.5657 0 1
4.1698 -2.1646 -1.5208 0.5712 0 1
4.2167 -1.9776 -1.5076 0.5762 0 1
4.2594 -1.7921 -1.4958 0.5807 0 1
4.2980 -1.6078 -1.4854 0.5848 0 1
4.3327 -1.4247 -1.4763 0.5884 0 1
4.3639 -1.2426 -1.4687 0.5946 0 1
4.3918 -1.0614 -1.4625 0.5971 0 1
4.4160 -0.8806 -1.4576 0.5991 0 1
4.4366 -0.7003 -1.4539 0.6006 0 1
4.4537 -0.5202 -1.4514 0.6017 0 1
3.9130 -0.2979 -1.2703 0.7759 25 14
3.9019 -0.1394 -1.2638 0.7799 25 14
3.8953 0.0178 -1.2609 0.7817 25 14
3.9007 0.1751 -1.2639 0.7798 25 14
3.9071 0.3335 -1.2693 0.7765 25 14
3.9145 0.4935 -1.2771 0.7718 25 14
3.9209 0.6557 -1.2868 0.7299 25 14
4.4843 0.9370 -1.4829 0.5883 0 1
4.4702 1.1237 -1.4920 0.5760 0 1
4.4492 1.3110 -1.5014 0.5724 0 1
4.4242 1.4998 -1.5121 0.5683 0 1
4.3951 1.6901 -1.5242 0.5638 0 1
4.3617 1.8823 -1.5377 0.5589 0 1
4.3240 2.0764 -1.5527 0.5535 0 1
4.2820 2.2727 -1.5692 0.5473 0 1
4.2353 2.4715 -1.5873 0.5411 0 1
4.1837 2.6729 -1.6070 0.5344 0 1
4.1270 2.8771 -1.6285 0.5274 0 1
4.0654 3.0847 -1.6519 0.5199 0 1
3.9983 3.2957 -1.6772 0.5121 0 1
3.9253 3.5104 -1.7046 0.5039 0 1
3.8461 3.7289 -1.7340 0.4953 0 1
3.7602 3.9517 -1.7657 0.4864 0 1
3.6674 4.1789 -1.7997 0.4772 0 1
3.5659 4.4096 -1.8357 0.4813 0 1
3.4535 4.6411 -1.8726 0.4697 0 1
3.3346 4.8800 -1.9132 0.4598 0 1
3.2065 5.1239 -1.9566 0.4463 0 1
3.0681 5.3724 -2.0026 0.4360 0 1
2.9195 5.6270 -2.0520 0.4255 0 1
2.7600 5.8882 -2.1050 0.4148 0 1
2.5886 6.1562 -2.1617 0.4043 0 1
2.4043 6.4314 -2.2225 0.3932 0 1
2.2049 6.7101 -2.2863 0.4048 0 1
1.9875 6.9855 -2.3509 0.3937 0 1
1.7549 7.2684 -2.4204 0.3824 0 1
1.5101 7.5810 -2.5021 0.3500 0 1
1.2485 7.9204 -2.5954 0.3374 0 1
0.9647 8.2746 -2.6966 0.3247 0 1
0.6549 8.6254 -2.8000 0.3121 0 1
0.3191 8.9845 -2.9101 0.3028 0 1
-0.0447 9.3376 -3.0226 0.3099 0 1
-0.4375 9.7021 -3.1437 0.2979 0 1
-0.8647 10.1074 -3.2837 0.2714 0 1
-1.3310 10.5390 -3.4385 0.2627 0 1
-1.8315 10.9378 -3.5898 0.2491 0 24
-2.3921 11.4361 -3.7819 0.2323 0 1
-2.9910 11.8884 -3.9681 0.2201 0 24
-3.6622 12.4189 -4.1911 0.2064 0 24
-4.4187 13.0258 -4.4524 0.1952 0 1
-5.2424 13.6242 -4.7253 0.1839 0 1
-6.1493 14.2415 -5.0213 0.1766 0 1
-7.1445 14.8703 -5.3402 0.1686 0 1
-8.2440 15.5242 -5.6897 0.1568 0 1
-9.5088 16.2866 -6.1046 0.1377 0 1
-24.7969 -17.2407 -10.1472 0.8428 0 20
-32.6471 -24.7070 -13.7559 0.0617 0 2
-28.1914 -23.1781 -12.2621 0.0692 0 2
-24.4470 -21.8076 -11.0068 0.0771 0 2
-21.2708 -20.5712 -9.9420 0.0854 0 2
-18.8672 -19.7780 -9.1837 0.9955 0 2
-16.5759 -18.8401 -8.4311 0.0850 0 1
-14.2569 -17.5845 -7.6059 0.1136 0 1
-12.5050 -16.7609 -7.0260 0.1246 0 1
-10.9498 -15.9811 -6.5088 0.1325 0 1
-9.5739 -15.2563 -6.0515 0.1432 0 1
-8.3548 -14.5872 -5.6480 0.1584 0 1
-7.2683 -13.9659 -5.2897 0.1674 0 1
-6.2947 -13.3855 -4.9698 0.1842 0 1
-5.4239 -12.8540 -4.6874 0.1943 0 1
-4.6350 -12.3508 -4.4322 0.2071 0 1
-3.9177 -11.8726 -4.2005 0.2185 0 1
-3.2628 -11.4132 -3.9882 0.2300 0 1
-2.6663 -10.9827 -3.7972 0.2415 0 1
-2.1168 -10.5571 -3.6176 0.2478 0 1
-1.6127 -10.1477 -3.4522 0.2597 0 1
-1.1501 -9.7581 -3.3012 0.2721 0 1
-0.7239 -9.3776 -3.1601 0.2840 0 1
-0.3314 -9.0127 -3.0301 0.2962 0 1
0.0305 -8.6622 -2.9104 0.3083 0 1
0.3649 -8.3252 -2.7998 0.3205 0 1
0.6744 -8.0005 -2.6976 0.3327 0 1
0.9614 -7.6903 -2.6039 0.3497 0 1
1.2280 -7.3907 -2.5172 0.3619 0 1
1.4756 -7.0990 -2.4361 0.3739 0 1
1.7059 -6.8164 -2.3608 0.3858 0 1
1.9143 -6.5218 -2.2836 0.3956 0 24
2.1198 -6.2750 -2.2253 0.4083 0 1
2.3058 -6.0150 -2.1643 0.4198 0 1
2.4793 -5.7619 -2.1075 0.4311 0 1
2.6412 -5.5152 -2.0545 0.4419 0 1
2.7924 -5.2744 -2.0052 0.4528 0 1
2.9284 -5.0302 -1.9556 0.4479 0 1
3.0504 -4.7855 -1.9067 0.4594 0 1
3.1633 -4.5477 -1.8612 0.4706 0 1
3.2679 -4.3162 -1.8189 0.4816 0 1
3.3647 -4.0907 -1.7796 0.4922 0 1
3.4567 -3.8735 -1.7443 0.5149 0 1
3.5491 -3.6683 -1.7149 0.5237 0 1
3.6352 -3.4663 -1.6876 0.5322 0 1
3.7153 -3.2675 -1.6623 0.5403 0 1
3.7899 -3.0714 -1.6390 0.5480 0 1
3.8591 -2.8779 -1.6174 0.5553 0 1
3.9232 -2.6869 -1.5976 0.5622 0 1
3.9830 -2.4983 -1.5797 0.5686 0 1
4.0385 -2.3119 -1.5635 0.5745 0 1
4.0896 -2.1273 -1.5488 0.5800 0 1
4.1364 -1.9441 -1.5356 0.5850 0 1
4.1790 -1.7623 -1.5238 0.5895 0 1
4.2175 -1.5817 -1.5134 0.5936 0 1
4.2522 -1.4022 -1.5043 0.6003 0 1
4.2837 -1.2236 -1.4968 0.6033 0 1
4.3115 -1.0458 -1.4906 0.6059 0 1
4.3356 -0.8684 -1.4856 0.6079 0 1
4.3561 -0.6913 -1.4819 0.6094 0 1
4.3730 -0.5145 -1.4794 0.6104 0 1
4.3864 -0.3377 -1.4781 0.6110 0 1
4.3963 -0.1607 -1.4781 0.6110 0 1
4.4053 0.0165 -1.4801 0.6095 0 1
4.4117 0.1943 -1.4837 0.6080 0 1
4.4146 0.3730 -1.4885 0.6061 0 1
4.4140 0.5528 -1.4946 0.6036 0 1
4.4097 0.7337 -1.5020 0.6006 0 1
4.4018 0.9159 -1.5106 0.5972 0 1
4.3860 1.0986 -1.5191 0.5850 0 1
4.3650 1.2822 -1.5285 0.5814 0 1
4.3399 1.4671 -1.5392 0.5774 0 1
4.3108 1.6536 -1.5512 0.5729 0 1
4.2774 1.8416 -1.5647 0.5680 0 1
4.2398 2.0315 -1.5796 0.5627 0 1
4.1977 2.2235 -1.5960 0.5565 0 1
4.1511 2.4177 -1.6140 0.5503 0 1
4.0996 2.6144 -1.6336 0.5437 0 1
4.0431 2.8136 -1.6550 0.5367 0 1
3.9817 3.0159 -1.6782 0.5293 0 1
3.9149 3.2214 -1.7034 0.5214 0 1
3.8422 3.4303 -1.7305 0.5133 0 1
3.7634 3.6427 -1.7597 0.5048 0 1
3.6781 3.8589 -1.7911 0.4959 0 1
3.5860 4.0793 -1.8248 0.4867 0 1
3.4866 4.3040 -1.8610 0.4773 0 1
3.3763 4.5293 -1.8980 0.4793 0 1
3.2586 4.7602 -1.9382 0.4659 0 1
3.1313 4.9944 -1.9806 0.4560 0 1
2.9947 5.2338 -2.0260 0.4457 0 1
2.8483 5.4786 -2.0746 0.4353 0 1
2.6913 5.7292 -2.1267 0.4246 0 1
2.5229 5.9860 -2.1825 0.4141 0 1
2.3421 6.2491 -2.2422 0.4031 0 1
2.1482 6.5191 -2.3062 0.3919 0 1
1.9375 6.7883 -2.3718 0.4036 0 1
1.7103 7.0576 -2.4398 0.3923 0 1
1.4691 7.3430 -2.5160 0.3599 0 1
1.2145 7.6630 -2.6068 0.3474 0 1
0.9389 7.9947 -2.7045 0.3342 0 1
0.6389 8.3222 -2.8043 0.3223 0 1
0.3148 8.6594 -2.9113 0.3130 0 1
-0.0355 9.0060 -3.0259 0.3011 0 1
-0.4136 9.3462 -3.1432 0.3082 0 1
-0.8220 9.7035 -3.2719 0.2817 0 1
-1.2673 10.1029 -3.4210 0.2730 0 1
-1.7477 10.4908 -3.5733 0.2614 0 1
-2.2715 10.9052 -3.7426 0.2427 0 1
-2.8352 11.3090 -3.9172 0.2312 0 24
-3.4741 11.8178 -4.1386 0.2172 0 1
-4.1658 12.3143 -4.3677 0.2058 0 1
-4.9082 12.7877 -4.6021 0.1937 0 24
-5.7651 13.3826 -4.8958 0.1863 0 1
-6.6760 13.9252 -5.1885 0.1757 0 1
-7.6474 14.4300 -5.4870 0.1673 0 24
-8.7867 15.0789 -5.8636 0.1573 0 1
-10.0480 15.7491 -6.2766 0.1409 0 1
-11.5187 16.5449 -6.7733 0.1212 0 1
-13.2247 17.4519 -7.3569 0.1096 0 1
-15.1355 18.3856 -8.0011 0.1158 0 1
-16.7601 18.7648 -8.4533 0.7041 0 2
-19.0273 19.6497 -9.1899 0.0924 0 2
-17.4173 16.5944 -8.0827 0.9827 0 6
-22.3691 19.6558 -10.0049 0.7630 0 5
-22.4413 18.1713 -9.7017 0.8075 0 5
-22.5452 16.7985 -9.4463 0.8192 0 5
-27.7735 19.0040 -11.3068 0.8394 0 3
-28.3723 17.7799 -11.2497 0.5092 0 3
-32.4137 18.5379 -12.5457 0.8782 0 3
-37.2711 19.3673 -14.1122 0.8958 0 3
-29.1942 13.7066 -10.8360 0.3514 0 5
-32.4599 13.6729 -11.8340 0.4476 0 5
-41.7249 13.7394 -14.7593 0.3231 0 5
-24.7950 -17.2702 -10.1523 0.8424 0 20
-32.5459 -24.6734 -13.7220 0.0619 0 2
-28.1068 -23.1481 -12.2338 0.0694 0 2
-24.3756 -21.7805 -10.9829 0.0773 0 2
-21.2100 -20.5468 -9.9216 0.0856 0 2
-18.8508 -19.7940 -9.1838 0.9955 0 2
-16.5253 -18.8144 -8.4134 0.0852 0 1
-14.2181 -17.5667 -7.5931 0.1138 0 1
-12.4710 -16.7446 -7.0148 0.1248 0 1
-10.9195 -15.9654 -6.4987 0.1327 0 1
-9.5471 -15.2418 -6.0426 0.1434 0 1
-8.3311 -14.5741 -5.6402 0.1586 0 1
-7.2468 -13.9532 -5.2826 0.1676 0 1
-6.2757 -13.3742 -4.9636 0.1844 0 1
-5.4066 -12.8431 -4.6818 0.1945 0 1
-4.6194 -12.3406 -4.4272 0.2073 0 1
-3.8880 -11.8158 -4.1793 0.2186 0 24
-3.2498 -11.4040 -3.9841 0.2302 0 1
-2.6545 -10.9740 -3.7934 0.2418 0 1
-2.1058 -10.5484 -3.6140 0.2480 0 1
-1.6027 -10.1394 -3.4490 0.2641 0 1
-1.1409 -9.7500 -3.2982 0.2724 0 1
-0.7154 -9.3699 -3.1573 0.2842 0 1
-0.3236 -9.0052 -3.0276 0.2964 0 1
0.0378 -8.6551 -2.9080 0.3086 0 1
0.3716 -8.3183 -2.7976 0.3208 0 1
0.6805 -7.9939 -2.6955 0.3329 0 1
0.9672 -7.6840 -2.6021 0.3499 0 1
1.2334 -7.3846 -2.5154 0.3621 0 1
1.4805 -7.0930 -2.4345 0.3741 0 1
1.7105 -6.8106 -2.3593 0.3861 0 1
1.9186 -6.5162 -2.2822 0.3958 0 24
2.1238 -6.2695 -2.2240 0.4085 0 1
2.3095 -6.0096 -2.1631 0.4200 0 1
2.4828 -5.7567 -2.1064 0.4313 0 1
2.6445 -5.5101 -2.0535 0.4422 0 1
2.7955 -5.2695 -2.0042 0.4530 0 1
2.9310 -5.0251 -1.9545 0.4482 0 1
3.0528 -4.7805 -1.9057 0.4596 0 1
3.1656 -4.5428 -1.8603 0.4709 0 1
3.2700 -4.3115 -1.8181 0.4818 0 1
3.3666 -4.0860 -1.7788 0.4924 0 1
3.4587 -3.8692 -1.7437 0.5151 0 1
3.5509 -3.6640 -1.7143 0.5239 0 1
3.6369 -3.4622 -1.6871 0.5323 0 1
3.7170 -3.2633 -1.6618 0.5404 0 1
3.7914 -3.0673 -1.6385 0.5481 0 1
3.8605 -2.8739 -1.6170 0.5554 0 1
3.9245 -2.6829 -1.5972 0.5623 0 1
3.9842 -2.4944 -1.5793 0.5687 0 1
4.0396 -2.3081 -1.5632 0.5746 0 1
4.0906 -2.1235 -1.5485 0.5801 0 1
4.1373 -1.9403 -1.5353 0.5851 0 1
4.1798 -1.7586 -1.5236 0.5896 0 1
4.2183 -1.5780 -1.5132 0.5937 0 1
4.2529 -1.3984 -1.5042 0.6004 0 1
4.2843 -1.2199 -1.4967 0.6034 0 1
4.3120 -1.0421 -1.4905 0.6059 0 1
4.3361 -0.8647 -1.4855 0.6079 0 1
4.3565 -0.6877 -1.4818 0.6094 0 1
4.3734 -0.5108 -1.4794 0.6105 0 1
4.3867 -0.3340 -1.4781 0.6110 0 1
4.3965 -0.1571 -1.4781 0.6110 0 1
4.4055 0.0202 -1.4802 0.6095 0 1
4.4118 0.1980 -1.4838 0.6080 0 1
4.4147 0.3768 -1.4886 0.6060 0 1
4.4139 0.5565 -1.4947 0.6035 0 1
4.4096 0.7374 -1.5021 0.6006 0 1
4.4016 0.9197 -1.5108 0.5971 0 1
4.3856 1.1024 -1.5193 0.5850 0 1
4.3645 1.2860 -1.5287 0.5814 0 1
4.3394 1.4710 -1.5394 0.5773 0 1
4.3101 1.6574 -1.5515 0.5728 0 1
4.2767 1.8456 -1.5650 0.5679 0 1
4.2389 2.0355 -1.5799 0.5625 0 1
4.1968 2.2275 -1.5963 0.5564 0 1
4.1501 2.4218 -1.6144 0.5502 0 1
4.0985 2.6185 -1.6341 0.5435 0 1
4.0419 2.8178 -1.6554 0.5365 0 1
3.9804 3.0202 -1.6787 0.5291 0 1
3.9134 3.2258 -1.7039 0.5213 0 1
3.8406 3.4347 -1.7311 0.5131 0 1
3.7617 3.6471 -1.7604 0.5046 0 1
3.6763 3.8635 -1.7918 0.4957 0 1
3.5840 4.0839 -1.8256 0.4866 0 1
3.4844 4.3087 -1.8618 0.4771 0 1
3.3739 4.5341 -1.8988 0.4791 0 1
3.2561 4.7650 -1.9390 0.4657 0 1
3.1286 4.9994 -1.9815 0.4557 0 1
2.9918 5.2388 -2.0270 0.4455 0 1
2.8452 5.4837 -2.0757 0.4351 0 1
2.6879 5.7345 -2.1278 0.4244 0 1
2.5193 5.9914 -2.1837 0.4139 0 1
2.3382 6.2546 -2.2435 0.4029 0 1
2.1440 6.5248 -2.3075 0.3917 0 1
1.9330 6.7938 -2.3732 0.4033 0 1
1.7054 7.0632 -2.4413 0.3921 0 1
1.4640 7.3495 -2.5178 0.3597 0 1
1.2090 7.6698 -2.6087 0.3472 0 1
0.9329 8.0014 -2.7065 0.3340 0 1
0.6324 8.3292 -2.8065 0.3221 0 1
0.3078 8.6664 -2.9136 0.3127 0 1
-0.0431 9.0133 -3.0283 0.3009 0 1
-0.4218 9.3533 -3.1457 0.3079 0 1
-0.8309 9.7116 -3.2749 0.2814 0 1
-1.2769 10.1108 -3.4240 0.2728 0 1
-1.7581 10.4990 -3.5766 0.2612 0 1
-2.2829 10.9143 -3.7464 0.2425 0 1
-2.8476 11.3184 -3.9213 0.2309 0 24
-3.4879 11.8279 -4.1431 0.2169 0 1
-4.1809 12.3249 -4.3727 0.2056 0 1
-4.9248 12.7988 -4.6075 0.1935 0 24
-5.7832 13.3936 -4.9016 0.1860 0 1
-6.6959 13.9367 -5.1949 0.1754 0 1
-7.6694 14.4423 -5.4941 0.1670 0 24
-8.8111 15.0916 -5.8714 0.1571 0 1
-26.7841 -4.4447 -9.4581 0.1479 0 20
-36.1265 -23.0170 -14.9223 0.0588 0 2
-24.7698 -17.2219 -10.5095 0.5334 0 20
-27.6601 -20.9329 -12.0840 0.0726 0 2
-24.2879 -19.9688 -10.9535 0.0800 0 2
-21.3648 -19.0582 -9.9735 0.0879 0 2
-19.5897 -18.9454 -9.4936 0.9902 0 2
-16.8195 -17.6314 -8.4886 0.0712 0 1
-14.7070 -16.7160 -7.7562 0.1149 0 1
-12.9934 -16.0261 -7.1873 0.1258 0 1
-11.4695 -15.3729 -6.6816 0.1335 0 1
-10.1012 -14.7425 -6.2256 0.1433 0 1
-8.8933 -14.1716 -5.8284 0.1585 0 1
-7.8058 -13.6287 -5.4713 0.1671 0 1
-6.8025 -13.0709 -5.1331 0.1803 0 24
-5.9356 -12.6219 -4.8589 0.1946 0 1
-5.1318 -12.1616 -4.5984 0.2062 0 1
-4.3984 -11.7203 -4.3609 0.2174 0 1
-3.7266 -11.2933 -4.1428 0.2274 0 1
-3.1119 -10.8853 -3.9439 0.2402 0 1
-2.5468 -10.4904 -3.7606 0.2462 0 1
-2.0259 -10.1038 -3.5898 0.2621 0 1
-1.5474 -9.7366 -3.4344 0.2739 0 1
-1.1049 -9.3748 -3.2884 0.2822 0 1
-0.6966 -9.0242 -3.1530 0.2940 0 1
-0.3194 -8.6865 -3.0281 0.3061 0 1
0.0295 -8.3607 -2.9126 0.3182 0 1
0.3527 -8.0460 -2.8056 0.3304 0 1
0.6528 -7.7441 -2.7073 0.3475 0 1
0.9318 -7.4533 -2.6167 0.3594 0 1
1.1915 -7.1707 -2.5322 0.3715 0 1
1.4330 -6.8943 -2.4530 0.3835 0 1
1.6581 -6.6257 -2.3793 0.3954 0 1
1.8620 -6.3438 -2.3032 0.4045 0 24
2.0637 -6.1089 -2.2463 0.4178 0 1
2.2464 -5.8600 -2.1863 0.4292 0 1
2.4171 -5.6172 -2.1303 0.4402 0 1
2.5765 -5.3800 -2.0780 0.4513 0 1
2.7256 -5.1482 -2.0293 0.4622 0 1
2.8580 -4.9094 -1.9789 0.4572 0 1
2.9789 -4.6733 -1.9306 0.4686 0 1
3.0909 -4.4436 -1.8856 0.4798 0 1
3.1947 -4.2196 -1.8437 0.4907 0 1
3.2909 -4.0010 -1.8047 0.5013 0 1
3.3838 -3.7918 -1.7704 0.5240 0 1
3.4755 -3.5922 -1.7412 0.5328 0 1
3.5610 -3.3956 -1.7141 0.5412 0 1
3.6406 -3.2017 -1.6889 0.5493 0 1
3.7147 -3.0105 -1.6657 0.5569 0 1
3.7835 -2.8216 -1.6442 0.5642 0 1
3.8473 -2.6349 -1.6244 0.5711 0 1
3.9067 -2.4505 -1.6065 0.5775 0 1
3.9620 -2.2681 -1.5904 0.5834 0 1
4.0128 -2.0873 -1.5757 0.5889 0 1
4.0594 -1.9079 -1.5625 0.5939 0 1
4.1017 -1.7298 -1.5508 0.5984 0 1
4.1401 -1.5527 -1.5403 0.6024 0 1
4.1751 -1.3767 -1.5315 0.6091 0 1
4.2064 -1.2016 -1.5240 0.6121 0 1
4.2340 -1.0270 -1.5177 0.6146 0 1
4.2579 -0.8528 -1.5128 0.6166 0 1
4.2783 -0.6790 -1.5090 0.6182 0 1
4.2950 -0.5053 -1.5065 0.6192 0 1
4.3082 -0.3316 -1.5053 0.6197 0 1
4.3179 -0.1579 -1.5052 0.6197 0 1
4.3266 0.0162 -1.5072 0.6182 0 1
4.3327 0.1908 -1.5108 0.6168 0 1
4.3353 0.3663 -1.5156 0.6148 0 1
4.3344 0.5428 -1.5217 0.6124 0 1
4.3298 0.7204 -1.5291 0.6094 0 1
4.3212 0.8991 -1.5376 0.5970 0 1
4.3040 1.0781 -1.5457 0.5939 0 1
