ply
format ascii 1.0
element vertex 1380
property float32 x
property float32 y
property float32 z
property float32 CosAngle
property uint32 ObjIdx
property uint32 ObjTag
end_header
5.7494 -5.0780 -0.9613 0.3595 0 1
5.8082 -4.7280 -0.9385 0.3628 0 1
5.8633 -4.3927 -0.9181 0.3691 0 1
5.8672 -4.0376 -0.8925 0.7691 0 2
5.8754 -3.7039 -0.8704 0.8676 0 2
5.9216 -3.4081 -0.8562 0.9162 0 2
6.0106 -3.1444 -0.8501 0.9682 0 2
6.1160 -2.8924 -0.8478 0.4050 0 1
6.1562 -2.6137 -0.8381 0.4093 0 1
6.1932 -2.3401 -0.8297 0.4135 0 1
6.2278 -2.0708 -0.8225 0.4186 0 1
6.2595 -1.8051 -0.8164 0.4217 0 1
6.2879 -1.5422 -0.8113 0.4243 0 1
3.9335 -0.7985 -0.5030 0.3459 25 14
3.8545 -0.6221 -0.4893 0.9602 25 14
3.8456 -0.4628 -0.4854 0.9679 25 14
3.8372 -0.3058 -0.4824 0.9691 25 14
3.8298 -0.1505 -0.4803 0.9733 25 14
3.8224 0.0037 -0.4790 0.9759 25 14
3.8316 0.1580 -0.4806 0.9727 25 14
3.8407 0.3135 -0.4829 0.9680 25 14
3.8499 0.4708 -0.4860 0.9666 25 14
3.8602 0.6306 -0.4902 0.9585 25 14
3.9847 0.8168 -0.5097 0.3414 25 14
6.4527 1.5957 -0.8330 0.4209 0 1
6.4498 1.8734 -0.8417 0.4166 0 1
6.4438 2.1563 -0.8515 0.4119 0 1
6.4344 2.4452 -0.8626 0.4066 0 1
6.4216 2.7409 -0.8750 0.4009 0 1
6.4009 3.0421 -0.8881 0.3910 0 1
6.3718 3.3489 -0.9021 0.3849 0 1
6.3385 3.6642 -0.9175 0.3785 0 1
6.3007 3.9890 -0.9345 0.3716 0 1
6.2536 4.3211 -0.9526 0.3789 0 1
6.1878 4.6543 -0.9703 0.3720 0 1
6.1198 5.0010 -0.9904 0.3642 0 1
6.0489 5.3632 -1.0131 0.3560 0 1
5.9714 5.7398 -1.0380 0.3475 0 1
5.8865 6.1326 -1.0653 0.3386 0 1
5.7776 6.5257 -1.0922 0.3739 0 1
5.6461 6.9192 -1.1191 0.3585 0 1
5.5076 7.3331 -1.1493 0.3491 0 1
5.3580 7.7659 -1.1823 0.3322 0 1
5.1932 8.2158 -1.2180 0.3225 0 1
5.0258 8.7082 -1.2600 0.3094 0 1
4.9005 9.3399 -1.3218 0.2807 0 2
4.5726 9.6388 -1.3369 0.9737 0 2
4.2917 10.0746 -1.3723 0.2415 0 2
4.0819 10.7640 -1.4426 0.2297 0 2
3.8456 11.5190 -1.5218 0.2178 0 2
3.5781 12.3517 -1.6115 0.2057 0 2
3.2734 13.2772 -1.7137 0.1934 0 2
2.9237 14.3146 -1.8309 0.1810 0 2
2.1851 13.4351 -1.7058 0.9783 0 20
2.0465 16.8329 -2.1250 0.1560 0 2
1.4881 18.3907 -2.3122 0.1433 0 2
0.8656 21.3673 -2.6799 0.1307 0 2
0.0058 23.5992 -2.9574 0.1171 0 1
-1.0640 26.5848 -3.3342 0.1081 0 1
-2.4043 29.8968 -3.7587 0.0987 0 1
-4.1324 34.1302 -4.3083 0.0804 0 1
-6.5120 40.1636 -5.0989 0.0693 0 1
-9.8472 48.3333 -6.1814 0.0646 0 1
-15.4933 46.4842 -6.1403 0.9903 0 15
-34.1815 -33.3336 -6.5213 0.5516 0 20
-32.3735 -34.2177 -6.4340 0.8076 0 20
-31.6465 -36.2673 -6.5744 0.8797 0 20
-20.3247 -27.4715 -4.6676 0.7895 0 22
-7.7894 -39.5910 -5.5113 0.0626 0 1
-5.2078 -33.5449 -4.6367 0.0820 0 1
-3.3065 -28.9367 -3.9781 0.0834 0 1
-1.8681 -25.3609 -3.4734 0.1008 0 1
-0.7554 -22.6884 -3.1007 0.1131 0 24
0.1440 -20.6700 -2.8233 0.1135 0 24
0.8936 -18.9146 -2.5864 0.1261 0 1
1.5120 -17.2444 -2.3644 0.1371 0 1
2.0433 -15.9138 -2.1915 0.1747 0 1
2.4887 -14.6789 -2.0336 0.1658 0 1
2.8830 -13.6472 -1.9052 0.2030 0 1
3.2295 -12.7304 -1.7939 0.2156 0 1
3.5374 -11.9112 -1.6972 0.2227 0 1
3.8113 -11.1659 -1.6115 0.2346 0 1
4.0557 -10.4820 -1.5351 0.2458 0 1
4.2741 -9.8493 -1.4665 0.2590 0 1
4.4723 -9.2662 -1.4054 0.2703 0 1
4.6512 -8.7219 -1.3501 0.2809 0 1
4.8127 -8.2108 -1.2999 0.2917 0 1
4.9593 -7.7303 -1.2545 0.3023 0 1
5.0948 -7.2793 -1.2136 0.3153 0 1
5.2063 -6.8358 -1.1737 0.3175 0 1
5.2988 -6.4051 -1.1354 0.3282 0 1
5.3822 -5.9974 -1.1007 0.3386 0 1
5.4576 -5.6099 -1.0690 0.3486 0 1
5.5282 -5.2429 -1.0407 0.3614 0 1
5.5929 -4.8922 -1.0149 0.3706 0 1
5.6515 -4.5554 -0.9915 0.3793 0 1
5.7067 -4.2327 -0.9705 0.3819 0 1
5.7603 -3.9233 -0.9519 0.3874 0 1
5.8178 -3.6287 -0.9365 0.4038 0 1
5.8719 -3.3421 -0.9228 0.4049 0 1
5.9205 -3.0612 -0.9104 0.4105 0 1
5.9649 -2.7859 -0.8992 0.4156 0 1
6.0053 -2.5156 -0.8893 0.4202 0 1
6.0427 -2.2500 -0.8807 0.4254 0 1
6.0777 -1.9885 -0.8734 0.4290 0 1
6.1094 -1.7301 -0.8673 0.4320 0 1
6.1376 -1.4741 -0.8622 0.4346 0 1
3.8487 -0.7620 -0.5359 0.9542 25 14
3.8400 -0.6009 -0.5309 0.9632 25 14
3.8312 -0.4425 -0.5268 0.9707 25 14
3.8223 -0.2862 -0.5235 0.9767 25 14
3.8143 -0.1316 -0.5213 0.9760 25 14
3.8092 0.0220 -0.5203 0.9779 25 14
3.8183 0.1758 -0.5221 0.9745 25 14
3.8277 0.3310 -0.5248 0.9744 25 14
3.8379 0.4881 -0.5284 0.9677 25 14
3.8481 0.6477 -0.5330 0.9594 25 14
3.9804 0.8359 -0.5555 0.3409 25 14
6.2940 1.5886 -0.8866 0.4304 0 1
6.2892 1.8596 -0.8958 0.4260 0 1
6.2812 2.1356 -0.9062 0.4213 0 1
6.2696 2.4171 -0.9178 0.4160 0 1
6.2544 2.7052 -0.9308 0.4102 0 1
6.2280 2.9967 -0.9440 0.4003 0 1
6.1966 3.2950 -0.9586 0.3942 0 1
6.1608 3.6011 -0.9747 0.3877 0 1
6.1204 3.9162 -0.9925 0.3808 0 1
6.0751 4.2410 -1.0120 0.3734 0 1
6.0076 4.5641 -1.0305 0.3812 0 1
5.9383 4.9005 -1.0516 0.3733 0 1
5.8649 5.2506 -1.0752 0.3651 0 1
5.7846 5.6140 -1.1010 0.3565 0 1
5.6968 5.9924 -1.1293 0.3476 0 1
5.6008 6.3875 -1.1604 0.3383 0 1
5.4689 6.7681 -1.1885 0.3674 0 1
5.3272 7.1644 -1.2194 0.3506 0 1
5.1735 7.5763 -1.2531 0.3412 0 1
5.0077 8.0072 -1.2900 0.3314 0 1
4.8384 8.4772 -1.3332 0.3125 0 1
4.6586 8.9836 -1.3822 0.3069 0 1
4.5107 9.6276 -1.4522 0.2778 0 2
4.1790 9.9425 -1.4731 0.9395 0 2
3.8751 10.3689 -1.5119 0.2385 0 2
3.6371 11.0714 -1.5917 0.2266 0 2
3.3689 11.8421 -1.6817 0.2145 0 2
3.0648 12.6934 -1.7836 0.2022 0 2
2.7180 13.6414 -1.8999 0.1899 0 2
2.1236 13.4652 -1.8619 0.9456 0 20
1.8572 15.9141 -2.1884 0.1648 0 2
1.3164 17.3033 -2.3702 0.1531 0 2
0.7117 19.9358 -2.7247 0.1386 0 1
-0.1001 21.9493 -2.9980 0.1265 0 1
-1.0988 24.5069 -3.3507 0.1171 0 24
-2.3340 27.3755 -3.7527 0.1079 0 1
-3.8728 30.7468 -4.2328 0.0941 0 1
-5.9151 35.4040 -4.9028 0.0771 0 1
-8.7236 41.7907 -5.8311 0.0642 0 1
-15.7132 46.3994 -6.6911 0.9497 0 15
-29.4733 38.8915 -6.6652 0.6051 0 3
-29.5571 35.9041 -6.3520 0.6349 0 3
-29.6304 33.1771 -6.0757 0.6638 0 3
-31.6252 32.6644 -6.2100 0.7165 0 3
-29.7512 28.3516 -5.6133 0.7185 0 3
-31.4789 27.6688 -5.7245 0.6591 0 3
-20.3763 16.5053 -3.5817 0.5853 0 22
-29.8807 22.2743 -5.0905 0.7922 0 3
-33.0968 22.6588 -5.4786 0.5652 0 3
-29.9440 18.7769 -4.8276 0.8353 0 3
-29.0154 16.6069 -4.5664 0.8550 0 3
-34.1399 17.7559 -5.2561 0.4631 0 3
-37.7292 17.7321 -5.6941 0.4274 0 3
-39.8656 16.8127 -5.9096 0.3911 0 3
-34.5877 -33.4069 -6.5681 0.5476 0 20
-32.4330 -33.9522 -6.4133 0.8102 0 20
-31.7452 -36.0293 -6.5589 0.8823 0 20
-8.1798 -40.5454 -5.6496 0.0643 0 1
-5.4689 -34.1432 -4.7230 0.0795 0 1
-3.5085 -29.4488 -4.0508 0.0819 0 1
-2.0199 -25.7332 -3.5257 0.0962 0 1
-0.8742 -22.9397 -3.1356 0.1129 0 24
0.0452 -20.9435 -2.8606 0.1144 0 1
0.8105 -19.1022 -2.6115 0.1402 0 1
1.4436 -17.4273 -2.3885 0.1357 0 1
1.9828 -16.0525 -2.2092 0.1733 0 1
2.4404 -14.8259 -2.0523 0.1643 0 1
2.8386 -13.7634 -1.9195 0.2015 0 1
3.1904 -12.8349 -1.8064 0.2141 0 1
3.5025 -12.0048 -1.7081 0.2213 0 1
3.7802 -11.2514 -1.6212 0.2332 0 1
4.0280 -10.5609 -1.5439 0.2449 0 1
4.2491 -9.9221 -1.4743 0.2559 0 1
4.4497 -9.3337 -1.4123 0.2690 0 1
4.6309 -8.7852 -1.3565 0.2796 0 1
4.7942 -8.2702 -1.3057 0.2904 0 1
4.9425 -7.7862 -1.2597 0.3010 0 1
5.0791 -7.3318 -1.2183 0.3141 0 1
5.1946 -6.8889 -1.1785 0.3162 0 1
5.2882 -6.4553 -1.1398 0.3269 0 1
5.3727 -6.0450 -1.1047 0.3373 0 1
5.4490 -5.6552 -1.0726 0.3474 0 1
5.5201 -5.2858 -1.0439 0.3603 0 1
5.5855 -4.9333 -1.0179 0.3695 0 1
5.6448 -4.5949 -0.9942 0.3783 0 1
5.7003 -4.2706 -0.9729 0.3809 0 1
5.7541 -3.9597 -0.9541 0.3866 0 1
5.8110 -3.6634 -0.9383 0.4031 0 1
5.8658 -3.3760 -0.9244 0.4042 0 1
5.9149 -3.0944 -0.9118 0.4098 0 1
5.9598 -2.8185 -0.9005 0.4150 0 1
6.0006 -2.5477 -0.8904 0.4197 0 1
6.0382 -2.2815 -0.8817 0.4250 0 1
6.0737 -2.0196 -0.8743 0.4286 0 1
6.1058 -1.7608 -0.8680 0.4317 0 1
6.1344 -1.5046 -0.8627 0.4343 0 1
3.8808 -0.7878 -0.5409 0.2894 25 14
3.8411 -0.6200 -0.5314 0.9622 25 14
3.8323 -0.4612 -0.5272 0.9699 25 14
3.8234 -0.3047 -0.5239 0.9761 25 14
3.8152 -0.1500 -0.5215 0.9756 25 14
3.8080 0.0036 -0.5201 0.9782 25 14
3.8172 0.1574 -0.5218 0.9750 25 14
3.8265 0.3123 -0.5244 0.9751 25 14
3.8367 0.4692 -0.5280 0.9685 25 14
3.8469 0.6285 -0.5324 0.9605 25 14
3.9361 0.8068 -0.5488 0.3451 25 14
6.2944 1.5566 -0.8856 0.4309 0 1
6.2900 1.8270 -0.8946 0.4265 0 1
6.2824 2.1023 -0.9049 0.4219 0 1
6.2711 2.3832 -0.9163 0.4166 0 1
6.2564 2.6704 -0.9291 0.4109 0 1
6.2315 2.9616 -0.9424 0.4010 0 1
6.2005 3.2589 -0.9568 0.3950 0 1
6.1653 3.5641 -0.9727 0.3885 0 1
6.1255 3.8780 -0.9902 0.3816 0 1
6.0808 4.2017 -1.0095 0.3743 0 1
6.0160 4.5251 -1.0282 0.3820 0 1
5.9466 4.8595 -1.0489 0.3742 0 1
5.8740 5.2081 -1.0723 0.3661 0 1
5.7946 5.5699 -1.0978 0.3576 0 1
5.7077 5.9464 -1.1258 0.3487 0 1
5.6127 6.3394 -1.1565 0.3394 0 1
5.4849 6.7216 -1.1850 0.3685 0 1
5.3448 7.1164 -1.2156 0.3517 0 1
5.1925 7.5261 -1.2489 0.3423 0 1
5.0282 7.9547 -1.2854 0.3326 0 1
4.8584 8.4181 -1.3276 0.3138 0 1
4.6811 8.9218 -1.3762 0.3083 0 1
4.5344 9.5584 -1.4450 0.2792 0 2
4.2203 9.9071 -1.4709 0.9410 0 2
3.9017 10.2890 -1.5030 0.2400 0 2
3.6670 10.9842 -1.5817 0.2280 0 2
3.4027 11.7461 -1.6703 0.2159 0 2
3.1032 12.5870 -1.7707 0.2037 0 2
2.7619 13.5225 -1.8851 0.1913 0 2
2.1873 13.4484 -1.8610 0.9838 0 20
1.9162 15.7613 -2.1687 0.1663 0 2
1.3856 17.1238 -2.3466 0.1537 0 2
0.8010 19.7722 -2.7029 0.1410 0 2
0.0053 21.6679 -2.9596 0.1281 0 1
-0.9694 24.2210 -3.3109 0.1175 0 1
-2.1728 27.0190 -3.7024 0.1093 0 1
-3.6669 30.2856 -4.1669 0.0956 0 1
-5.6359 34.7603 -4.8098 0.0779 0 1
-8.3232 40.8529 -5.6946 0.0627 0 1
-15.5741 46.7266 -6.7275 0.5124 0 15
-14.7488 -4.3994 -2.2762 0.9414 16 6
-34.2218 -33.3728 -7.0694 0.5489 0 20
-32.3401 -34.1825 -6.9594 0.8989 0 20
-31.5315 -36.1355 -7.0928 0.8815 0 20
-9.6900 -40.5595 -6.1673 0.0636 0 1
-6.7049 -34.0787 -5.1366 0.0790 0 1
-4.5730 -29.4559 -4.4085 0.0830 0 1
-2.9340 -25.6767 -3.8221 0.0960 0 1
-1.6775 -22.7729 -3.3771 0.1158 0 24
-0.6884 -20.6762 -3.0596 0.1203 0 24
0.1328 -19.0657 -2.8198 0.1478 0 1
0.8242 -17.4443 -2.5828 0.1365 0 1
1.4103 -16.0844 -2.3879 0.1733 0 1
1.9201 -14.9543 -2.2298 0.1635 0 1
2.3540 -13.8840 -2.0827 0.2061 0 1
2.7401 -12.9708 -1.9606 0.2133 0 1
3.0782 -12.1342 -1.8514 0.2212 0 1
3.3762 -11.3683 -1.7539 0.2330 0 1
3.6459 -10.6815 -1.6692 0.2448 0 1
3.8874 -10.0472 -1.5933 0.2560 0 1
4.1056 -9.4610 -1.5253 0.2692 0 1
4.3030 -8.9155 -1.4641 0.2805 0 1
4.4816 -8.4038 -1.4086 0.2910 0 1
4.6434 -7.9221 -1.3581 0.3019 0 1
4.7917 -7.4690 -1.3124 0.3152 0 1
4.9286 -7.0419 -1.2712 0.3254 0 1
5.0387 -6.6157 -1.2299 0.3275 0 1
5.1335 -6.2054 -1.1911 0.3382 0 1
5.2194 -5.8159 -1.1557 0.3486 0 1
5.2978 -5.4457 -1.1236 0.3619 0 1
5.3712 -5.0940 -1.0948 0.3714 0 1
5.4379 -4.7566 -1.0685 0.3805 0 1
5.4984 -4.4320 -1.0445 0.3893 0 1
5.5532 -4.1188 -1.0225 0.3976 0 1
5.6088 -3.8201 -1.0036 0.4074 0 1
5.6678 -3.5351 -0.9879 0.4089 0 1
5.7217 -3.2566 -0.9737 0.4149 0 1
5.7710 -2.9839 -0.9608 0.4204 0 1
5.8160 -2.7164 -0.9493 0.4255 0 1
5.8570 -2.4535 -0.9392 0.4301 0 1
5.8953 -2.1952 -0.9304 0.4354 0 1
5.9307 -1.9404 -0.9229 0.4389 0 1
5.9626 -1.6885 -0.9165 0.4419 0 1
4.1133 -0.9879 -0.6256 0.3407 25 14
3.8365 -0.7596 -0.5784 0.8502 25 14
3.8267 -0.5988 -0.5728 0.9650 25 14
3.8180 -0.4409 -0.5684 0.9725 25 14
3.8092 -0.2852 -0.5649 0.9785 25 14
3.8002 -0.1311 -0.5624 0.9830 25 14
3.7948 0.0219 -0.5612 0.9800 25 14
3.8044 0.1752 -0.5632 0.9815 25 14
3.8147 0.3299 -0.5663 0.9762 25 14
3.8248 0.4864 -0.5702 0.9695 25 14
3.8348 0.6454 -0.5751 0.9612 25 14
3.9316 0.8256 -0.5941 0.3446 25 14
6.1427 1.5504 -0.9370 0.4403 0 1
6.1365 1.8144 -0.9464 0.4359 0 1
6.1270 2.0831 -0.9571 0.4312 0 1
6.1137 2.3571 -0.9690 0.4259 0 1
6.0954 2.6364 -0.9822 0.4160 0 1
6.0667 2.9191 -0.9957 0.4103 0 1
6.0337 3.2083 -1.0106 0.4042 0 1
5.9962 3.5049 -1.0272 0.3977 0 1
5.9540 3.8097 -1.0454 0.3908 0 1
5.9067 4.1235 -1.0654 0.3835 0 1
5.8444 4.4402 -1.0855 0.3912 0 1
5.7740 4.7650 -1.1072 0.3833 0 1
5.6991 5.1022 -1.1313 0.3751 0 1
5.6173 5.4516 -1.1577 0.3666 0 1
5.5279 5.8148 -1.1866 0.3576 0 1
5.4301 6.1928 -1.2181 0.3446 0 1
5.3133 6.5756 -1.2503 0.3697 0 1
5.1709 6.9541 -1.2816 0.3606 0 1
5.0176 7.3479 -1.3159 0.3512 0 1
4.8524 7.7590 -1.3534 0.3415 0 1
4.6804 8.2003 -1.3964 0.3225 0 1
4.5038 8.6852 -1.4469 0.3170 0 1
4.3065 9.1918 -1.5012 0.3055 0 1
4.1364 9.8412 -1.5788 0.2759 0 2
3.8306 10.2498 -1.6183 0.8946 0 2
3.4817 10.5983 -1.6498 0.8774 0 2
3.2099 11.2833 -1.7349 0.2248 0 2
2.9119 12.0601 -1.8349 0.2125 0 2
2.5740 12.9187 -1.9481 0.2002 0 2
2.1265 13.4836 -2.0188 0.8504 0 20
1.7448 14.9507 -2.2261 0.1752 0 2
1.2303 16.1717 -2.3986 0.1626 0 2
0.6605 18.5011 -2.7379 0.1543 0 1
-0.0924 20.2637 -2.9969 0.1333 0 1
-1.0085 22.4919 -3.3298 0.1242 0 1
-2.1276 24.9547 -3.7040 0.1161 0 1
-3.4850 27.6682 -4.1243 0.1076 0 1
-5.2071 31.1666 -4.6732 0.0922 0 1
-7.4877 35.8697 -5.4193 0.0770 0 1
-10.7026 42.6183 -6.4987 0.0631 0 1
-15.7099 46.3895 -7.2434 0.9336 0 15
-29.3009 38.6640 -7.1747 0.6077 0 3
-29.3923 35.7039 -6.8395 0.6375 0 3
-29.4723 33.0000 -6.5436 0.6663 0 3
-31.6242 32.6633 -6.7238 0.7154 0 3
-29.6045 28.2118 -6.0480 0.7209 0 3
-29.8877 26.2701 -5.8850 0.7466 0 3
-20.3896 16.5161 -3.8807 0.5941 0 22
-29.7470 22.1746 -5.4872 0.7945 0 3
-29.6431 20.2944 -5.3130 0.6791 0 3
-29.8169 18.6972 -5.2050 0.8376 0 3
-34.6494 19.8315 -5.9044 0.8572 0 3
-34.1382 17.7550 -5.6908 0.4624 0 3
-38.0027 17.8606 -6.2101 0.1459 0 3
-39.7794 16.7763 -6.3849 0.8292 0 3
-43.3084 16.2448 -6.8408 0.1557 0 3
-15.1262 -4.4329 -2.3312 0.2576 16 6
-34.6288 -33.4466 -7.1202 0.5450 0 20
-32.4354 -33.9548 -6.9447 0.9008 0 20
-31.6294 -35.8979 -7.0759 0.8836 0 20
-18.8409 -27.4493 -4.9239 0.6586 0 6
-10.1204 -41.4780 -6.3143 0.0628 0 1
-7.0014 -34.7044 -5.2360 0.0762 0 1
-4.8010 -29.9733 -4.4894 0.0815 0 1
-3.1045 -26.0573 -3.8810 0.0945 0 1
-1.8247 -23.2461 -3.4485 0.1124 0 1
-0.7967 -20.9064 -3.0942 0.1192 0 24
0.0416 -19.2551 -2.8477 0.1390 0 1
0.7485 -17.6421 -2.6115 0.1350 0 1
1.3439 -16.2230 -2.4075 0.1719 0 1
1.8655 -15.1034 -2.2507 0.1620 0 1
2.3039 -13.9966 -2.0979 0.2046 0 1
2.6969 -13.0764 -1.9746 0.2118 0 1
3.0401 -12.2301 -1.8638 0.2244 0 1
3.3422 -11.4552 -1.7648 0.2341 0 1
3.6153 -10.7606 -1.6788 0.2434 0 1
3.8600 -10.1205 -1.6019 0.2546 0 1
4.0806 -9.5287 -1.5330 0.2679 0 1
4.2805 -8.9787 -1.4711 0.2792 0 1
4.4612 -8.4633 -1.4149 0.2897 0 1
4.6249 -7.9781 -1.3638 0.3006 0 1
4.7745 -7.5215 -1.3176 0.3140 0 1
4.9129 -7.0918 -1.2759 0.3242 0 1
5.0267 -6.6662 -1.2348 0.3263 0 1
5.1227 -6.2533 -1.1955 0.3370 0 1
5.2095 -5.8614 -1.1598 0.3473 0 1
5.2886 -5.4887 -1.1272 0.3607 0 1
5.3628 -5.1352 -1.0981 0.3703 0 1
5.4303 -4.7962 -1.0715 0.3795 0 1
5.4915 -4.4701 -1.0472 0.3883 0 1
5.5469 -4.1557 -1.0250 0.3967 0 1
5.6013 -3.8546 -1.0056 0.4066 0 1
5.6611 -3.5688 -0.9897 0.4082 0 1
5.7155 -3.2895 -0.9753 0.4142 0 1
5.7653 -3.0161 -0.9623 0.4198 0 1
5.8109 -2.7481 -0.9506 0.4249 0 1
5.8523 -2.4847 -0.9403 0.4296 0 1
5.8908 -2.2258 -0.9313 0.4349 0 1
5.9267 -1.9707 -0.9237 0.4385 0 1
5.9590 -1.7185 -0.9172 0.4416 0 1
5.9878 -1.4686 -0.9118 0.4442 0 1
3.8373 -0.7790 -0.5791 0.9622 25 14
3.8277 -0.6178 -0.5734 0.9640 25 14
3.8190 -0.4597 -0.5689 0.9717 25 14
3.8103 -0.3037 -0.5653 0.9779 25 14
3.8013 -0.1494 -0.5626 0.9825 25 14
3.7937 0.0036 -0.5611 0.9803 25 14
3.8032 0.1568 -0.5629 0.9820 25 14
3.8134 0.3113 -0.5659 0.9769 25 14
3.8236 0.4676 -0.5697 0.9703 25 14
3.8336 0.6263 -0.5745 0.9623 25 14
3.8884 0.7971 -0.5870 0.3487 25 14
6.1432 1.5192 -0.9359 0.4408 0 1
6.1374 1.7827 -0.9452 0.4365 0 1
6.1283 2.0508 -0.9557 0.4317 0 1
6.1155 2.3240 -0.9675 0.4266 0 1
6.0986 2.6030 -0.9807 0.4166 0 1
6.0703 2.8850 -0.9940 0.4110 0 1
6.0378 3.1734 -1.0088 0.4050 0 1
6.0009 3.4691 -1.0251 0.3985 0 1
5.9593 3.7728 -1.0431 0.3917 0 1
5.9126 4.0855 -1.0629 0.3844 0 1
5.8529 4.4024 -1.0831 0.3921 0 1
5.7825 4.7254 -1.1044 0.3842 0 1
5.7084 5.0613 -1.1283 0.3761 0 1
5.6274 5.4092 -1.1544 0.3676 0 1
5.5390 5.7706 -1.1830 0.3587 0 1
5.4423 6.1469 -1.2142 0.3457 0 1
5.3297 6.5314 -1.2467 0.3707 0 1
5.1884 6.9081 -1.2777 0.3617 0 1
5.0365 7.3000 -1.3116 0.3524 0 1
4.8728 7.7090 -1.3488 0.3427 0 1
4.7004 8.1442 -1.3907 0.3238 0 1
4.5260 8.6262 -1.4407 0.3126 0 1
4.3310 9.1296 -1.4944 0.3069 0 1
4.1624 9.7711 -1.5707 0.2773 0 2
3.8720 10.2105 -1.6150 0.9265 0 2
3.5241 10.5560 -1.6459 0.8795 0 2
3.2431 11.1954 -1.7238 0.2262 0 2
2.9494 11.9633 -1.8223 0.2140 0 2
2.6167 12.8113 -1.9338 0.2016 0 2
2.1888 13.4580 -2.0165 0.9609 0 20
1.8012 14.8152 -2.2072 0.1767 0 2
1.2960 16.0171 -2.3766 0.1641 0 2
0.7456 18.4032 -2.7239 0.1551 0 1
0.0049 20.0175 -2.9605 0.1349 0 1
-0.8887 22.2042 -3.2865 0.1258 0 1
-1.9822 24.6479 -3.6570 0.1176 0 1
-3.3069 27.3124 -4.0688 0.1076 0 1
-4.9773 30.6982 -4.5994 0.0937 0 1
-7.1792 35.2376 -5.3185 0.0768 0 1
-10.2582 41.6961 -6.3505 0.0637 0 1
-15.4645 46.3980 -7.2331 0.9484 0 15
-19.8535 -4.2191 -3.2320 0.0997 16 6
-31.7580 -15.3750 -5.6185 0.4697 0 6
-34.1943 -33.3461 -7.6055 0.3936 0 20
-32.2206 -34.0562 -7.4654 0.9002 0 20
-31.2212 -35.7798 -7.5616 0.9503 0 20
-11.6318 -41.2641 -6.8268 0.0617 0 1
-8.2592 -34.5708 -5.6599 0.0752 0 1
-5.8848 -29.9105 -4.8542 0.0810 0 1
-4.0421 -26.0364 -4.1956 0.0918 0 1
-2.6471 -23.1660 -3.7129 0.1123 0 1
-1.5356 -20.8465 -3.3285 0.1258 0 24
-0.6387 -19.1833 -3.0564 0.1392 0 1
0.1234 -17.7128 -2.8206 0.1344 0 1
0.7686 -16.2686 -2.5934 0.1722 0 1
1.3282 -15.1484 -2.4214 0.1837 0 1
1.8103 -14.0989 -2.2635 0.2038 0 1
2.2380 -13.2000 -2.1319 0.2108 0 1
2.6103 -12.3564 -2.0110 0.2235 0 1
2.9378 -11.5807 -1.9025 0.2334 0 1
3.2304 -10.8774 -1.8069 0.2457 0 1
3.4939 -10.2361 -1.7223 0.2550 0 1
3.7328 -9.6476 -1.6472 0.2680 0 1
3.9493 -9.1009 -1.5798 0.2794 0 1
4.1456 -8.5893 -1.5187 0.2907 0 1
4.3234 -8.1072 -1.4631 0.3012 0 1
4.4852 -7.6522 -1.4124 0.3120 0 1
4.6351 -7.2249 -1.3669 0.3253 0 1
4.7724 -6.8188 -1.3253 0.3355 0 1
4.8810 -6.4086 -1.2828 0.3376 0 1
4.9778 -6.0171 -1.2435 0.3482 0 1
5.0656 -5.6445 -1.2077 0.3585 0 1
5.1473 -5.2909 -1.1754 0.3718 0 1
5.2224 -4.9529 -1.1461 0.3813 0 1
5.2908 -4.6279 -1.1193 0.3905 0 1
5.3529 -4.3147 -1.0948 0.3992 0 1
5.4092 -4.0121 -1.0724 0.4075 0 1
5.4665 -3.7232 -1.0532 0.4211 0 1
5.5258 -3.4466 -1.0370 0.4277 0 1
5.5804 -3.1761 -1.0224 0.4338 0 1
5.6304 -2.9112 -1.0093 0.4394 0 1
5.6762 -2.6511 -0.9976 0.4446 0 1
5.7179 -2.3953 -0.9872 0.4493 0 1
5.7558 -2.1432 -0.9780 0.4535 0 1
5.7902 -1.8945 -0.9701 0.4488 0 1
5.8222 -1.6488 -0.9636 0.4518 0 1
4.0432 -0.9711 -0.6621 0.3460 25 14
3.8381 -0.7599 -0.6230 0.9612 25 14
3.8355 -0.6002 -0.6182 0.9688 25 14
3.8242 -0.4416 -0.6130 0.8623 25 14
3.8106 -0.2853 -0.6085 0.8687 25 14
3.7975 -0.1310 -0.6051 0.8736 25 14
3.7881 0.0218 -0.6032 0.8763 25 14
3.7967 0.1748 -0.6052 0.8734 25 14
3.8056 0.3291 -0.6083 0.8690 25 14
3.8151 0.4852 -0.6124 0.8631 25 14
3.8251 0.6438 -0.6177 0.8558 25 14
3.8758 0.8139 -0.6306 0.3633 25 14
5.9966 1.5136 -0.9848 0.4452 0 1
5.9905 1.7713 -0.9947 0.4458 0 1
5.9796 2.0330 -1.0057 0.4409 0 1
5.9649 2.2997 -1.0180 0.4358 0 1
5.9431 2.5705 -1.0311 0.4259 0 1
5.9130 2.8451 -1.0449 0.4203 0 1
5.8786 3.1259 -1.0602 0.4142 0 1
5.8396 3.4134 -1.0771 0.4077 0 1
5.7958 3.7085 -1.0957 0.4008 0 1
5.7469 4.0119 -1.1160 0.3935 0 1
5.6894 4.3224 -1.1378 0.4012 0 1
5.6181 4.6363 -1.1599 0.3932 0 1
5.5419 4.9615 -1.1845 0.3851 0 1
5.4586 5.2976 -1.2113 0.3725 0 1
5.3670 5.6455 -1.2404 0.3637 0 1
5.2671 6.0070 -1.2722 0.3546 0 1
5.1607 6.3867 -1.3075 0.3435 0 1
5.0229 6.7551 -1.3404 0.3706 0 1
4.8703 7.1322 -1.3752 0.3612 0 1
4.7061 7.5250 -1.4133 0.3515 0 1
4.5319 7.9401 -1.4558 0.3325 0 1
4.3562 8.4004 -1.5068 0.3212 0 1
4.1626 8.8845 -1.5623 0.3155 0 1
3.9483 9.3936 -1.6226 0.3038 0 1
3.7555 10.0487 -1.7082 0.2741 0 2
3.4835 10.6038 -1.7773 0.8754 0 2
3.1332 11.0138 -1.8234 0.8061 0 2
2.7740 11.4888 -1.8820 0.6484 0 2
2.0709 13.1311 -2.1168 0.1980 0 2
1.6449 14.0946 -2.2596 0.1855 0 2
1.2176 16.0049 -2.5559 0.1741 0 2
0.6148 17.2203 -2.7438 0.1535 0 1
-0.0857 18.7901 -2.9921 0.1457 0 1
-0.9296 20.7317 -3.3046 0.1334 0 1
-1.9490 22.8595 -3.6533 0.1269 0 1
-3.1783 25.2333 -4.0498 0.1216 0 1
-4.6731 27.9706 -4.5157 0.1046 0 1
-6.5727 31.4866 -5.1219 0.0911 0 1
-9.1454 36.4176 -5.9791 0.0740 0 1
-12.7423 43.2868 -7.1853 0.0635 0 1
-15.7110 46.3928 -7.7995 0.4868 0 15
-29.1300 38.4384 -7.6799 0.6102 0 3
-27.5868 33.5107 -6.9117 0.6231 0 3
-28.4291 31.8320 -6.7960 0.6400 0 3
-29.3916 30.3573 -6.7284 0.6965 0 3
-29.2913 27.9133 -6.4429 0.9826 0 3
-31.4766 27.6667 -6.6732 0.6570 0 3
-20.3942 16.5198 -4.1792 0.6465 0 22
-29.6140 22.0755 -5.8817 0.7967 0 3
-33.0940 22.6569 -6.3865 0.5634 0 3
-29.6905 18.6179 -5.5804 0.8397 0 3
-30.8808 17.6746 -5.6658 0.9586 0 3
-33.2124 17.2736 -5.9611 0.1294 0 3
-39.6577 18.6385 -6.9776 0.8946 0 3
-41.9735 17.7017 -7.2538 0.3899 0 3
-44.6418 16.7450 -7.5922 0.8071 0 3
-27.9487 7.9872 -4.6286 0.8476 0 6
-31.7631 -13.6476 -5.5050 0.6381 0 6
-31.7566 -15.1864 -5.6053 0.8258 0 6
-34.7320 -33.5463 -7.6891 0.3893 0 20
-32.3145 -33.8282 -7.4494 0.9022 0 20
-31.3478 -35.5783 -7.5507 0.9517 0 20
-17.2492 -45.8185 -7.7959 0.9646 0 20
-12.1185 -42.2125 -6.9933 0.0594 0 1
-8.5956 -35.2286 -5.7742 0.0725 0 1
-6.1408 -30.4383 -4.9445 0.0795 0 1
-4.2364 -26.4487 -4.2653 0.0899 0 1
-2.7944 -23.4544 -3.7612 0.1108 0 1
-1.6551 -21.0858 -3.3680 0.1243 0 24
-0.7383 -19.3737 -3.0872 0.1378 0 1
0.0387 -17.9128 -2.8524 0.1329 0 1
0.6965 -16.4153 -2.6163 0.1720 0 1
1.2651 -15.2717 -2.4401 0.1823 0 1
1.7555 -14.2122 -2.2803 0.2023 0 1
2.1901 -13.3055 -2.1472 0.2148 0 1
2.5683 -12.4528 -2.0247 0.2220 0 1
2.9006 -11.6689 -1.9147 0.2319 0 1
3.1972 -10.9582 -1.8177 0.2443 0 1
3.4637 -10.3093 -1.7318 0.2536 0 1
3.7055 -9.7155 -1.6558 0.2666 0 1
3.9246 -9.1643 -1.5875 0.2781 0 1
4.1231 -8.6487 -1.5257 0.2893 0 1
4.3031 -8.1633 -1.4694 0.2999 0 1
4.4666 -7.7051 -1.4182 0.3107 0 1
4.6179 -7.2748 -1.3721 0.3241 0 1
4.7567 -6.8663 -1.3301 0.3343 0 1
4.8688 -6.4568 -1.2877 0.3363 0 1
4.9667 -6.0629 -1.2480 0.3470 0 1
5.0555 -5.6881 -1.2118 0.3573 0 1
5.1378 -5.3322 -1.1791 0.3707 0 1
5.2138 -4.9925 -1.1495 0.3802 0 1
5.2830 -4.6661 -1.1224 0.3894 0 1
5.3458 -4.3515 -1.0976 0.3982 0 1
5.4028 -4.0477 -1.0750 0.4066 0 1
5.4591 -3.7567 -1.0552 0.4203 0 1
5.5190 -3.4793 -1.0389 0.4269 0 1
5.5741 -3.2081 -1.0241 0.4331 0 1
5.6247 -2.9425 -1.0108 0.4388 0 1
5.6709 -2.6819 -0.9989 0.4440 0 1
5.7131 -2.4256 -0.9883 0.4487 0 1
5.7515 -2.1732 -0.9790 0.4531 0 1
5.7862 -1.9240 -0.9710 0.4568 0 1
5.8186 -1.6780 -0.9643 0.4515 0 1
4.2746 -1.0484 -0.7008 0.6169 25 14
3.8384 -0.7792 -0.6237 0.9602 25 14
3.8358 -0.6191 -0.6187 0.9680 25 14
3.8259 -0.4605 -0.6136 0.8614 25 14
3.8122 -0.3038 -0.6090 0.8680 25 14
3.7990 -0.1493 -0.6054 0.8731 25 14
3.7871 0.0036 -0.6030 0.8765 25 14
3.7956 0.1565 -0.6049 0.8738 25 14
3.8045 0.3106 -0.6078 0.8696 25 14
3.8140 0.4664 -0.6118 0.8639 25 14
3.8239 0.6247 -0.6170 0.8567 25 14
3.8403 0.7872 -0.6242 0.5640 25 14
5.9970 1.4830 -0.9837 0.4457 0 1
5.9916 1.7403 -0.9935 0.4463 0 1
5.9811 2.0015 -1.0043 0.4415 0 1
5.9669 2.2676 -1.0164 0.4364 0 1
5.9464 2.5381 -1.0295 0.4265 0 1
5.9168 2.8120 -1.0432 0.4210 0 1
5.8829 3.0920 -1.0583 0.4150 0 1
5.8445 3.3787 -1.0750 0.4085 0 1
5.8013 3.6728 -1.0934 0.4016 0 1
5.7530 3.9752 -1.1135 0.3944 0 1
5.6980 4.2859 -1.1353 0.4020 0 1
5.6267 4.5981 -1.1571 0.3942 0 1
5.5514 4.9221 -1.1814 0.3861 0 1
5.4690 5.2569 -1.2079 0.3735 0 1
5.3783 5.6033 -1.2368 0.3648 0 1
5.2795 5.9630 -1.2682 0.3557 0 1
5.1736 6.3401 -1.3030 0.3447 0 1
5.0404 6.7110 -1.3365 0.3717 0 1
4.8891 7.0864 -1.3709 0.3624 0 1
4.7263 7.4772 -1.4086 0.3527 0 1
4.5518 7.8869 -1.4500 0.3338 0 1
4.3780 8.3441 -1.5005 0.3226 0 1
4.1869 8.8258 -1.5555 0.3169 0 1
3.9749 9.3311 -1.6150 0.3052 0 1
3.7839 9.9783 -1.6993 0.2755 0 2
3.5259 10.5614 -1.7730 0.8776 0 2
3.1757 10.9626 -1.8174 0.8088 0 2
2.8157 11.4207 -1.8731 0.6515 0 2
2.4855 12.1692 -1.9778 0.2119 0 2
2.1181 13.0230 -2.1010 0.1995 0 2
1.6989 13.9737 -2.2415 0.1870 0 2
1.2634 15.6140 -2.4944 0.1968 0 2
0.6944 17.1401 -2.7316 0.1542 0 1
0.0046 18.5826 -2.9590 0.1473 0 1
-0.8198 20.4844 -3.2645 0.1350 0 1
-1.8175 22.6007 -3.6105 0.1258 0 1
-3.0191 24.9351 -3.9996 0.1156 0 1
-4.4753 27.6020 -4.4526 0.1061 0 1
-6.3205 31.0228 -5.0414 0.0926 0 1
-8.7892 35.7252 -5.8584 0.0725 0 1
-12.2513 42.3695 -7.0232 0.0642 0 1
-34.3072 -33.4562 -8.1760 0.3920 0 20
-32.1730 -34.0058 -7.9873 0.9624 0 20
-30.9266 -35.4422 -8.0257 0.9898 0 20
-18.6205 -27.4096 -5.6537 0.9406 0 6
-17.0116 -45.8545 -8.3447 0.8664 0 20
-13.6404 -41.8604 -7.5118 0.0583 0 1
-9.8686 -35.0088 -6.2060 0.0721 0 1
-7.2371 -30.2923 -5.3139 0.0811 0 1
-5.1908 -26.3831 -4.5878 0.0893 0 1
-3.6274 -23.3650 -4.0343 0.1076 0 1
-2.4043 -21.0407 -3.6133 0.1241 0 24
-1.4220 -19.3049 -3.3027 0.1355 0 1
-0.5950 -17.8714 -3.0509 0.1570 0 1
0.1147 -16.4686 -2.8099 0.1713 0 1
0.7238 -15.3205 -2.6169 0.1826 0 1
1.2537 -14.2985 -2.4490 0.2015 0 1
1.7204 -13.3991 -2.3049 0.2141 0 1
2.1306 -12.5667 -2.1747 0.2211 0 1
2.4903 -11.7879 -2.0556 0.2291 0 1
2.8098 -11.0760 -1.9496 0.2436 0 1
3.0964 -10.4262 -1.8557 0.2559 0 1
3.3540 -9.8261 -1.7715 0.2688 0 1
3.5899 -9.2781 -1.6974 0.2781 0 1
3.8040 -8.7661 -1.6304 0.2896 0 1
3.9988 -8.2851 -1.5696 0.3002 0 1
4.1755 -7.8298 -1.5140 0.3113 0 1
4.3382 -7.4013 -1.4637 0.3249 0 1
4.4879 -6.9955 -1.4181 0.3354 0 1
4.6241 -6.6069 -1.3759 0.3366 0 1
4.7324 -6.2135 -1.3326 0.3475 0 1
4.8307 -5.8394 -1.2930 0.3582 0 1
4.9206 -5.4830 -1.2570 0.3719 0 1
5.0046 -5.1443 -1.2245 0.3817 0 1
5.0812 -4.8189 -1.1948 0.3912 0 1
5.1509 -4.5056 -1.1676 0.4003 0 1
5.2144 -4.2031 -1.1427 0.4090 0 1
5.2688 -3.9079 -1.1192 0.4072 0 1
5.3318 -3.6315 -1.1007 0.4309 0 1
5.3918 -3.3630 -1.0842 0.4375 0 1
5.4468 -3.1001 -1.0693 0.4436 0 1
5.4974 -2.8424 -1.0559 0.4492 0 1
5.5436 -2.5891 -1.0439 0.4544 0 1
5.5857 -2.3399 -1.0333 0.4591 0 1
5.6240 -2.0941 -1.0239 0.4633 0 1
5.6585 -1.8514 -1.0158 0.4670 0 1
5.6895 -1.6112 -1.0089 0.4702 0 1
3.9985 -0.9603 -0.7016 0.5399 25 14
3.8393 -0.7602 -0.6678 0.9592 25 14
3.8366 -0.6004 -0.6626 0.9667 25 14
3.8341 -0.4428 -0.6585 0.9727 25 14
3.8270 -0.2865 -0.6548 0.8634 25 14
3.8138 -0.1316 -0.6511 0.8683 25 14
3.8045 0.0219 -0.6491 0.8709 25 14
3.8131 0.1756 -0.6513 0.8681 25 14
3.8222 0.3305 -0.6546 0.8637 25 14
3.8306 0.4872 -0.6588 0.9722 25 14
3.8318 0.6449 -0.6630 0.9661 25 14
3.8601 0.8106 -0.6730 0.5595 25 14
5.8565 1.4782 -1.0306 0.4550 0 1
5.8503 1.7298 -1.0409 0.4505 0 1
5.8387 1.9851 -1.0522 0.4507 0 1
5.8228 2.2449 -1.0648 0.4456 0 1
5.7977 2.5076 -1.0778 0.4358 0 1
5.7664 2.7746 -1.0918 0.4302 0 1
5.7308 3.0473 -1.1074 0.4241 0 1
5.6905 3.3262 -1.1246 0.4176 0 1
5.6454 3.6122 -1.1435 0.4107 0 1
5.5950 3.9059 -1.1642 0.4034 0 1
5.5391 4.2082 -1.1869 0.3957 0 1
5.4694 4.5136 -1.2099 0.3988 0 1
5.3914 4.8267 -1.2347 0.3908 0 1
5.3064 5.1500 -1.2617 0.3824 0 1
5.2139 5.4845 -1.2911 0.3737 0 1
5.1131 5.8314 -1.3233 0.3646 0 1
5.0054 6.1945 -1.3588 0.3535 0 1
4.8827 6.5666 -1.3962 0.3806 0 1
4.7310 6.9282 -1.4314 0.3712 0 1
4.5678 7.3039 -1.4698 0.3615 0 1
4.3921 7.6953 -1.5118 0.3515 0 1
4.2172 8.1324 -1.5630 0.3312 0 1
4.0265 8.5942 -1.6193 0.3197 0 1
3.8154 9.0774 -1.6800 0.3138 0 1
3.5856 9.5941 -1.7475 0.2977 0 1
3.3673 10.2500 -1.8408 0.2715 0 2
3.0933 10.8735 -1.9288 0.2583 0 2
2.7758 11.4963 -2.0179 0.7207 0 2
2.4043 12.0673 -2.0994 0.6249 0 2
2.0197 12.8066 -2.2121 0.5181 0 2
1.6187 13.8704 -2.3826 0.4023 0 2
1.1481 15.0912 -2.5823 0.1859 0 2
0.5753 16.1154 -2.7513 0.1707 0 1
-0.0799 17.5066 -2.9870 0.1516 0 1
-0.8601 19.1835 -3.2764 0.1402 0 1
-1.7956 21.0602 -3.6063 0.1353 0 1
-2.9083 23.0893 -3.9706 0.1249 0 1
-4.2527 25.4539 -4.4031 0.1183 0 1
-5.8894 28.2134 -4.9175 0.1038 0 1
-7.9184 31.5316 -5.5469 0.0831 0 24
-10.8719 36.9327 -6.5688 0.0725 0 1
-14.8190 43.7588 -7.8826 0.0619 0 1
-23.0072 43.3936 -8.3801 0.3581 0 5
-23.1907 39.7842 -7.8570 0.5498 0 5
-28.9604 38.2146 -8.1810 0.6127 0 3
-29.0665 35.3081 -7.8030 0.6423 0 3
-29.1596 32.6499 -7.4690 0.6711 0 3
-29.2416 30.2024 -7.1726 0.6988 0 3
-27.6213 26.3219 -6.5099 0.7247 0 3
-18.7908 16.5164 -4.2685 0.9800 0 6
-29.4343 23.8425 -6.4630 0.7755 0 3
-29.4818 21.9770 -6.2740 0.7988 0 3
-33.0926 22.6560 -6.8427 0.5624 0 3
-29.5647 18.5391 -5.9540 0.8417 0 3
-30.8058 17.6316 -6.0561 0.8325 0 3
-31.0136 16.1300 -5.9644 0.5170 0 3
-34.1119 16.0320 -6.4309 0.3930 0 3
-39.7683 16.7717 -7.3640 0.5596 0 3
-44.7215 16.7749 -8.1495 0.8397 0 3
-34.8478 -33.6581 -8.2662 0.3877 0 20
-32.2981 -33.8110 -7.9779 0.9635 0 20
-31.2510 -35.4684 -8.0655 0.9529 0 20
-17.2151 -45.7279 -8.3367 0.8744 0 20
-14.1391 -42.6931 -7.6733 0.0578 0 24
-10.2417 -35.6753 -6.3328 0.0700 0 1
-7.4994 -30.7358 -5.3980 0.0856 0 24
-5.4072 -26.8023 -4.6651 0.0879 0 1
-3.7924 -23.6766 -4.0912 0.1066 0 1
-2.5353 -21.2800 -3.6565 0.1227 0 24
-1.5314 -19.5096 -3.3389 0.1340 0 1
-0.6870 -18.0282 -3.0782 0.1556 0 1
0.0359 -16.6144 -2.8347 0.1698 0 1
0.6556 -15.4509 -2.6386 0.1810 0 1
1.1939 -14.4123 -2.4674 0.2000 0 1
1.6677 -13.5017 -2.3212 0.2126 0 1
2.0845 -12.6637 -2.1898 0.2195 0 1
2.4497 -11.8780 -2.0693 0.2275 0 1
2.7734 -11.1572 -1.9616 0.2421 0 1
3.0638 -10.5011 -1.8664 0.2544 0 1
3.3245 -9.8951 -1.7810 0.2662 0 1
3.5629 -9.3415 -1.7058 0.2768 0 1
3.7795 -8.8256 -1.6381 0.2882 0 1
3.9765 -8.3410 -1.5766 0.2995 0 1
4.1552 -7.8828 -1.5204 0.3100 0 1
4.3194 -7.4511 -1.4695 0.3236 0 1
4.4707 -7.0429 -1.4233 0.3341 0 1
4.6096 -6.6540 -1.3811 0.3443 0 1
4.7200 -6.2594 -1.3376 0.3462 0 1
4.8195 -5.8831 -1.2976 0.3569 0 1
4.9100 -5.5244 -1.2611 0.3707 0 1
4.9950 -5.1840 -1.2283 0.3806 0 1
5.0724 -4.8571 -1.1982 0.3901 0 1
5.1429 -4.5424 -1.1707 0.3993 0 1
5.2071 -4.2387 -1.1456 0.4080 0 1
5.2627 -3.9427 -1.1220 0.4062 0 1
5.3243 -3.6640 -1.1028 0.4301 0 1
5.3849 -3.3947 -1.0861 0.4367 0 1
5.4405 -3.1312 -1.0710 0.4429 0 1
5.4916 -2.8729 -1.0574 0.4486 0 1
5.5383 -2.6192 -1.0453 0.4538 0 1
5.5809 -2.3695 -1.0345 0.4585 0 1
5.6196 -2.1233 -1.0250 0.4629 0 1
5.6546 -1.8802 -1.0167 0.4666 0 1
5.6860 -1.6397 -1.0097 0.4699 0 1
4.0234 -0.9868 -0.7068 0.5359 25 14
3.8396 -0.7794 -0.6685 0.9582 25 14
3.8370 -0.6193 -0.6631 0.9659 25 14
3.8344 -0.4615 -0.6589 0.9720 25 14
3.8286 -0.3052 -0.6553 0.8627 25 14
3.8153 -0.1500 -0.6515 0.8678 25 14
3.8035 0.0036 -0.6489 0.8712 25 14
3.8120 0.1572 -0.6510 0.8685 25 14
3.8211 0.3119 -0.6541 0.8643 25 14
3.8305 0.4685 -0.6584 0.9728 25 14
3.8317 0.6260 -0.6624 0.9669 25 14
3.8371 0.7866 -0.6683 0.5634 25 14
5.8570 1.4484 -1.0294 0.4555 0 1
5.8512 1.6995 -1.0396 0.4511 0 1
5.8404 1.9544 -1.0508 0.4513 0 1
5.8249 2.2136 -1.0632 0.4463 0 1
5.8011 2.4761 -1.0762 0.4364 0 1
5.7704 2.7424 -1.0901 0.4309 0 1
5.7353 3.0144 -1.1055 0.4249 0 1
5.6956 3.2926 -1.1225 0.4184 0 1
5.6510 3.5776 -1.1412 0.4116 0 1
5.6013 3.8704 -1.1616 0.4043 0 1
5.5460 4.1716 -1.1841 0.3967 0 1
5.4783 4.4768 -1.2071 0.3997 0 1
5.4011 4.7888 -1.2316 0.3918 0 1
5.3170 5.1108 -1.2583 0.3835 0 1
5.2254 5.4439 -1.2875 0.3748 0 1
5.1256 5.7892 -1.3193 0.3657 0 1
5.0184 6.1499 -1.3543 0.3547 0 1
4.9001 6.5243 -1.3922 0.3817 0 1
4.7497 6.8843 -1.4270 0.3723 0 1
4.5879 7.2582 -1.4651 0.3627 0 1
4.4138 7.6477 -1.5066 0.3527 0 1
4.2389 8.0789 -1.5566 0.3326 0 1
4.0502 8.5377 -1.6123 0.3211 0 1
3.8417 9.0184 -1.6725 0.3152 0 1
3.6138 9.5297 -1.7389 0.2992 0 1
3.3671 10.0858 -1.8142 0.2868 0 1
3.1275 10.7963 -1.9178 0.2598 0 2
2.8188 11.4332 -2.0091 0.7238 0 2
2.4484 11.9873 -2.0875 0.6284 0 2
2.0656 12.7003 -2.1954 0.5220 0 2
1.6678 13.7181 -2.3578 0.4066 0 2
1.2104 14.9587 -2.5606 0.1875 0 2
0.6477 15.9867 -2.7299 0.1650 0 1
0.0042 17.3228 -2.9556 0.1589 0 1
-0.7591 18.9664 -3.2386 0.1418 0 1
-1.6759 20.8398 -3.5672 0.1368 0 1
-2.7644 22.8317 -3.9240 0.1263 0 1
-4.0795 25.1606 -4.3490 0.1198 0 1
-5.6731 27.8454 -4.8486 0.1042 0 1
-7.6324 31.0233 -5.4510 0.0887 0 24
-10.4795 36.2419 -6.4369 0.0736 0 1
-14.2764 42.8333 -7.7034 0.0638 0 1
-23.1677 40.1875 -7.9146 0.5144 0 5
-17.7866 -4.5349 -3.3416 0.1751 16 6
-31.4255 -16.8071 -6.4877 0.7161 0 22
-31.4027 -18.4570 -6.6310 0.8196 0 22
-34.4222 -33.5683 -8.7528 0.2269 0 20
-32.1150 -33.9445 -8.5068 0.9944 0 20
-30.8448 -35.3485 -8.5405 0.9908 0 20
-15.6097 -42.0757 -8.1698 0.0613 0 1
-11.4980 -35.2857 -6.7560 0.0706 0 1
-8.6128 -30.5538 -5.7790 0.0806 0 1
-6.3762 -26.6888 -4.9953 0.0889 0 1
-4.6438 -23.6030 -4.3792 0.1061 0 1
-3.3021 -21.2693 -3.9184 0.1237 0 1
-2.2236 -19.4596 -3.5656 0.1336 0 1
-1.3230 -17.9613 -3.2786 0.1531 0 1
-0.5541 -16.6426 -3.0314 0.1691 0 1
0.1079 -15.4998 -2.8217 0.1803 0 1
0.6838 -14.4743 -2.6379 0.1998 0 1
1.1907 -13.5796 -2.4816 0.2117 0 1
1.6388 -12.7631 -2.3425 0.2243 0 1
2.0268 -11.9543 -2.2073 0.2266 0 24
2.3796 -11.2643 -2.0959 0.2392 0 1
2.6920 -10.6118 -1.9930 0.2537 0 1
2.9726 -10.0094 -1.9008 0.2660 0 1
3.2260 -9.4513 -1.8180 0.2789 0 1
3.4570 -8.9346 -1.7440 0.2883 0 1
3.6686 -8.4539 -1.6777 0.2997 0 1
3.8613 -8.0002 -1.6172 0.3103 0 1
4.0374 -7.5708 -1.5620 0.3242 0 1
4.2000 -7.1656 -1.5120 0.3349 0 1
4.3493 -6.7794 -1.4663 0.3454 0 1
4.4826 -6.4047 -1.4232 0.3465 0 1
4.5920 -6.0292 -1.3797 0.3574 0 1
4.6916 -5.6712 -1.3399 0.3681 0 1
4.7839 -5.3307 -1.3039 0.3817 0 1
4.8691 -5.0050 -1.2712 0.3916 0 1
4.9469 -4.6915 -1.2411 0.4010 0 1
5.0178 -4.3891 -1.2136 0.4101 0 1
5.0798 -4.0946 -1.1878 0.4086 0 1
5.1389 -3.8116 -1.1648 0.4336 0 1
5.2032 -3.5439 -1.1461 0.4407 0 1
5.2636 -3.2830 -1.1293 0.4473 0 1
5.3191 -3.0274 -1.1142 0.4534 0 1
5.3700 -2.7765 -1.1005 0.4590 0 1
5.4166 -2.5298 -1.0883 0.4641 0 1
5.4590 -2.2868 -1.0775 0.4689 0 1
5.4975 -2.0470 -1.0679 0.4731 0 1
5.5323 -1.8101 -1.0597 0.4767 0 1
5.5634 -1.5755 -1.0526 0.4799 0 1
3.9832 -0.9567 -0.7458 0.5409 25 14
3.8383 -0.7600 -0.7123 0.9698 25 14
3.8366 -0.6004 -0.7069 0.9771 25 14
3.8349 -0.4429 -0.7028 0.9829 25 14
3.8327 -0.2869 -0.6997 0.9749 25 14
3.8302 -0.1321 -0.6977 0.9776 25 14
3.8210 0.0220 -0.6956 0.8655 25 14
3.8294 0.1763 -0.6979 0.9774 25 14
3.8306 0.3312 -0.6999 0.9745 25 14
3.8318 0.4873 -0.7032 0.9700 25 14
3.8330 0.6451 -0.7076 0.9639 25 14
3.8569 0.8100 -0.7174 0.5589 25 14
5.7222 1.4443 -1.0744 0.4648 0 1
5.7148 1.6897 -1.0849 0.4603 0 1
5.7038 1.9392 -1.0967 0.4605 0 1
5.6867 2.1924 -1.1095 0.4554 0 1
5.6587 2.4475 -1.1224 0.4456 0 1
5.6264 2.7072 -1.1367 0.4400 0 1
5.5897 2.9723 -1.1525 0.4340 0 1
5.5483 3.2431 -1.1699 0.4275 0 1
5.5019 3.5204 -1.1891 0.4200 0 1
5.4503 3.8049 -1.2101 0.4128 0 1
5.3930 4.0972 -1.2330 0.4051 0 1
5.3265 4.3956 -1.2572 0.4087 0 1
5.2477 4.6981 -1.2822 0.4007 0 1
5.1620 5.0098 -1.3095 0.3924 0 1
5.0688 5.3318 -1.3392 0.3837 0 1
4.9674 5.6651 -1.3716 0.3746 0 1
4.8586 6.0128 -1.4073 0.3635 0 1
4.7433 6.3790 -1.4471 0.3535 0 1
4.5989 6.7347 -1.4846 0.3811 0 1
4.4370 7.0946 -1.5233 0.3714 0 1
4.2628 7.4688 -1.5655 0.3614 0 1
4.0863 7.8800 -1.6159 0.3412 0 1
3.8972 8.3182 -1.6723 0.3297 0 1
3.6907 8.7807 -1.7339 0.3238 0 1
3.4625 9.2647 -1.8005 0.3077 0 1
3.2167 9.7915 -1.8762 0.2953 0 1
2.9460 10.3556 -1.9600 0.2827 0 1
2.6732 11.0714 -2.0734 0.2558 0 2
2.3424 11.7565 -2.1823 0.2421 0 2
1.9728 12.5092 -2.3054 0.2280 0 2
1.5573 13.3443 -2.4458 0.2123 0 2
1.0817 14.2180 -2.5958 0.1338 0 1
0.5418 15.1763 -2.7645 0.1834 0 1
-0.0748 16.3938 -2.9845 0.1676 0 1
-0.8001 17.8438 -3.2517 0.1483 0 1
-1.6621 19.4945 -3.5618 0.1412 0 1
-2.6755 21.2411 -3.8974 0.1333 0 1
-3.8872 23.2664 -4.2943 0.1232 0 1
-5.3459 25.6096 -4.7626 0.1165 0 1
-7.1140 28.3286 -5.3172 0.1013 0 1
-9.4509 32.1056 -6.0926 0.0771 0 1
-12.6324 37.3019 -7.1695 0.0717 0 1
-16.8224 43.7904 -8.5398 0.3919 0 2
-22.8623 43.1203 -8.8850 0.4233 0 5
-16.2935 27.9519 -5.8899 0.5424 0 15
-28.7921 37.9926 -8.6781 0.6150 0 3
-28.9054 35.1124 -8.2794 0.6447 0 3
-29.0048 32.4766 -7.9269 0.6733 0 3
-29.0925 30.0484 -7.6140 0.7010 0 3
-17.3469 16.5308 -4.3622 0.7649 0 22
-18.7518 16.4821 -4.5449 0.7078 0 6
-29.2991 23.7329 -6.8641 0.7776 0 3
-29.3503 21.8789 -6.6643 0.8008 0 3
-29.3977 20.1263 -6.4858 0.8229 0 3
-29.4394 18.4605 -6.3258 0.8437 0 3
-28.5479 16.3393 -5.9880 0.4430 0 3
-31.6284 16.4497 -6.4900 0.4947 0 3
-37.1909 17.4791 -7.4809 0.4385 0 3
-44.3320 18.6963 -8.7588 0.9138 0 3
-27.7582 9.1559 -5.3211 0.9354 0 22
-27.7307 7.9249 -5.2504 0.8427 0 22
-18.0214 -4.5026 -3.3816 0.1952 16 6
-31.4575 -16.6303 -6.4777 0.2456 0 22
-31.4012 -18.2536 -6.6121 0.8449 0 22
-35.2862 -34.0816 -8.9308 0.2212 0 20
-32.2668 -33.7783 -8.5039 0.9947 0 20
-30.9964 -35.1795 -8.5356 0.9914 0 20
-16.3428 -43.4109 -8.4442 0.0664 0 2
-11.9089 -35.9592 -6.8959 0.0687 0 1
-8.9189 -31.0675 -5.8841 0.0792 0 1
-6.6149 -27.1109 -5.0802 0.0874 0 1
-4.8247 -23.9151 -4.4414 0.1046 0 1
-3.4317 -21.4244 -3.9499 0.1213 0 24
-2.3427 -19.6637 -3.6050 0.1322 0 1
-1.4232 -18.1312 -3.3109 0.1516 0 1
-0.6398 -16.7884 -3.0585 0.1676 0 1
0.0337 -15.6304 -2.8455 0.1788 0 1
0.6191 -14.5903 -2.6585 0.1914 0 1
1.1334 -13.6825 -2.4994 0.2102 0 1
1.5880 -12.8566 -2.3583 0.2228 0 1
1.9825 -12.0440 -2.2221 0.2285 0 24
2.3402 -11.3470 -2.1092 0.2377 0 1
2.6565 -10.6869 -2.0047 0.2523 0 1
2.9406 -10.0790 -1.9113 0.2646 0 1
3.1970 -9.5156 -1.8274 0.2775 0 1
3.4303 -8.9940 -1.7524 0.2869 0 1
3.6443 -8.5098 -1.6853 0.2983 0 1
3.8393 -8.0532 -1.6241 0.3090 0 1
4.0170 -7.6206 -1.5682 0.3229 0 1
4.1813 -7.2129 -1.5178 0.3337 0 1
4.3321 -6.8246 -1.4716 0.3441 0 1
4.4689 -6.4509 -1.4286 0.3452 0 1
4.5795 -6.0731 -1.3847 0.3562 0 1
4.6802 -5.7131 -1.3445 0.3668 0 1
4.7733 -5.3705 -1.3080 0.3805 0 1
4.8594 -5.0432 -1.2749 0.3904 0 1
4.9380 -4.7284 -1.2446 0.3999 0 1
5.0097 -4.4247 -1.2168 0.4091 0 1
5.0729 -4.1294 -1.1908 0.4076 0 1
5.1309 -3.8440 -1.1671 0.4327 0 1
5.1956 -3.5754 -1.1482 0.4399 0 1
5.2566 -3.3139 -1.1312 0.4465 0 1
5.3127 -3.0577 -1.1159 0.4527 0 1
5.3642 -2.8063 -1.1021 0.4583 0 1
5.4112 -2.5591 -1.0897 0.4635 0 1
5.4541 -2.3156 -1.0787 0.4683 0 1
5.4931 -2.0755 -1.0690 0.4726 0 1
5.5283 -1.8382 -1.0606 0.4763 0 1
5.5599 -1.6034 -1.0534 0.4796 0 1
4.0275 -0.9878 -0.7549 0.0491 25 14
3.8385 -0.7792 -0.7130 0.9688 25 14
3.8368 -0.6193 -0.7075 0.9763 25 14
3.8351 -0.4616 -0.7032 0.9823 25 14
3.8330 -0.3055 -0.7000 0.9744 25 14
3.8305 -0.1506 -0.6979 0.9774 25 14
3.8200 0.0037 -0.6954 0.8657 25 14
3.8287 0.1578 -0.6976 0.8630 25 14
3.8304 0.3127 -0.6996 0.9749 25 14
3.8316 0.4686 -0.7027 0.9706 25 14
3.8328 0.6262 -0.7070 0.9648 25 14
3.8341 0.7859 -0.7125 0.9573 25 14
4.2162 1.0427 -0.7907 0.8615 25 14
5.7159 1.6602 -1.0836 0.4608 0 1
5.7054 1.9092 -1.0952 0.4559 0 1
5.6889 2.1619 -1.1079 0.4560 0 1
5.6622 2.4168 -1.1208 0.4463 0 1
5.6305 2.6760 -1.1349 0.4407 0 1
5.5943 2.9403 -1.1505 0.4347 0 1
5.5535 3.2104 -1.1678 0.4283 0 1
5.5077 3.4869 -1.1867 0.4209 0 1
5.4567 3.7705 -1.2074 0.4137 0 1
5.4001 4.0618 -1.2301 0.4060 0 1
5.3354 4.3601 -1.2544 0.4096 0 1
5.2575 4.6615 -1.2791 0.4017 0 1
5.1726 4.9721 -1.3061 0.3934 0 1
5.0803 5.2928 -1.3356 0.3847 0 1
4.9799 5.6247 -1.3676 0.3757 0 1
4.8717 5.9701 -1.4028 0.3647 0 1
4.7576 6.3345 -1.4422 0.3547 0 1
4.6175 6.6926 -1.4802 0.3822 0 1
4.4569 7.0509 -1.5185 0.3726 0 1
4.2843 7.4233 -1.5603 0.3626 0 1
4.1078 7.8292 -1.6095 0.3425 0 1
3.9207 8.2646 -1.6653 0.3311 0 1
3.7166 8.7246 -1.7264 0.3193 0 1
3.4903 9.2040 -1.7920 0.3092 0 1
3.2472 9.7267 -1.8668 0.2968 0 1
2.9797 10.2861 -1.9495 0.2842 0 1
2.7104 10.9938 -2.0613 0.2574 0 2
2.3839 11.6715 -2.1686 0.2436 0 2
2.0193 12.4155 -2.2899 0.2296 0 2
1.6096 13.2394 -2.4279 0.2153 0 2
1.1459 14.1620 -2.5866 0.1993 0 2
0.6095 15.0457 -2.7413 0.1850 0 1
0.0040 16.2392 -2.9563 0.1692 0 1
-0.7066 17.6548 -3.2165 0.1500 0 1
-1.5520 19.2990 -3.5246 0.1426 0 1
-2.5452 21.0209 -3.8547 0.1348 0 1
-3.7309 23.0109 -4.2437 0.1247 0 1
-5.1581 25.3174 -4.7036 0.1180 0 1
-6.8807 27.9679 -5.2433 0.1027 0 1
-9.1192 31.5376 -5.9765 0.0786 0 1
-12.2037 36.6145 -7.0260 0.0716 0 1
-16.5920 43.8187 -8.5297 0.0656 0 2
-22.8255 43.5554 -8.9519 0.5456 0 5
-16.2622 28.2089 -5.9275 0.5385 0 15
-31.2658 -18.3765 -7.0182 0.8215 0 22
-32.0246 -33.8490 -9.0175 0.9955 0 20
-30.5652 -35.0281 -8.9964 0.9990 0 20
-16.8276 -40.3061 -8.4524 0.0599 0 2
-13.1264 -35.3820 -7.3031 0.0656 0 1
-9.9992 -30.6861 -6.2456 0.0827 0 1
-7.5903 -26.9266 -5.4138 0.0870 0 1
-5.6821 -23.7837 -4.7321 0.1027 0 1
-4.2185 -21.4415 -4.2289 0.1197 0 1
-3.0384 -19.5709 -3.8327 0.1341 0 1
-2.0682 -18.0999 -3.5254 0.1510 0 1
-1.2366 -16.7878 -3.2575 0.1665 0 1
-0.5211 -15.6518 -3.0306 0.1794 0 1
0.1019 -14.6313 -2.8315 0.1906 0 1
0.6490 -13.7376 -2.6614 0.2094 0 1
1.1302 -12.8906 -2.5041 0.2193 0 24
1.5625 -12.1688 -2.3742 0.2240 0 1
1.9356 -11.4167 -2.2409 0.2372 0 24
2.2787 -10.7865 -2.1335 0.2514 0 1
2.5833 -10.1832 -2.0331 0.2639 0 1
2.8578 -9.6227 -1.9426 0.2757 0 1
3.1070 -9.1027 -1.8613 0.2890 0 1
3.3337 -8.6161 -1.7878 0.3009 0 1
3.5419 -8.1621 -1.7218 0.3097 0 1
3.7325 -7.7333 -1.6617 0.3204 0 1
3.9083 -7.3287 -1.6073 0.3342 0 1
4.0698 -6.9435 -1.5575 0.3449 0 1
4.2185 -6.5755 -1.5118 0.3553 0 1
4.3491 -6.2139 -1.4678 0.3564 0 1
4.4592 -5.8549 -1.4242 0.3673 0 1
4.5600 -5.5122 -1.3844 0.3814 0 1
4.6542 -5.1861 -1.3485 0.3916 0 1
4.7403 -4.8725 -1.3155 0.4014 0 1
4.8190 -4.5702 -1.2852 0.4108 0 1
4.8888 -4.2762 -1.2569 0.4096 0 1
4.9505 -3.9904 -1.2305 0.4184 0 1
5.0155 -3.7200 -1.2084 0.4434 0 1
5.0801 -3.4601 -1.1895 0.4505 0 1
5.1409 -3.2065 -1.1725 0.4570 0 1
5.1967 -2.9578 -1.1571 0.4631 0 1
5.2479 -2.7134 -1.1433 0.4687 0 1
5.2948 -2.4729 -1.1309 0.4738 0 1
5.3374 -2.2359 -1.1199 0.4786 0 1
5.3762 -2.0019 -1.1102 0.4827 0 1
5.4111 -1.7704 -1.1018 0.4864 0 1
5.4423 -1.5412 -1.0946 0.4896 0 1
3.9681 -0.9530 -0.7897 0.5418 25 14
3.8363 -0.7596 -0.7568 0.9682 25 14
3.8347 -0.6000 -0.7511 0.9756 25 14
3.8329 -0.4426 -0.7467 0.9814 25 14
3.8312 -0.2868 -0.7435 0.9856 25 14
3.8294 -0.1321 -0.7415 0.9882 25 14
3.8271 0.0221 -0.7406 0.9977 25 14
3.8292 0.1763 -0.7418 0.9878 25 14
3.8302 0.3312 -0.7440 0.9850 25 14
3.8311 0.4872 -0.7474 0.9805 25 14
3.8320 0.6450 -0.7520 0.9744 25 14
3.8503 0.8086 -0.7614 0.6480 25 14
5.5934 1.4118 -1.1164 0.4745 0 1
5.5850 1.6514 -1.1271 0.4700 0 1
5.5729 1.8947 -1.1391 0.4650 0 1
5.5545 2.1415 -1.1520 0.4599 0 1
5.5256 2.3899 -1.1650 0.4548 0 1
5.4924 2.6428 -1.1795 0.4492 0 1
5.4547 2.9005 -1.1955 0.4432 0 1
5.4123 3.1636 -1.2132 0.4367 0 1
5.3649 3.4327 -1.2325 0.4299 0 1
5.3122 3.7085 -1.2537 0.4226 0 1
5.2538 3.9915 -1.2768 0.4150 0 1
5.1903 4.2833 -1.3023 0.4069 0 1
5.1110 4.5756 -1.3275 0.4106 0 1
5.0247 4.8765 -1.3550 0.4023 0 1
4.9310 5.1868 -1.3849 0.3936 0 1
4.8291 5.5075 -1.4175 0.3845 0 1
4.7196 5.8408 -1.4532 0.3734 0 1
4.6039 6.1916 -1.4931 0.3634 0 1
4.4735 6.5511 -1.5351 0.3910 0 1
4.3129 6.8963 -1.5740 0.3813 0 1
4.1404 7.2543 -1.6164 0.3713 0 1
3.9628 7.6419 -1.6659 0.3511 0 1
3.7755 8.0584 -1.7221 0.3396 0 1
3.5716 8.4972 -1.7837 0.3279 0 1
3.3478 8.9579 -1.8506 0.3218 0 1
3.1051 9.4519 -1.9253 0.3052 0 1
2.8394 9.9810 -2.0081 0.2927 0 1
2.5459 10.5444 -2.0992 0.2776 0 1
2.2236 11.1599 -2.2021 0.2540 0 1
1.8681 11.8453 -2.3206 0.2411 0 1
1.4698 12.5939 -2.4537 0.2280 0 1
1.0217 13.4300 -2.6065 0.2139 0 1
0.5121 14.3433 -2.7775 0.1937 0 1
-0.0703 15.4023 -2.9806 0.1719 0 1
-0.7467 16.6535 -3.2260 0.1586 0 1
-1.5449 18.1197 -3.5192 0.1515 0 1
-2.4746 19.6464 -3.8320 0.1409 0 1
-3.5718 21.3788 -4.1945 0.1308 0 1
-4.8790 23.3728 -4.6206 0.1206 0 1
-6.4485 25.6784 -5.1235 0.1145 0 1
-8.3586 28.3950 -5.7281 0.0946 0 1
-10.9630 32.3726 -6.6142 0.0811 0 1
-14.3725 37.4132 -7.7560 0.0692 0 1
-18.3023 42.4556 -8.9468 0.0566 0 2
-15.9390 30.0624 -6.5847 0.5122 0 15
-16.1427 27.6932 -6.2031 0.5583 0 15
-16.6896 26.1528 -6.0038 0.8091 0 15
-26.9282 38.6723 -9.1193 0.5770 0 3
-28.4954 37.6010 -9.1299 0.6511 0 3
-31.0019 37.6591 -9.4395 0.7624 0 3
-28.8511 32.3045 -8.3817 0.6755 0 3
-28.9444 29.8954 -8.0526 0.7031 0 3
-17.3537 16.5373 -4.6389 0.6906 0 22
-29.0998 25.5776 -7.4975 0.7552 0 3
-27.8828 22.5857 -6.9439 0.2944 0 3
-29.2194 21.7813 -7.0527 0.8027 0 3
-29.2701 20.0389 -6.8646 0.8247 0 3
-29.3148 18.3824 -6.6960 0.8455 0 3
-31.0512 17.7721 -6.9236 0.4935 0 3
-32.1430 16.7173 -7.0112 0.4858 0 3
-39.1864 18.4169 -8.3790 0.9000 0 3
-44.1586 18.6232 -9.2744 0.9155 0 3
-27.6421 9.1177 -5.6327 0.8676 0 22
-27.6651 7.9062 -5.5680 0.9597 0 22
-31.3378 -16.5670 -6.8597 0.8637 0 22
-31.2551 -18.1687 -6.9961 0.8164 0 22
-25.5140 -17.7204 -6.0115 0.9207 15 6
-32.1745 -33.6817 -9.0140 0.9955 0 20
-30.7402 -34.8887 -8.9984 0.9987 0 20
-23.6119 -41.1397 -9.1794 0.8235 0 20
-17.4233 -41.1751 -8.6521 0.0585 0 2
-13.6038 -36.1352 -7.4719 0.0665 0 1
-10.3247 -31.1756 -6.3553 0.0783 0 1
-7.8498 -27.3432 -5.5051 0.0870 0 1
-5.8830 -24.1111 -4.8028 0.0960 0 1
-4.3553 -21.5884 -4.2619 0.1165 0 24
-3.1665 -19.7687 -3.8744 0.1327 0 1
-2.1761 -18.2651 -3.5596 0.1542 0 1
-1.3293 -16.9345 -3.2872 0.1619 0 1
-0.6013 -15.7805 -3.0560 0.1780 0 1
0.0318 -14.7477 -2.8539 0.1891 0 1
0.5872 -13.8397 -2.6806 0.2079 0 1
1.0757 -12.9854 -2.5215 0.2182 0 24
1.5142 -12.2587 -2.3903 0.2272 0 1
1.8927 -11.4987 -2.2551 0.2356 0 24
2.2401 -10.8617 -2.1462 0.2500 0 1
2.5486 -10.2529 -2.0445 0.2624 0 1
2.8265 -9.6876 -1.9529 0.2743 0 1
3.0785 -9.1629 -1.8706 0.2876 0 1
3.3078 -8.6726 -1.7962 0.2995 0 1
3.5180 -8.2148 -1.7294 0.3084 0 1
3.7106 -7.7834 -1.6686 0.3190 0 1
3.8880 -7.3760 -1.6135 0.3329 0 1
4.0513 -6.9886 -1.5632 0.3437 0 1
4.2014 -6.6186 -1.5171 0.3541 0 1
4.3352 -6.2579 -1.4732 0.3551 0 1
4.4466 -5.8969 -1.4292 0.3660 0 1
4.5482 -5.5520 -1.3889 0.3802 0 1
4.6434 -5.2244 -1.3526 0.3904 0 1
4.7304 -4.9094 -1.3193 0.4002 0 1
4.8099 -4.6058 -1.2887 0.4097 0 1
4.8810 -4.3110 -1.2602 0.4085 0 1
4.9435 -4.0241 -1.2335 0.4174 0 1
5.0074 -3.7515 -1.2108 0.4425 0 1
5.0725 -3.4907 -1.1916 0.4497 0 1
5.1339 -3.2365 -1.1744 0.4562 0 1
5.1903 -2.9872 -1.1589 0.4624 0 1
5.2420 -2.7424 -1.1449 0.4680 0 1
5.2894 -2.5015 -1.1323 0.4732 0 1
5.3326 -2.2640 -1.1211 0.4780 0 1
5.3718 -2.0297 -1.1113 0.4823 0 1
5.4071 -1.7979 -1.1027 0.4860 0 1
5.4388 -1.5685 -1.0954 0.4892 0 1
4.1537 -1.0188 -0.8276 0.8730 25 14
3.8365 -0.7788 -0.7576 0.9673 25 14
3.8349 -0.6190 -0.7517 0.9748 25 14
3.8332 -0.4614 -0.7471 0.9808 25 14
3.8314 -0.3054 -0.7438 0.9852 25 14
3.8296 -0.1505 -0.7417 0.9880 25 14
3.8264 0.0037 -0.7405 0.9979 25 14
3.8290 0.1579 -0.7416 0.9881 25 14
3.8300 0.3126 -0.7436 0.9854 25 14
3.8310 0.4685 -0.7469 0.9811 25 14
3.8319 0.6260 -0.7514 0.9752 25 14
3.8332 0.7858 -0.7572 0.6515 25 14
4.1826 1.0344 -0.8338 0.8666 25 14
5.5862 1.6226 -1.1257 0.4705 0 1
5.5745 1.8655 -1.1376 0.4656 0 1
5.5577 2.1121 -1.1506 0.4605 0 1
5.5293 2.3600 -1.1634 0.4554 0 1
5.4966 2.6123 -1.1777 0.4499 0 1
5.4595 2.8694 -1.1935 0.4439 0 1
5.4176 3.1319 -1.2110 0.4375 0 1
5.3708 3.4003 -1.2301 0.4307 0 1
5.3188 3.6752 -1.2511 0.4235 0 1
5.2611 3.9573 -1.2740 0.4159 0 1
5.1982 4.2479 -1.2991 0.4079 0 1
5.1208 4.5403 -1.3244 0.4116 0 1
5.0354 4.8401 -1.3516 0.4033 0 1
4.9426 5.1493 -1.3812 0.3946 0 1
4.8418 5.4686 -1.4135 0.3856 0 1
4.7328 5.7999 -1.4486 0.3746 0 1
4.6182 6.1489 -1.4882 0.3646 0 1
4.4919 6.5107 -1.5307 0.3921 0 1
4.3327 6.8544 -1.5692 0.3825 0 1
4.1617 7.2108 -1.6112 0.3725 0 1
3.9842 7.5935 -1.6595 0.3524 0 1
3.7987 8.0075 -1.7151 0.3410 0 1
3.5968 8.4436 -1.7761 0.3293 0 1
3.3758 8.9021 -1.8424 0.3233 0 1
3.1352 9.3911 -1.9159 0.3067 0 1
2.8725 9.9159 -1.9978 0.2942 0 1
2.5825 10.4751 -2.0878 0.2791 0 1
2.2634 11.0819 -2.1888 0.2556 0 1
1.9127 11.7603 -2.3057 0.2426 0 1
1.5198 12.5009 -2.4370 0.2296 0 1
1.0782 13.3254 -2.5871 0.2148 0 1
0.5764 14.2264 -2.7553 0.1952 0 1
0.0037 15.2610 -2.9533 0.1735 0 1
-0.6601 16.4939 -3.1944 0.1661 0 1
-1.4435 17.9497 -3.4848 0.1502 0 1
-2.3556 19.4548 -3.7923 0.1423 0 1
-3.4305 21.1584 -4.1480 0.1323 0 1
-4.7101 23.1186 -4.5658 0.1220 0 1
-6.2476 25.3944 -5.0608 0.1160 0 1
-8.0953 27.9965 -5.6398 0.0961 0 1
-10.6146 31.8467 -6.4962 0.0798 0 1
-13.9100 36.7355 -7.6016 0.0718 0 1
-17.6676 41.5313 -8.7341 0.0580 0 2
-15.9160 30.3707 -6.6354 0.5030 0 15
-16.1161 27.9556 -6.2445 0.5517 0 15
-25.6146 -13.6993 -5.9560 0.7469 15 6
-25.5656 -15.0262 -6.0803 0.7779 15 6
-31.9660 -33.7871 -9.5369 0.9953 0 20
-30.4989 -34.9521 -9.5113 0.9989 0 20
-23.3936 -41.2170 -9.7174 0.5353 0 20
-22.3752 -43.4029 -10.0123 0.6989 0 9
-18.6739 -40.1081 -9.0714 0.0590 0 2
-14.8611 -35.5958 -7.9091 0.0671 0 1
-11.3657 -30.6361 -6.7000 0.0805 0 1
-8.8075 -27.0290 -5.8288 0.0888 0 1
-6.7468 -23.9343 -5.0987 0.1011 0 1
-5.1505 -21.5586 -4.5448 0.1178 0 1
-3.8707 -19.6734 -4.1112 0.1293 0 1
-2.8226 -18.1813 -3.7725 0.1538 0 1
-1.9310 -16.8986 -3.4874 0.1614 0 1
-1.1620 -15.7746 -3.2432 0.1775 0 1
-0.4916 -14.7658 -3.0293 0.1883 0 1
0.0966 -13.8739 -2.8448 0.2078 0 1
0.6174 -13.0684 -2.6825 0.2196 0 1
1.0812 -12.3314 -2.5381 0.2321 0 1
1.4867 -11.5790 -2.3936 0.2342 0 24
1.8520 -10.9236 -2.2717 0.2471 0 24
