ply
format ascii 1.0
element vertex 1385
property float32 x
property float32 y
property float32 z
property float32 CosAngle
property uint32 ObjIdx
property uint32 ObjTag
end_header
7.9355 -32.6195 -0.0930 0.9390 0 3
8.1405 -28.4386 -0.0819 0.0901 0 2
8.1697 -24.7398 -0.0722 0.1023 0 2
8.1923 -21.8241 -0.0646 0.1143 0 2
8.2104 -19.4597 -0.0585 0.1262 0 2
8.2252 -17.4980 -0.0536 0.1378 0 2
8.4260 -16.2018 -0.0506 0.9196 0 2
8.5825 -14.9993 -0.0479 0.1442 0 1
8.5526 -13.6452 -0.0446 0.1696 0 1
8.5696 -12.5253 -0.0420 0.1811 0 1
8.5902 -11.5330 -0.0398 0.1890 0 1
8.6042 -10.6326 -0.0379 0.1987 0 1
8.5622 -9.7524 -0.0360 0.2050 0 24
8.5664 -9.0012 -0.0344 0.2232 0 1
8.5601 -8.3003 -0.0330 0.2326 0 1
8.5550 -7.6534 -0.0318 0.2449 0 1
8.5637 -7.0633 -0.0308 0.2762 0 1
8.5971 -6.5291 -0.0299 0.2841 0 1
6.2179 -4.3399 -0.0210 0.8004 14 6
6.4088 -4.1007 -0.0211 0.5749 14 6
8.3292 -4.8697 -0.0267 0.2770 0 25
8.3310 -4.4319 -0.0261 0.2832 0 25
8.3325 -4.0122 -0.0256 0.2890 0 25
8.3339 -3.6082 -0.0252 0.2943 0 25
8.3351 -3.2179 -0.0248 0.2992 0 25
8.3362 -2.8393 -0.0244 0.3035 0 25
8.3371 -2.4709 -0.0241 0.3074 0 25
8.6334 -2.1858 -0.0247 0.3104 0 1
8.6470 -1.8233 -0.0245 0.3139 0 1
8.6615 -1.4660 -0.0243 0.3158 0 1
3.9553 -0.5071 -0.0110 0.9662 25 14
3.9434 -0.3453 -0.0110 0.9662 25 14
3.9174 -0.1850 -0.0109 0.9752 25 14
3.8918 -0.0274 -0.0108 0.9827 25 14
3.9034 0.1293 -0.0108 0.9793 25 14
3.9288 0.2884 -0.0109 0.9709 25 14
3.9518 0.4502 -0.0110 0.9688 25 14
4.0449 0.6261 -0.0113 0.2665 25 14
8.8331 1.7330 -0.0249 0.3061 0 24
8.8991 2.1202 -0.0253 0.3021 0 1
8.9364 2.5122 -0.0257 0.2978 0 1
8.9747 2.9165 -0.0261 0.2929 0 1
9.0124 3.3343 -0.0266 0.2854 0 1
9.0468 3.7665 -0.0271 0.2799 0 1
9.0770 4.2142 -0.0277 0.2887 0 1
9.0635 4.6591 -0.0282 0.2835 0 1
9.0494 5.1211 -0.0288 0.2778 0 1
9.0320 5.6015 -0.0294 0.2714 0 1
9.0121 6.1033 -0.0302 0.2650 0 1
8.9066 6.5684 -0.0307 0.2948 0 1
8.8000 7.0523 -0.0312 0.2874 0 1
8.7035 7.5684 -0.0320 0.2810 0 1
8.7408 8.2399 -0.0333 0.2458 0 2
8.2871 8.4657 -0.0328 0.2250 0 2
8.2829 9.1706 -0.0342 0.2157 0 2
8.2781 9.9400 -0.0358 0.2060 0 2
8.2726 10.7862 -0.0377 0.1961 0 2
6.4258 9.1138 -0.0309 0.5705 22 6
8.2593 12.7740 -0.0421 0.1752 0 2
8.2510 13.9600 -0.0449 0.1644 0 2
8.2412 15.3159 -0.0482 0.1532 0 2
8.2297 16.8859 -0.0520 0.1419 0 2
8.2159 18.7318 -0.0567 0.1303 0 2
8.1989 20.9404 -0.0623 0.1185 0 2
8.1780 23.6416 -0.0693 0.1065 0 2
8.1514 27.0319 -0.0782 0.0944 0 2
8.1167 31.4307 -0.0899 0.0821 0 2
3.0510 14.1362 -0.0401 0.6967 0 9
8.3246 47.8042 -0.1344 0.0712 0 1
2.0830 15.6578 -0.0438 0.5477 0 9
2.3448 25.3872 -0.0706 0.6641 0 9
1.1708 22.5198 -0.0625 0.6653 0 6
-31.6476 36.7453 -0.1343 0.6145 0 3
-31.6292 33.8730 -0.1284 0.6430 0 3
-31.4042 31.0351 -0.1223 0.6705 0 3
-30.6086 27.9108 -0.1148 0.9513 0 3
-31.7109 26.6651 -0.1148 0.6485 0 3
-35.7036 27.6538 -0.1251 0.6174 0 3
-31.3244 22.3092 -0.1065 0.7692 0 3
-31.3123 20.4571 -0.1036 0.7909 0 3
-31.3007 18.7011 -0.1010 0.8113 0 3
-31.2896 17.0286 -0.0987 0.8304 0 3
-35.9951 17.7551 -0.1112 0.4481 0 3
-35.6560 -32.9785 -0.1346 0.3992 0 20
-34.4858 -34.5661 -0.1353 0.8783 0 20
8.0140 -44.1692 -0.1244 0.0594 0 2
5.5041 -24.6554 -0.0700 0.9918 0 6
8.1236 -30.5625 -0.0876 0.0843 0 2
8.1568 -26.3735 -0.0765 0.0965 0 2
8.1823 -23.1231 -0.0680 0.1087 0 2
8.2023 -20.5205 -0.0612 0.1206 0 2
8.2186 -18.3830 -0.0558 0.1324 0 2
8.2319 -16.5912 -0.0513 0.1439 0 2
8.7043 -15.9056 -0.0502 0.1704 0 2
8.5517 -14.2379 -0.0460 0.1567 0 1
8.5615 -13.0381 -0.0432 0.1751 0 1
8.5825 -11.9916 -0.0409 0.1864 0 1
8.5978 -11.0474 -0.0388 0.1941 0 1
8.6018 -10.1814 -0.0369 0.2018 0 1
8.5779 -9.3632 -0.0352 0.2040 0 1
8.5631 -8.6247 -0.0337 0.2282 0 1
8.5570 -7.9530 -0.0324 0.2374 0 1
8.5568 -7.3351 -0.0312 0.2494 0 1
8.5815 -6.7781 -0.0303 0.2804 0 1
8.5323 -6.1997 -0.0292 0.2735 0 24
6.2195 -4.1482 -0.0207 0.9322 14 6
8.3283 -5.0839 -0.0270 0.2739 0 25
8.3302 -4.6366 -0.0264 0.2804 0 25
8.3318 -4.2087 -0.0259 0.2863 0 25
8.3333 -3.7975 -0.0254 0.2919 0 25
8.3346 -3.4010 -0.0249 0.2969 0 25
8.3357 -3.0171 -0.0246 0.3015 0 25
8.3367 -2.6441 -0.0242 0.3056 0 25
8.3379 -2.2804 -0.0239 0.3015 0 2
8.6403 -1.9941 -0.0246 0.3126 0 1
8.6547 -1.6345 -0.0244 0.3149 0 1
4.0078 -0.5914 -0.0112 0.3075 25 14
3.9506 -0.4217 -0.0110 0.9698 25 14
3.9296 -0.2605 -0.0109 0.9711 25 14
3.9038 -0.1017 -0.0108 0.9794 25 14
3.8916 0.0549 -0.0108 0.9827 25 14
3.9167 0.2128 -0.0109 0.9751 25 14
3.9423 0.3734 -0.0110 0.9659 25 14
3.9567 0.5357 -0.0111 0.9650 25 14
8.8514 1.5626 -0.0249 0.3084 0 1
8.8832 1.9389 -0.0252 0.3048 0 1
8.9186 2.3253 -0.0255 0.2999 0 1
8.9564 2.7235 -0.0259 0.2953 0 1
8.9954 3.1351 -0.0264 0.2902 0 1
9.0304 3.5599 -0.0269 0.2825 0 1
9.0655 4.0014 -0.0275 0.2768 0 1
9.0700 4.4466 -0.0280 0.2860 0 1
9.0562 4.9002 -0.0285 0.2805 0 1
9.0410 5.3720 -0.0291 0.2742 0 1
9.0216 5.8629 -0.0298 0.2681 0 1
8.9585 6.3476 -0.0304 0.2971 0 1
8.8477 6.8186 -0.0309 0.2920 0 1
8.7497 7.3214 -0.0316 0.2841 0 1
8.7580 7.9473 -0.0328 0.2497 0 2
8.4110 8.2719 -0.0327 0.7468 0 2
8.2849 8.8297 -0.0335 0.2201 0 2
8.2804 9.5672 -0.0351 0.2106 0 2
8.2753 10.3754 -0.0368 0.2008 0 2
6.6226 9.0239 -0.0310 0.8204 22 6
8.2628 12.2621 -0.0410 0.1803 0 2
8.2551 13.3800 -0.0436 0.1695 0 2
8.2460 14.6508 -0.0466 0.1585 0 2
8.2354 16.1129 -0.0501 0.1473 0 2
8.2228 17.8193 -0.0544 0.1358 0 2
8.1287 19.6530 -0.0589 0.3677 0 3
8.1884 22.2918 -0.0658 0.1122 0 2
8.1648 25.3255 -0.0737 0.1002 0 2
8.1342 29.1958 -0.0840 0.0879 0 2
8.0935 34.3248 -0.0977 0.0756 0 2
8.5053 43.8913 -0.1239 0.0678 0 1
1.6930 15.1763 -0.0423 0.3954 0 9
1.7916 25.2118 -0.0700 0.6004 0 9
0.7862 25.5282 -0.0708 0.8586 0 9
-34.9186 -33.5494 -0.6708 0.9462 0 20
-33.8612 -35.2549 -0.6772 0.9373 0 20
6.6438 -41.6107 -0.5837 0.0632 0 2
6.9323 -34.4662 -0.4870 0.0758 0 2
7.1373 -29.3384 -0.4183 0.0883 0 2
7.2903 -25.4684 -0.3670 0.1006 0 2
7.4087 -22.4353 -0.3273 0.1128 0 2
7.5028 -19.9872 -0.2957 0.1248 0 2
7.5793 -17.9639 -0.2701 0.1367 0 2
7.6701 -16.3172 -0.2498 0.9784 0 2
8.0287 -15.4379 -0.2410 0.1432 0 1
8.0036 -13.9875 -0.2232 0.1614 0 1
8.0525 -12.8473 -0.2100 0.1801 0 1
8.0974 -11.8351 -0.1986 0.1895 0 1
8.1363 -10.9235 -0.1887 0.1995 0 1
8.1701 -10.0961 -0.1799 0.2071 0 1
8.1717 -9.3077 -0.1716 0.2239 0 1
8.1821 -8.5974 -0.1644 0.2336 0 1
8.1910 -7.9424 -0.1581 0.2430 0 1
8.2089 -7.3438 -0.1526 0.2784 0 1
8.2523 -6.8064 -0.1482 0.2866 0 1
8.2088 -6.2342 -0.1428 0.2811 0 24
6.2344 -4.3515 -0.1053 0.7982 14 6
6.3938 -4.0911 -0.1052 0.5762 14 6
8.0248 -4.6917 -0.1288 0.2875 0 25
8.0330 -4.2734 -0.1260 0.2937 0 25
8.0402 -3.8714 -0.1236 0.2995 0 25
8.0466 -3.4838 -0.1215 0.3048 0 25
8.0523 -3.1087 -0.1196 0.3096 0 25
8.0572 -2.7443 -0.1179 0.3140 0 25
8.0724 -2.3924 -0.1166 0.4401 0 2
8.3509 -2.1143 -0.1193 0.3218 0 1
8.3385 -1.7583 -0.1181 0.3242 0 24
4.3334 -0.7334 -0.0609 0.0269 25 14
3.9468 -0.5060 -0.0551 0.9682 25 14
3.9380 -0.3449 -0.0548 0.9746 25 14
3.9137 -0.1848 -0.0543 0.9761 25 14
3.8881 -0.0274 -0.0539 0.9836 25 14
3.9002 0.1292 -0.0541 0.9800 25 14
3.9254 0.2881 -0.0545 0.9716 25 14
3.9434 0.4492 -0.0550 0.9707 25 14
3.9885 0.6174 -0.0559 0.3087 25 14
8.5726 1.6819 -0.1210 0.3172 0 1
8.6001 2.0490 -0.1225 0.3135 0 1
8.6317 2.4265 -0.1242 0.3082 0 1
8.6638 2.8154 -0.1262 0.3034 0 1
8.6917 3.2157 -0.1284 0.2959 0 1
8.7188 3.6300 -0.1308 0.2904 0 1
8.7464 4.0608 -0.1336 0.2844 0 1
8.7389 4.4922 -0.1361 0.2940 0 1
8.7189 4.9341 -0.1388 0.2883 0 1
8.6944 5.3921 -0.1417 0.2819 0 1
8.6674 5.8699 -0.1450 0.2755 0 1
8.6000 6.3424 -0.1480 0.3053 0 1
8.4902 6.8041 -0.1507 0.2979 0 1
8.3904 7.2961 -0.1540 0.2915 0 1
8.3826 7.9022 -0.1596 0.2563 0 2
8.1157 8.2907 -0.1607 0.8022 0 2
7.8981 8.7445 -0.1632 0.2262 0 2
7.8764 9.4577 -0.1705 0.2165 0 2
7.8518 10.2376 -0.1787 0.2066 0 2
6.4499 9.1479 -0.1551 0.5683 22 6
7.7920 12.0512 -0.1988 0.1857 0 2
7.7552 13.1212 -0.2111 0.1748 0 2
7.7124 14.3331 -0.2255 0.1637 0 2
7.6623 15.7216 -0.2423 0.1524 0 2
7.6028 17.3340 -0.2622 0.1408 0 2
7.5314 19.2356 -0.2862 0.1290 0 2
7.4438 21.5192 -0.3154 0.1170 0 2
7.3349 24.3242 -0.3519 0.1049 0 2
7.1956 27.8637 -0.3987 0.0926 0 2
7.0116 32.4875 -0.4604 0.0802 0 2
2.4407 14.0156 -0.1971 0.1804 0 9
2.0781 15.6211 -0.2183 0.9798 0 9
2.5126 27.2041 -0.3785 0.8724 0 9
-31.5741 36.6600 -0.6702 0.7618 0 3
-30.4621 32.6231 -0.6183 0.9460 0 3
-16.5432 16.3487 -0.3222 0.7701 0 6
-31.4377 28.6668 -0.5894 0.7004 0 3
-32.9067 27.6706 -0.5956 0.6484 0 3
-35.7023 27.6527 -0.6256 0.6173 0 3
-31.4088 22.3693 -0.5342 0.7727 0 3
-34.6828 22.6592 -0.5739 0.5523 0 3
-31.3924 18.7559 -0.5066 0.8148 0 3
-36.4361 19.8295 -0.5746 0.8339 0 3
-32.7276 16.1434 -0.5055 0.4481 0 3
-39.9049 17.7291 -0.6049 0.4118 0 3
-40.4276 16.0506 -0.6026 0.3749 0 3
-35.4122 -32.7530 -0.6682 0.9499 0 20
-34.3640 -34.4440 -0.6740 0.9417 0 20
6.4623 -46.0800 -0.6446 0.0573 0 2
6.8090 -37.5276 -0.5283 0.0699 0 2
5.5131 -24.6957 -0.3505 0.6256 0 6
7.2231 -27.1745 -0.3895 0.0948 0 2
7.3562 -23.7848 -0.3449 0.1070 0 2
7.4608 -21.0842 -0.3098 0.1192 0 2
7.5450 -18.8759 -0.2816 0.1311 0 2
7.6141 -17.0310 -0.2584 0.1429 0 2
8.0569 -16.2386 -0.2511 0.9540 0 2
8.0130 -14.6423 -0.2312 0.1493 0 1
7.9836 -13.2921 -0.2148 0.1739 0 24
8.0757 -12.2983 -0.2038 0.1856 0 1
8.1185 -11.3433 -0.1932 0.1948 0 1
8.1549 -10.4783 -0.1839 0.2047 0 1
8.1714 -9.6719 -0.1754 0.2046 0 1
8.1774 -8.9260 -0.1677 0.2291 0 1
8.1870 -8.2459 -0.1610 0.2386 0 1
8.1964 -7.6179 -0.1550 0.2512 0 1
8.2321 -7.0568 -0.1502 0.2828 0 1
8.2739 -6.5351 -0.1461 0.2908 0 1
8.3083 -6.0369 -0.1423 0.2502 0 1
6.2328 -4.1571 -0.1038 0.8100 14 6
8.0207 -4.8961 -0.1302 0.2844 0 25
8.0292 -4.4691 -0.1273 0.2908 0 25
8.0369 -4.0597 -0.1247 0.2968 0 25
8.0437 -3.6656 -0.1225 0.3023 0 25
8.0497 -3.2848 -0.1204 0.3074 0 25
8.0550 -2.9155 -0.1187 0.3120 0 25
8.0596 -2.5562 -0.1171 0.3161 0 25
8.1706 -2.2346 -0.1173 0.3260 0 2
8.3591 -1.9292 -0.1188 0.3231 0 1
8.3751 -1.5817 -0.1181 0.3254 0 1
3.9510 -0.5830 -0.0553 0.9647 25 14
3.9421 -0.4208 -0.0549 0.9718 25 14
3.9259 -0.2603 -0.0545 0.9720 25 14
3.9002 -0.1016 -0.0540 0.9802 25 14
3.8883 0.0549 -0.0539 0.9834 25 14
3.9134 0.2126 -0.0543 0.9758 25 14
3.9389 0.3730 -0.0548 0.9666 25 14
3.9482 0.5346 -0.0552 0.9670 25 14
8.5596 1.5111 -0.1204 0.3188 0 1
8.5871 1.8742 -0.1218 0.3153 0 1
8.6166 2.2466 -0.1234 0.3104 0 1
8.6485 2.6299 -0.1252 0.3057 0 1
8.6790 3.0248 -0.1273 0.2984 0 1
8.7060 3.4321 -0.1296 0.2930 0 1
8.7333 3.8547 -0.1322 0.2873 0 1
8.7478 4.2887 -0.1350 0.2965 0 1
8.7286 4.7229 -0.1375 0.2910 0 1
8.7065 5.1732 -0.1403 0.2848 0 1
8.6804 5.6412 -0.1434 0.2786 0 1
8.6524 6.1307 -0.1469 0.2720 0 1
8.5404 6.5818 -0.1494 0.3025 0 1
8.4383 7.0607 -0.1524 0.2945 0 1
8.3358 7.5642 -0.1559 0.2879 0 1
8.3574 8.2192 -0.1624 0.2526 0 2
7.9085 8.4285 -0.1601 0.2299 0 2
7.8870 9.1126 -0.1669 0.2211 0 2
7.8638 9.8595 -0.1747 0.2113 0 2
6.6114 9.0086 -0.1548 0.8217 22 6
7.8076 11.5866 -0.1935 0.1907 0 2
7.7733 12.5991 -0.2051 0.1800 0 2
7.7335 13.7401 -0.2184 0.1690 0 2
7.6870 15.0400 -0.2340 0.1578 0 2
7.6323 16.5397 -0.2523 0.1463 0 2
7.5669 18.2948 -0.2743 0.1346 0 2
7.4877 20.3840 -0.3008 0.1227 0 2
7.3896 22.9209 -0.3336 0.1107 0 2
7.2660 26.0795 -0.3750 0.0984 0 2
7.1056 30.1350 -0.4289 0.0861 0 2
2.7134 14.0024 -0.1976 0.4072 0 9
6.8848 45.1709 -0.6330 0.0698 0 24
2.6439 23.6999 -0.3303 0.1500 0 9
1.8186 25.5915 -0.3554 0.3919 0 9
0.8441 27.4069 -0.3798 0.4716 0 9
-34.8102 -33.4454 -1.2039 0.9490 0 20
-33.6200 -35.0037 -1.2104 0.9724 0 20
5.1412 -43.3022 -1.0875 0.0611 0 2
5.6971 -35.6813 -0.9011 0.0737 0 2
6.0882 -30.2695 -0.7700 0.0863 0 2
6.3779 -26.2167 -0.6729 0.0988 0 2
6.6007 -23.0594 -0.5982 0.1111 0 2
6.7772 -20.5231 -0.5390 0.1233 0 2
6.9202 -18.4351 -0.4911 0.1353 0 2
7.0381 -16.6812 -0.4515 0.1472 0 2
7.5373 -16.0346 -0.4419 0.1752 0 2
7.4702 -14.3640 -0.4038 0.1488 0 1
7.5355 -13.1695 -0.3784 0.1803 0 1
7.5763 -12.0876 -0.3558 0.1926 0 24
7.6461 -11.1755 -0.3377 0.2016 0 24
7.7066 -10.3466 -0.3217 0.2111 0 24
7.7481 -9.5747 -0.3072 0.2198 0 24
7.7761 -8.8570 -0.2939 0.2315 0 24
7.7998 -8.1956 -0.2822 0.2453 0 24
7.8258 -7.5882 -0.2718 0.2598 0 24
7.8544 -7.0267 -0.2628 0.2718 0 24
7.9626 -6.5675 -0.2574 0.2970 0 1
8.0091 -6.0825 -0.2508 0.3048 0 1
6.2511 -4.3631 -0.1901 0.7959 14 6
6.3789 -4.0816 -0.1889 0.5774 14 6
7.7418 -4.5263 -0.2236 0.2980 0 25
7.7555 -4.1257 -0.2191 0.3042 0 25
7.7676 -3.7402 -0.2150 0.3099 0 25
7.7784 -3.3677 -0.2114 0.3152 0 25
7.7879 -3.0067 -0.2082 0.3201 0 25
7.7963 -2.6554 -0.2054 0.3244 0 25
7.8035 -2.3127 -0.2030 0.3284 0 2
8.0866 -2.0474 -0.2080 0.3322 0 1
8.0765 -1.7030 -0.2058 0.3348 0 24
4.1102 -0.6956 -0.1040 0.2987 25 14
3.9382 -0.5049 -0.0990 0.9701 25 14
3.9295 -0.3441 -0.0984 0.9765 25 14
3.9100 -0.1847 -0.0976 0.9768 25 14
3.8845 -0.0273 -0.0969 0.9843 25 14
3.8969 0.1291 -0.0972 0.9806 25 14
3.9221 0.2879 -0.0981 0.9723 25 14
3.9350 0.4483 -0.0988 0.9726 25 14
3.9442 0.6106 -0.0995 0.9651 25 14
8.2976 1.6279 -0.2109 0.3277 0 1
8.3210 1.9825 -0.2133 0.3239 0 1
8.3469 2.3465 -0.2162 0.3187 0 1
8.3721 2.7206 -0.2195 0.3114 0 1
8.3930 3.1052 -0.2232 0.3064 0 1
8.4137 3.5029 -0.2273 0.3008 0 1
8.4341 3.9158 -0.2319 0.2948 0 1
8.4366 4.3368 -0.2366 0.3044 0 1
8.4115 4.7601 -0.2410 0.2983 0 1
8.3810 5.1978 -0.2459 0.2924 0 1
8.3480 5.6536 -0.2514 0.2860 0 1
8.3124 6.1302 -0.2576 0.2792 0 1
8.2014 6.5726 -0.2621 0.3083 0 1
8.0990 7.0427 -0.2677 0.3019 0 1
7.9909 7.5329 -0.2739 0.2950 0 1
7.9960 8.1683 -0.2851 0.2590 0 2
7.5618 8.3722 -0.2813 0.8595 0 2
7.5118 9.0199 -0.2927 0.2270 0 2
6.8918 8.9858 -0.2824 0.2170 22 6
6.4741 9.1823 -0.2802 0.5660 22 6
7.3746 11.4057 -0.3387 0.1962 0 2
7.3155 12.3772 -0.3586 0.1853 0 2
7.2472 13.4685 -0.3814 0.1742 0 2
7.1679 14.7072 -0.4080 0.1629 0 2
7.0747 16.1300 -0.4392 0.1513 0 2
6.9640 17.7866 -0.4764 0.1395 0 2
6.8306 19.7466 -0.5211 0.1275 0 2
6.6671 22.1097 -0.5759 0.1154 0 2
6.4624 25.0245 -0.6445 0.1031 0 2
6.1991 28.7229 -0.7328 0.0907 0 2
5.8489 33.5872 -0.8502 0.0782 0 2
2.0774 15.6157 -0.3929 0.9941 0 9
1.5508 16.7909 -0.4205 0.8255 0 9
1.3942 26.8170 -0.6697 0.7254 0 20
0.1695 14.3750 -0.3585 0.4114 0 9
-31.5300 36.6088 -1.2049 0.6214 0 3
-31.2863 33.5058 -1.1432 0.6499 0 3
-33.0546 32.6661 -1.1589 0.7073 0 3
-30.2930 27.6230 -1.0224 0.9620 0 3
-32.9055 27.6696 -1.0722 0.6483 0 3
-35.7009 27.6517 -1.1261 0.6172 0 3
-31.2663 22.2678 -0.9573 0.7761 0 3
-34.6813 22.6582 -1.0331 0.5522 0 3
-31.2573 18.6752 -0.9080 0.8181 0 3
-36.2828 19.7461 -1.0302 0.8372 0 3
-33.8310 16.6876 -0.9407 0.2613 0 3
-39.9026 17.7281 -1.0889 0.4118 0 3
-41.9183 16.6424 -1.1248 0.8163 0 3
-35.3028 -32.6518 -1.1992 0.9526 0 20
-34.2365 -34.3162 -1.2089 0.9736 0 20
-18.1041 -27.4252 -0.8195 0.5767 0 6
2.2958 -38.8531 -0.9706 0.8319 0 6
4.7879 -48.1180 -1.2059 0.0551 0 2
5.4603 -38.9353 -0.9805 0.0678 0 2
5.9187 -32.6210 -0.8268 0.0804 0 2
4.1541 -18.6082 -0.4755 0.4567 0 6
6.5021 -24.4620 -0.6312 0.1053 0 2
6.6985 -21.6583 -0.5654 0.1175 0 2
6.8561 -19.3753 -0.5125 0.1296 0 2
6.9850 -17.4750 -0.4693 0.1416 0 2
7.3250 -16.3844 -0.4476 0.9827 0 2
7.4652 -15.0460 -0.4189 0.1434 0 1
7.4976 -13.7006 -0.3895 0.1752 0 1
7.5363 -12.5474 -0.3650 0.1895 0 24
7.6143 -11.5957 -0.3460 0.1967 0 24
7.6796 -10.7300 -0.3291 0.2070 0 24
7.7308 -9.9333 -0.3139 0.2151 0 24
7.7640 -9.1897 -0.3000 0.2258 0 24
7.7883 -8.5013 -0.2875 0.2386 0 24
7.8134 -7.8696 -0.2766 0.2535 0 24
7.8405 -7.2870 -0.2669 0.2662 0 24
7.9393 -6.8058 -0.2608 0.2931 0 1
7.9009 -6.2405 -0.2511 0.2874 0 24
7.7010 -5.5957 -0.2374 0.2818 0 2
6.2492 -4.1680 -0.1873 0.8077 14 6
7.7348 -4.7216 -0.2260 0.2949 0 25
7.7492 -4.3132 -0.2212 0.3013 0 25
7.7621 -3.9209 -0.2169 0.3073 0 25
7.7735 -3.5424 -0.2130 0.3128 0 25
7.7836 -3.1762 -0.2096 0.3178 0 25
7.7925 -2.8205 -0.2067 0.3224 0 25
7.8002 -2.4739 -0.2041 0.3265 0 25
8.0783 -2.2094 -0.2089 0.3309 0 1
8.0957 -1.8684 -0.2072 0.3338 0 1
8.1129 -1.5322 -0.2059 0.3359 0 1
3.9424 -0.5817 -0.0994 0.9666 25 14
3.9336 -0.4199 -0.0987 0.9737 25 14
3.9222 -0.2600 -0.0980 0.9727 25 14
3.8965 -0.1015 -0.0972 0.9809 25 14
3.8851 0.0548 -0.0969 0.9841 25 14
3.9101 0.2124 -0.0977 0.9764 25 14
3.9307 0.3723 -0.0985 0.9756 25 14
3.9398 0.5335 -0.0992 0.9688 25 14
4.2564 0.7514 -0.1078 0.0274 25 14
8.2790 1.8070 -0.2113 0.3252 0 24
8.3343 2.1730 -0.2148 0.3208 0 1
8.3610 2.5425 -0.2179 0.3162 0 1
8.3832 2.9217 -0.2214 0.3088 0 1
8.4040 3.3130 -0.2253 0.3035 0 1
8.4245 3.7184 -0.2296 0.2977 0 1
8.4447 4.1401 -0.2345 0.2915 0 1
8.4237 4.5580 -0.2389 0.3015 0 1
8.3957 4.9886 -0.2435 0.2952 0 1
8.3639 5.4355 -0.2488 0.2891 0 1
8.3296 5.9020 -0.2546 0.2824 0 1
8.2537 6.3609 -0.2599 0.3130 0 1
8.1481 6.8180 -0.2650 0.3050 0 1
8.0428 7.2983 -0.2708 0.2983 0 1
8.0237 7.8910 -0.2807 0.2630 0 2
7.8072 8.3205 -0.2845 0.8506 0 2
7.5291 8.6992 -0.2869 0.2316 0 2
7.4913 9.3924 -0.2996 0.2218 0 2
6.6002 8.9934 -0.2782 0.8229 22 6
7.3999 10.9816 -0.3302 0.2012 0 2
7.3445 11.9041 -0.3488 0.1905 0 2
7.2808 12.9357 -0.3702 0.1795 0 2
7.2070 14.1007 -0.3949 0.1683 0 2
7.1207 15.4311 -0.4238 0.1568 0 2
7.0189 16.9698 -0.4580 0.1451 0 2
6.8970 18.7760 -0.4988 0.1332 0 2
6.7488 20.9335 -0.5485 0.1211 0 2
6.5653 23.5644 -0.6100 0.1089 0 2
6.3324 26.8559 -0.6881 0.0966 0 2
6.0279 31.1069 -0.7902 0.0841 0 2
2.2386 14.6876 -0.3705 0.7453 0 9
1.7594 15.7710 -0.3957 0.5453 0 9
0.5075 16.4791 -0.4112 0.6382 0 9
-0.1378 14.7113 -0.3669 0.6510 0 9
-34.8254 -33.4600 -1.7401 0.9785 0 20
-33.3734 -34.7470 -1.7359 0.9804 0 20
3.5247 -45.0854 -1.6294 0.0589 0 2
4.3864 -36.9453 -1.3405 0.0716 0 2
4.9862 -31.2288 -1.1394 0.0842 0 2
5.4270 -26.9822 -0.9916 0.0968 0 2
5.7642 -23.6941 -0.8786 0.1092 0 2
6.0300 -21.0656 -0.7895 0.1216 0 2
6.2446 -18.9104 -0.7175 0.1337 0 2
6.4213 -17.1060 -0.6583 0.1458 0 2
6.9280 -16.4202 -0.6421 0.1743 0 2
6.9268 -14.7358 -0.5867 0.1479 0 1
6.9654 -13.3934 -0.5439 0.1781 0 24
7.1195 -12.4423 -0.5165 0.1908 0 1
7.2137 -11.5092 -0.4894 0.2040 0 1
7.2950 -10.6623 -0.4655 0.2135 0 1
7.3660 -9.8894 -0.4443 0.2236 0 1
7.4157 -9.1638 -0.4247 0.2276 0 1
7.4582 -8.4950 -0.4073 0.2373 0 1
7.5009 -7.8816 -0.3920 0.2614 0 1
7.5634 -7.3338 -0.3796 0.2795 0 1
7.5647 -6.7675 -0.3657 0.2842 0 24
7.6040 -6.2717 -0.3551 0.2925 0 24
7.4111 -5.6284 -0.3353 0.2861 0 2
6.2678 -4.3748 -0.2754 0.7935 14 6
6.3641 -4.0721 -0.2722 0.5786 14 6
7.4780 -4.3720 -0.3121 0.3084 0 25
7.4964 -3.9879 -0.3059 0.3146 0 25
7.5128 -3.6175 -0.3004 0.3203 0 25
7.5274 -3.2590 -0.2955 0.3256 0 25
7.5403 -2.9110 -0.2912 0.3305 0 25
7.5516 -2.5721 -0.2874 0.3348 0 25
7.5886 -2.2491 -0.2852 0.3737 0 2
7.8384 -1.9845 -0.2913 0.3426 0 1
7.8571 -1.6567 -0.2893 0.3452 0 1
4.0463 -0.6848 -0.1479 0.3033 25 14
3.9298 -0.5038 -0.1427 0.9719 25 14
3.9211 -0.3434 -0.1418 0.9783 25 14
3.9063 -0.1845 -0.1409 0.9774 25 14
3.8809 -0.0273 -0.1398 0.9848 25 14
3.8936 0.1290 -0.1404 0.9811 25 14
3.9177 0.2876 -0.1415 0.9802 25 14
3.9267 0.4473 -0.1424 0.9743 25 14
3.9358 0.6093 -0.1435 0.9668 25 14
8.0402 1.5774 -0.2952 0.3391 0 1
8.0593 1.9201 -0.2985 0.3343 0 1
8.0803 2.2715 -0.3024 0.3291 0 1
8.0982 2.6316 -0.3068 0.3219 0 1
8.1141 3.0020 -0.3117 0.3168 0 1
8.1290 3.3844 -0.3173 0.3113 0 1
8.1431 3.7807 -0.3235 0.3053 0 1
8.1544 4.1917 -0.3303 0.3149 0 1
8.1244 4.5976 -0.3363 0.3088 0 1
8.0893 5.0169 -0.3430 0.3028 0 1
8.0512 5.4526 -0.3504 0.2964 0 1
8.0099 5.9071 -0.3586 0.2896 0 1
7.9315 6.3563 -0.3662 0.3187 0 1
7.8269 6.8061 -0.3737 0.3123 0 1
7.7165 7.2742 -0.3821 0.3054 0 1
7.5500 8.3591 -0.4058 0.8613 0 2
7.1793 8.6206 -0.4042 0.2374 0 2
6.8471 8.9275 -0.4054 0.7892 22 6
6.4985 9.2169 -0.4063 0.5637 22 6
6.9995 10.8256 -0.4645 0.2066 0 2
6.9227 11.7127 -0.4902 0.1958 0 2
6.8348 12.7020 -0.5197 0.1847 0 2
6.7332 13.8153 -0.5537 0.1733 0 2
6.6150 15.0818 -0.5934 0.1617 0 2
6.4759 16.5400 -0.6400 0.1500 0 2
6.3104 18.2426 -0.6955 0.1380 0 2
6.1103 20.2633 -0.7626 0.1258 0 2
5.8643 22.7086 -0.8450 0.1136 0 2
5.5550 25.7386 -0.9487 0.1012 0 2
5.1553 29.6046 -1.0827 0.0886 0 2
1.8904 14.2105 -0.5165 0.2130 0 9
2.3363 25.2948 -0.9153 0.8850 0 9
1.3924 26.7816 -0.9663 0.9967 0 20
-31.1123 36.1238 -1.7177 0.6247 0 3
-31.1176 33.3251 -1.6428 0.6532 0 3
-31.1216 30.7557 -1.5765 0.6807 0 3
-18.1235 16.5261 -0.8837 0.5531 0 6
-32.9043 27.6686 -1.5490 0.6481 0 3
-29.2579 22.6614 -1.3334 0.9333 0 3
-31.1249 22.1671 -1.3768 0.7793 0 3
-34.6799 22.6573 -1.4926 0.5520 0 3
-31.1232 18.5951 -1.3063 0.8214 0 3
-36.1307 19.6633 -1.4821 0.8405 0 3
-35.4041 17.4636 -1.4224 0.2507 0 3
-39.9158 17.7340 -1.5737 0.4417 0 3
-43.5694 17.2979 -1.6890 0.2652 0 3
-35.4379 -32.7767 -1.7392 0.9790 0 20
-34.1422 -34.2218 -1.7417 0.9776 0 20
4.0207 -40.4080 -1.4631 0.0656 0 2
4.7270 -33.7063 -1.2263 0.0783 0 2
5.2340 -28.8472 -1.0563 0.0908 0 2
4.1437 -18.5616 -0.6852 0.0796 0 6
5.9117 -22.2407 -0.8292 0.1157 0 2
6.1485 -19.8800 -0.7498 0.1280 0 2
6.3418 -17.9219 -0.6850 0.1401 0 2
6.6315 -16.5905 -0.6437 0.9975 0 2
6.9070 -15.4493 -0.6097 0.1384 0 1
6.9571 -14.0220 -0.5640 0.1758 0 1
7.0722 -12.9232 -0.5308 0.1856 0 1
7.1690 -11.9358 -0.5017 0.1990 0 1
7.2583 -11.0535 -0.4764 0.2085 0 1
7.3335 -10.2464 -0.4540 0.2189 0 1
7.3936 -9.5001 -0.4337 0.2228 0 1
7.4387 -8.8047 -0.4153 0.2327 0 1
7.4786 -8.1632 -0.3989 0.2423 0 1
7.5312 -7.5854 -0.3851 0.2755 0 1
7.5452 -7.0126 -0.3711 0.2792 0 24
7.5859 -6.5028 -0.3600 0.2886 0 24
7.7137 -6.0927 -0.3542 0.2576 0 1
7.4228 -5.3935 -0.3306 0.2911 0 25
6.2657 -4.1790 -0.2714 0.8053 14 6
6.6517 -4.0604 -0.2808 0.3675 14 6
7.4879 -4.1678 -0.3088 0.3117 0 25
7.5053 -3.7911 -0.3030 0.3177 0 25
7.5207 -3.4272 -0.2978 0.3232 0 25
7.5344 -3.0745 -0.2932 0.3282 0 25
7.5464 -2.7314 -0.2892 0.3328 0 25
7.5579 -2.3971 -0.2857 0.3384 0 2
7.8293 -2.1413 -0.2925 0.3413 0 1
7.8483 -1.8113 -0.2902 0.3442 0 1
7.8665 -1.4856 -0.2884 0.3463 0 1
3.9339 -0.5805 -0.1433 0.9683 25 14
3.9252 -0.4190 -0.1422 0.9754 25 14
3.9166 -0.2596 -0.1414 0.9810 25 14
3.8929 -0.1014 -0.1403 0.9815 25 14
3.8818 0.0548 -0.1399 0.9846 25 14
3.9068 0.2122 -0.1410 0.9769 25 14
3.9224 0.3715 -0.1420 0.9773 25 14
3.9315 0.5323 -0.1429 0.9706 25 14
4.1079 0.7252 -0.1503 0.2985 25 14
8.0196 1.7504 -0.2958 0.3355 0 24
8.0697 2.1040 -0.3005 0.3312 0 1
8.0903 2.4602 -0.3047 0.3241 0 1
8.1066 2.8253 -0.3093 0.3193 0 1
8.1221 3.2019 -0.3146 0.3139 0 1
8.1366 3.5914 -0.3205 0.3082 0 1
8.1502 3.9957 -0.3270 0.3019 0 1
8.1393 4.4041 -0.3334 0.3119 0 1
8.1062 4.8166 -0.3397 0.3057 0 1
8.0696 5.2442 -0.3468 0.2995 0 1
8.0299 5.6896 -0.3546 0.2929 0 1
7.9855 6.1542 -0.3632 0.3234 0 1
7.8771 6.5912 -0.3701 0.3153 0 1
7.7695 7.0503 -0.3780 0.3087 0 1
7.6557 7.5291 -0.3869 0.3016 0 1
7.6484 8.1513 -0.4027 0.2654 0 2
7.2869 8.4193 -0.4012 0.9012 0 2
7.1522 8.9673 -0.4133 0.2322 0 2
6.5890 8.9782 -0.4013 0.8241 22 6
7.0325 10.4363 -0.4534 0.2116 0 2
6.9603 11.2814 -0.4776 0.2009 0 2
6.8779 12.2200 -0.5052 0.1899 0 2
6.7831 13.2714 -0.5370 0.1787 0 2
6.6732 14.4614 -0.5738 0.1672 0 2
6.5447 15.8233 -0.6170 0.1555 0 2
6.3925 17.4025 -0.6680 0.1437 0 2
6.2099 19.2618 -0.7292 0.1316 0 2
5.9874 21.4901 -0.8038 0.1194 0 2
5.7107 24.2190 -0.8965 0.1070 0 2
5.3580 27.6499 -1.0148 0.0946 0 2
4.8941 32.1101 -1.1703 0.0820 0 2
3.3904 30.3918 -1.1018 0.5643 0 20
1.2119 17.0540 -0.6160 0.2954 0 9
0.5090 16.5271 -0.5958 0.9443 0 9
-0.1460 15.5890 -0.5617 0.2877 0 9
-34.8267 -33.4612 -2.2763 0.9775 0 20
-33.2956 -34.6660 -2.2654 0.9822 0 20
1.7788 -46.9564 -2.2147 0.0567 0 2
2.9906 -38.2538 -1.8084 0.0694 0 2
3.8245 -32.2126 -1.5289 0.0821 0 2
4.4326 -27.7618 -1.3250 0.0947 0 2
4.8950 -24.3371 -1.1700 0.1072 0 2
5.2579 -21.6129 -1.0483 0.1197 0 2
5.5498 -19.3880 -0.9505 0.1320 0 2
5.7894 -17.5316 -0.8702 0.1442 0 2
6.2778 -16.7238 -0.8419 0.9990 0 2
6.3798 -15.1208 -0.7735 0.1427 0 1
6.4857 -13.7975 -0.7186 0.1804 0 1
6.6273 -12.7432 -0.6770 0.1903 0 1
6.7481 -11.7933 -0.6404 0.2038 0 1
6.8588 -10.9430 -0.6087 0.2134 0 1
6.9519 -10.1608 -0.5803 0.2239 0 1
7.0271 -9.4343 -0.5544 0.2279 0 1
7.0876 -8.7584 -0.5310 0.2380 0 1
7.1483 -8.1420 -0.5107 0.2624 0 1
7.2141 -7.5803 -0.4932 0.2813 0 1
7.2896 -7.0683 -0.4786 0.2899 0 1
7.3590 -6.5835 -0.4654 0.2981 0 1
7.4011 -6.1044 -0.4522 0.2638 0 1
7.1472 -5.4280 -0.4230 0.2975 0 25
6.2847 -4.3866 -0.3612 0.7910 14 6
6.3493 -4.0626 -0.3553 0.5796 14 6
7.2313 -4.2278 -0.3948 0.3187 0 25
7.2538 -3.8589 -0.3872 0.3249 0 25
7.2740 -3.5025 -0.3805 0.3307 0 25
7.2919 -3.1571 -0.3745 0.3360 0 25
7.3077 -2.8212 -0.3692 0.3408 0 25
7.3216 -2.4938 -0.3645 0.3452 0 25
7.5526 -2.2384 -0.3713 0.3754 0 2
7.6041 -1.9252 -0.3697 0.3514 0 1
7.6248 -1.6078 -0.3673 0.3564 0 1
3.9843 -0.6743 -0.1905 0.3079 25 14
3.9213 -0.5027 -0.1863 0.9735 25 14
3.9128 -0.3427 -0.1851 0.9799 25 14
3.9027 -0.1843 -0.1841 0.9778 25 14
3.8773 -0.0273 -0.1827 0.9853 25 14
3.8903 0.1289 -0.1835 0.9815 25 14
3.9094 0.2870 -0.1848 0.9819 25 14
3.9184 0.4464 -0.1859 0.9759 25 14
3.9274 0.6080 -0.1873 0.9685 25 14
7.7982 1.5300 -0.3745 0.3495 0 1
7.8138 1.8616 -0.3786 0.3457 0 1
7.8287 2.2008 -0.3833 0.3369 0 1
7.8414 2.5482 -0.3886 0.3323 0 1
7.8528 2.9053 -0.3946 0.3272 0 1
7.8628 3.2736 -0.4014 0.3216 0 1
7.8714 3.6545 -0.4090 0.3157 0 1
7.8785 4.0499 -0.4175 0.3093 0 1
7.8560 4.4458 -0.4254 0.3192 0 1
7.8170 4.8480 -0.4335 0.3132 0 1
7.7745 5.2652 -0.4425 0.3068 0 1
7.7284 5.6995 -0.4526 0.3000 0 1
7.6784 6.1535 -0.4638 0.2944 0 1
7.5734 6.5856 -0.4730 0.3269 0 1
7.4619 7.0343 -0.4833 0.3199 0 1
7.3436 7.5019 -0.4948 0.3125 0 1
7.3199 8.1044 -0.5147 0.2720 0 2
7.0547 8.4710 -0.5196 0.9105 0 2
6.8115 8.8811 -0.5275 0.2379 0 2
6.4817 9.1931 -0.5301 0.5363 22 6
6.6604 10.3012 -0.5781 0.2170 0 2
6.5697 11.1155 -0.6085 0.2062 0 2
6.4664 12.0175 -0.6432 0.1951 0 2
6.3480 13.0248 -0.6829 0.1837 0 2
6.2111 14.1608 -0.7288 0.1722 0 2
6.0515 15.4559 -0.7823 0.1604 0 2
5.8634 16.9505 -0.8453 0.1484 0 2
5.6390 18.7003 -0.9206 0.1363 0 2
5.3672 20.7837 -1.0117 0.1240 0 2
5.0318 23.3143 -1.1241 0.1116 0 2
4.6085 26.4642 -1.2661 0.0991 0 2
2.0872 15.6892 -0.7460 0.9065 0 9
2.3336 25.2656 -1.1959 0.8119 0 9
0.9024 17.3570 -0.8192 0.0844 0 9
-29.6367 37.3431 -2.2469 0.1481 0 3
-29.2437 33.9542 -2.1120 0.6279 0 3
-29.7993 31.9133 -2.0579 0.8032 0 3
-30.9612 30.5972 -2.0516 0.6839 0 3
-30.9700 28.2403 -1.9754 0.7102 0 3
-29.2190 24.5696 -1.7993 0.3380 0 3
-30.9829 23.9974 -1.8470 0.7596 0 3
-30.9847 22.0672 -1.7928 0.7825 0 3
-30.9880 20.2453 -1.7446 0.8041 0 3
-30.9902 18.5156 -1.7014 0.8245 0 3
-30.0114 16.3330 -1.6104 0.7332 0 3
-35.9875 17.7514 -1.8912 0.4477 0 3
-36.0525 16.0176 -1.8593 0.9612 0 3
-44.5716 17.6958 -2.2602 0.3746 0 3
-35.3424 -32.6884 -2.2690 0.9812 0 20
-34.0182 -34.0975 -2.2701 0.9802 0 20
1.5702 -26.5735 -1.2546 0.5382 0 20
3.4650 -34.8237 -1.6494 0.0761 0 2
4.1669 -29.7126 -1.4141 0.0887 0 2
4.6909 -25.8539 -1.2384 0.1013 0 2
4.1462 -18.5728 -0.8969 0.7770 0 6
5.4192 -20.3879 -0.9943 0.1262 0 2
5.6816 -18.3704 -0.9063 0.1385 0 2
5.9662 -16.8605 -0.8429 0.9907 0 2
6.3415 -15.8651 -0.8053 0.1370 0 1
6.4240 -14.3690 -0.7418 0.1529 0 1
6.5633 -13.2281 -0.6960 0.1862 0 1
6.6921 -12.2288 -0.6570 0.1961 0 1
6.8084 -11.3354 -0.6232 0.2095 0 1
6.9093 -10.5220 -0.5933 0.2190 0 1
6.9957 -9.7745 -0.5665 0.2231 0 1
7.0599 -9.0713 -0.5418 0.2333 0 1
7.1166 -8.4235 -0.5197 0.2432 0 1
7.1823 -7.8398 -0.5011 0.2674 0 1
7.2547 -7.3069 -0.4853 0.2858 0 1
7.3269 -6.8097 -0.4714 0.2942 0 1
7.3930 -6.3375 -0.4589 0.2599 0 1
7.1313 -5.6326 -0.4283 0.2914 0 2
7.1640 -5.2054 -0.4174 0.3015 0 25
6.2823 -4.1901 -0.3559 0.8028 14 6
6.6310 -4.0478 -0.3662 0.5624 14 6
7.2435 -4.0318 -0.3907 0.3221 0 25
7.2647 -3.6696 -0.3836 0.3280 0 25
7.2836 -3.3192 -0.3773 0.3336 0 25
7.3004 -2.9790 -0.3716 0.3386 0 25
7.3152 -2.6477 -0.3667 0.3432 0 25
7.3320 -2.3254 -0.3625 0.3554 0 2
7.5940 -2.0769 -0.3711 0.3493 0 1
7.5887 -1.7514 -0.3671 0.3546 0 24
4.1950 -0.7923 -0.2012 0.2551 25 14
3.9254 -0.5792 -0.1870 0.9700 25 14
3.9168 -0.4181 -0.1857 0.9771 25 14
3.9083 -0.2591 -0.1846 0.9826 25 14
3.8892 -0.1013 -0.1834 0.9820 25 14
3.8785 0.0548 -0.1828 0.9849 25 14
3.9035 0.2121 -0.1842 0.9773 25 14
3.9141 0.3707 -0.1853 0.9789 25 14
3.9231 0.5312 -0.1866 0.9722 25 14
4.0502 0.7150 -0.1938 0.3026 25 14
7.8066 1.7039 -0.3766 0.3476 0 1
7.8215 2.0393 -0.3810 0.3425 0 1
7.8356 2.3827 -0.3860 0.3345 0 1
7.8476 2.7350 -0.3917 0.3296 0 1
7.8583 3.0979 -0.3981 0.3243 0 1
7.8675 3.4726 -0.4053 0.3186 0 1
7.8753 3.8609 -0.4134 0.3123 0 1
7.8732 4.2601 -0.4219 0.3223 0 1
7.8358 4.6559 -0.4296 0.3161 0 1
7.7951 5.0658 -0.4382 0.3099 0 1
7.7507 5.4918 -0.4477 0.3033 0 1
7.7024 5.9360 -0.4583 0.2963 0 1
7.6239 6.3793 -0.4685 0.3300 0 1
7.5155 6.8198 -0.4783 0.3233 0 1
7.4005 7.2781 -0.4892 0.3161 0 1
7.2867 7.7658 -0.5019 0.3027 0 1
7.2767 8.4075 -0.5241 0.2672 0 2
6.8431 8.5797 -0.5172 0.2431 0 2
6.5505 8.9256 -0.5218 0.9168 22 6
6.6995 9.9422 -0.5650 0.2221 0 2
6.6141 10.7203 -0.5937 0.2114 0 2
6.5170 11.5788 -0.6262 0.2004 0 2
6.4061 12.5337 -0.6634 0.1891 0 2
6.2784 13.6056 -0.7062 0.1777 0 2
6.1301 14.8211 -0.7559 0.1660 0 2
5.9564 16.2153 -0.8142 0.1541 0 2
5.7503 17.8363 -0.8833 0.1421 0 2
5.5026 19.7502 -0.9663 0.1299 0 2
5.1997 22.0521 -1.0678 0.1175 0 2
4.8218 24.8825 -1.1946 0.1050 0 2
3.1516 20.6775 -0.9858 0.7371 0 20
2.3391 20.9677 -0.9944 0.1402 0 20
1.6000 22.5160 -1.0639 0.5982 0 6
-34.7488 -33.3863 -2.8067 0.9810 0 20
-33.0516 -34.4119 -2.7790 0.9587 0 20
1.5001 -39.6003 -2.3081 0.0671 0 2
2.5967 -33.2156 -1.9405 0.0799 0 2
3.3898 -28.5513 -1.6746 0.0925 0 2
3.9893 -24.9850 -1.4736 0.1052 0 2
4.4575 -22.1622 -1.3167 0.1177 0 2
4.5201 -18.5800 -1.1137 0.7001 0 6
5.1400 -17.9565 -1.0879 0.1425 0 2
5.6233 -17.0288 -1.0445 0.9875 0 2
5.8242 -15.5155 -0.9652 0.1412 0 1
5.9502 -14.1027 -0.8915 0.1796 0 1
6.1272 -13.0348 -0.8389 0.1908 0 1
6.2793 -12.0740 -0.7926 0.2007 0 1
6.4161 -11.2131 -0.7524 0.2143 0 1
6.5361 -10.4280 -0.7168 0.2238 0 1
6.6370 -9.7006 -0.6846 0.2280 0 1
6.7165 -9.0174 -0.6549 0.2383 0 1
6.7960 -8.3981 -0.6292 0.2630 0 1
6.8732 -7.8287 -0.6068 0.2728 0 1
6.9544 -7.3073 -0.5875 0.2916 0 1
7.0346 -6.8211 -0.5707 0.3002 0 1
7.0893 -6.3422 -0.5540 0.2659 0 1
7.1154 -5.8687 -0.5372 0.2743 0 1
6.9030 -5.2425 -0.5049 0.3078 0 25
6.3016 -4.3984 -0.4476 0.7885 14 6
6.3594 -4.0691 -0.4397 0.9429 14 6
7.0002 -4.0927 -0.4723 0.3291 0 25
7.0263 -3.7378 -0.4635 0.3353 0 25
7.0496 -3.3944 -0.4557 0.3410 0 25
7.0704 -3.0612 -0.4487 0.3463 0 25
7.0888 -2.7367 -0.4426 0.3512 0 25
7.1068 -2.4206 -0.4373 0.3552 0 2
7.3593 -2.1811 -0.4471 0.3580 0 1
7.3834 -1.8693 -0.4436 0.3629 0 1
7.4060 -1.5616 -0.4408 0.3667 0 1
3.9242 -0.6642 -0.2318 0.3124 25 14
3.9129 -0.5016 -0.2298 0.9751 25 14
3.9044 -0.3419 -0.2283 0.9814 25 14
3.8959 -0.1840 -0.2272 0.9862 25 14
3.8736 -0.0273 -0.2256 0.9857 25 14
3.8870 0.1288 -0.2265 0.9818 25 14
3.9012 0.2864 -0.2278 0.9833 25 14
3.9101 0.4454 -0.2292 0.9774 25 14
3.9191 0.6067 -0.2310 0.9699 25 14
4.3085 0.8453 -0.2557 0.0270 25 14
7.5859 1.8073 -0.4542 0.3610 0 1
7.5967 2.1356 -0.4596 0.3569 0 1
7.6055 2.4715 -0.4658 0.3522 0 1
7.6126 2.8164 -0.4728 0.3470 0 1
7.6179 3.1716 -0.4806 0.3413 0 1
7.6214 3.5385 -0.4894 0.3352 0 1
7.6230 3.9186 -0.4992 0.3286 0 1
7.6055 4.3040 -0.5090 0.3316 0 1
7.5634 4.6907 -0.5184 0.3256 0 1
7.5174 5.0911 -0.5288 0.3192 0 1
7.4674 5.5071 -0.5404 0.3123 0 1
7.4134 5.9411 -0.5533 0.3048 0 1
7.3381 6.3810 -0.5664 0.3372 0 1
7.2252 6.8111 -0.5783 0.3302 0 1
7.1053 7.2585 -0.5916 0.3228 0 1
6.9908 7.7400 -0.6075 0.3088 0 1
6.9578 8.3546 -0.6332 0.2731 0 2
6.5993 8.6045 -0.6316 0.9476 0 2
6.4426 9.1376 -0.6512 0.2380 0 2
6.3524 9.8247 -0.6814 0.2274 0 2
6.2507 10.5757 -0.7155 0.2166 0 2
6.1354 11.4023 -0.7541 0.2055 0 2
6.0041 12.3192 -0.7982 0.1942 0 2
5.8533 13.3451 -0.8487 0.1826 0 2
5.6789 14.5042 -0.9072 0.1708 0 2
5.4752 15.8282 -0.9755 0.1589 0 2
5.2348 17.3599 -1.0561 0.1467 0 2
4.9474 19.1580 -1.1524 0.1345 0 2
4.5983 21.3055 -1.2695 0.1221 0 2
4.1661 23.9237 -1.4144 0.1096 0 2
2.7172 20.4251 -1.2001 0.3816 0 20
2.3365 25.2975 -1.4797 0.9353 0 9
1.2062 23.2009 -1.3531 0.9967 0 20
0.5495 46.6054 -2.7146 0.0665 0 1
-30.7411 38.7347 -2.8802 0.6016 0 3
-30.7648 35.7203 -2.7457 0.6311 0 3
-30.7850 32.9689 -2.6272 0.6596 0 3
-30.3055 29.9492 -2.4816 0.1706 0 3
-29.7767 27.1522 -2.3471 0.7134 0 3
-29.6286 24.9141 -2.2547 0.1877 0 3
-29.1628 22.5876 -2.1484 0.5052 0 3
-29.1583 20.7665 -2.0850 0.7856 0 3
-30.8526 20.1568 -2.1465 0.8072 0 3
-30.8581 18.4367 -2.0936 0.8276 0 3
-32.6556 17.7720 -2.1654 0.4829 0 3
-35.9856 17.7504 -2.3370 0.4475 0 3
-35.9248 15.9608 -2.2896 0.8313 0 3
-44.5687 17.6947 -2.7929 0.3744 0 3
-35.4766 -32.8125 -2.8146 0.9782 0 20
-33.8824 -33.9613 -2.7941 0.9535 0 20
0.8572 -45.4334 -2.6467 0.0616 0 1
1.5447 -26.1421 -1.5253 0.9326 0 20
3.0439 -30.5916 -1.7906 0.0865 0 2
3.7251 -26.5622 -1.5622 0.0992 0 2
4.2495 -23.4211 -1.3864 0.1118 0 2
4.1544 -18.6094 -1.1106 0.9866 0 6
5.0020 -18.8185 -1.1341 0.1366 0 2
5.3195 -17.1996 -1.0486 0.9679 0 2
5.8271 -16.4675 -1.0174 0.1775 0 2
5.8883 -14.7313 -0.9240 0.1475 0 1
6.0465 -13.5246 -0.8629 0.1855 0 1
6.2110 -12.5181 -0.8139 0.1955 0 1
6.3533 -11.6095 -0.7708 0.2092 0 1
6.4820 -10.7920 -0.7332 0.2199 0 1
6.5920 -10.0388 -0.6995 0.2294 0 1
6.6801 -9.3335 -0.6685 0.2335 0 1
6.7566 -8.6817 -0.6407 0.2583 0 1
6.8377 -8.0933 -0.6171 0.2682 0 1
6.9139 -7.5469 -0.5961 0.2874 0 1
6.9975 -7.0479 -0.5785 0.2962 0 1
7.0743 -6.5749 -0.5625 0.3046 0 1
7.1035 -6.0893 -0.5449 0.2704 0 1
6.8855 -5.4385 -0.5110 0.3057 0 2
6.9223 -5.0299 -0.4984 0.3118 0 25
6.2990 -4.2012 -0.4410 0.8002 14 6
6.5530 -4.0001 -0.4472 0.6181 14 6
7.0143 -3.9042 -0.4676 0.3324 0 25
7.0389 -3.5556 -0.4593 0.3384 0 25
7.0609 -3.2177 -0.4519 0.3439 0 25
7.0804 -2.8892 -0.4454 0.3489 0 25
7.0976 -2.5689 -0.4396 0.3535 0 25
7.2041 -2.2848 -0.4402 0.5034 0 2
7.3718 -2.0162 -0.4451 0.3604 0 1
7.3961 -1.7069 -0.4421 0.3641 0 1
4.1264 -0.7793 -0.2446 0.2961 25 14
3.9169 -0.5780 -0.2306 0.9715 25 14
3.9084 -0.4172 -0.2289 0.9786 25 14
3.8999 -0.2585 -0.2276 0.9841 25 14
3.8856 -0.1012 -0.2264 0.9823 25 14
3.8753 0.0547 -0.2257 0.9852 25 14
3.8970 0.2117 -0.2273 0.9856 25 14
3.9059 0.3699 -0.2285 0.9804 25 14
3.9148 0.5301 -0.2301 0.9737 25 14
3.9940 0.7051 -0.2362 0.3067 25 14
7.5802 1.6545 -0.4519 0.3628 0 1
7.5919 1.9794 -0.4570 0.3588 0 1
7.6016 2.3115 -0.4628 0.3545 0 1
7.6094 2.6520 -0.4693 0.3495 0 1
7.6156 3.0022 -0.4768 0.3440 0 1
7.6200 3.3633 -0.4851 0.3381 0 1
7.6225 3.7370 -0.4944 0.3317 0 1
7.6205 4.1234 -0.5046 0.3217 0 1
7.5838 4.5062 -0.5138 0.3285 0 1
7.5397 4.8998 -0.5237 0.3223 0 1
7.4916 5.3082 -0.5348 0.3156 0 1
7.4393 5.7332 -0.5470 0.3085 0 1
7.3882 6.1821 -0.5611 0.3006 0 1
7.2794 6.6056 -0.5725 0.3336 0 1
7.1630 7.0445 -0.5851 0.3264 0 1
7.0433 7.5064 -0.5995 0.3129 0 1
7.0013 8.0893 -0.6231 0.2775 0 2
6.8062 8.5334 -0.6357 0.9414 0 2
6.4817 8.8319 -0.6381 0.2429 0 2
6.3964 9.4923 -0.6667 0.2325 0 2
6.3004 10.2118 -0.6989 0.2217 0 2
6.1918 11.0010 -0.7353 0.2108 0 2
6.0684 11.8731 -0.7766 0.1995 0 2
5.9273 12.8448 -0.8239 0.1881 0 2
5.7646 13.9374 -0.8785 0.1764 0 2
5.5756 15.1788 -0.9418 0.1645 0 2
5.3537 16.6061 -1.0162 0.1525 0 2
5.0901 18.2695 -1.1046 0.1403 0 2
4.7723 20.2394 -1.2111 0.1280 0 2
4.3826 22.6165 -1.3418 0.1155 0 2
2.3811 15.6226 -0.9204 0.9075 0 9
2.3026 20.6405 -1.2096 0.8454 0 20
1.5994 22.5069 -1.3142 0.8425 0 6
1.3186 42.8137 -2.4948 0.0726 0 1
-34.7531 -33.3904 -3.3432 0.9492 0 20
-32.7783 -34.1273 -3.2825 0.9048 0 20
-18.9475 -27.4229 -2.3122 0.7979 0 22
-0.0972 -42.4011 -2.9414 0.0657 0 1
1.3675 -36.0986 -2.5060 0.0778 0 2
2.0630 -26.3884 -1.8361 0.0852 0 20
3.0435 -25.6340 -1.7907 0.1030 0 2
3.6261 -22.7106 -1.5954 0.1156 0 2
4.0914 -20.3420 -1.4394 0.1281 0 2
4.4711 -18.3787 -1.3121 0.1406 0 2
4.9816 -17.4031 -1.2557 0.9619 0 2
5.2514 -15.9025 -1.1617 0.1389 0 1
5.4183 -14.4341 -1.0695 0.1509 0 1
5.6196 -13.3192 -1.0028 0.1900 0 1
5.8058 -12.3511 -0.9467 0.2012 0 1
5.9691 -11.4776 -0.8974 0.2138 0 1
6.1149 -10.6867 -0.8541 0.2247 0 1
6.2419 -9.9587 -0.8153 0.2342 0 1
6.3436 -9.2717 -0.7793 0.2384 0 1
6.4427 -8.6497 -0.7482 0.2633 0 1
6.5348 -8.0754 -0.7206 0.2733 0 1
6.6206 -7.5410 -0.6961 0.2929 0 1
6.7124 -7.0530 -0.6754 0.3019 0 1
6.7796 -6.5738 -0.6551 0.2677 0 1
6.8176 -6.0991 -0.6346 0.2763 0 1
6.6319 -5.4700 -0.5964 0.3090 0 2
6.6747 -5.0691 -0.5814 0.3181 0 25
6.2798 -4.3831 -0.5312 0.8054 14 6
6.3062 -4.0351 -0.5194 0.9291 14 6
6.7831 -3.9657 -0.5451 0.3394 0 25
6.8123 -3.6240 -0.5353 0.3456 0 25
6.8384 -3.2928 -0.5265 0.3513 0 25
6.8617 -2.9708 -0.5187 0.3566 0 25
6.8824 -2.6570 -0.5118 0.3614 0 25
6.9156 -2.3555 -0.5068 0.5861 0 2
7.1490 -2.1188 -0.5172 0.3692 0 1
7.1749 -1.8166 -0.5134 0.3732 0 1
7.1991 -1.5180 -0.5104 0.3754 0 1
3.9130 -0.6623 -0.2753 0.9686 25 14
3.9045 -0.5006 -0.2731 0.9765 25 14
3.8961 -0.3412 -0.2713 0.9828 25 14
3.8877 -0.1836 -0.2700 0.9876 25 14
3.8700 -0.0272 -0.2685 0.9859 25 14
3.8837 0.1287 -0.2696 0.9819 25 14
3.8931 0.2858 -0.2708 0.9847 25 14
3.9019 0.4445 -0.2724 0.9788 25 14
3.9107 0.6054 -0.2745 0.9713 25 14
4.1483 0.8139 -0.2933 0.2940 25 14
7.3712 1.7562 -0.5257 0.3712 0 1
7.3793 2.0744 -0.5317 0.3671 0 1
7.3850 2.3999 -0.5387 0.3624 0 1
7.3887 2.7336 -0.5465 0.3572 0 1
7.3902 3.0768 -0.5553 0.3515 0 1
7.3896 3.4308 -0.5652 0.3454 0 1
7.3866 3.7971 -0.5761 0.3388 0 1
7.3696 4.1705 -0.5874 0.3290 0 1
7.3259 4.5434 -0.5980 0.3359 0 1
7.2768 4.9281 -0.6097 0.3295 0 1
7.2233 5.3271 -0.6226 0.3226 0 1
7.1659 5.7427 -0.6370 0.3151 0 1
7.1119 6.1843 -0.6538 0.3070 0 1
7.0028 6.6014 -0.6676 0.3405 0 1
6.8817 7.0300 -0.6824 0.3331 0 1
6.7617 7.4864 -0.6998 0.3191 0 1
6.6418 7.9752 -0.7200 0.3101 0 1
6.5929 8.5961 -0.7515 0.9478 0 2
6.1787 8.7634 -0.7438 0.8455 0 2
6.0712 9.3899 -0.7757 0.2378 0 2
5.9608 10.0853 -0.8127 0.2270 0 2
5.8363 10.8464 -0.8544 0.2159 0 2
5.6951 11.6853 -0.9018 0.2045 0 2
5.5341 12.6173 -0.9558 0.1930 0 2
5.3491 13.6619 -1.0178 0.1812 0 2
5.1348 14.8441 -1.0896 0.1693 0 2
4.8843 16.1974 -1.1736 0.1572 0 2
4.5881 17.7665 -1.2729 0.1449 0 2
4.2331 19.6134 -1.3919 0.1325 0 2
3.8007 21.8258 -1.5368 0.1200 0 2
2.3378 17.5733 -1.2298 0.9806 0 20
2.3434 25.3714 -1.7675 0.9805 0 9
1.3930 26.7938 -1.8612 0.9961 0 20
0.4742 40.2187 -2.7902 0.0738 0 1
-1.3673 48.1914 -3.3444 0.0651 0 1
-30.5618 38.5088 -3.4104 0.6047 0 3
-30.5937 35.5216 -3.2521 0.6342 0 3
-30.4504 32.6106 -3.0951 0.9781 0 3
-30.6448 30.2845 -2.9888 0.6900 0 3
-30.6651 27.9623 -2.8789 0.7164 0 3
-19.6185 16.4968 -1.7781 0.8736 0 6
-30.6975 23.7764 -2.6935 0.7657 0 3
-30.7076 21.8699 -2.6152 0.7885 0 3
-30.2814 19.7836 -2.5092 0.2003 0 3
-30.0438 17.9502 -2.4278 0.2120 0 3
-29.9242 16.2855 -2.3633 0.2191 0 3
-35.9837 17.7495 -2.7833 0.4472 0 3
-39.9094 17.7311 -3.0295 0.9631 0 3
-41.6144 16.5217 -3.1060 0.7441 0 3
-35.6022 -32.9287 -3.3641 0.9426 0 20
-33.8193 -33.8981 -3.3217 0.9554 0 20
-33.4902 -36.3787 -3.4301 0.2126 0 20
-19.7273 -27.4227 -2.3434 0.9902 0 6
-0.9902 -46.5081 -3.2270 0.0513 0 1
0.7306 -38.7219 -2.6866 0.0719 0 1
1.5462 -26.1675 -1.8184 0.8065 0 20
2.7137 -27.2729 -1.9013 0.0970 0 2
3.3676 -24.0128 -1.6821 0.1097 0 2
3.8836 -21.4044 -1.5091 0.1222 0 2
4.1578 -18.6246 -1.3238 0.6586 0 6
4.6821 -17.6149 -1.2644 0.9313 0 2
5.2103 -16.8465 -1.2233 0.1755 0 2
5.3432 -15.1000 -1.1111 0.1453 0 1
5.5230 -13.8173 -1.0322 0.1859 0 1
5.7208 -12.7961 -0.9723 0.1959 0 1
5.8937 -11.8787 -0.9199 0.2086 0 1
6.0480 -11.0518 -0.8740 0.2196 0 1
6.1846 -10.2969 -0.8332 0.2292 0 1
6.2981 -9.5912 -0.7960 0.2334 0 1
6.3956 -8.9360 -0.7623 0.2584 0 1
6.4924 -8.3422 -0.7333 0.2686 0 1
6.5798 -7.7880 -0.7073 0.2785 0 1
6.6699 -7.2806 -0.6850 0.2977 0 1
6.7576 -6.8063 -0.6653 0.3065 0 1
6.8002 -6.3202 -0.6440 0.2723 0 1
6.8356 -5.8596 -0.6246 0.2808 0 1
6.6543 -5.2559 -0.5882 0.3145 0 25
6.6962 -4.8655 -0.5742 0.3221 0 25
6.2938 -4.1978 -0.5248 0.3294 14 6
6.5426 -3.9938 -0.5317 0.5251 14 6
6.7989 -3.7843 -0.5398 0.3427 0 25
6.8264 -3.4482 -0.5305 0.3487 0 25
6.8510 -3.1221 -0.5223 0.3542 0 25
6.8729 -2.8046 -0.5149 0.3592 0 25
6.8940 -2.4953 -0.5086 0.3614 0 2
7.1366 -2.2634 -0.5194 0.3668 0 1
7.1626 -1.9590 -0.5151 0.3719 0 1
7.1879 -1.6589 -0.5117 0.3744 0 1
4.0616 -0.7671 -0.2867 0.3006 25 14
3.9085 -0.5767 -0.2741 0.9729 25 14
3.9001 -0.4163 -0.2721 0.9800 25 14
3.8916 -0.2580 -0.2706 0.9855 25 14
3.8820 -0.1011 -0.2694 0.9825 25 14
3.8720 0.0547 -0.2686 0.9853 25 14
3.8889 0.2113 -0.2702 0.9870 25 14
3.8977 0.3691 -0.2716 0.9818 25 14
3.9065 0.5289 -0.2735 0.9751 25 14
3.9393 0.6954 -0.2775 0.3107 25 14
7.3667 1.6079 -0.5231 0.3731 0 1
7.3757 1.9230 -0.5288 0.3691 0 1
7.3825 2.2449 -0.5353 0.3647 0 1
7.3872 2.5746 -0.5427 0.3597 0 1
7.3898 2.9132 -0.5510 0.3543 0 1
7.3902 3.2619 -0.5604 0.3484 0 1
7.3883 3.6222 -0.5708 0.3420 0 1
7.3784 3.9924 -0.5820 0.3321 0 1
7.3477 4.3659 -0.5929 0.3388 0 1
7.3006 4.7445 -0.6040 0.3326 0 1
7.2492 5.1364 -0.6163 0.3259 0 1
7.1932 5.5436 -0.6300 0.3189 0 1
7.1381 5.9728 -0.6457 0.3109 0 1
7.0575 6.4042 -0.6611 0.3438 0 1
6.9399 6.8252 -0.6752 0.3366 0 1
6.8154 7.2635 -0.6909 0.3232 0 1
6.6996 7.7408 -0.7102 0.3144 0 1
6.6467 8.3335 -0.7395 0.2787 0 2
6.3701 8.6799 -0.7469 0.9722 0 2
6.1191 9.0809 -0.7596 0.2428 0 2
6.0147 9.7488 -0.7946 0.2321 0 2
5.8971 10.4775 -0.8340 0.2211 0 2
5.7642 11.2778 -0.8786 0.2099 0 2
5.6130 12.1637 -0.9293 0.1985 0 2
5.4399 13.1522 -0.9873 0.1868 0 2
5.2402 14.2657 -1.0543 0.1750 0 2
5.0079 15.5333 -1.1322 0.1629 0 2
4.7346 16.9938 -1.2238 0.1507 0 2
4.4094 18.7002 -1.3328 0.1384 0 2
4.0164 20.7265 -1.4645 0.1259 0 2
2.3764 15.5915 -1.0941 0.6226 0 9
2.1100 18.9139 -1.3202 0.1311 0 20
1.5949 22.4435 -1.5608 0.8684 0 6
1.1408 37.0424 -2.5708 0.0731 0 1
-0.4133 44.1121 -3.0602 0.0726 0 1
-34.6907 -33.3305 -3.8733 0.9502 0 20
-32.7342 -34.0815 -3.8047 0.9053 0 20
-18.9743 -27.4618 -2.6875 0.8276 0 22
-1.8482 -43.5168 -3.5069 0.0610 0 1
-0.0837 -36.5408 -2.9420 0.0760 0 1
1.2052 -31.8141 -2.5633 0.0882 0 2
2.0544 -26.2791 -2.1223 0.1008 0 2
2.7609 -23.2543 -1.8854 0.1134 0 2
3.3231 -20.8130 -1.6970 0.1260 0 2
3.7805 -18.7959 -1.5436 0.1386 0 2
4.3471 -17.8691 -1.4807 0.8920 0 2
4.6467 -16.2332 -1.3595 0.1437 0 1
4.8800 -14.7780 -1.2530 0.1494 0 1
5.1080 -13.6075 -1.1702 0.1902 0 1
5.3257 -12.6224 -1.1030 0.2018 0 1
5.5175 -11.7376 -1.0442 0.2143 0 1
5.6881 -10.9372 -0.9926 0.2242 0 1
5.8402 -10.2067 -0.9468 0.2350 0 1
5.9677 -9.5211 -0.9047 0.2381 0 1
6.0871 -8.8968 -0.8679 0.2632 0 1
6.1951 -8.3174 -0.8350 0.2736 0 1
6.2927 -7.7761 -0.8054 0.2836 0 1
6.3911 -7.2795 -0.7799 0.3032 0 1
6.4710 -6.7994 -0.7557 0.2691 0 1
6.5212 -6.3232 -0.7313 0.2781 0 1
6.5655 -5.8736 -0.7093 0.2867 0 1
6.4140 -5.2902 -0.6694 0.3213 0 2
6.4606 -4.9065 -0.6532 0.3284 0 25
6.2971 -4.3952 -0.6183 0.7456 14 6
6.2982 -4.0300 -0.6020 0.8812 14 6
6.5787 -3.8463 -0.6136 0.3496 0 25
6.6106 -3.5167 -0.6029 0.3558 0 25
6.6392 -3.1968 -0.5933 0.3616 0 25
6.6647 -2.8855 -0.5847 0.3668 0 25
6.6889 -2.5824 -0.5773 0.3694 0 2
6.9050 -2.3519 -0.5873 0.6504 0 2
6.9503 -2.0599 -0.5837 0.3807 0 1
6.9776 -1.7666 -0.5795 0.3834 0 1
4.2338 -0.8927 -0.3484 0.3223 25 14
3.9045 -0.6608 -0.3188 0.9699 25 14
3.8961 -0.4995 -0.3163 0.9778 25 14
3.8878 -0.3405 -0.3142 0.9841 25 14
3.8794 -0.1832 -0.3127 0.9889 25 14
3.8664 -0.0272 -0.3113 0.9860 25 14
3.8761 0.1284 -0.3123 0.9903 25 14
3.8849 0.2852 -0.3136 0.9860 25 14
3.8937 0.4435 -0.3155 0.9801 25 14
3.9024 0.6041 -0.3179 0.9726 25 14
4.0891 0.8023 -0.3355 0.2980 25 14
7.1680 1.7078 -0.5933 0.3814 0 1
7.1736 2.0166 -0.6000 0.3772 0 1
7.1766 2.3321 -0.6076 0.3726 0 1
7.1772 2.6554 -0.6161 0.3674 0 1
7.1754 2.9874 -0.6258 0.3618 0 1
7.1711 3.3294 -0.6366 0.3556 0 1
7.1618 3.6815 -0.6483 0.3457 0 1
7.1403 4.0407 -0.6606 0.3393 0 1
7.1026 4.4049 -0.6729 0.3462 0 1
7.0508 4.7751 -0.6856 0.3398 0 1
6.9944 5.1582 -0.6997 0.3329 0 1
6.9339 5.5569 -0.7154 0.3254 0 1
6.8759 5.9791 -0.7336 0.3173 0 1
6.7933 6.4040 -0.7517 0.3507 0 1
6.6714 6.8152 -0.7679 0.3433 0 1
6.5468 7.2484 -0.7864 0.3293 0 1
6.4248 7.7147 -0.8083 0.3203 0 1
6.3528 8.2830 -0.8405 0.2847 0 2
6.1726 8.7547 -0.8625 0.9764 0 2
5.8135 8.9913 -0.8621 0.2481 0 2
5.6963 9.6377 -0.9014 0.2373 0 2
5.5646 10.3415 -0.9455 0.2262 0 2
5.4160 11.1126 -0.9953 0.2149 0 2
5.2475 11.9639 -1.0518 0.2034 0 2
5.0550 12.9109 -1.1163 0.1916 0 2
4.8338 13.9740 -1.1905 0.1797 0 2
4.5773 15.1794 -1.2765 0.1676 0 2
4.2769 16.5618 -1.3772 0.1553 0 2
3.9212 18.1682 -1.4965 0.1429 0 2
3.4939 20.0637 -1.6397 0.1304 0 2
2.3783 17.8780 -1.4521 0.1411 0 20
2.2910 24.8043 -2.0056 0.9131 0 9
1.4381 27.6607 -2.2301 0.0305 0 20
0.4114 34.8878 -2.8091 0.0794 0 1
-1.1727 41.3337 -3.3293 0.0702 0 1
-30.3842 38.2850 -3.9353 0.6077 0 3
-30.2758 35.1526 -3.7353 0.5085 0 3
-30.4587 32.6194 -3.5933 0.6656 0 3
-30.4886 30.1302 -3.4512 0.6930 0 3
-30.5146 27.8251 -3.3249 0.7193 0 3
-30.5371 25.6780 -3.2124 0.7445 0 3
-29.5930 22.9208 -3.0137 0.9810 0 3
-30.5706 21.7723 -3.0218 0.7914 0 3
-30.5848 19.9819 -2.9415 0.8130 0 3
-30.5968 18.2806 -2.8697 0.8334 0 3
-31.5222 17.1552 -2.8895 0.2022 0 3
-35.6382 17.5791 -3.1995 0.8549 0 3
-35.9055 15.9523 -3.1634 0.5757 0 3
-42.0190 16.6824 -3.6400 0.2184 0 3
-35.5378 -32.8691 -3.8975 0.9443 0 20
-33.6799 -33.7584 -3.8394 0.8971 0 20
-33.1277 -35.9850 -3.9381 0.3802 0 20
-3.0012 -48.7832 -3.9352 0.0477 0 1
-0.8399 -39.4483 -3.1769 0.0728 0 1
0.6365 -33.7329 -2.7164 0.0822 0 1
1.5516 -26.2587 -2.1179 0.6237 0 20
2.4478 -24.6000 -1.9904 0.1075 0 2
3.0722 -21.9070 -1.7811 0.1201 0 2
3.5753 -19.7051 -1.6124 0.1327 0 2
4.0455 -18.1218 -1.4950 0.8834 0 2
4.5791 -17.2275 -1.4352 0.1730 0 2
4.7810 -15.4585 -1.3028 0.1437 0 1
4.9649 -14.0308 -1.1983 0.1764 0 24
5.2263 -13.0750 -1.1337 0.1963 0 1
5.4294 -12.1443 -1.0711 0.2078 0 1
5.6096 -11.3061 -1.0162 0.2190 0 1
5.7704 -10.5445 -0.9678 0.2299 0 1
5.9123 -9.8435 -0.9245 0.2395 0 1
6.0319 -9.1859 -0.8848 0.2582 0 1
6.1454 -8.5864 -0.8501 0.2687 0 1
6.2477 -8.0278 -0.8190 0.2789 0 1
6.3431 -7.5079 -0.7913 0.2988 0 1
6.4422 -7.0320 -0.7678 0.3080 0 1
6.4982 -6.5450 -0.7426 0.2739 0 1
6.5452 -6.0832 -0.7194 0.2827 0 1
6.5845 -5.6444 -0.6983 0.2846 0 1
6.4385 -5.0854 -0.6606 0.3247 0 25
6.4840 -4.7114 -0.6453 0.3324 0 25
6.2926 -4.1969 -0.6090 0.7570 14 6
6.5429 -3.9940 -0.6172 0.5246 14 6
6.5960 -3.6713 -0.6078 0.3529 0 25
6.6261 -3.3471 -0.5977 0.3589 0 25
6.6530 -3.0318 -0.5887 0.3644 0 25
6.6770 -2.7246 -0.5806 0.3694 0 25
6.7140 -2.4301 -0.5749 0.7293 0 2
6.9373 -2.2002 -0.5860 0.3779 0 1
6.9650 -1.9049 -0.5814 0.3822 0 1
6.9909 -1.6134 -0.5777 0.3846 0 1
3.9988 -0.7552 -0.3276 0.3051 25 14
3.9001 -0.5755 -0.3174 0.9742 25 14
3.8917 -0.4155 -0.3151 0.9813 25 14
3.8834 -0.2574 -0.3134 0.9868 25 14
3.8750 -0.1009 -0.3121 0.9908 25 14
3.8688 0.0546 -0.3115 0.9853 25 14
3.8808 0.2108 -0.3129 0.9882 25 14
3.8895 0.3684 -0.3146 0.9830 25 14
3.8983 0.5278 -0.3167 0.9763 25 14
3.9071 0.6897 -0.3194 0.9680 25 14
7.1646 1.5638 -0.5904 0.3833 0 1
7.1712 1.8697 -0.5967 0.3793 0 1
7.1755 2.1820 -0.6038 0.3749 0 1
7.1772 2.5014 -0.6120 0.3700 0 1
7.1766 2.8291 -0.6211 0.3645 0 1
7.1735 3.1663 -0.6313 0.3586 0 1
7.1678 3.5140 -0.6427 0.3522 0 1
7.1509 3.8693 -0.6546 0.3423 0 1
7.1256 4.2339 -0.6673 0.3491 0 1
7.0759 4.5984 -0.6794 0.3429 0 1
7.0217 4.9752 -0.6929 0.3362 0 1
6.9626 5.3658 -0.7077 0.3291 0 1
6.9040 5.7770 -0.7248 0.3212 0 1
6.8430 6.2095 -0.7440 0.3129 0 1
6.7300 6.6187 -0.7600 0.3468 0 1
6.6041 7.0383 -0.7771 0.3392 0 1
6.4837 7.4912 -0.7977 0.3246 0 1
6.3567 7.9699 -0.8208 0.3155 0 1
6.2923 8.5738 -0.8563 0.2795 0 2
5.9596 8.8441 -0.8587 0.9807 0 2
5.7534 9.3253 -0.8822 0.2425 0 2
5.6288 10.0008 -0.9240 0.2315 0 2
5.4886 10.7386 -0.9710 0.2203 0 2
5.3299 11.5503 -1.0242 0.2088 0 2
5.1493 12.4497 -1.0847 0.1972 0 2
4.9424 13.4550 -1.1541 0.1853 0 2
4.7035 14.5894 -1.2342 0.1733 0 2
4.4252 15.8830 -1.3275 0.1611 0 2
4.0973 17.3767 -1.4374 0.1488 0 2
3.7062 19.1258 -1.5685 0.1364 0 2
2.0544 13.4792 -1.0978 0.2599 0 20
2.6483 23.7392 -1.9232 0.1112 0 2
1.6488 23.2026 -1.8728 0.9940 0 20
0.9983 32.4134 -2.6110 0.0824 0 1
-0.3565 38.0571 -3.0643 0.0706 0 1
-2.2520 45.4383 -3.6629 0.0677 0 1
-34.7078 -33.3469 -4.4126 0.8885 0 20
-32.6234 -33.9661 -4.3176 0.5542 0 20
-20.6730 -27.4911 -3.1534 0.7997 0 22
-18.9674 -27.4517 -3.0590 0.8244 0 22
-3.7276 -45.0249 -4.1419 0.0584 0 1
-1.5860 -37.3423 -3.4265 0.0723 0 1
-0.0734 -32.0497 -2.9382 0.0865 0 1
1.0771 -28.4321 -2.6085 0.0986 0 2
1.8597 -23.7888 -2.1876 0.1112 0 2
2.5260 -21.2756 -1.9642 0.1239 0 2
3.0665 -19.2055 -1.7830 0.1365 0 2
3.7042 -18.4166 -1.7222 0.1629 0 2
4.0295 -16.5635 -1.5628 0.1281 0 1
