ply
format ascii 1.0
element vertex 1402
property float32 x
property float32 y
property float32 z
property float32 CosAngle
property uint32 ObjIdx
property uint32 ObjTag
end_header
15.6531 -2.2578 2.4286 0.1670 0 2
16.1749 -1.6734 2.4971 0.1644 0 24
16.2566 -1.0242 2.5013 0.1683 0 1
16.2847 -0.3706 2.5013 0.1692 0 1
16.3915 0.2854 2.5175 0.1682 0 1
16.5772 0.9555 2.5498 0.1657 0 1
16.7920 1.6466 2.5910 0.1623 0 1
17.0266 2.3632 2.6397 0.1619 0 1
17.2740 3.1090 2.6952 0.1585 0 1
17.5540 3.8931 2.7611 0.1568 0 1
17.7271 4.6856 2.8157 0.1651 0 1
17.8189 5.4842 2.8629 0.1641 0 1
17.8934 6.3043 2.9133 0.1841 0 1
17.7046 7.0490 2.9263 0.1809 0 1
12.8761 5.7358 2.1646 0.3893 0 14
11.7736 5.8221 2.0169 0.4578 0 14
10.8073 5.8957 1.8905 0.5337 0 14
10.6392 6.3713 1.9043 0.4579 0 14
10.6585 6.9792 1.9564 0.3536 0 14
19.1772 13.6881 3.6181 0.1118 0 2
18.9975 14.7463 3.6930 0.6007 0 3
17.2934 14.5731 3.4728 0.6318 0 3
16.1047 14.7170 3.3501 0.6563 0 0
14.8421 14.6995 3.2078 0.6854 0 0
13.6807 14.6835 3.0818 0.7135 0 0
12.4959 14.5413 2.9442 0.7452 0 3
11.6417 14.7026 2.8798 0.7707 0 3
10.7055 14.6965 2.7921 0.7949 0 3
9.8233 14.6907 2.7138 0.8178 0 3
8.9880 14.6852 2.6439 0.8394 0 3
8.1933 14.6800 2.5816 0.8597 0 3
7.4593 14.7250 2.5348 0.4777 0 3
7.3845 16.1556 2.7277 0.4439 0 3
7.2957 17.8216 2.9571 0.4094 0 3
7.0479 19.4043 3.1702 0.3744 0 3
7.6753 24.1076 3.8851 0.9396 0 3
6.2603 22.7916 3.6295 0.9511 0 3
3.3133 14.2858 2.2520 0.9747 0 9
2.6331 13.8608 2.1665 0.6670 0 9
2.1822 14.6803 2.2791 0.1670 0 9
1.7712 16.4286 2.5374 0.1655 0 9
0.9828 14.5954 2.2464 0.8531 0 9
0.3948 14.5839 2.2403 0.8017 0 9
-0.1972 15.0500 2.3113 0.0467 0 9
-0.8357 15.6749 2.4105 0.2761 0 9
-1.5130 16.1458 2.4902 0.5930 0 9
2.2755 -18.1122 2.8032 0.6189 0 22
4.1144 -24.6872 3.8433 0.8745 0 6
4.0691 -19.5402 3.0650 0.5491 0 22
7.3732 -29.4306 4.6590 0.2695 0 3
7.5321 -25.6480 4.1048 0.3059 0 3
9.7562 -28.8777 4.6807 0.0361 0 3
7.0538 -18.4057 3.0268 0.0113 0 9
7.8257 -18.1973 3.0418 0.8581 0 9
9.6526 -20.1723 3.4340 0.9367 0 9
9.7423 -18.4212 3.2000 0.7325 0 9
10.2750 -17.6726 3.1392 0.9623 0 9
10.0843 -15.8440 2.8840 0.3543 0 9
20.5522 -29.5962 5.5331 0.8158 0 3
22.3568 -29.5843 5.6943 0.7927 0 3
23.4615 -28.5833 5.6785 0.7683 0 3
24.0191 -26.9764 5.5466 0.7429 0 3
24.6329 -25.5238 5.4471 0.0743 0 2
22.8938 -21.8902 4.8640 0.0832 0 2
21.3034 -18.7914 4.3622 0.3951 0 9
20.4687 -16.6425 4.0510 0.0999 0 2
20.4883 -15.3340 3.9298 0.1291 0 1
20.1196 -13.8334 3.7494 0.1275 0 1
19.7107 -12.4170 3.5773 0.1345 0 1
19.2075 -11.0484 3.4027 0.1271 0 1
18.6794 -9.7681 3.2369 0.1269 0 1
8.5356 -4.0357 1.4498 0.9645 0 9
17.5428 -7.4479 2.9266 0.1359 0 1
17.1851 -6.4946 2.8211 0.1410 0 1
16.2566 -5.4082 2.6309 0.1542 0 25
16.0706 -4.6385 2.5685 0.1579 0 25
15.9159 -3.9089 2.5167 0.1612 0 25
15.7894 -3.2116 2.4743 0.1640 0 25
15.6888 -2.5399 2.4405 0.1662 0 25
16.2626 -1.9664 2.5155 0.1660 0 1
16.2517 -1.3056 2.5037 0.1681 0 1
16.2696 -0.6511 2.5004 0.1683 0 1
16.3208 0.0027 2.5062 0.1689 0 1
16.4941 0.6656 2.5349 0.1667 0 1
16.6959 1.3469 2.5722 0.1643 0 1
16.9284 2.0526 2.6186 0.1625 0 1
17.1634 2.7845 2.6701 0.1600 0 1
17.4316 3.5517 2.7318 0.1564 0 1
17.6954 4.3522 2.7983 0.1661 0 1
17.7771 5.1375 2.8416 0.1636 0 1
17.8804 5.9551 2.8940 0.1623 0 1
17.7831 6.7274 2.9196 0.1837 0 1
13.5270 5.7483 2.2570 0.4316 0 14
12.2327 5.7888 2.0782 0.3556 0 14
11.1697 5.8458 1.9359 0.4609 0 14
10.6861 6.1515 1.8934 0.5017 0 14
7.3184 18.7951 2.8689 0.3916 0 3
8.2896 24.1109 3.6265 0.9339 0 3
7.2188 24.1040 3.5789 0.9463 0 3
3.3712 13.1579 1.9320 0.0455 0 9
2.9866 13.9678 2.0316 0.8718 0 9
2.2755 13.2177 1.9077 0.1070 0 9
2.2263 16.9869 2.4368 0.1123 0 9
1.4884 16.4652 2.3515 0.8743 0 9
1.1315 22.6183 3.2212 0.1800 0 9
0.2265 23.0693 3.2814 0.4368 0 9
-0.4743 15.6256 2.2235 0.2313 0 9
-1.0691 15.1363 2.1583 0.6957 0 9
-2.3737 15.6166 2.2468 0.3839 0 9
3.9611 -38.6785 5.5303 0.4806 0 6
2.6227 -18.3161 2.6318 0.6441 0 22
3.5088 -19.0241 2.7516 0.6426 0 22
7.0523 -31.1629 4.5446 0.9673 0 3
7.5316 -28.0051 4.1249 0.2821 0 3
9.2553 -29.6166 4.4135 0.9471 0 3
10.5967 -29.6679 4.4810 0.9348 0 3
7.3345 -18.1930 2.7901 0.0784 0 9
12.4891 -27.7140 4.3237 0.4243 0 3
9.8244 -19.6534 3.1252 0.3354 0 9
15.7816 -28.6345 4.6505 0.8704 0 3
17.3099 -28.6245 4.7580 0.8507 0 3
19.5672 -29.6035 5.0474 0.8297 0 3
21.3150 -29.5921 5.1873 0.8073 0 3
22.3337 -28.5176 5.1521 0.0605 0 3
22.9292 -26.9725 5.0354 0.0700 0 3
22.4192 -24.3217 4.7049 0.0798 0 2
20.9794 -21.0011 4.2222 0.0889 0 2
19.8495 -18.3347 3.8434 0.0977 0 2
18.9427 -16.1368 3.5394 0.1060 0 2
19.1141 -15.0011 3.4560 0.1362 0 1
5.9357 -4.2848 1.0413 0.6725 14 6
18.4209 -12.2031 3.1429 0.1386 0 1
17.9336 -10.8701 2.9828 0.1280 0 1
17.4588 -9.6458 2.8371 0.1241 0 1
16.9100 -8.4748 2.6904 0.1309 0 1
8.6583 -3.9125 1.3514 0.8828 0 9
16.1263 -6.5207 2.4742 0.1460 0 1
15.3082 -5.4855 2.3130 0.1629 0 2
15.1418 -4.7490 2.2571 0.1668 0 25
15.0018 -4.0511 2.2102 0.1703 0 25
14.8858 -3.3848 2.1714 0.1733 0 25
14.7918 -2.7439 2.1398 0.1759 0 25
14.9987 -2.1634 2.1554 0.1805 0 2
15.2839 -1.5812 2.1855 0.1787 0 1
15.2935 -0.9636 2.1796 0.1802 0 1
15.3233 -0.3487 2.1801 0.1801 0 1
15.4191 0.2685 2.1935 0.1791 0 1
15.5803 0.8981 2.2198 0.1770 0 1
15.7664 1.5460 2.2533 0.1740 0 1
15.9745 2.2171 2.2939 0.1720 0 1
16.1842 2.9129 2.3390 0.1677 0 1
16.4282 3.6434 2.3935 0.1638 0 1
16.6556 4.4024 2.4504 0.1741 0 1
16.7275 5.1483 2.4894 0.1714 0 1
16.8225 5.9270 2.5369 0.1700 0 1
16.7399 6.6649 2.5628 0.1941 0 1
12.8878 5.7410 2.0068 0.5228 0 14
11.5873 5.7300 1.8386 0.3655 0 14
10.6891 5.8313 1.7319 0.5727 0 14
10.4523 6.2593 1.7329 0.5154 0 14
10.4223 6.8245 1.7720 0.4285 0 14
17.5148 12.5015 3.0607 0.1226 0 2
18.1137 14.0602 3.2615 0.1151 0 2
17.2927 14.5725 3.2165 0.6328 0 3
10.0299 9.1656 1.9326 0.6439 0 20
14.8410 14.6985 2.9710 0.6866 0 0
13.6798 14.6825 2.8544 0.7147 0 0
12.4934 14.5383 2.7265 0.7464 0 3
11.6413 14.7022 2.6674 0.7719 0 3
10.7052 14.6960 2.5861 0.7962 0 3
6.0942 9.1137 1.5594 0.6918 22 6
8.9877 14.6848 2.4489 0.8408 0 3
8.1931 14.6796 2.3912 0.8611 0 3
7.5153 14.8355 2.3654 0.4749 0 3
7.4441 16.2862 2.5470 0.4410 0 3
7.3597 17.9778 2.7631 0.4065 0 3
7.1155 19.5905 2.9646 0.3715 0 3
7.6751 24.1070 3.5985 0.9411 0 3
3.6925 13.4432 1.9829 0.0706 0 9
5.1476 22.1948 3.2407 0.8277 0 3
2.8345 14.9207 2.1602 0.0101 0 9
1.9959 13.4272 1.9308 0.3200 0 9
1.6781 15.5654 2.2268 0.5684 0 9
1.0580 15.7135 2.2401 0.8921 0 9
-0.1990 15.1872 2.1604 0.1755 0 9
-0.9065 17.0024 2.4218 0.6763 0 9
-1.4082 15.0284 2.1469 0.4360 0 9
2.2662 -18.0383 2.5859 0.6225 0 22
4.1323 -24.7949 3.5754 0.6194 0 6
4.0480 -19.4390 2.8242 0.4833 0 22
7.4718 -29.8243 4.3732 0.2664 0 3
8.3107 -28.2990 4.1951 0.0448 0 3
10.0245 -29.6716 4.4547 0.9403 0 3
7.5259 -19.6377 2.9913 0.6279 0 9
8.5067 -19.7808 3.0627 0.2826 0 9
9.9613 -20.8174 3.2825 0.3669 0 9
9.7420 -18.4205 2.9639 0.9989 0 9
16.6451 -28.6288 4.7103 0.8593 0 3
18.0638 -28.3812 4.7851 0.8332 0 3
20.5528 -29.5971 5.1253 0.8171 0 3
22.3555 -29.5826 5.2741 0.2580 0 3
22.4507 -27.3517 5.0331 0.0637 0 3
22.7310 -25.5297 4.8620 0.6043 0 6
21.5531 -22.3326 4.4146 0.0850 0 2
20.3031 -19.4131 3.9955 0.0939 0 2
19.3089 -17.0320 3.6622 0.1025 0 2
19.5266 -15.8765 3.5796 0.1213 0 2
18.9290 -14.1670 3.3629 0.1365 0 1
18.5642 -12.7640 3.2044 0.1360 0 1
18.1594 -11.4398 3.0527 0.1251 0 1
17.6592 -10.1578 2.8977 0.1315 0 1
17.1350 -8.9605 2.7503 0.1280 0 1
8.5616 -4.0480 1.3470 0.9760 0 9
16.2588 -6.9028 2.5124 0.1438 0 1
15.9778 -6.0384 2.4295 0.1532 0 1
15.2098 -5.0600 2.2800 0.1651 0 25
15.0588 -4.3465 2.2293 0.1688 0 25
14.9328 -3.6675 2.1871 0.1721 0 25
14.8296 -3.0164 2.1525 0.1749 0 25
14.7473 -2.3875 2.1249 0.1771 0 25
15.2863 -1.8484 2.1901 0.1783 0 1
15.2863 -1.2281 2.1813 0.1800 0 1
15.3083 -0.6127 2.1791 0.1802 0 1
15.3566 0.0026 2.1843 0.1798 0 1
15.5083 0.6258 2.2076 0.1779 0 1
15.6833 1.2652 2.2380 0.1752 0 1
15.8157 1.9177 2.2661 0.1710 0 24
16.0899 2.6103 2.3185 0.1702 0 1
16.3195 3.3251 2.3689 0.1655 0 1
16.5827 4.0785 2.4289 0.1614 0 1
16.6938 4.8244 2.4716 0.1726 0 1
16.7789 5.5882 2.5154 0.1715 0 1
16.8163 6.3616 2.5573 0.1946 0 1
13.5743 5.7684 2.0979 0.7315 0 14
12.1126 5.7319 1.9060 0.3992 0 14
11.0942 5.8063 1.7811 0.4709 0 14
10.5196 6.0557 1.7265 0.5735 0 14
7.3854 18.9672 2.6654 0.3886 0 3
8.2894 24.1103 3.3386 0.9353 0 3
7.2186 24.1034 3.2948 0.9477 0 3
6.9901 27.2824 3.6880 0.2811 0 3
2.7423 12.8251 1.7174 0.3687 0 9
2.7375 15.9015 2.1129 0.5317 0 9
2.2247 16.9742 2.2417 0.1626 0 9
2.4461 27.0593 3.5578 0.3202 0 9
0.8242 16.4741 2.1600 0.6427 0 9
0.1621 16.5065 2.1616 0.3178 0 9
-0.4419 14.5570 1.9071 0.2025 0 9
-1.1075 15.6798 2.0584 0.3098 0 9
3.9664 -38.7296 5.0981 0.8096 0 6
2.6135 -18.2523 2.4145 0.7503 0 22
3.4974 -18.9622 2.5249 0.6314 0 22
7.1115 -31.4245 4.2190 0.2423 0 3
7.6369 -28.3965 3.8506 0.2790 0 3
9.2742 -29.6773 4.0715 0.9485 0 3
10.5970 -29.6687 4.1254 0.9361 0 3
7.9649 -19.7567 2.7894 0.0430 0 9
12.5912 -27.9408 4.0131 0.4214 0 3
14.3190 -28.6448 4.1935 0.8900 0 3
15.7821 -28.6353 4.2815 0.8717 0 3
17.3104 -28.6253 4.3805 0.8520 0 3
19.5677 -29.6044 4.6469 0.8309 0 3
21.0001 -29.1549 4.7050 0.0611 0 3
20.6902 -26.4190 4.3942 0.6787 0 3
21.1245 -24.8496 4.2709 0.0810 0 2
19.7904 -21.4698 3.8236 0.0905 0 2
18.7449 -18.7643 3.4731 0.0996 0 2
17.9065 -16.5399 3.1920 0.1084 0 2
18.0029 -15.3362 3.0969 0.1357 0 1
17.6964 -13.8885 2.9458 0.1363 0 1
5.9665 -4.3070 0.9636 0.6700 14 6
16.9960 -11.2591 2.6696 0.1318 0 1
16.5434 -10.0275 2.5332 0.1308 0 1
16.0665 -8.8765 2.4036 0.1320 0 1
15.6152 -7.8259 2.2872 0.1387 0 1
8.6925 -3.9280 1.2491 0.8741 0 9
15.0624 -6.0905 2.1275 0.1613 0 1
14.3724 -5.1502 1.9992 0.1736 0 25
14.2371 -4.4652 1.9539 0.1776 0 25
14.1230 -3.8138 1.9156 0.1812 0 25
14.0283 -3.1899 1.8839 0.1842 0 25
13.9513 -2.5880 1.8581 0.1868 0 25
14.4432 -2.0833 1.9109 0.1893 0 1
14.4315 -1.4930 1.8999 0.1918 0 1
14.4443 -0.9100 1.8952 0.1923 0 1
14.4720 -0.3294 1.8956 0.1922 0 1
14.5581 0.2535 1.9066 0.1900 0 1
14.7005 0.8474 1.9282 0.1878 0 1
14.8623 1.4574 1.9555 0.1852 0 1
15.0463 2.0883 1.9892 0.1817 0 1
15.2264 2.7405 2.0259 0.1796 0 1
15.4301 3.4220 2.0696 0.1747 0 1
15.6661 4.1409 2.1219 0.1704 0 1
15.7502 4.8475 2.1579 0.1801 0 1
15.8257 5.5757 2.1972 0.1790 0 1
15.8640 6.3162 2.2360 0.2020 0 1
12.8970 5.7452 1.8488 0.5232 0 14
11.5476 5.7103 1.6869 0.3921 0 14
10.5806 5.7721 1.5783 0.3155 0 14
10.2795 6.1559 1.5690 0.4751 0 14
10.2240 6.6947 1.6003 0.3844 0 14
16.1217 11.5071 2.5937 0.1334 0 2
16.5864 12.8747 2.7495 0.1259 0 2
17.1402 14.4440 2.9351 0.1179 0 2
9.9972 9.1358 1.7734 0.8596 0 20
14.8400 14.6974 2.7350 0.6877 0 0
13.6788 14.6815 2.6276 0.7158 0 0
12.4930 14.5379 2.5101 0.7476 0 3
11.6410 14.7017 2.4556 0.7731 0 3
10.6720 14.6505 2.3735 0.6002 0 3
6.0203 9.0033 1.4183 0.9827 0 8
8.9874 14.6844 2.2545 0.8421 0 3
8.1928 14.6792 2.2013 0.8624 0 3
7.5719 14.9473 2.1941 0.4720 0 3
7.5046 16.4184 2.3639 0.4381 0 3
7.4246 18.1363 2.5662 0.4036 0 3
7.1842 19.7796 2.7557 0.3685 0 3
7.6749 24.1063 3.3128 0.9426 0 3
7.0663 25.7262 3.4936 0.2967 0 3
3.0052 12.9577 1.7418 0.6679 0 9
2.9755 15.6632 2.0877 0.7566 0 9
2.1628 14.5498 1.9262 0.8217 0 9
1.6825 15.6053 2.0553 0.8962 0 9
1.5082 22.3988 2.9397 0.6498 0 9
0.4181 15.4426 2.0229 0.2431 0 9
-0.2167 16.5435 2.1665 0.1544 0 9
-0.8214 15.4062 2.0203 0.3976 0 9
-2.5195 26.8876 3.5363 0.7390 0 9
2.2502 -17.9108 2.3638 0.5415 0 22
3.1023 -18.6146 2.4712 0.9863 0 6
4.0365 -19.3835 2.5927 0.5945 0 22
7.5728 -30.2273 4.0805 0.2633 0 3
8.7165 -29.6809 4.0508 0.9534 0 3
10.0045 -29.6125 4.0930 0.9417 0 3
7.5376 -19.6682 2.7582 0.3168 0 9
8.5131 -19.7956 2.8217 0.1831 0 9
9.9260 -20.7437 3.0113 0.5825 0 9
9.7564 -18.4478 2.7327 0.9996 0 9
16.6456 -28.6296 4.3366 0.8606 0 3
18.0636 -28.3808 4.4053 0.8345 0 3
20.5457 -29.5868 4.7169 0.5566 0 3
20.7931 -27.5151 4.5162 0.7651 0 3
21.7654 -26.5168 4.4922 0.7696 0 3
20.3216 -22.8237 4.0017 0.0865 0 2
19.1645 -19.8577 3.6138 0.0958 0 2
18.2450 -17.4452 3.3055 0.1047 0 2
18.2190 -16.0707 3.1813 0.6725 0 2
17.8162 -14.4858 3.0068 0.1408 0 1
17.5084 -13.1038 2.8637 0.1402 0 1
6.0809 -4.1810 0.9663 0.3979 14 6
16.7330 -10.5412 2.5897 0.1280 0 1
16.2796 -9.3642 2.4593 0.1281 0 1
15.8007 -8.2628 2.3349 0.1358 0 1
8.5867 -4.0599 1.2438 0.9396 0 9
15.1593 -6.4360 2.1566 0.1592 0 1
14.4376 -5.4563 2.0211 0.1717 0 25
14.2924 -4.7548 1.9724 0.1759 0 25
14.1695 -4.0898 1.9312 0.1797 0 25
14.0667 -3.4547 1.8967 0.1830 0 25
13.9823 -2.8440 1.8684 0.1857 0 25
13.9149 -2.2527 1.8459 0.1880 0 2
14.4305 -1.7449 1.9034 0.1914 0 1
14.4370 -1.1598 1.8966 0.1921 0 1
14.4582 -0.5786 1.8948 0.1923 0 1
14.5026 0.0024 1.8991 0.1907 0 1
14.6371 0.5907 1.9183 0.1888 0 1
14.7904 1.1932 1.9431 0.1864 0 1
14.9013 1.8069 1.9656 0.1841 0 24
15.1467 2.4573 2.0094 0.1810 0 1
15.3393 3.1254 2.0499 0.1774 0 1
15.5611 3.8273 2.0984 0.1723 0 1
15.7214 4.5434 2.1429 0.1813 0 1
15.7920 5.2596 2.1796 0.1804 0 1
15.8763 6.0060 2.2228 0.1769 0 1
13.6466 5.7991 1.9417 0.1624 0 14
12.1209 5.7358 1.7559 0.4094 0 14
10.8860 5.6973 1.6089 0.4834 0 14
10.3587 5.9630 1.5651 0.4462 0 14
7.4392 19.1054 2.4540 0.9227 0 3
7.5360 21.9191 2.7743 0.4368 0 3
7.2184 24.1028 3.0115 0.9491 0 3
3.4407 13.4291 1.6593 0.8151 0 9
4.0875 23.7428 2.8836 0.0591 0 3
2.1344 16.2853 1.9659 0.4819 0 9
1.4164 15.6683 1.8830 0.5347 0 9
1.1639 23.2655 2.7882 0.3109 0 9
0.1521 15.4913 1.8543 0.7090 0 9
-0.4701 15.4876 1.8546 0.1392 0 9
-1.0778 15.2597 1.8310 0.1237 0 9
3.9676 -38.7417 4.6613 0.8021 0 6
2.6003 -18.1600 2.1958 0.5006 0 22
3.4851 -18.8960 2.2998 0.6345 0 22
7.3796 -32.6091 4.0018 0.9695 0 3
7.7352 -28.7623 3.5649 0.2758 0 3
9.2745 -29.6780 3.7216 0.9498 0 3
10.5782 -29.6163 3.7642 0.9374 0 3
11.9350 -29.6043 3.8205 0.9235 0 3
12.6981 -28.1779 3.6993 0.4185 0 3
14.1142 -28.2351 3.7782 0.6407 0 3
15.7825 -28.6360 3.9136 0.8729 0 3
17.3109 -28.6261 4.0041 0.8532 0 3
19.5553 -29.5856 4.2448 0.8321 0 3
19.4560 -27.0111 3.9844 0.7847 0 3
19.9192 -25.4346 3.8668 0.0819 0 2
18.6844 -21.9792 3.4529 0.0917 0 2
17.7188 -19.2224 3.1291 0.1012 0 2
16.9453 -16.9628 2.8698 0.1104 0 2
17.2169 -15.9029 2.8053 0.1307 0 2
16.6943 -14.2215 2.6249 0.1397 0 1
16.4086 -12.8778 2.4966 0.1433 0 1
6.0147 -4.3418 0.8879 0.3370 14 6
15.6717 -10.3818 2.2500 0.1381 0 1
15.2738 -9.2579 2.1378 0.1349 0 1
14.8654 -8.2129 2.0328 0.1418 0 1
14.5461 -7.2901 1.9475 0.1613 0 1
8.6782 -3.9215 1.1398 0.9519 0 9
13.6755 -5.5297 1.7656 0.1801 0 2
13.5466 -4.8543 1.7224 0.1844 0 25
13.4366 -4.2142 1.6855 0.1885 0 25
13.3437 -3.6034 1.6543 0.1920 0 25
13.2663 -3.0166 1.6284 0.1951 0 25
13.2033 -2.4493 1.6073 0.1976 0 25
13.6785 -1.9730 1.6542 0.2001 0 1
13.6770 -1.4149 1.6458 0.2027 0 1
5.6159 -0.3538 0.6735 0.1765 25 14
5.5209 -0.1256 0.6610 0.1556 25 14
5.4837 0.0955 0.6565 0.1567 25 14
5.6543 0.3259 0.6779 0.1754 25 14
5.8096 0.5697 0.6987 0.1702 25 14
14.2071 1.9718 1.7168 0.1856 0 1
14.3727 2.5869 1.7479 0.1827 0 1
14.5536 3.2276 1.7843 0.1866 0 1
14.7505 3.8988 1.8262 0.1823 0 1
14.8752 4.5782 1.8629 0.1909 0 1
14.9366 5.2625 1.8955 0.1876 0 1
15.0126 5.9772 1.9341 0.1861 0 1
12.9127 5.7521 1.6920 0.3432 0 14
11.5483 5.7107 1.5420 0.3950 0 14
10.4538 5.7029 1.4253 0.5322 0 14
9.8900 5.9226 1.3798 0.3046 0 14
9.7664 6.3950 1.3973 0.7903 0 14
9.7615 6.9674 1.4355 0.4956 0 14
15.3001 11.8762 2.3183 0.1366 0 2
15.7285 13.2544 2.4619 0.1287 0 2
10.0541 9.1877 1.6302 0.7971 0 20
14.8373 14.6948 2.4995 0.1116 0 3
13.6779 14.6805 2.4016 0.7169 0 0
12.4926 14.5374 2.2942 0.7487 0 3
11.6406 14.7013 2.2444 0.7742 0 3
10.6979 14.6861 2.1747 0.7986 0 3
6.0572 9.0584 1.3043 0.5666 0 8
8.9872 14.6839 2.0606 0.8433 0 3
8.1926 14.6788 2.0121 0.8637 0 3
7.6293 15.0605 2.0207 0.4692 0 3
7.5658 16.5524 2.1783 0.4352 0 3
7.4904 18.2971 2.3664 0.4006 0 3
7.7657 21.3806 2.7227 0.8254 0 3
7.6747 24.1057 3.0280 0.9439 0 3
3.9661 14.4394 1.7923 0.1455 0 9
2.1423 14.4122 1.7440 0.1472 0 9
1.1616 17.2514 2.0695 0.3022 0 9
0.3967 14.6547 1.7547 0.2453 0 9
-0.2153 16.4350 1.9673 0.3142 0 9
-0.8051 15.0998 1.8099 0.9209 0 9
0.1741 -38.8793 4.6536 0.9627 0 6
2.2431 -17.8547 2.1539 0.7511 0 22
7.2648 -43.5905 5.2894 0.1859 0 3
4.0264 -19.3349 2.3639 0.5956 0 22
7.6762 -30.6402 3.7807 0.2601 0 3
8.7167 -29.6816 3.7027 0.9547 0 3
10.0250 -29.6732 3.7489 0.9429 0 3
11.3470 -29.6081 3.7952 0.9297 0 3
12.6646 -29.4490 3.8369 0.4036 0 3
13.2708 -27.7336 3.6800 0.6555 0 3
9.7889 -18.5093 2.5062 0.7564 0 9
16.6460 -28.6304 3.9640 0.8618 0 3
18.1163 -28.4637 4.0384 0.5377 0 3
19.1080 -27.5165 4.0097 0.7888 0 3
20.0376 -26.5154 3.9780 0.7640 0 3
19.1758 -23.3619 3.6176 0.0876 0 2
18.1061 -20.3354 3.2590 0.0972 0 2
17.2575 -17.8817 2.9745 0.1065 0 2
16.8347 -16.0967 2.7879 0.7024 0 2
16.8177 -14.8346 2.6842 0.1367 0 1
16.5282 -13.4386 2.5497 0.1403 0 1
16.2544 -12.1652 2.4301 0.1402 0 1
6.0780 -4.1790 0.8829 0.7151 14 6
15.3993 -9.7010 2.1784 0.1326 0 24
15.0333 -8.6474 2.0758 0.1389 0 1
14.6563 -7.6643 1.9796 0.1467 0 1
8.6129 -4.0723 1.1403 0.8943 0 9
14.2157 -6.0354 1.8485 0.1715 0 1
13.5995 -5.1396 1.7401 0.1825 0 25
13.4816 -4.4851 1.7006 0.1868 0 25
13.3816 -3.8624 1.6671 0.1905 0 25
13.2977 -3.2659 1.6389 0.1938 0 25
13.2287 -2.6907 1.6158 0.1966 0 25
13.4528 -2.1779 1.6312 0.2013 0 2
13.6175 -1.6466 1.6418 0.2017 0 24
5.6540 -0.4542 0.6789 0.1751 25 14
5.5679 -0.2228 0.6670 0.1783 25 14
5.4539 0.0009 0.6528 0.1575 25 14
5.5922 0.2257 0.6699 0.1775 25 14
5.7410 0.4631 0.6894 0.1725 25 14
14.1333 1.7137 1.7040 0.1870 0 1
14.3010 2.3201 1.7341 0.1842 0 1
14.4740 2.9491 1.7680 0.1807 0 1
14.6631 3.6064 1.8074 0.1842 0 1
14.8538 4.2927 1.8506 0.1922 0 1
14.9082 4.9652 1.8808 0.1891 0 1
14.9792 5.6667 1.9169 0.1855 0 1
13.6824 5.8144 1.7794 0.3696 0 14
12.1300 5.7402 1.6062 0.3961 0 14
10.8685 5.6882 1.4683 0.4299 0 14
10.0389 5.7790 1.3865 0.4035 0 14
7.4390 19.1049 2.2238 0.9239 0 3
8.2890 24.1091 2.7653 0.9378 0 3
7.2182 24.1022 2.7290 0.9503 0 3
7.1709 27.9879 3.1338 0.2747 0 3
2.3535 13.6707 1.5046 0.3731 0 9
2.1234 16.2015 1.7724 0.8546 0 9
1.2860 14.2261 1.5493 0.1994 0 9
0.7932 15.8549 1.7219 0.6897 0 9
0.1620 16.5010 1.7899 0.4945 0 9
-0.4680 15.4155 1.6728 0.5437 0 9
-1.7752 25.1342 2.7330 0.7616 0 9
2.5893 -18.0829 1.9814 0.6477 0 22
3.4700 -18.8137 2.0751 0.7115 0 22
8.5089 -37.5996 4.1814 0.9712 0 3
7.8361 -29.1373 3.2727 0.4550 0 3
9.2747 -29.6787 3.3727 0.9510 0 3
10.5690 -29.5904 3.4082 0.9386 0 3
11.9353 -29.6051 3.4623 0.9246 0 3
12.8065 -28.4186 3.3810 0.4154 0 3
13.9994 -28.0055 3.3960 0.6041 0 3
15.7829 -28.6368 3.5467 0.8740 0 3
17.3113 -28.6269 3.6287 0.8542 0 3
18.0230 -27.2672 3.5453 0.0812 0 3
18.7824 -26.0760 3.4857 0.0825 0 2
17.6430 -22.5282 3.1037 0.0926 0 2
16.7543 -19.7087 2.8058 0.1024 0 2
16.0438 -17.4053 2.5676 0.1119 0 2
16.0763 -16.0929 2.4673 0.7202 0 2
15.7383 -14.5372 2.3239 0.1432 0 1
15.4740 -13.1819 2.2048 0.1433 0 24
15.2395 -11.9603 2.1013 0.1471 0 1
14.8690 -10.7334 1.9891 0.1418 0 1
14.5415 -9.6331 1.8920 0.1420 0 1
14.1712 -8.5896 1.7974 0.1495 0 1
13.8502 -7.6520 1.7163 0.1565 0 1
13.6584 -6.8452 1.6571 0.1736 0 1
8.7225 -3.9416 1.0382 0.9620 0 9
12.9168 -5.2229 1.5112 0.1907 0 25
12.8124 -4.5912 1.4763 0.1952 0 25
12.7231 -3.9904 1.4463 0.1993 0 25
12.6475 -3.4154 1.4210 0.2028 0 25
12.5845 -2.8616 1.3998 0.2059 0 25
12.5331 -2.3249 1.3826 0.2085 0 2
12.9945 -1.8743 1.4241 0.2125 0 1
5.3774 -0.5563 0.5864 0.1840 25 14
5.2767 -0.3325 0.5735 0.1627 25 14
5.1753 -0.1178 0.5615 0.2399 25 14
5.1521 0.0897 0.5589 0.2410 25 14
5.3054 0.3058 0.5764 0.1619 25 14
5.4697 0.5363 0.5961 0.1810 25 14
13.4403 1.8654 1.4718 0.1965 0 1
13.5872 2.4455 1.4974 0.1944 0 1
13.7416 3.0476 1.5267 0.1898 0 1
13.9171 3.6786 1.5614 0.1856 0 1
14.0821 4.3341 1.5981 0.1938 0 1
14.1341 4.9798 1.6255 0.1959 0 1
14.1938 5.6512 1.6571 0.1922 0 1
12.9847 5.7842 1.5418 0.2558 0 14
11.5540 5.7135 1.3981 0.3857 0 14
10.4375 5.6940 1.2896 0.5592 0 14
9.9369 5.9507 1.2563 0.9418 0 14
9.8154 6.4271 1.2726 0.8744 0 14
9.8311 7.0171 1.3101 0.6658 0 14
14.2016 11.0236 1.9500 0.1474 0 2
14.5346 12.2483 2.0617 0.1394 0 2
14.9276 13.6413 2.1934 0.1310 0 2
14.7180 14.5766 2.2468 0.6948 0 3
13.6769 14.6794 2.1762 0.7178 0 0
12.4922 14.5369 2.0790 0.7496 0 3
11.6402 14.7008 2.0339 0.7752 0 3
10.6976 14.6856 1.9707 0.7996 0 3
6.0953 9.1154 1.1894 0.5638 0 8
8.9869 14.6835 1.8673 0.8444 0 3
8.1924 14.6784 1.8233 0.8648 0 3
7.6873 15.1751 1.8451 0.4662 0 3
7.6279 16.6883 1.9902 0.4322 0 3
7.5572 18.4604 2.1636 0.3976 0 3
8.1789 22.5184 2.5986 0.9153 0 3
7.6745 24.1051 2.7439 0.9451 0 3
7.2392 26.3556 2.9646 0.2904 0 3
1.4647 13.5854 1.4821 0.2034 0 9
0.3765 13.9068 1.5090 0.2118 0 9
-0.1971 15.0469 1.6322 0.1095 0 9
-0.8192 15.3640 1.6688 0.4333 0 9
-2.2756 16.9314 1.8530 0.2331 0 9
-2.9451 -38.7519 4.2154 0.5691 0 6
0.1741 -38.8822 4.2175 0.7752 0 6
1.7360 -38.8604 4.2193 0.9807 0 22
2.2391 -17.8230 1.9484 0.6718 0 22
7.1971 -34.5608 3.8291 0.9754 0 3
7.9298 -31.6522 3.5393 0.2569 0 3
8.1073 -27.6067 3.1209 0.9559 0 3
10.0253 -29.6739 3.3974 0.9441 0 3
11.3689 -29.6652 3.4459 0.9308 0 3
12.7194 -29.5765 3.4921 0.9160 0 3
13.2388 -27.6667 3.3268 0.5969 0 3
15.1472 -28.6409 3.5143 0.8820 0 3
16.6465 -28.6312 3.5923 0.8629 0 3
17.5270 -27.5378 3.5406 0.3320 0 3
18.4130 -26.5156 3.5015 0.8212 0 3
18.0960 -23.9460 3.2556 0.0883 0 2
17.1106 -20.8458 2.9252 0.0983 0 2
16.3304 -18.3411 2.6637 0.1079 0 2
15.7054 -16.2734 2.4531 0.5933 0 2
15.8755 -15.1796 2.3824 0.1363 0 1
15.6017 -13.7620 2.2565 0.1438 0 1
15.3452 -12.4767 2.1452 0.1441 0 1
15.0199 -11.2413 2.0349 0.1386 0 1
6.0841 -4.1832 0.8009 0.7153 14 6
14.3236 -9.0234 1.8362 0.1463 0 1
13.9825 -8.0430 1.7496 0.1536 0 1
13.7396 -7.1850 1.6818 0.1705 0 1
8.6739 -4.1011 1.0407 0.8808 0 9
8.9785 -3.8119 1.0580 0.5167 0 9
12.8553 -4.8583 1.4906 0.1934 0 25
12.7597 -4.2449 1.4586 0.1976 0 25
12.6784 -3.6594 1.4313 0.2014 0 25
12.6101 -3.0970 1.4084 0.2046 0 25
12.5538 -2.5535 1.3896 0.2074 0 25
13.0040 -2.1052 1.4289 0.2103 0 1
12.9960 -1.5714 1.4199 0.2131 0 1
5.3274 -0.4280 0.5797 0.1610 25 14
5.2123 -0.2086 0.5658 0.1649 25 14
5.1322 0.0009 0.5567 0.2348 25 14
5.2304 0.2111 0.5678 0.1643 25 14
5.4094 0.4364 0.5886 0.1833 25 14
13.3759 1.6219 1.4615 0.1979 0 1
13.5265 2.1944 1.4864 0.1959 0 1
13.6726 2.7858 1.5135 0.1924 0 1
13.8393 3.4038 1.5458 0.1875 0 1
14.0266 4.0536 1.5837 0.1830 0 1
14.1128 4.7003 1.6134 0.1974 0 1
14.1664 5.3592 1.6429 0.1938 0 1
13.6680 5.8082 1.6108 0.5615 0 14
12.1501 5.7497 1.4580 0.3959 0 14
10.8686 5.6882 1.3306 0.4137 0 14
10.0440 5.7819 1.2571 0.9463 0 14
7.4437 19.1170 1.9955 0.3794 0 3
8.2887 24.1085 2.4797 0.9389 0 3
7.2522 24.2157 2.4588 0.3079 0 3
7.2645 28.3532 2.8469 0.2715 0 3
2.5394 14.7506 1.4559 0.2779 0 9
1.4172 15.6769 1.5311 0.9624 0 9
0.7103 14.1982 1.3828 0.3255 0 9
0.2309 23.5124 2.2871 0.6168 0 9
-0.4842 15.9520 1.5523 0.9635 0 9
-0.7174 -38.8927 3.7836 0.9575 0 22
2.5834 -18.0419 1.7728 0.2962 0 22
4.5602 -24.7248 2.4455 0.6267 0 6
9.5846 -42.3526 4.2237 0.9723 0 3
7.9389 -29.5197 2.9733 0.2694 0 3
9.2749 -29.6795 3.0245 0.9521 0 3
10.5869 -29.6404 3.0614 0.9396 0 3
11.9356 -29.6059 3.1049 0.9257 0 3
12.9097 -28.6475 3.0563 0.4124 0 3
13.9245 -27.8557 3.0291 0.6526 0 3
10.1405 -18.3991 2.0434 0.2668 0 9
16.6575 -27.5457 3.1311 0.8292 0 3
17.5430 -26.5411 3.0946 0.5524 0 3
16.6507 -23.1165 2.7710 0.0931 0 2
15.8376 -20.2228 2.4985 0.1033 0 2
15.1890 -17.8674 2.2810 0.1131 0 2
14.8570 -16.1178 2.1322 0.7482 0 2
14.8963 -14.9116 2.0501 0.1422 0 1
14.6330 -13.5163 1.9376 0.1432 0 1
14.4131 -12.2781 1.8416 0.1556 0 1
14.1176 -11.0797 1.7456 0.1437 0 1
13.8302 -9.9835 1.6591 0.1524 0 1
13.5282 -8.9619 1.5784 0.1518 0 1
13.2347 -8.0219 1.5053 0.1602 0 1
13.0247 -7.1960 1.4474 0.1778 0 1
12.8747 -6.4524 1.4008 0.1844 0 1
8.7479 -3.9530 0.9337 0.9281 0 9
12.2394 -4.9490 1.2841 0.2015 0 25
12.1552 -4.3557 1.2559 0.2060 0 25
12.0831 -3.7897 1.2317 0.2101 0 25
12.0219 -3.2464 1.2112 0.2136 0 25
11.9708 -2.7220 1.1941 0.2167 0 25
11.9291 -2.2129 1.1801 0.2193 0 2
12.3795 -1.7856 1.2166 0.2217 0 1
5.1110 -0.5287 0.4998 0.2420 25 14
5.0327 -0.3171 0.4905 0.2465 25 14
4.9584 -0.1128 0.4824 0.2432 25 14
4.9347 0.0859 0.4801 0.2445 25 14
5.0490 0.2910 0.4919 0.2458 25 14
5.1665 0.5066 0.5049 0.2395 25 14
12.7537 1.7701 1.2524 0.2073 0 1
12.8859 2.3192 1.2735 0.2052 0 1
13.0183 2.8872 1.2970 0.2015 0 1
13.1664 3.4801 1.3246 0.1964 0 1
13.3340 4.1039 1.3570 0.1917 0 1
13.3999 4.7211 1.3819 0.2012 0 1
13.4534 5.3564 1.4085 0.2030 0 1
13.5084 6.0175 1.4384 0.1987 0 1
11.5739 5.7233 1.2559 0.3843 0 14
10.4266 5.6881 1.1553 0.6047 0 14
9.9606 5.9649 1.1293 0.8793 0 14
9.8505 6.4501 1.1453 0.8793 0 14
9.8709 7.0455 1.1796 0.6535 0 14
13.2524 10.2868 1.6318 0.1581 0 2
13.5115 11.3861 1.7187 0.1501 0 2
13.8146 12.6242 1.8203 0.1418 0 2
14.1722 14.0361 1.9402 0.1330 0 2
13.5737 14.5686 1.9368 0.7237 0 3
12.4918 14.5365 1.8643 0.7505 0 3
11.6399 14.7004 1.8238 0.7761 0 3
10.6973 14.6852 1.7672 0.8005 0 3
6.1338 9.1730 1.0733 0.5609 0 8
8.9867 14.6831 1.6745 0.8454 0 3
8.1922 14.6780 1.6350 0.8658 0 3
7.7461 15.2911 1.6673 0.4632 0 3
7.6879 16.8194 1.7988 0.4292 0 3
7.6251 18.6261 1.9577 0.3945 0 3
8.2012 22.5797 2.3367 0.9138 0 3
7.6743 24.1045 2.4606 0.9462 0 3
7.3285 26.6807 2.6913 0.2872 0 3
2.6501 24.5808 2.4048 0.5253 0 9
1.7210 25.5597 2.4918 0.1486 0 9
0.6928 25.5925 2.4902 0.2836 0 9
-0.2028 15.4830 1.5061 0.3939 0 9
-35.4297 -34.4893 4.8094 0.9268 0 20
0.1742 -38.8978 3.7835 0.9923 0 22
1.7375 -38.8940 3.7869 0.9932 0 22
2.2320 -17.7662 1.7417 0.6747 0 22
5.7271 -34.3638 3.3886 0.1794 0 3
8.8201 -42.3548 4.2081 0.9758 0 3
8.0405 -32.0944 3.2182 0.2536 0 3
8.1075 -27.6074 2.7987 0.9569 0 3
10.0255 -29.6747 3.0467 0.9452 0 3
11.3692 -29.6660 3.0902 0.9318 0 3
12.7312 -29.6039 3.1345 0.9170 0 3
13.1949 -27.5751 2.9734 0.5096 0 3
15.1476 -28.6417 3.1515 0.8830 0 3
16.4763 -28.3384 3.1884 0.0672 0 3
17.2074 -27.0357 3.1172 0.0778 0 3
17.0660 -24.5758 2.9103 0.0887 0 2
16.1633 -21.3885 2.6076 0.0989 0 2
15.4505 -18.8234 2.3687 0.1089 0 2
14.8751 -16.7066 2.1758 0.1186 0 2
15.2138 -15.7641 2.1310 0.1401 0 2
14.7348 -14.0888 1.9829 0.1471 0 1
14.5025 -12.7924 1.8810 0.1524 0 1
14.2562 -11.5913 1.7872 0.1403 0 1
13.9469 -10.4383 1.6945 0.1480 0 1
6.0946 -4.1904 0.7194 0.9204 14 6
13.3579 -8.4150 1.5356 0.1571 0 1
13.0956 -7.5328 1.4695 0.1751 0 1
12.9367 -6.7651 1.4200 0.1812 0 1
8.6997 -4.1133 0.9360 0.9565 0 9
9.0210 -3.8299 0.9533 0.5419 0 9
12.1898 -4.6068 1.2675 0.2041 0 25
12.1127 -4.0297 1.2417 0.2084 0 25
12.0469 -3.4771 1.2196 0.2122 0 25
11.9915 -2.9451 1.2011 0.2154 0 25
11.9459 -2.4298 1.1857 0.2182 0 25
12.3824 -2.0046 1.2201 0.2211 0 1
12.3803 -1.4970 1.2130 0.2224 0 1
5.0656 -0.4070 0.4943 0.2446 25 14
4.9907 -0.1997 0.4858 0.2489 25 14
4.9140 0.0008 0.4780 0.2455 25 14
5.0013 0.2018 0.4869 0.2484 25 14
5.1149 0.4126 0.4991 0.2423 25 14
5.2424 0.6357 0.5136 0.1886 25 14
12.8328 2.0819 1.2645 0.2053 0 1
12.9597 2.6405 1.2865 0.2032 0 1
13.1006 3.2221 1.3122 0.1992 0 1
13.2598 3.8320 1.3425 0.1938 0 1
13.3781 4.4556 1.3715 0.2027 0 1
13.4323 5.0815 1.3969 0.1990 0 1
13.4833 5.7297 1.4250 0.2006 0 1
12.1617 5.7551 1.3087 0.3608 0 14
10.9482 5.7299 1.2019 0.9748 0 14
10.0591 5.7906 1.1290 0.9095 0 14
7.5138 19.2968 1.7828 0.3763 0 3
8.2885 24.1079 2.1948 0.9399 0 3
7.3365 24.4970 2.2016 0.3047 0 3
7.3603 28.7273 2.5531 0.2682 0 3
2.5271 14.6789 1.2823 0.7496 0 9
1.4290 15.8083 1.3665 0.7505 0 9
1.1608 23.2036 2.0002 0.5058 0 9
-0.7749 25.5279 2.1988 0.3419 0 9
-1.7732 25.1053 2.1668 0.8505 0 9
-36.4181 -33.8609 4.2812 0.9134 0 20
0.8447 -38.8773 3.3479 0.6312 0 6
3.4328 -18.6122 1.6294 0.6834 0 6
9.5846 -42.3530 3.7385 0.9733 0 3
8.0445 -29.9123 2.6667 0.2661 0 3
9.2576 -29.6239 2.6720 0.9530 0 3
10.5980 -29.6717 2.7126 0.9406 0 3
11.9587 -29.6629 2.7535 0.9266 0 3
13.0316 -28.9181 2.7308 0.4092 0 3
13.9192 -27.8451 2.6801 0.7672 0 3
10.1513 -18.4188 1.8106 0.8466 0 9
10.0317 -16.5889 1.6690 0.0622 0 20
15.6942 -23.7440 2.4504 0.0933 0 2
14.9568 -20.7648 2.2032 0.1038 0 2
14.3702 -18.3492 2.0065 0.1139 0 2
13.8938 -16.3437 1.8468 0.1238 0 2
14.1063 -15.3033 1.7918 0.1441 0 1
13.8445 -13.8588 1.6865 0.1506 0 1
13.6513 -12.6094 1.5999 0.1498 0 1
13.4097 -11.4234 1.5166 0.1465 0 1
13.1521 -10.3220 1.4394 0.1556 0 1
12.9000 -9.3120 1.3697 0.1550 0 1
12.6462 -8.3775 1.3060 0.1625 0 1
12.4303 -7.5344 1.2514 0.1822 0 1
12.2940 -6.7923 1.2092 0.1886 0 1
12.1727 -6.1006 1.1722 0.1907 0 1
8.7714 -3.9636 0.8287 0.8635 0 9
11.6307 -4.7029 1.0801 0.2123 0 25
11.5634 -4.1436 1.0575 0.2168 0 25
11.5055 -3.6085 1.0381 0.2208 0 25
11.4564 -3.0937 1.0216 0.2244 0 25
11.4153 -2.5957 1.0079 0.2275 0 25
11.7914 -2.1874 1.0325 0.2295 0 2
11.7703 -1.6978 1.0238 0.2312 0 24
4.9004 -0.5070 0.4241 0.2526 25 14
4.8291 -0.3043 0.4166 0.2572 25 14
4.7548 -0.1082 0.4095 0.2539 25 14
4.7343 0.0824 0.4077 0.2551 25 14
4.8441 0.2792 0.4177 0.2489 25 14
4.9528 0.4857 0.4284 0.2501 25 14
12.1499 1.6863 1.0560 0.2194 0 1
12.2546 2.2056 1.0720 0.2146 0 1
12.3695 2.7433 1.0908 0.2123 0 1
12.4965 3.3031 1.1128 0.2081 0 1
12.6372 3.8894 1.1383 0.2025 0 1
12.7304 4.4852 1.1620 0.2120 0 1
12.7743 5.0861 1.1837 0.2081 0 1
12.8266 5.7138 1.2089 0.2095 0 1
11.6123 5.7423 1.1153 0.3725 0 14
10.4252 5.6873 1.0224 0.6394 0 14
9.9204 5.9408 0.9955 0.9619 0 14
9.8032 6.4191 1.0088 0.7729 0 14
9.8109 7.0027 1.0377 0.7019 0 14
12.4239 9.6437 1.3540 0.1688 0 2
12.6247 10.6388 1.4214 0.1608 0 2
12.8581 11.7501 1.4996 0.1525 0 2
13.1310 13.0049 1.5911 0.1437 0 2
13.4530 14.4391 1.6991 0.1346 0 2
12.4914 14.5360 1.6500 0.7513 0 3
11.6395 14.6999 1.6143 0.7770 0 3
10.6970 14.6848 1.5641 0.8014 0 3
6.1727 9.2312 0.9560 0.5579 0 8
8.9864 14.6827 1.4820 0.8463 0 3
8.1919 14.6775 1.4471 0.8667 0 3
7.8057 15.4087 1.4871 0.4601 0 3
7.7548 16.9658 1.6060 0.4261 0 3
7.6940 18.7946 1.7484 0.3913 0 3
8.2236 22.6412 2.0738 0.9123 0 3
7.6741 24.1039 2.1778 0.9472 0 3
7.4198 27.0133 2.4118 0.2839 0 3
2.9326 15.4372 1.3528 0.2995 0 9
1.5498 14.3747 1.2447 0.0271 0 9
0.9771 14.5108 1.2521 0.4473 0 9
0.6799 25.1142 2.1629 0.1839 0 9
-0.2085 15.9122 1.3701 0.7034 0 9
-0.8548 16.0329 1.3823 0.5016 0 9
-2.3489 25.0669 2.1675 0.2741 0 9
-35.3675 -34.4287 4.2494 0.9293 0 20
0.1742 -38.9020 3.3492 0.9937 0 22
1.7385 -38.9160 3.3537 0.9863 0 22
7.5647 -45.3901 3.9617 0.1760 0 3
8.8202 -42.3550 3.7247 0.9737 0 3
8.0648 -32.1914 2.8571 0.6861 0 3
8.1077 -27.6081 2.4772 0.9579 0 3
9.9988 -29.5956 2.6895 0.9461 0 3
11.3695 -29.6667 2.7352 0.9328 0 3
12.7417 -29.6285 2.7767 0.9179 0 3
13.1950 -27.5753 2.6318 0.9016 0 3
15.1172 -28.5842 2.7839 0.8839 0 3
9.7187 -16.7158 1.6647 0.3213 0 20
16.0717 -25.2512 2.5769 0.0887 0 2
15.2519 -21.9635 2.3021 0.0993 0 2
14.6066 -19.3286 2.0858 0.1096 0 2
14.0868 -17.1620 1.9115 0.1196 0 2
14.3398 -16.1054 1.8565 0.7613 0 2
13.9651 -14.4702 1.7313 0.1491 0 1
13.7332 -13.1312 1.6358 0.1552 0 1
13.5324 -11.9367 1.5535 0.1543 0 1
13.2570 -10.7788 1.4710 0.1523 0 1
13.0203 -9.7448 1.4001 0.1516 0 1
6.1077 -4.1994 0.6381 0.9194 14 6
12.5159 -7.8846 1.2735 0.1667 0 1
12.3503 -7.1041 1.2266 0.1859 0 1
12.2230 -6.3918 1.1875 0.1883 0 1
8.7434 -4.1340 0.8326 0.7443 0 9
9.0189 -3.8291 0.8435 0.3594 0 9
11.5911 -4.3805 1.0668 0.2149 0 25
11.5293 -3.8356 1.0461 0.2192 0 25
11.4765 -3.3125 1.0284 0.2229 0 25
11.4320 -2.8077 1.0135 0.2262 0 25
11.3952 -2.3178 1.0011 0.2290 0 2
11.8152 -1.9128 1.0305 0.2309 0 1
11.8164 -1.4288 1.0247 0.2315 0 1
4.8591 -0.3904 0.4197 0.2553 25 14
4.7866 -0.1916 0.4124 0.2521 25 14
4.7140 0.0008 0.4058 0.2562 25 14
4.7960 0.1935 0.4132 0.2516 25 14
4.9057 0.3958 0.4237 0.2529 25 14
5.0178 0.6084 0.4352 0.2462 25 14
12.2086 1.9806 1.0648 0.2176 0 1
12.3188 2.5099 1.0824 0.2140 0 1
12.4404 3.0597 1.1029 0.2100 0 1
12.5749 3.6341 1.1269 0.2055 0 1
12.7145 4.2346 1.1537 0.2135 0 1
12.7543 4.8250 1.1740 0.2098 0 1
12.8038 5.4410 1.1977 0.2057 0 1
12.8531 6.0824 1.2242 0.2069 0 1
10.9146 5.7123 1.0606 0.7885 0 14
10.0629 5.7928 0.9996 0.8553 0 14
7.5850 19.4797 1.5666 0.3731 0 3
8.2883 24.1073 1.9104 0.9408 0 3
7.4201 24.7763 1.9382 0.3014 0 3
7.4585 29.1106 2.2520 0.2649 0 3
1.3724 27.4327 2.0584 0.9057 0 9
0.1397 14.2296 1.0664 0.5618 0 9
-30.6399 18.2124 2.6711 0.7855 0 3
-30.6390 16.5844 2.6109 0.3496 0 3
-36.2765 -33.7292 3.7121 0.8596 0 20
2.4093 -38.8794 2.9192 0.9793 0 22
3.4349 -18.6235 1.4192 0.7106 0 6
9.5847 -42.3534 3.2542 0.9741 0 3
8.1527 -30.3146 2.3525 0.2628 0 3
9.2754 -29.6810 2.3304 0.9538 0 3
10.5983 -29.6725 2.3612 0.9414 0 3
11.9590 -29.6637 2.3968 0.9274 0 3
13.1451 -29.1698 2.3977 0.4061 0 3
13.8833 -27.7732 2.3269 0.6102 0 3
10.1609 -18.4361 1.5775 0.9504 0 9
10.0181 -16.5664 1.4508 0.8239 0 20
11.3812 -17.2188 1.5468 0.5352 0 20
13.5781 -18.8507 1.7410 0.1144 0 2
13.1538 -16.7960 1.5987 0.1246 0 2
13.5158 -15.8992 1.5638 0.1474 0 2
13.1127 -14.2254 1.4499 0.1422 0 1
12.9227 -12.9360 1.3703 0.1524 0 1
12.7393 -11.7671 1.2996 0.1490 0 1
12.5112 -10.6580 1.2317 0.1584 0 1
12.3067 -9.6585 1.1724 0.1569 0 1
12.0744 -8.7161 1.1160 0.1648 0 1
11.8735 -7.8657 1.0673 0.1757 0 1
11.7386 -7.1151 1.0287 0.1894 0 1
11.6307 -6.4258 0.9958 0.1999 0 1
11.2123 -5.6193 0.9399 0.2127 0 2
8.7916 -3.9728 0.7230 0.9926 0 9
11.0807 -4.4805 0.8957 0.2230 0 25
11.0275 -3.9516 0.8778 0.2275 0 25
10.9816 -3.4442 0.8625 0.2316 0 25
10.9426 -2.9550 0.8494 0.2352 0 25
10.9100 -2.4808 0.8385 0.2382 0 25
11.3020 -2.0966 0.8614 0.2393 0 1
6.0875 -0.8781 0.4609 0.9619 25 14
4.7069 -0.4869 0.3546 0.2632 25 14
4.6368 -0.2921 0.3482 0.2602 25 14
4.5677 -0.1040 0.3424 0.2646 25 14
4.5499 0.0792 0.3410 0.2656 25 14
4.6509 0.2681 0.3491 0.2595 25 14
4.7564 0.4664 0.3582 0.2606 25 14
11.5919 1.6089 0.8770 0.2301 0 1
11.6839 2.1029 0.8897 0.2273 0 1
11.7801 2.6125 0.9042 0.2217 0 1
11.8904 3.1429 0.9217 0.2175 0 1
12.0116 3.6969 0.9418 0.2128 0 1
12.1269 4.2726 0.9635 0.2211 0 1
12.1580 4.8407 0.9807 0.2211 0 1
12.1962 5.4330 1.0006 0.2167 0 1
12.2427 6.0541 1.0235 0.2118 0 1
10.4579 5.7051 0.8927 0.5643 0 14
9.9623 5.9659 0.8702 0.9486 0 14
9.8634 6.4585 0.8835 0.8820 0 14
9.8657 7.0418 0.9083 0.6387 0 14
11.6941 9.0772 1.1094 0.1795 0 2
11.8486 9.9848 1.1612 0.1715 0 2
12.0269 10.9905 1.2209 0.1631 0 2
12.2339 12.1164 1.2903 0.1544 0 2
12.4761 13.3906 1.3715 0.1452 0 2
12.5142 14.5625 1.4389 0.6451 0 3
11.6392 14.6995 1.4051 0.7777 0 3
10.7033 14.6934 1.3623 0.8021 0 3
9.8213 14.6877 1.3241 0.8252 0 3
8.4568 13.8173 1.2140 0.8511 0 21
8.1917 14.6771 1.2596 0.8675 0 3
7.8661 15.5279 1.3044 0.4570 0 3
7.8196 17.1076 1.4096 0.4229 0 3
7.7641 18.9657 1.5358 0.3882 0 3
8.2391 22.6839 1.8086 0.9321 0 3
7.6739 24.1033 1.8956 0.9481 0 3
7.5133 27.3536 2.1258 0.2806 0 3
3.3779 14.5646 1.1204 0.3202 0 9
1.5420 22.9015 1.7201 0.5054 0 9
0.6095 22.5127 1.6877 0.9734 0 6
-0.3416 26.0758 1.9543 0.8123 0 9
-2.4230 25.8576 1.9462 0.4082 0 9
-30.6549 18.9443 2.7005 0.7770 0 3
-30.6208 17.2638 2.6343 0.7965 0 3
-35.0663 -34.1356 3.6674 0.8792 0 20
0.1743 -38.9141 2.9162 0.9941 0 22
1.7366 -38.8721 2.9160 0.9665 0 22
5.7806 -46.0127 3.4753 0.1350 0 3
8.8296 -42.4003 3.2456 0.2201 0 3
8.1171 -32.3998 2.5031 0.2470 0 3
8.1937 -27.9008 2.1792 0.2837 0 3
9.9992 -29.5969 2.3411 0.9650 0 3
11.3698 -29.6675 2.3809 0.9336 0 3
12.7318 -29.6054 2.4151 0.9187 0 3
13.1954 -27.5760 2.2909 0.9024 0 3
14.3037 -27.0460 2.2928 0.8847 0 3
9.7182 -16.7149 1.4489 0.4931 0 20
14.3656 -22.5706 2.0050 0.0993 0 2
13.7889 -19.8567 1.8117 0.1099 0 2
13.3256 -17.6335 1.6563 0.1202 0 2
13.2394 -16.1296 1.5638 0.7874 0 2
13.2280 -14.8567 1.4907 0.1509 0 1
13.0017 -13.4719 1.4031 0.1577 0 1
12.8211 -12.2591 1.3293 0.1571 0 1
12.6046 -11.1183 1.2595 0.1549 0 1
12.3958 -10.0786 1.1972 0.1630 0 1
12.1703 -9.1086 1.1392 0.1614 0 1
6.1225 -4.2096 0.5568 0.9813 14 6
11.7900 -7.4273 1.0442 0.1866 0 1
11.6746 -6.7154 1.0093 0.1930 0 1
11.5813 -6.0563 0.9794 0.2032 0 1
8.7811 -4.1518 0.7279 0.6550 0 9
9.0149 -3.8274 0.7339 0.3468 0 9
11.0494 -4.1758 0.8852 0.2256 0 25
11.0004 -3.6596 0.8688 0.2299 0 25
10.9586 -3.1630 0.8548 0.2337 0 25
10.9232 -2.6827 0.8429 0.2370 0 25
10.9032 -2.2177 0.8338 0.3165 0 2
6.0582 -0.9808 0.4599 0.9640 25 14
4.7362 -0.5727 0.3575 0.2611 25 14
4.6679 -0.3750 0.3509 0.2581 25 14
4.5968 -0.1840 0.3448 0.2627 25 14
4.5300 0.0008 0.3395 0.2668 25 14
4.6067 0.1859 0.3455 0.2622 25 14
4.7117 0.3801 0.3542 0.2557 25 14
4.8159 0.5839 0.3635 0.2568 25 14
11.6434 1.8889 0.8840 0.2283 0 1
11.7373 2.3915 0.8977 0.2253 0 1
11.8418 2.9125 0.9139 0.2194 0 1
11.9581 3.4558 0.9328 0.2149 0 1
12.0863 4.0254 0.9547 0.2100 0 1
12.1439 4.5941 0.9730 0.2228 0 1
12.1788 5.1754 0.9917 0.2186 0 1
12.2217 5.7836 1.0133 0.2139 0 1
11.0759 5.7967 0.9368 0.4254 0 14
10.0891 5.8079 0.8724 0.8386 0 14
7.6574 19.6657 1.3465 0.3698 0 3
8.2881 24.1066 1.6265 0.9415 0 3
7.6668 25.6000 1.7051 0.2981 0 3
1.8896 14.4180 0.9278 0.2344 0 9
1.3180 14.5802 0.9341 0.4443 0 9
1.2687 25.3590 1.6200 0.9756 0 9
-30.9512 25.9093 2.5754 0.3036 0 3
-31.1479 24.0144 2.5095 0.3116 0 3
-31.2991 22.1856 2.4478 0.7478 0 3
-31.4433 20.4419 2.3929 0.7694 0 3
-31.4621 18.7011 2.3353 0.0661 0 3
-31.7694 17.1962 2.3049 0.3393 0 3
-36.2271 -33.6833 3.1562 0.8704 0 20
4.8690 -47.5431 3.0493 0.9930 0 3
9.5679 -42.2791 2.7658 0.6250 0 3
8.1140 -30.1708 1.9934 0.8191 0 20
9.2756 -29.6817 1.9842 0.9546 0 3
10.5986 -29.6732 2.0104 0.9421 0 3
11.9379 -29.6113 2.0371 0.9281 0 3
12.9770 -28.7968 2.0153 0.0700 0 3
13.5290 -27.0645 1.9306 0.8678 0 3
10.1781 -18.4674 1.3454 0.9865 0 9
10.0199 -16.5694 1.2355 0.9221 0 20
12.8045 -19.3722 1.4816 0.1145 0 2
12.4339 -17.2622 1.3574 0.1250 0 2
12.6296 -16.1266 1.3069 0.8028 0 2
12.4150 -14.6042 1.2230 0.1437 0 1
12.1897 -13.2242 1.1475 0.1565 0 24
12.0903 -12.1028 1.0915 0.1591 0 1
11.9003 -10.9921 1.0336 0.1607 0 1
11.7264 -9.9894 0.9829 0.1675 0 1
11.5295 -9.0486 0.9351 0.1676 0 1
11.3509 -8.1938 0.8932 0.1789 0 1
11.2144 -7.4290 0.8583 0.1934 0 1
11.1206 -6.7406 0.8297 0.2044 0 1
11.0471 -6.1034 0.8053 0.2106 0 1
10.6833 -5.3541 0.7625 0.2232 0 25
8.8349 -3.9923 0.6186 0.9565 0 9
10.5812 -4.2785 0.7282 0.2337 0 25
10.5398 -3.7768 0.7144 0.2382 0 25
10.5041 -3.2945 0.7024 0.2423 0 25
10.4737 -2.8284 0.6922 0.2459 0 25
10.4506 -2.3763 0.6838 0.3388 0 2
10.8267 -2.0084 0.7026 0.2509 0 1
6.1095 -0.8812 0.3938 0.9592 25 14
4.5261 -0.4682 0.2903 0.2658 25 14
4.4586 -0.2809 0.2850 0.2708 25 14
4.3856 -0.0998 0.2799 0.2013 25 14
4.3717 0.0761 0.2790 0.3176 25 14
4.4728 0.2578 0.2859 0.2700 25 14
4.5723 0.4483 0.2931 0.2633 25 14
7.0226 0.9747 0.4524 0.2728 25 14
6.0432 1.0877 0.3918 0.9642 25 14
11.2487 2.4947 0.7352 0.2344 0 1
11.3399 2.9974 0.7484 0.2282 0 1
11.4440 3.5222 0.7640 0.2236 0 1
11.5578 4.0721 0.7819 0.2185 0 1
11.6022 4.6194 0.7968 0.2279 0 1
11.6297 5.1806 0.8123 0.2274 0 1
11.6616 5.7667 0.8301 0.2225 0 1
10.5037 5.7301 0.7634 0.5622 0 14
10.0014 5.9893 0.7438 0.8814 0 14
9.8882 6.4748 0.7541 0.7669 0 14
9.9299 7.0877 0.7784 0.5279 0 14
11.0464 8.5744 0.8922 0.1902 0 2
11.1634 9.4074 0.9315 0.1822 0 2
11.2978 10.3243 0.9765 0.1738 0 2
11.4528 11.3428 1.0285 0.1650 0 2
11.6328 12.4854 1.0888 0.1559 0 2
11.8434 13.7820 1.1594 0.1464 0 2
11.5991 14.6489 1.1922 0.7783 0 3
10.7029 14.6930 1.1598 0.8027 0 3
9.2106 13.7744 1.0573 0.8338 0 21
8.5075 13.9002 1.0398 0.5199 0 21
8.1915 14.6767 1.0724 0.8682 0 3
7.9273 15.6488 1.1193 0.4538 0 3
7.8854 17.2516 1.2103 0.4197 0 3
7.8213 19.1054 1.3172 0.9210 0 3
8.2619 22.7468 1.5441 0.5444 0 3
7.6737 24.1027 1.6139 0.9488 0 3
7.6090 27.7019 1.8330 0.2773 0 3
1.4885 13.8060 0.8860 0.3499 0 9
1.7427 25.8818 1.6551 0.2738 0 9
0.4494 16.6010 1.0596 0.1696 0 9
-0.7770 14.5736 0.9312 0.7440 0 9
-1.4980 15.9863 1.0245 0.3500 0 9
-30.7237 26.6333 2.5943 0.6903 0 3
-31.0659 24.8169 2.5370 0.3082 0 3
-31.2450 22.9670 2.4742 0.7382 0 3
-31.2780 21.1106 2.4077 0.7603 0 3
-31.4239 19.4195 2.3570 0.7811 0 3
-31.7154 17.8809 2.3230 0.3367 0 3
-35.1753 -34.2417 3.1322 0.5315 0 20
0.1743 -38.9310 2.4840 0.9974 0 22
5.3639 -42.6953 2.7456 0.9917 0 3
9.2152 -44.2520 2.8841 0.2066 0 3
9.3121 -37.1701 2.4449 0.2437 0 3
8.2969 -28.2522 1.8787 0.2804 0 3
10.0263 -29.6769 1.9987 0.9476 0 3
11.3701 -29.6683 2.0272 0.9343 0 3
12.7322 -29.6062 2.0563 0.9194 0 3
13.1957 -27.5767 1.9506 0.9031 0 3
14.0536 -26.5730 1.9180 0.8832 0 3
13.4948 -23.2104 1.7131 0.0991 0 2
12.9890 -20.4078 1.5435 0.1100 0 2
12.5839 -18.1214 1.4077 0.1206 0 2
12.2529 -16.2140 1.2967 0.1309 0 2
12.5154 -15.2476 1.2586 0.1396 0 1
12.2966 -13.8106 1.1799 0.1548 0 1
12.1482 -12.5875 1.1162 0.1636 0 1
11.9820 -11.4568 1.0577 0.1571 0 1
11.7992 -10.4078 1.0039 0.1655 0 1
11.6158 -9.4444 0.9552 0.1640 0 1
11.4222 -8.5487 0.9103 0.1721 0 1
6.1409 -4.2222 0.4755 0.9791 14 6
11.1581 -7.0292 0.8414 0.1973 0 1
11.0775 -6.3720 0.8154 0.2080 0 1
10.7088 -5.6000 0.7711 0.2209 0 2
8.8049 -4.1631 0.6214 0.7634 0 9
9.0013 -3.8216 0.6239 0.8436 0 9
10.5568 -3.9897 0.7201 0.2364 0 25
10.5188 -3.4994 0.7073 0.2406 0 25
10.4862 -3.0267 0.6964 0.2444 0 25
10.4586 -2.5686 0.6871 0.2477 0 25
10.8042 -2.1976 0.7035 0.2501 0 2
6.0801 -0.9843 0.3930 0.9613 25 14
4.5552 -0.5508 0.2928 0.2717 25 14
4.4871 -0.3605 0.2872 0.2687 25 14
4.4205 -0.1769 0.2823 0.1996 25 14
4.3617 0.0007 0.2783 0.3184 25 14
4.4321 0.1789 0.2830 0.2727 25 14
4.5288 0.3653 0.2899 0.2663 25 14
4.6299 0.5614 0.2976 0.2673 25 14
6.0750 0.9856 0.3927 0.9620 25 14
11.2121 2.2844 0.7301 0.2360 0 1
11.2995 2.7791 0.7424 0.2321 0 1
11.3982 3.2940 0.7570 0.2256 0 1
11.5077 3.8326 0.7739 0.2207 0 1
11.5894 4.3843 0.7906 0.2296 0 1
11.6179 4.9371 0.8054 0.2293 0 1
11.6471 5.5117 0.8222 0.2247 0 1
10.9619 5.7370 0.7894 0.8950 0 14
10.1279 5.8302 0.7456 0.8315 0 14
7.7351 19.8652 1.1232 0.3665 0 3
8.2879 24.1060 1.3430 0.9422 0 3
7.7586 25.9065 1.4248 0.2948 0 3
3.3030 25.2021 1.3391 0.3468 0 9
1.2259 13.5617 0.7174 0.0767 0 9
0.6941 13.8752 0.7319 0.2609 0 9
0.1676 17.0673 0.8992 0.2340 0 9
-1.0496 14.8607 0.7849 0.4204 0 9
-30.8124 38.6527 2.6043 0.5682 0 3
-31.1507 36.0098 2.5086 0.2576 0 3
-30.5863 32.6131 2.3557 0.8407 0 3
-31.4825 30.9761 2.3269 0.7073 0 3
-30.4598 27.6524 2.1675 0.5349 0 3
-32.2934 22.8904 2.0855 0.7518 0 3
-32.2576 20.9713 2.0271 0.7734 0 3
-32.2273 19.1560 1.9752 0.7937 0 3
-32.8472 17.7797 1.9678 0.4808 0 3
-32.8068 16.0894 1.9251 0.4453 0 3
-36.0772 -33.5439 2.5954 0.7876 0 20
9.5854 -42.3563 2.2880 0.9723 0 3
7.9928 -29.7201 1.6215 0.5997 0 20
8.6272 -27.6068 1.5238 0.9551 0 3
10.5988 -29.6740 1.6601 0.9427 0 3
11.9382 -29.6121 1.6821 0.9287 0 3
12.1945 -27.0603 1.5638 0.8852 0 3
12.9293 -25.8648 1.5235 0.0920 0 2
10.1868 -18.4831 1.1119 0.7930 0 9
10.0263 -16.5799 1.0208 0.9266 0 20
11.7273 -17.7425 1.1205 0.1251 0 2
11.6325 -16.1496 1.0486 0.8267 0 2
11.7565 -15.0117 1.0046 0.1488 0 1
11.5769 -13.6184 0.9417 0.1603 0 1
11.4607 -12.4332 0.8909 0.1610 0 1
11.3133 -11.3250 0.8434 0.1628 0 1
11.1636 -10.3116 0.8007 0.1699 0 1
11.0081 -9.3775 0.7619 0.1699 0 1
10.8517 -8.5166 0.7268 0.1816 0 1
10.7182 -7.7370 0.6964 0.1895 0 1
10.6369 -7.0465 0.6722 0.2084 0 1
10.5747 -6.4097 0.6515 0.2151 0 1
10.5228 -5.8137 0.6334 0.2217 0 1
10.2024 -5.1131 0.6012 0.2339 0 25
8.8683 -4.0074 0.5127 0.8133 0 9
10.1253 -4.0942 0.5754 0.2444 0 25
10.0940 -3.6171 0.5649 0.2489 0 25
10.0670 -3.1574 0.5559 0.2530 0 25
10.0439 -2.7123 0.5481 0.2566 0 25
10.0246 -2.2795 0.5416 0.2596 0 2
10.3908 -1.9275 0.5568 0.2621 0 1
6.1393 -0.8855 0.3268 0.8544 25 14
4.3186 -0.4468 0.2287 0.2035 25 14
4.2472 -0.2676 0.2242 0.3265 25 14
4.2330 -0.0963 0.2231 0.3282 25 14
4.2352 0.0737 0.2232 0.3281 25 14
4.2730 0.2463 0.2255 0.3247 25 14
4.3832 0.4298 0.2320 0.2006 25 14
4.4969 0.6241 0.2392 0.2748 25 14
6.0640 1.0914 0.3246 0.9616 25 14
10.7643 2.3873 0.5809 0.2451 0 1
10.8428 2.8660 0.5909 0.2409 0 1
10.9282 3.3634 0.6024 0.2343 0 1
11.0253 3.8845 0.6159 0.2292 0 1
11.0884 4.4148 0.6288 0.2386 0 1
11.1113 4.9497 0.6409 0.2341 0 1
11.1339 5.5058 0.6544 0.2332 0 1
10.7753 5.8783 0.6467 0.6964 0 14
10.0978 6.0470 0.6201 0.3499 0 14
10.0379 6.5728 0.6321 0.5539 0 14
10.9831 7.8393 0.7109 0.2181 0 2
10.6646 8.2781 0.7113 0.6315 0 2
10.5540 8.8938 0.7271 0.1928 0 2
10.6529 9.7349 0.7603 0.1844 0 2
10.7663 10.6629 0.7983 0.1756 0 2
10.8972 11.6960 0.8422 0.1665 0 2
11.0492 12.8578 0.8932 0.1570 0 2
11.2273 14.1793 0.9529 0.1472 0 2
10.7026 14.6925 0.9577 0.8033 0 3
9.1915 13.7458 0.8712 0.8360 0 21
8.9857 14.6815 0.9069 0.8483 0 3
8.1913 14.6763 0.8855 0.8688 0 3
7.9894 15.7714 0.9315 0.4506 0 3
7.9522 17.3978 1.0078 0.4164 0 3
7.8211 19.1049 1.0876 0.9216 0 3
8.7567 24.1090 1.3514 0.9363 0 3
7.6736 24.1021 1.3326 0.9495 0 3
7.7070 28.0588 1.5330 0.2740 0 3
1.6888 15.6639 0.8300 0.9876 0 9
1.0574 15.7038 0.8292 0.9355 0 9
0.4573 16.8907 0.8902 0.6311 0 9
-0.3552 27.1150 1.4287 0.0814 0 9
-31.0275 37.1431 2.5498 0.2534 0 3
-31.3056 34.5555 2.4566 0.2630 0 3
-31.3902 31.9691 2.3605 0.6950 0 3
-31.7797 29.8663 2.2977 0.2812 0 3
-32.3086 23.7488 2.1126 0.7422 0 3
-32.2714 21.7811 2.0513 0.7643 0 3
-32.2400 19.9238 1.9968 0.7852 0 3
-32.2112 18.1605 1.9482 0.8047 0 3
-32.7323 16.7591 1.9374 0.4607 0 3
-37.1062 -33.3263 2.6277 0.8639 0 20
-34.9505 -34.0228 2.5698 0.5387 0 20
4.8647 -38.7216 2.0561 0.8049 0 6
9.3753 -45.0207 2.4228 0.2032 0 3
9.2231 -36.8146 1.9995 0.5191 0 3
8.4026 -28.6121 1.5711 0.2771 0 3
10.0265 -29.6776 1.6504 0.9482 0 3
11.3500 -29.6159 1.6710 0.9349 0 3
11.8552 -27.5670 1.5810 0.8928 0 3
12.7099 -26.5615 1.5514 0.8747 0 3
12.6309 -23.8829 1.4234 0.0985 0 2
12.1992 -20.9821 1.2787 0.1097 0 2
11.8547 -18.6256 1.1632 0.1206 0 2
11.5739 -16.6669 1.0691 0.1312 0 2
11.9765 -15.8482 1.0466 0.1551 0 2
11.6484 -14.1913 0.9673 0.1420 0 1
11.5124 -12.9299 0.9121 0.1655 0 1
11.3831 -11.7948 0.8636 0.1590 0 1
11.2265 -10.7344 0.8183 0.1662 0 1
11.0845 -9.7775 0.7787 0.1663 0 1
10.9142 -8.8740 0.7411 0.1781 0 1
10.7735 -8.0632 0.7090 0.1862 0 1
6.1594 -4.2350 0.3938 0.9768 14 6
10.6005 -6.6779 0.6601 0.2123 0 1
10.5427 -6.0643 0.6408 0.2187 0 1
10.2217 -5.3453 0.6077 0.2314 0 25
8.8608 -4.1895 0.5164 0.5331 0 9
9.0093 -3.8250 0.5157 0.5459 0 9
10.1069 -3.8196 0.5692 0.2470 0 25
10.0781 -3.3528 0.5596 0.2513 0 25
10.0534 -2.9018 0.5513 0.2551 0 25
10.0324 -2.4639 0.5443 0.2584 0 25
10.3911 -2.1136 0.5587 0.2607 0 1
10.3525 -1.6760 0.5525 0.2651 0 24
4.3543 -0.5265 0.2311 0.2015 25 14
4.2728 -0.3433 0.2258 0.2061 25 14
4.2390 -0.1696 0.2235 0.3275 25 14
4.2254 0.0007 0.2226 0.3289 25 14
4.2565 0.1718 0.2244 0.3262 25 14
4.3300 0.3493 0.2289 0.2034 25 14
4.4548 0.5402 0.2364 0.2698 25 14
6.0959 0.9890 0.3254 0.9593 25 14
10.7325 2.1867 0.5771 0.2467 0 1
10.8084 2.6583 0.5864 0.2428 0 1
10.8905 3.1473 0.5973 0.2384 0 1
10.9826 3.6578 0.6099 0.2314 0 1
11.0800 4.1916 0.6241 0.2404 0 1
11.1009 4.7174 0.6355 0.2361 0 1
11.1249 5.2645 0.6484 0.2354 0 1
10.9622 5.7372 0.6519 0.4203 0 14
10.2069 5.8757 0.6205 0.8256 0 14
8.7537 22.4811 1.0031 0.9135 0 3
8.2877 24.1054 1.0599 0.9427 0 3
7.8525 26.2200 1.1381 0.2914 0 3
1.7626 13.4484 0.5640 0.0300 0 9
1.2412 13.7306 0.5732 0.1356 0 9
0.8982 17.9541 0.7475 0.3673 0 9
0.1718 17.4916 0.7273 0.1054 0 9
-32.3876 37.4396 2.0584 0.6015 0 3
-32.3354 34.4781 1.9654 0.6299 0 3
-32.2887 31.7693 1.8834 0.6573 0 3
-32.2467 29.2745 1.8109 0.6837 0 3
-32.2087 26.9619 1.7465 0.7089 0 3
-32.1741 24.8055 1.6892 0.7329 0 3
-31.9599 22.6540 1.6289 0.9522 0 3
-32.1112 20.8761 1.5925 0.7773 0 3
-32.0848 19.0713 1.5519 0.7977 0 3
-30.1340 16.3110 1.4247 0.9463 0 3
-33.9543 16.6521 1.5724 0.3245 0 3
-35.8840 -33.3643 2.0373 0.6704 0 20
-35.0471 -35.3141 2.0687 0.6577 0 20
6.1130 -42.6918 1.7932 0.9896 0 3
9.5851 -42.3550 1.8056 0.9728 0 3
7.8536 -29.2024 1.2574 0.9666 0 20
8.6274 -27.6075 1.2026 0.9556 0 3
10.9107 -30.5472 1.3487 0.9431 0 3
11.1235 -27.5915 1.2370 0.9291 0 3
11.9807 -26.5860 1.2125 0.9136 0 3
11.6036 -23.2128 1.0790 0.1026 0 2
11.2845 -20.4749 0.9721 0.1139 0 2
10.0387 -16.6006 0.8066 0.9766 0 20
10.8183 -16.3672 0.8158 0.1357 0 2
10.9438 -13.9740 0.7380 0.1470 0 1
10.8506 -12.7640 0.6966 0.1626 0 1
10.7454 -11.6572 0.6592 0.1644 0 1
10.6205 -10.6315 0.6248 0.1719 0 1
10.5052 -9.7035 0.5946 0.1719 0 1
10.3713 -8.8351 0.5665 0.1840 0 1
10.2558 -8.0489 0.5421 0.1923 0 1
10.1747 -7.3448 0.5218 0.2120 0 1
6.3156 -4.1838 0.3150 0.3906 14 6
10.0805 -6.1101 0.4901 0.2257 0 1
9.7972 -5.4128 0.4654 0.2386 0 25
9.7634 -4.8931 0.4541 0.2445 0 25
8.8962 -4.0200 0.4059 0.9788 0 9
9.3597 -3.7846 0.4198 0.2013 0 9
9.6849 -3.4705 0.4278 0.2596 0 25
