ply
format ascii 1.0
element vertex 1412
property float32 x
property float32 y
property float32 z
property float32 CosAngle
property uint32 ObjIdx
property uint32 ObjTag
end_header
7.4496 24.1043 3.0197 0.9465 0 3
7.1169 26.8073 3.3198 0.2858 0 3
3.0657 13.7577 1.6871 0.2471 0 9
1.6731 16.9296 2.0362 0.1682 0 9
1.0135 17.3775 2.0835 0.6042 0 9
0.2985 16.5723 1.9839 0.8822 0 9
-0.3285 14.7701 1.7683 0.3995 0 9
-0.9715 15.5277 1.8622 0.6756 0 9
2.5675 -18.1237 2.1909 0.5018 0 22
3.4529 -18.8707 2.2962 0.6356 0 22
4.4055 -19.5883 2.4031 0.5031 0 22
7.7312 -28.8913 3.5797 0.2747 0 3
9.2365 -29.6782 3.7203 0.9502 0 3
10.5420 -29.6165 3.7627 0.9378 0 3
12.7037 -3.8479 1.4397 0.2002 0 25
12.6311 -3.2773 1.4154 0.2036 0 25
12.5709 -2.7270 1.3952 0.2066 0 25
12.5493 -2.1977 1.3819 0.2755 0 2
12.9950 -1.7402 1.4221 0.2128 0 1
5.3562 -0.4989 0.5835 0.1849 25 14
5.2473 -0.2764 0.5699 0.1637 25 14
5.1557 -0.0638 0.5593 0.2408 25 14
5.1822 0.1445 0.5623 0.2395 25 14
5.3529 0.3652 0.5820 0.1603 25 14
5.5081 0.5992 0.6010 0.1795 25 14
13.4821 2.0185 1.4787 0.1956 0 1
13.6269 2.6046 1.5048 0.1935 0 1
13.7873 3.2153 1.5356 0.1887 0 1
13.9687 3.8563 1.5718 0.1844 0 1
14.0983 4.5099 1.6055 0.1929 0 1
14.1494 5.1626 1.6337 0.1949 0 1
14.2133 5.8441 1.6669 0.1910 0 1
12.5325 5.7530 1.4957 0.3516 0 14
11.1940 5.6946 1.3623 0.4341 0 14
10.2075 5.7210 1.2692 0.5918 0 14
9.8847 6.0752 1.2585 0.9350 0 14
9.8017 6.5819 1.2806 0.8263 0 14
9.9080 7.2482 1.3316 0.4527 0 14
14.2939 11.3672 1.9809 0.1451 0 2
14.6439 12.6401 2.0983 0.1370 0 2
15.0581 14.0939 2.2371 0.1285 0 2
14.3664 14.5743 2.2197 0.7033 0 3
13.3449 14.6749 2.1515 0.7261 0 0
12.2869 14.6552 2.0744 0.7575 0 3
11.3485 14.6989 2.0142 0.7828 0 3
10.4279 14.6929 1.9543 0.8068 0 3
6.0866 9.3517 1.2103 0.5541 0 8
8.7356 14.6819 1.8531 0.8509 0 3
7.9510 14.6768 1.8105 0.8709 0 3
7.6696 15.6280 1.8882 0.4556 0 3
7.6069 17.2193 2.0418 0.4213 0 3
7.5317 19.0930 2.2263 0.3864 0 3
7.9104 22.6875 2.6061 0.5806 0 3
7.3304 24.1029 2.7326 0.9491 0 3
3.8073 14.6059 1.6372 0.3999 0 9
2.4248 13.7546 1.5149 0.4247 0 9
2.1856 16.1822 1.7712 0.9976 0 9
1.3344 14.1537 1.5420 0.2003 0 9
0.7364 13.6871 1.4867 0.6633 0 9
0.1884 13.9504 1.5133 0.1551 0 9
-0.4080 15.2542 1.6552 0.2818 0 9
0.9529 -38.9008 4.2207 0.9940 0 22
2.6528 -18.1372 1.9882 0.6455 0 22
4.6314 -24.6826 2.7240 0.7579 0 6
8.6248 -37.5575 4.1798 0.2387 0 3
7.8453 -28.7972 3.2374 0.2756 0 3
9.3833 -29.6780 3.3761 0.9500 0 3
10.6926 -29.6163 3.4153 0.9375 0 3
12.0557 -29.6043 3.4671 0.9234 0 3
12.8131 -28.1632 3.3561 0.4185 0 3
14.1663 -28.0815 3.4115 0.6204 0 3
15.9226 -28.6359 3.5539 0.8722 0 3
17.4608 -28.6259 3.6370 0.8523 0 3
18.0101 -27.0176 3.5219 0.8341 0 3
18.6554 -25.6829 3.4431 0.0835 0 2
17.5432 -22.2138 3.0702 0.0936 0 2
16.6738 -19.4496 2.7787 0.1034 0 2
15.9774 -17.1866 2.5453 0.1129 0 2
16.2084 -16.0856 2.4769 0.7174 0 2
15.7124 -14.3857 2.3107 0.1440 0 1
15.4671 -13.0569 2.1955 0.1408 0 1
15.1994 -11.8171 2.0883 0.1318 0 1
6.0196 -4.3029 0.8026 0.6681 14 6
14.4953 -9.5042 1.8801 0.1429 0 1
14.1306 -8.4724 1.7871 0.1503 0 1
13.8256 -7.5505 1.7087 0.1678 0 1
13.6353 -6.7490 1.6502 0.1743 0 1
8.7571 -3.9040 1.0400 0.9083 0 9
12.9028 -5.1403 1.5065 0.1913 0 25
12.8002 -4.5116 1.4721 0.1958 0 25
12.7126 -3.9133 1.4427 0.1998 0 25
12.6386 -3.3401 1.4179 0.2033 0 25
12.5770 -2.7877 1.3973 0.2063 0 25
12.5271 -2.2521 1.3806 0.2088 0 2
12.9948 -1.7998 1.4230 0.2127 0 1
5.3655 -0.5241 0.5847 0.1845 25 14
5.2601 -0.3008 0.5715 0.1633 25 14
5.1642 -0.0872 0.5602 0.2404 25 14
5.1692 0.1208 0.5608 0.2402 25 14
5.3324 0.3397 0.5796 0.1610 25 14
5.4917 0.5724 0.5989 0.1802 25 14
13.4644 1.9539 1.4757 0.1959 0 1
13.6102 2.5379 1.5017 0.1939 0 1
13.7683 3.1455 1.5319 0.1892 0 1
13.9474 3.7828 1.5675 0.1849 0 1
14.0916 4.4379 1.6025 0.1933 0 1
14.1432 5.0882 1.6303 0.1953 0 1
14.2054 5.7662 1.6629 0.1915 0 1
12.7084 5.7645 1.5136 0.3474 0 14
11.3332 5.7012 1.3761 0.4016 0 14
10.2957 5.7096 1.2770 0.5882 0 14
9.9032 6.0253 1.2574 0.9404 0 14
9.8056 6.5206 1.2773 0.8594 0 14
9.8675 7.1505 1.3218 0.5400 0 14
14.2581 11.2342 1.9689 0.1460 0 2
14.6018 12.4893 2.0841 0.1379 0 2
15.0081 13.9207 2.2203 0.1294 0 2
14.4973 14.5751 2.2298 0.7001 0 3
13.4678 14.6766 2.1606 0.7230 0 0
12.3040 14.5420 2.0662 0.6482 0 3
11.4551 14.6996 2.0214 0.7800 0 3
10.5218 14.6845 1.9594 0.8042 0 3
6.0898 9.2650 1.2026 0.5576 0 8
8.8258 14.6825 1.8581 0.8486 0 3
8.0371 14.6773 1.8151 0.8687 0 3
7.6760 15.4644 1.8726 0.4594 0 3
7.6144 17.0284 2.0233 0.4252 0 3
7.5409 18.8666 2.2038 0.3903 0 3
8.0178 22.6663 2.6078 0.9120 0 3
7.4494 24.1037 2.7365 0.9477 0 3
3.8704 14.5786 1.6361 0.5085 0 9
1.9363 13.8653 1.5185 0.8781 0 9
1.4124 14.2917 1.5577 0.2331 0 9
0.8709 14.9317 1.6223 0.9743 0 9
0.2518 13.9763 1.5162 0.2049 0 9
-0.3474 15.6226 1.6950 0.2353 0 9
-1.7182 16.6663 1.8173 0.6361 0 9
2.5579 -18.0560 1.9780 0.6488 0 22
3.4467 -18.8366 2.0771 0.7513 0 22
8.4791 -37.7012 4.1915 0.2366 0 3
7.8322 -29.2688 3.2864 0.2715 0 3
9.2367 -29.6790 3.3715 0.9514 0 3
10.5328 -29.5906 3.4069 0.9389 0 3
12.0674 -3.6552 1.2264 0.2110 0 25
12.0086 -3.1158 1.2067 0.2144 0 25
11.9598 -2.5944 1.1904 0.2174 0 25
12.3891 -2.1697 1.2234 0.2205 0 1
12.3297 -1.6511 1.2100 0.2221 0 24
5.0905 -0.4741 0.4973 0.2432 25 14
5.0136 -0.2641 0.4883 0.2476 25 14
4.9381 -0.0611 0.4804 0.2443 25 14
4.9650 0.1384 0.4831 0.2429 25 14
5.0789 0.3465 0.4952 0.2442 25 14
5.1991 0.5656 0.5087 0.2377 25 14
12.7903 1.9149 1.2579 0.2064 0 1
12.9202 2.4696 1.2795 0.2043 0 1
13.0569 3.0449 1.3041 0.2004 0 1
13.2105 3.6470 1.3330 0.1952 0 1
13.3644 4.2752 1.3648 0.2037 0 1
13.4153 4.8947 1.3890 0.2002 0 1
13.4677 5.5376 1.4164 0.2018 0 1
12.6702 5.8162 1.3560 0.2587 0 14
11.2634 5.7299 1.2292 0.6484 0 14
10.2092 5.7220 1.1384 0.6137 0 14
9.9171 6.0952 1.1322 0.9745 0 14
9.8367 6.6053 1.1525 0.8198 0 14
9.9134 7.2521 1.1947 0.4926 0 14
13.3245 10.5963 1.6559 0.1558 0 2
13.5961 11.7357 1.7470 0.1477 0 2
13.9148 13.0238 1.8538 0.1392 0 2
14.2919 14.4987 1.9802 0.1303 0 2
13.2463 14.5665 1.9151 0.7319 0 3
12.3285 14.7048 1.8665 0.7584 0 3
11.3481 14.6985 1.8062 0.7837 0 3
10.4276 14.6925 1.7525 0.8078 0 3
6.1257 9.4118 1.0923 0.5512 0 8
8.7353 14.6815 1.6617 0.8519 0 3
7.9508 14.6764 1.6236 0.8719 0 3
7.7297 15.7503 1.7065 0.4525 0 3
7.6713 17.3651 1.8465 0.4182 0 3
7.5365 19.1050 1.9977 0.9233 0 3
8.4061 24.1092 2.4835 0.9375 0 3
7.3302 24.1023 2.4504 0.9502 0 3
3.6013 13.8157 1.3887 0.2771 0 9
3.1816 14.5872 1.4522 0.7036 0 9
2.5015 14.1897 1.4015 0.7275 0 9
1.4458 15.3360 1.4983 0.7633 0 9
0.7699 14.3101 1.3939 0.1773 0 9
0.2138 15.8321 1.5401 0.6726 0 9
-0.4250 15.8892 1.5461 0.3080 0 9
-1.6969 25.2928 2.4657 0.2321 0 9
-1.8304 17.0025 1.6633 0.5331 0 9
-0.6132 -38.9124 3.7854 0.9952 0 22
4.6271 -24.6599 2.4405 0.9940 0 6
8.6345 -37.5997 3.7524 0.9716 0 3
7.9474 -29.1718 2.9409 0.2724 0 3
9.3836 -29.6788 3.0276 0.9511 0 3
10.6832 -29.5904 3.0600 0.9385 0 3
12.0560 -29.6051 3.1092 0.9244 0 3
12.9257 -28.4107 3.0360 0.4155 0 3
14.2125 -28.1731 3.0693 0.5020 0 3
15.8975 -28.5908 3.1820 0.7546 0 3
16.7954 -27.5352 3.1372 0.0727 0 3
17.5820 -26.3754 3.0832 0.0837 0 2
16.5611 -22.7996 2.7410 0.0941 0 2
15.7654 -19.9627 2.4742 0.1043 0 2
15.1296 -17.6484 2.2611 0.1141 0 2
14.9774 -16.1110 2.1396 0.7455 0 2
14.8648 -14.7522 2.0370 0.1432 0 1
14.6065 -13.3732 1.9263 0.1441 0 1
14.3910 -12.1485 1.8319 0.1565 0 1
14.0826 -10.9488 1.7351 0.1445 0 1
6.0643 -4.3349 0.7251 0.3362 14 6
13.4939 -8.8476 1.5695 0.1526 0 1
13.2018 -7.9155 1.4972 0.1611 0 1
13.0056 -7.1026 1.4414 0.1786 0 1
12.8560 -6.3633 1.3953 0.1851 0 1
8.7877 -3.9176 0.9358 0.8654 0 9
12.2281 -4.8715 1.2803 0.2021 0 25
12.1454 -4.2808 1.2526 0.2066 0 25
12.0746 -3.7169 1.2289 0.2106 0 25
12.0147 -3.1752 1.2088 0.2141 0 25
11.9648 -2.6520 1.1920 0.2171 0 25
12.1838 -2.1904 1.2041 0.2221 0 2
12.3308 -1.7079 1.2108 0.2218 0 24
5.0995 -0.4982 0.4984 0.2426 25 14
5.0219 -0.2872 0.4893 0.2472 25 14
4.9469 -0.0835 0.4812 0.2438 25 14
4.9518 0.1157 0.4818 0.2436 25 14
5.0661 0.3227 0.4938 0.2449 25 14
5.1852 0.5405 0.5071 0.2385 25 14
12.7748 1.8538 1.2556 0.2068 0 1
12.9058 2.4066 1.2770 0.2047 0 1
13.0409 2.9793 1.3011 0.2009 0 1
13.1923 3.5780 1.3295 0.1957 0 1
13.3595 4.2073 1.3624 0.2041 0 1
13.4090 4.8241 1.3861 0.2006 0 1
13.4619 5.4644 1.4132 0.2023 0 1
13.5191 6.1323 1.4439 0.1980 0 1
11.3491 5.7093 1.2357 0.3934 0 14
10.2941 5.7087 1.1449 0.6101 0 14
9.9309 6.0422 1.1307 0.3774 0 14
9.8401 6.5435 1.1494 0.8761 0 14
9.8803 7.1598 1.1868 0.4959 0 14
13.2966 10.4766 1.6466 0.1567 0 2
13.5636 11.6013 1.7361 0.1486 0 2
13.8765 12.8710 1.8410 0.1402 0 2
14.2463 14.3228 1.9650 0.1313 0 2
13.3675 14.5673 1.9231 0.7288 0 3
12.3716 14.6218 1.8630 0.6454 0 3
11.4548 14.6992 1.8126 0.7809 0 3
10.5280 14.6931 1.7582 0.8051 0 3
6.1287 9.3242 1.0853 0.5547 0 8
8.8255 14.6821 1.6662 0.8495 0 3
8.0369 14.6769 1.6276 0.8697 0 3
7.7356 15.5844 1.6923 0.4563 0 3
7.6784 17.1713 1.8296 0.4221 0 3
7.6099 19.0392 1.9943 0.3872 0 3
8.0290 22.6981 2.3418 0.4874 0 3
7.4492 24.1031 2.4539 0.9488 0 3
7.2976 27.4879 2.7663 0.2794 0 3
2.5592 14.1441 1.3981 0.5075 0 9
1.4019 14.1849 1.3865 0.1139 0 9
0.9688 16.6099 1.6184 0.0940 0 9
0.2828 15.6977 1.5271 0.7722 0 9
-0.3259 14.6520 1.4255 0.1889 0 9
-1.7588 17.0597 1.6682 0.4581 0 9
-0.7881 -38.8866 3.7832 0.8807 0 22
0.7770 -38.8764 3.7822 0.7841 0 6
2.5493 -17.9954 1.7678 0.6242 0 22
4.5338 -24.7782 2.4501 0.9565 0 6
9.5253 -42.3530 4.2225 0.9726 0 3
7.9357 -29.6554 2.9860 0.2682 0 3
9.2370 -29.6797 3.0235 0.9524 0 3
10.5591 -29.6646 3.0627 0.3409 0 3
11.4929 -3.4812 1.0339 0.2218 0 25
11.4457 -2.9697 1.0180 0.2252 0 25
11.4064 -2.4744 1.0049 0.2282 0 25
11.8193 -2.0699 1.0331 0.2290 0 1
11.8150 -1.5822 1.0263 0.2318 0 1
4.8818 -0.4547 0.4221 0.2538 25 14
4.8104 -0.2534 0.4147 0.2507 25 14
4.7362 -0.0586 0.4078 0.2550 25 14
4.7621 0.1328 0.4101 0.2535 25 14
4.8728 0.3324 0.4205 0.2548 25 14
4.9825 0.5421 0.4315 0.2483 25 14
12.1771 1.8231 1.0600 0.2185 0 1
12.2846 2.3481 1.0768 0.2151 0 1
12.4028 2.8924 1.0964 0.2112 0 1
12.5336 3.4601 1.1194 0.2069 0 1
12.6794 4.0561 1.1461 0.2012 0 1
12.7418 4.6490 1.1677 0.2110 0 1
12.7885 5.2583 1.1904 0.2069 0 1
12.8394 5.8939 1.2163 0.2083 0 1
11.2499 5.7230 1.0867 0.5269 0 14
10.2201 5.7281 1.0087 0.6482 0 14
9.8691 6.0656 0.9973 0.9602 0 14
9.7875 6.5723 1.0150 0.7682 0 14
9.8676 7.2187 1.0526 0.5122 0 14
12.4799 9.9246 1.3728 0.1665 0 2
12.6901 10.9536 1.4432 0.1584 0 2
12.9348 12.1065 1.5253 0.1499 0 2
13.2218 13.4132 1.6215 0.1410 0 2
13.2252 14.5433 1.6924 0.7326 0 3
12.3281 14.7044 1.6520 0.7592 0 3
11.3478 14.6980 1.5987 0.7845 0 3
10.4273 14.6920 1.5511 0.8086 0 3
6.1653 9.4726 0.9730 0.5482 0 8
8.7351 14.6811 1.4707 0.8528 0 3
7.9506 14.6760 1.4370 0.8728 0 3
7.7905 15.8743 1.5224 0.4495 0 3
7.7367 17.5132 1.6483 0.4151 0 3
7.5363 19.1045 1.7681 0.9243 0 3
8.4059 24.1086 2.1981 0.9385 0 3
7.3480 24.1610 2.1742 0.3085 0 3
7.3754 28.2943 2.5173 0.2720 0 3
3.1707 14.5375 1.2810 0.6587 0 9
3.2214 23.8519 2.0721 0.1115 0 9
1.3587 14.4117 1.2463 0.4335 0 9
1.3776 25.6041 2.2075 0.2100 0 9
0.1929 14.2828 1.2298 0.5568 0 9
-0.3919 14.6495 1.2617 0.1643 0 9
-1.1350 16.9167 1.4597 0.9053 0 9
-36.3690 -33.8867 4.2796 0.9138 0 20
-0.6133 -38.9142 3.3507 0.9962 0 22
6.2328 -42.6134 3.7078 0.9867 0 3
4.6502 -24.7826 2.1708 0.8599 0 6
9.7259 -42.3520 3.7411 0.9726 0 3
8.0519 -29.5555 2.6373 0.2691 0 3
9.3838 -29.6795 2.6799 0.9520 0 3
10.7013 -29.6404 2.7131 0.9394 0 3
12.0792 -29.6622 2.7573 0.9253 0 3
13.0366 -28.6546 2.7103 0.4123 0 3
14.1739 -28.0965 2.7093 0.6501 0 3
10.2296 -18.3973 1.8123 0.5876 0 9
10.1268 -16.6023 1.6743 0.6265 0 20
15.6145 -23.4238 2.4236 0.0943 0 2
14.8928 -20.5029 2.1817 0.1048 0 2
14.3176 -18.1294 1.9889 0.1149 0 2
13.8498 -16.1555 1.8320 0.1248 0 2
14.0793 -15.1449 1.7803 0.1450 0 1
13.8229 -13.7182 1.6766 0.1515 0 1
13.6278 -12.4771 1.5907 0.1506 0 1
13.3788 -11.2940 1.5074 0.1474 0 1
13.1256 -10.2048 1.4314 0.1565 0 1
12.8690 -9.1991 1.3619 0.1559 0 1
12.6187 -8.2738 1.2991 0.1634 0 1
12.4132 -7.4427 1.2461 0.1830 0 1
12.2788 -6.7057 1.2045 0.1893 0 1
12.1606 -6.0191 1.1682 0.1969 0 1
8.8045 -3.9251 0.8299 0.8212 0 9
11.6217 -4.6300 1.0770 0.2129 0 25
11.5555 -4.0729 1.0548 0.2174 0 25
11.4988 -3.5396 1.0358 0.2213 0 25
11.4506 -3.0262 1.0197 0.2248 0 25
11.4105 -2.5291 1.0062 0.2279 0 25
11.8213 -2.1252 1.0340 0.2288 0 1
11.7698 -1.6302 1.0230 0.2316 0 24
4.8900 -0.4777 0.4230 0.2533 25 14
4.8190 -0.2756 0.4156 0.2502 25 14
4.7442 -0.0801 0.4085 0.2545 25 14
4.7501 0.1110 0.4091 0.2542 25 14
4.8610 0.3096 0.4193 0.2555 25 14
4.9698 0.5180 0.4302 0.2491 25 14
12.1656 1.7654 1.0583 0.2189 0 1
12.2721 2.2884 1.0748 0.2155 0 1
12.3889 2.8303 1.0941 0.2117 0 1
12.5183 3.3952 1.1167 0.2074 0 1
12.6621 3.9877 1.1429 0.2017 0 1
12.7372 4.5824 1.1654 0.2114 0 1
12.7828 5.1887 1.1877 0.2074 0 1
12.8343 5.8216 1.2133 0.2088 0 1
11.3873 5.7285 1.0974 0.3919 0 14
10.3003 5.7121 1.0140 0.6447 0 14
9.8892 6.0168 0.9966 0.9609 0 14
9.7936 6.5126 1.0126 0.7701 0 14
9.8297 7.1232 1.0451 0.6372 0 14
12.4582 9.8161 1.3655 0.1674 0 2
12.6650 10.8327 1.4348 0.1593 0 2
12.9055 11.9704 1.5154 0.1509 0 2
13.1873 13.2581 1.6099 0.1420 0 2
13.3670 14.5668 1.7021 0.7296 0 3
12.4257 14.6858 1.6562 0.6425 0 3
11.4544 14.6987 1.6043 0.7818 0 3
10.5277 14.6927 1.5561 0.8060 0 3
6.1680 9.3840 0.9668 0.5517 0 8
8.8253 14.6817 1.4748 0.8504 0 3
8.0366 14.6765 1.4406 0.8706 0 3
7.7960 15.7061 1.5096 0.4533 0 3
7.7432 17.3164 1.6331 0.4190 0 3
7.6362 19.1052 1.7713 0.9226 0 3
8.5283 24.1094 2.2017 0.9370 0 3
7.4491 24.1025 2.1719 0.9498 0 3
7.3911 27.8402 2.4799 0.2761 0 3
3.1874 14.3041 1.2617 0.8560 0 9
1.4341 14.5113 1.2554 0.2346 0 9
1.3574 23.2726 2.0070 0.7463 0 9
0.2721 15.1079 1.3009 0.1238 0 9
-0.3678 16.5398 1.4243 0.0867 0 9
-1.0545 16.8548 1.4539 0.4619 0 9
-36.5797 -33.7762 4.2864 0.9123 0 20
2.3455 -38.8950 3.3547 0.9970 0 22
3.4045 -18.6061 1.6285 0.9656 0 6
9.5254 -42.3534 3.7374 0.9736 0 3
8.0416 -30.0514 2.6782 0.2650 0 3
9.2196 -29.6241 2.6711 0.9534 0 3
10.5618 -29.6719 2.7116 0.9409 0 3
10.9717 -3.3233 0.8591 0.2325 0 25
10.9342 -2.8370 0.8465 0.2360 0 25
10.9178 -2.3684 0.8372 0.3250 0 2
11.3001 -1.9790 0.8597 0.2407 0 1
11.3011 -1.5134 0.8545 0.2426 0 1
4.6899 -0.4368 0.3530 0.2645 25 14
4.6187 -0.2433 0.3466 0.2613 25 14
4.5505 -0.0563 0.3410 0.2656 25 14
4.5755 0.1276 0.3430 0.2641 25 14
4.6785 0.3192 0.3514 0.2578 25 14
4.7837 0.5204 0.3606 0.2589 25 14
11.6158 1.7391 0.8802 0.2293 0 1
11.7088 2.2380 0.8933 0.2264 0 1
11.8091 2.7539 0.9087 0.2206 0 1
11.9225 3.2914 0.9269 0.2163 0 1
12.0472 3.8538 0.9479 0.2115 0 1
12.1353 4.4277 0.9681 0.2239 0 1
12.1680 5.0032 0.9859 0.2199 0 1
12.2086 5.6043 1.0067 0.2153 0 1
11.2667 5.7316 0.9473 0.3728 0 14
10.2315 5.7345 0.8790 0.6480 0 14
9.9125 6.0923 0.8719 0.9065 0 14
9.8525 6.6159 0.8894 0.8342 0 14
9.9374 7.2697 0.9227 0.3289 0 14
11.7373 9.3341 1.1238 0.1772 0 2
11.8987 10.2705 1.1779 0.1691 0 2
12.0853 11.3114 1.2405 0.1606 0 2
12.3025 12.4805 1.3133 0.1517 0 2
12.5573 13.8088 1.3987 0.1424 0 2
12.2859 14.6541 1.4331 0.7057 0 3
11.3474 14.6976 1.3915 0.7853 0 3
10.4270 14.6916 1.3501 0.8093 0 3
8.9901 13.8128 1.2351 0.8376 0 21
8.7348 14.6807 1.2802 0.8536 0 3
7.9504 14.6756 1.2508 0.8736 0 3
7.8523 16.0001 1.3357 0.4463 0 3
7.8031 17.6635 1.4471 0.4119 0 3
7.5920 19.2458 1.5504 0.3769 0 3
8.4057 24.1080 1.9133 0.9393 0 3
7.4331 24.4408 1.9144 0.3053 0 3
7.4724 28.6665 2.2200 0.2687 0 3
7.9062 36.2490 2.7804 0.4336 0 6
2.7390 15.5370 1.1823 0.4217 0 9
2.7073 28.7164 2.1615 0.0599 0 9
1.3561 25.2042 1.8915 0.6503 0 9
0.2150 15.9226 1.1933 0.7972 0 9
-0.4409 16.4824 1.2356 0.3311 0 9
-1.7621 26.2647 1.9727 0.2699 0 9
-30.6412 18.2780 2.6737 0.7848 0 3
-30.6339 16.6403 2.6125 0.3494 0 3
-36.2199 -33.7477 3.7099 0.8601 0 20
2.5201 -38.8731 2.9193 0.9792 0 22
3.4913 -18.6065 1.4187 0.9586 0 6
9.7259 -42.3524 3.2565 0.9735 0 3
8.1590 -29.9486 2.3261 0.2658 0 3
9.3840 -29.6803 2.3328 0.9529 0 3
10.7126 -29.6717 2.3641 0.9402 0 3
12.0796 -29.6629 2.4002 0.9261 0 3
13.1493 -28.9021 2.3795 0.4092 0 3
13.8973 -27.5482 2.3123 0.8924 0 3
10.2431 -18.4216 1.5796 0.8993 0 9
10.1110 -16.5765 1.4551 0.7590 0 20
14.0456 -21.0704 1.8977 0.1050 0 2
13.5322 -18.6298 1.7255 0.1154 0 2
13.1155 -16.6072 1.5858 0.1256 0 2
13.4944 -15.7410 1.5538 0.1484 0 2
13.0853 -14.0756 1.4402 0.1432 0 1
12.9030 -12.8053 1.3623 0.1533 0 1
12.7123 -11.6389 1.2916 0.1499 0 1
12.4881 -10.5421 1.2247 0.1593 0 1
12.2789 -9.5465 1.1656 0.1578 0 1
12.0497 -8.6134 1.1100 0.1657 0 1
11.8529 -7.7717 1.0622 0.1765 0 1
11.7250 -7.0300 1.0245 0.1902 0 1
11.6200 -6.3459 0.9922 0.2006 0 1
11.2034 -5.5453 0.9368 0.2134 0 2
8.8155 -3.9300 0.7233 0.9500 0 9
11.0736 -4.4116 0.8933 0.2236 0 25
11.0213 -3.8846 0.8757 0.2281 0 25
10.9763 -3.3788 0.8606 0.2321 0 25
10.9381 -2.8907 0.8478 0.2356 0 25
10.9062 -2.4173 0.8371 0.2386 0 25
11.3008 -2.0316 0.8605 0.2404 0 1
6.0971 -0.8445 0.4613 0.9612 25 14
4.6974 -0.4589 0.3537 0.2639 25 14
4.6266 -0.2646 0.3473 0.2608 25 14
4.5579 -0.0770 0.3416 0.2652 25 14
4.5644 0.1067 0.3422 0.2647 25 14
4.6667 0.2973 0.3504 0.2585 25 14
4.7720 0.4974 0.3596 0.2596 25 14
11.6057 1.6841 0.8788 0.2297 0 1
11.6984 2.1814 0.8918 0.2268 0 1
11.7971 2.6951 0.9068 0.2211 0 1
11.9092 3.2300 0.9247 0.2168 0 1
12.0326 3.7895 0.9454 0.2120 0 1
12.1321 4.3647 0.9662 0.2244 0 1
12.1640 4.9375 0.9838 0.2204 0 1
12.2037 5.5356 1.0042 0.2159 0 1
12.2414 6.1581 1.0269 0.2494 0 1
10.3165 5.7211 0.8840 0.5698 0 14
9.9264 6.0394 0.8707 0.9077 0 14
9.8557 6.5539 0.8870 0.8700 0 14
9.8928 7.1689 0.9156 0.6337 0 14
11.7206 9.2349 1.1182 0.1781 0 2
11.8794 10.1608 1.1715 0.1700 0 2
12.0630 11.1890 1.2330 0.1615 0 2
12.2765 12.3423 1.3046 0.1527 0 2
12.5267 13.6510 1.3884 0.1435 0 2
12.3992 14.6545 1.4386 0.7570 0 3
11.4541 14.6983 1.3964 0.7825 0 3
10.5274 14.6923 1.3545 0.8067 0 3
6.2077 9.4444 0.8470 0.5487 0 8
8.8250 14.6812 1.2837 0.8512 0 3
8.0364 14.6761 1.2539 0.8714 0 3
7.8573 15.8295 1.3244 0.4501 0 3
7.8090 17.4636 1.4336 0.4158 0 3
7.6360 19.1047 1.5418 0.9234 0 3
8.5280 24.1088 1.9164 0.9378 0 3
7.4489 24.1019 1.8905 0.9507 0 3
7.4869 28.2010 2.1866 0.2728 0 3
2.8110 15.5357 1.1831 0.0730 0 9
1.5444 15.6270 1.1768 0.5053 0 9
1.4277 24.4790 1.8376 0.2108 0 9
0.2876 15.9643 1.1966 0.8291 0 9
-0.5635 25.3372 1.8992 0.9473 0 9
-2.6335 25.5444 1.9244 0.5099 0 9
-30.6451 18.4681 2.6813 0.7826 0 3
-30.6200 16.8119 2.6178 0.5469 0 3
-36.5126 -33.7142 3.7243 0.9238 0 20
2.3448 -38.8830 2.9192 0.9793 0 22
8.7371 -47.7496 3.6377 0.1893 0 3
9.5256 -42.3543 3.2533 0.9743 0 3
8.1503 -30.4574 2.3628 0.2617 0 3
9.2374 -29.6812 2.3295 0.9542 0 3
10.5620 -29.6727 2.3603 0.9417 0 3
10.4964 -3.1793 0.6998 0.2432 0 25
10.4672 -2.7158 0.6900 0.2467 0 25
10.4428 -2.2653 0.6818 0.2496 0 2
10.8265 -1.8960 0.7013 0.2519 0 1
6.9977 -0.9371 0.4505 0.2739 25 14
4.5086 -0.4199 0.2889 0.2671 25 14
4.4419 -0.2340 0.2838 0.2719 25 14
4.3661 -0.0540 0.2786 0.3180 25 14
4.3985 0.1226 0.2808 0.2007 25 14
4.4983 0.3069 0.2877 0.2683 25 14
4.5997 0.5004 0.2952 0.2615 25 14
6.0975 0.9129 0.3934 0.9603 25 14
11.1873 2.1383 0.7267 0.2371 0 1
11.2726 2.6288 0.7385 0.2333 0 1
11.3675 3.1382 0.7524 0.2270 0 1
11.4744 3.6706 0.7687 0.2222 0 1
11.5814 4.2256 0.7866 0.2308 0 1
11.6107 4.7740 0.8010 0.2306 0 1
11.6382 5.3425 0.8171 0.2261 0 1
11.6720 5.9378 0.8356 0.2211 0 1
10.2814 5.7624 0.7520 0.5965 0 14
9.9479 6.1141 0.7450 0.8427 0 14
9.8787 6.6335 0.7592 0.7256 0 14
10.0512 7.3530 0.7946 0.2789 0 14
11.0792 8.8107 0.9032 0.1879 0 2
11.2013 9.6685 0.9441 0.1798 0 2
11.3416 10.6154 0.9912 0.1712 0 2
11.5039 11.6704 1.0456 0.1623 0 2
11.6929 12.8582 1.1089 0.1530 0 2
11.9146 14.2112 1.1833 0.1434 0 2
11.3471 14.6971 1.1847 0.7859 0 3
10.4267 14.6912 1.1495 0.8100 0 3
8.9715 13.7842 1.0494 0.8400 0 21
8.7346 14.6802 1.0899 0.8542 0 3
7.9523 14.6792 1.0652 0.4768 0 3
7.9148 16.1276 1.1463 0.4431 0 3
7.8705 17.8161 1.2427 0.4087 0 3
7.6638 19.4277 1.3325 0.3737 0 3
8.4055 24.1074 1.6290 0.9401 0 3
7.5177 24.7187 1.6485 0.3020 0 3
7.5718 29.0480 1.9153 0.2654 0 3
2.5998 14.7474 0.9555 0.7744 0 9
1.9423 14.3811 0.9259 0.2348 0 9
1.3619 14.4454 0.9258 0.4224 0 9
0.8277 15.3833 0.9829 0.7012 0 9
0.3556 26.3285 1.6800 0.1476 0 9
-1.0171 15.1601 0.9695 0.7166 0 9
-30.6179 27.9061 2.6432 0.9435 0 3
-30.9413 26.0006 2.5787 0.3032 0 3
-31.1202 24.0827 2.5107 0.6157 0 3
-31.3007 22.2680 2.4510 0.7469 0 3
-31.3113 20.4293 2.3854 0.3260 0 3
-31.4558 18.7639 2.3370 0.3328 0 3
-31.7647 17.2546 2.3064 0.3391 0 3
-36.1712 -33.7024 3.1544 0.8709 0 20
5.0097 -47.5426 3.0502 0.9935 0 3
3.4964 -18.6337 1.2097 0.7104 0 6
9.7260 -42.3528 2.7726 0.9742 0 3
8.0277 -29.4668 1.9486 0.2624 0 20
9.3843 -29.6810 1.9862 0.9536 0 3
10.7129 -29.6725 2.0129 0.9409 0 3
12.0582 -29.6105 2.0399 0.9268 0 3
12.8895 -28.3313 1.9860 0.0710 0 3
13.6605 -27.0789 1.9352 0.8951 0 3
10.2378 -18.4122 1.3442 0.9581 0 9
10.1054 -16.5672 1.2382 0.8226 0 20
11.4711 -17.2082 1.3196 0.9931 0 20
12.4011 -17.0726 1.3464 0.1261 0 2
12.7310 -16.1204 1.3106 0.8005 0 2
12.3920 -14.4550 1.2148 0.1446 0 1
12.2144 -13.1388 1.1446 0.1596 0 1
12.0732 -11.9817 1.0853 0.1600 0 1
11.8804 -10.8773 1.0277 0.1617 0 1
11.7082 -9.8837 0.9776 0.1684 0 1
11.5077 -8.9469 0.9301 0.1685 0 1
11.3326 -8.1008 0.8888 0.1798 0 1
11.2026 -7.3453 0.8547 0.1942 0 1
11.1115 -6.6622 0.8266 0.2051 0 1
11.0392 -6.0287 0.8025 0.2127 0 1
10.6763 -5.2844 0.7601 0.2239 0 25
8.8606 -3.9502 0.6190 0.9865 0 9
10.5757 -4.2132 0.7264 0.2343 0 25
10.5350 -3.7132 0.7127 0.2388 0 25
10.5000 -3.2322 0.7010 0.2428 0 25
10.4702 -2.7671 0.6910 0.2463 0 25
10.4453 -2.3152 0.6826 0.2493 0 2
10.8264 -1.9463 0.7019 0.2512 0 1
6.1191 -0.8475 0.3942 0.9584 25 14
4.5163 -0.4412 0.2895 0.2666 25 14
4.4492 -0.2545 0.2843 0.2714 25 14
4.3739 -0.0739 0.2791 0.2018 25 14
4.3847 0.1025 0.2798 0.2013 25 14
4.4873 0.2858 0.2869 0.2690 25 14
4.5880 0.4782 0.2943 0.2622 25 14
7.1251 1.0339 0.4594 0.2687 25 14
11.1782 2.0844 0.7255 0.2375 0 1
11.2627 2.5730 0.7371 0.2338 0 1
11.3562 3.0800 0.7508 0.2275 0 1
11.4619 3.6097 0.7667 0.2228 0 1
11.5777 4.1653 0.7851 0.2176 0 1
11.6076 4.7117 0.7993 0.2272 0 1
11.6348 5.2775 0.8152 0.2266 0 1
11.6679 5.8696 0.8334 0.2216 0 1
10.3666 5.7489 0.7563 0.5931 0 14
9.9646 6.0626 0.7442 0.7672 0 14
9.8811 6.5707 0.7571 0.7638 0 14
9.9811 7.2329 0.7865 0.3861 0 14
11.0665 8.7195 0.8989 0.1888 0 2
11.1868 9.5683 0.9392 0.1807 0 2
11.3249 10.5044 0.9856 0.1722 0 2
11.4845 11.5462 1.0391 0.1633 0 2
11.6702 12.7177 1.1013 0.1541 0 2
11.8879 14.0502 1.1743 0.1445 0 2
11.4537 14.6978 1.1889 0.7831 0 3
10.5271 14.6918 1.1532 0.8074 0 3
9.0579 13.7807 1.0522 0.8378 0 21
8.8248 14.6808 1.0929 0.8519 0 3
8.0362 14.6757 1.0676 0.8721 0 3
7.9193 15.9546 1.1365 0.4469 0 3
7.8759 17.6131 1.2310 0.4126 0 3
7.6701 19.1900 1.3186 0.3777 0 3
8.5278 24.1082 1.6316 0.9386 0 3
7.5300 24.3643 1.6271 0.3060 0 3
7.5850 28.5705 1.8861 0.2695 0 3
8.0711 36.2205 2.3677 0.9990 0 6
2.0173 14.4452 0.9306 0.2170 0 9
1.3573 13.7345 0.8806 0.7603 0 9
1.5872 27.2135 1.7393 0.2194 0 9
-0.3319 14.9224 0.9524 0.1070 0 9
-2.6659 25.8585 1.6586 0.3929 0 9
-30.7608 28.2912 2.6666 0.5443 0 3
-30.7436 26.0717 2.5720 0.3023 0 3
-31.1182 24.3062 2.5194 0.3104 0 3
-31.2947 22.4768 2.4584 0.5872 0 3
-31.2942 20.6198 2.3912 0.3253 0 3
-31.4404 18.9474 2.3422 0.3321 0 3
-31.7508 17.4328 2.3111 0.3384 0 3
-36.4110 -33.6205 3.1621 0.8688 0 20
-35.2678 -35.2976 3.1837 0.3750 0 20
0.7776 -38.9056 2.4829 0.9980 0 22
9.5133 -42.2995 2.7663 0.6249 0 3
8.0727 -30.1673 1.9925 0.9658 0 20
9.2376 -29.6820 1.9834 0.9549 0 3
10.5623 -29.6734 2.0097 0.9424 0 3
10.0612 -3.0475 0.5539 0.2539 0 25
10.0390 -2.6047 0.5464 0.2574 0 25
10.1981 -2.2122 0.5498 0.2644 0 2
10.3921 -1.8199 0.5558 0.2626 0 1
4.4187 -0.5917 0.2349 0.0906 25 14
4.2980 -0.4003 0.2274 0.2047 25 14
4.2435 -0.2235 0.2239 0.3270 25 14
4.2295 -0.0524 0.2229 0.3285 25 14
4.2448 0.1183 0.2237 0.3272 25 14
4.2929 0.2929 0.2267 0.2054 25 14
4.4168 0.4805 0.2341 0.1989 25 14
6.1186 0.9161 0.3260 0.9576 25 14
10.7106 2.0472 0.5745 0.2473 0 1
10.7851 2.5151 0.5835 0.2440 0 1
10.8655 2.9996 0.5939 0.2397 0 1
10.9543 3.5042 0.6059 0.2329 0 1
11.0538 4.0331 0.6199 0.2277 0 1
11.0945 4.5618 0.6320 0.2374 0 1
11.1188 5.1040 0.6446 0.2327 0 1
11.1405 5.6674 0.6585 0.2318 0 1
11.1364 6.2416 0.6726 0.2545 0 1
10.0865 6.1993 0.6238 0.4714 0 14
10.0431 6.7440 0.6374 0.4276 0 14
10.9922 8.0413 0.7176 0.2161 0 2
10.4917 8.3435 0.7062 0.1986 0 2
10.5819 9.1339 0.7365 0.1904 0 2
10.6851 10.0009 0.7711 0.1819 0 2
10.8036 10.9600 0.8108 0.1729 0 2
10.9407 12.0311 0.8568 0.1637 0 2
11.1004 13.2400 0.9103 0.1540 0 2
11.2879 14.6205 0.9732 0.1441 0 2
10.4264 14.6907 0.9491 0.8105 0 3
8.9530 13.7557 0.8647 0.8423 0 21
8.7344 14.6798 0.9000 0.8548 0 3
8.0116 14.7886 0.8861 0.4736 0 3
7.9783 16.2570 0.9541 0.4399 0 3
7.9390 17.9712 1.0351 0.4055 0 3
7.7408 19.6229 1.1114 0.3704 0 3
8.4067 24.1108 1.3453 0.9407 0 3
7.7673 25.5397 1.4064 0.2986 0 3
2.4939 14.1465 0.7568 0.3269 0 9
3.3659 24.9212 1.3249 0.1507 0 9
1.3764 14.5997 0.7726 0.2686 0 9
0.8648 16.0731 0.8480 0.2557 0 9
0.3425 25.3628 1.3364 0.5195 0 9
-0.3976 14.8652 0.7835 0.0706 0 9
-0.9947 14.8261 0.7829 0.1310 0 9
-30.8163 38.8403 2.6122 0.5665 0 3
-31.1351 36.1533 2.5137 0.2570 0 3
-31.4026 33.6270 2.4240 0.2665 0 3
-31.4833 31.1043 2.3317 0.7058 0 3
-31.8589 29.0372 2.2711 0.2845 0 3
-32.2910 22.9725 2.0879 0.6329 0 3
-32.2589 21.0476 2.0293 0.7726 0 3
-32.2284 19.2248 1.9771 0.7930 0 3
-32.4148 17.6077 1.9435 0.6313 0 3
-32.7026 16.0950 1.9203 0.4402 0 3
-36.0126 -33.5546 2.5933 0.7883 0 20
9.7269 -42.3565 2.2897 0.9746 0 3
8.0001 -29.3652 1.6035 0.2984 0 20
8.7656 -27.7242 1.5319 0.4859 0 3
10.7131 -29.6732 1.6621 0.9415 0 3
11.9415 -29.3240 1.6681 0.0698 0 3
12.3138 -27.0657 1.5666 0.8836 0 3
12.8788 -25.5293 1.5065 0.0931 0 2
10.2678 -18.4661 1.1132 0.5484 0 9
10.1063 -16.5687 1.0225 0.8841 0 20
11.7001 -17.5518 1.1114 0.1262 0 2
11.7265 -16.1438 1.0512 0.8247 0 2
11.7384 -14.8635 0.9978 0.1498 0 1
11.5649 -13.4903 0.9362 0.1612 0 1
11.4469 -12.3133 0.8858 0.1620 0 1
11.2967 -11.2111 0.8385 0.1637 0 1
11.1483 -10.2069 0.7963 0.1708 0 1
10.9891 -9.2767 0.7577 0.1709 0 1
10.8359 -8.4246 0.7231 0.1826 0 1
10.7061 -7.6530 0.6933 0.1978 0 1
10.6293 -6.9694 0.6697 0.2092 0 1
10.5680 -6.3363 0.6492 0.2158 0 1
10.2432 -5.5940 0.6149 0.2289 0 2
10.1972 -5.0473 0.5995 0.2346 0 25
8.8922 -3.9642 0.5129 0.9343 0 9
10.1213 -4.0322 0.5740 0.2450 0 25
10.0905 -3.5565 0.5637 0.2495 0 25
10.0639 -3.0979 0.5548 0.2535 0 25
10.0413 -2.6537 0.5472 0.2570 0 25
10.0372 -2.2247 0.5416 0.3430 0 2
10.3915 -1.8681 0.5563 0.2624 0 1
6.1496 -0.8517 0.3271 0.8537 25 14
4.3070 -0.4208 0.2280 0.2042 25 14
4.2451 -0.2428 0.2240 0.3268 25 14
4.2310 -0.0714 0.2229 0.3284 25 14
4.2406 0.0991 0.2235 0.3276 25 14
4.2796 0.2726 0.2259 0.2061 25 14
4.4024 0.4589 0.2332 0.1996 25 14
6.1269 0.8891 0.3262 0.9569 25 14
10.7022 1.9957 0.5736 0.2477 0 1
10.7765 2.4620 0.5824 0.2445 0 1
10.8562 2.9444 0.5926 0.2402 0 1
10.9436 3.4465 0.6045 0.2335 0 1
11.0422 3.9726 0.6183 0.2283 0 1
11.0921 4.5024 0.6307 0.2379 0 1
11.1158 5.0421 0.6431 0.2333 0 1
11.1379 5.6030 0.6569 0.2323 0 1
11.1471 6.1818 0.6716 0.2549 0 1
10.0787 6.1321 0.6216 0.3370 0 14
10.0356 6.6735 0.6350 0.4292 0 14
10.9887 7.9630 0.7150 0.2169 0 2
10.5144 8.2845 0.7052 0.6369 0 2
10.5712 9.0418 0.7329 0.1913 0 2
10.6728 9.8995 0.7669 0.1828 0 2
10.7895 10.8474 0.8061 0.1740 0 2
10.9243 11.9049 0.8513 0.1647 0 2
11.0812 13.0968 0.9039 0.1551 0 2
11.2653 14.4560 0.9656 0.1452 0 2
10.5268 14.6914 0.9522 0.8079 0 3
9.0392 13.7521 0.8670 0.8400 0 21
8.8245 14.6804 0.9024 0.8525 0 3
8.0360 14.6753 0.8815 0.8727 0 3
7.9823 16.0815 0.9459 0.4437 0 3
7.9438 17.7649 1.0253 0.4094 0 3
7.7425 19.3709 1.0991 0.3744 0 3
8.5276 24.1076 1.3472 0.9392 0 3
7.6153 24.6405 1.3588 0.3027 0 3
7.6856 28.9494 1.5780 0.2662 0 3
1.9815 14.1890 0.7548 0.3266 0 9
0.9222 15.8112 0.8344 0.7397 0 9
-0.3312 14.8923 0.7848 0.4578 0 9
-30.8242 39.2119 2.6278 0.5631 0 3
-31.0917 36.4337 2.5235 0.7636 0 3
-31.3741 33.9014 2.4336 0.2655 0 3
-31.4887 31.3913 2.3426 0.6491 0 3
-31.8358 29.2799 2.2788 0.2835 0 3
-32.1254 23.0735 2.0839 0.8629 0 3
-32.2624 21.2578 2.0356 0.7702 0 3
-32.2317 19.4242 1.9827 0.7907 0 3
-32.3878 17.7825 1.9467 0.4861 0 3
-32.8737 16.3637 1.9347 0.3340 0 3
-36.2915 -33.5102 2.6025 0.7769 0 20
-35.1766 -35.2064 2.6221 0.5279 0 20
6.0477 -42.6910 2.2717 0.9893 0 3
9.5260 -42.3559 2.2873 0.9726 0 3
8.0748 -30.1752 1.6457 0.9646 0 20
8.5919 -27.6070 1.5233 0.9555 0 3
10.5626 -29.6742 1.6595 0.9430 0 3
9.6611 -2.9263 0.4197 0.2646 0 25
9.6449 -2.5025 0.4143 0.2680 0 25
9.9877 -2.1666 0.4249 0.2707 0 1
9.9552 -1.7434 0.4202 0.2752 0 24
4.1825 -0.5601 0.1755 0.0958 25 14
4.1282 -0.3845 0.1724 0.3353 25 14
4.1113 -0.2166 0.1712 0.2618 25 14
4.0957 -0.0507 0.1703 0.3118 25 14
4.1130 0.1147 0.1711 0.2620 25 14
4.1519 0.2833 0.1730 0.3341 25 14
4.1937 0.4562 0.1754 0.2096 25 14
6.1549 0.9215 0.2588 0.8520 25 14
10.2729 1.9636 0.4349 0.2580 0 1
10.3385 2.4110 0.4414 0.2547 0 1
10.4079 2.8733 0.4489 0.2504 0 1
10.4825 3.3533 0.4576 0.2457 0 1
10.5644 3.8546 0.4676 0.2383 0 1
10.6223 4.3676 0.4775 0.2481 0 1
10.6366 4.8827 0.4866 0.2434 0 1
10.6542 5.4200 0.4970 0.2383 0 1
10.6696 5.9800 0.5086 0.2370 0 1
10.5967 6.5128 0.5172 0.2614 0 1
10.4983 7.0496 0.5258 0.2571 0 1
10.3887 7.5999 0.5352 0.2660 0 1
10.3908 8.2633 0.5520 0.6425 0 2
10.0281 8.6559 0.5508 0.2010 0 2
10.1010 9.4542 0.5753 0.1925 0 2
10.1844 10.3318 0.6032 0.1836 0 2
10.2802 11.3048 0.6353 0.1743 0 2
10.3910 12.3939 0.6725 0.1647 0 2
10.5202 13.6261 0.7158 0.1547 0 2
6.4692 9.1150 0.4647 0.6848 22 6
8.9346 13.7275 0.6810 0.8445 0 21
8.7341 14.6794 0.7102 0.8553 0 3
8.0716 14.8995 0.7046 0.4703 0 3
8.0428 16.3883 0.7591 0.4366 0 3
8.0087 18.1288 0.8241 0.4021 0 3
7.8111 19.8013 0.8851 0.3671 0 3
8.4051 24.1062 1.0615 0.9412 0 3
7.8601 25.8448 1.1232 0.2953 0 3
1.8611 13.7794 0.5781 0.2493 0 9
1.3140 13.9379 0.5821 0.3653 0 9
0.9828 18.2668 0.7606 0.4762 0 9
-32.3291 37.5398 2.0599 0.6279 0 3
-32.3380 34.6286 1.9700 0.6284 0 3
-32.2910 31.9022 1.8874 0.6560 0 3
-30.3111 27.6264 1.7053 0.9439 0 3
-32.2104 27.0669 1.7494 0.7077 0 3
-32.1756 24.8995 1.6916 0.7319 0 3
-32.1440 22.8679 1.6402 0.7548 0 3
-32.1123 20.9520 1.5943 0.7765 0 3
-32.0858 19.1397 1.5534 0.7969 0 3
-32.7311 17.7795 1.5488 0.4824 0 3
-33.9514 16.7096 1.5734 0.3243 0 3
-35.8073 -33.3632 2.0350 0.6712 0 20
-35.0473 -35.3946 2.0711 0.6569 0 20
8.2403 -35.8832 1.5308 0.9196 0 3
7.9555 -29.2017 1.2584 0.9657 0 20
8.7285 -27.6068 1.2039 0.9546 0 3
10.9736 -30.3945 1.3436 0.0685 0 3
11.0818 -27.2128 1.2217 0.0804 0 3
11.9701 -26.3104 1.2019 0.0921 0 2
11.5715 -22.9379 1.0682 0.1037 0 2
10.2968 -18.5183 0.8810 0.6838 0 9
10.1120 -16.5780 0.8074 0.9250 0 20
10.8000 -16.2015 0.8096 0.1368 0 2
11.0984 -15.2791 0.7852 0.1503 0 1
10.9330 -13.8436 0.7335 0.1625 0 1
10.8402 -12.6449 0.6925 0.1636 0 1
10.7319 -11.5442 0.6554 0.1654 0 1
10.6081 -10.5277 0.6214 0.1728 0 1
10.4891 -9.6034 0.5913 0.1729 0 1
10.3579 -8.7438 0.5636 0.1849 0 1
10.2437 -7.9642 0.5395 0.1932 0 1
10.1688 -7.2689 0.5197 0.2129 0 1
10.1193 -6.6350 0.5031 0.2199 0 1
10.0758 -6.0412 0.4885 0.2280 0 1
9.7930 -5.3481 0.4640 0.2393 0 25
9.7597 -4.8307 0.4528 0.2452 0 25
8.9180 -3.9757 0.4060 0.9914 0 9
9.3678 -3.7320 0.4193 0.3702 0 9
9.6823 -3.4127 0.4269 0.2601 0 25
9.6630 -2.9745 0.4204 0.2641 0 25
9.6466 -2.5494 0.4149 0.2677 0 25
9.9568 -2.2069 0.4240 0.2706 0 2
9.9908 -1.7961 0.4221 0.2730 0 1
4.3604 -0.6039 0.1830 0.0918 25 14
4.1298 -0.4034 0.1725 0.3351 25 14
4.1134 -0.2353 0.1713 0.2616 25 14
4.0965 -0.0692 0.1704 0.3117 25 14
4.1077 0.0960 0.1708 0.2624 25 14
4.1478 0.2642 0.1728 0.3345 25 14
4.1850 0.4362 0.1750 0.3304 25 14
4.3862 0.6365 0.1843 0.0912 25 14
10.2654 1.9142 0.4342 0.2584 0 1
10.3311 2.3602 0.4406 0.2551 0 1
10.3999 2.8207 0.4480 0.2509 0 1
10.4739 3.2985 0.4566 0.2462 0 1
10.5546 3.7972 0.4664 0.2389 0 1
10.6209 4.3112 0.4766 0.2485 0 1
10.6348 4.8239 0.4856 0.2440 0 1
10.6521 5.3586 0.4958 0.2389 0 1
10.6678 5.9160 0.5072 0.2376 0 1
10.6076 6.4539 0.5163 0.2619 0 1
10.5094 6.9885 0.5248 0.2576 0 1
10.4021 7.5379 0.5341 0.2665 0 1
10.4823 8.2592 0.5549 0.6392 0 2
10.0205 8.5708 0.5483 0.2020 0 2
10.0924 9.3611 0.5724 0.1935 0 2
10.1745 10.2291 0.5999 0.1846 0 2
10.2688 11.1905 0.6315 0.1753 0 2
10.3778 12.2654 0.6680 0.1657 0 2
10.5047 13.4800 0.7106 0.1558 0 2
10.5264 14.6910 0.7515 0.8083 0 3
9.0205 13.7238 0.6829 0.8422 0 21
8.8243 14.6800 0.7122 0.8529 0 3
8.0746 14.7458 0.6990 0.4741 0 3
8.0463 16.2103 0.7525 0.4404 0 3
8.0128 17.9192 0.8162 0.4060 0 3
7.8161 19.5551 0.8756 0.3710 0 3
8.5274 24.1070 1.0632 0.9397 0 3
7.8680 25.4580 1.1079 0.2993 0 3
7.7888 29.3379 1.2621 0.2628 0 3
3.3635 15.0944 0.6430 0.3728 0 9
2.4942 13.7847 0.5825 0.6161 0 9
1.4716 14.8909 0.6222 0.4144 0 9
0.8044 13.7915 0.5744 0.6171 0 9
0.2920 16.2089 0.6741 0.1881 0 9
-32.3969 37.9632 2.0751 0.5966 0 3
-32.3436 34.9491 1.9800 0.6253 0 3
-32.2960 32.1961 1.8961 0.6529 0 3
-30.3487 27.9122 1.7144 0.5353 0 3
-32.2145 27.3191 1.7563 0.7049 0 3
-32.1794 25.1350 1.6978 0.7292 0 3
-32.1474 23.0892 1.6457 0.7523 0 3
-32.1154 21.1610 1.5992 0.7741 0 3
-32.0886 19.3380 1.5578 0.7947 0 3
-32.3863 17.7817 1.5362 0.4864 0 3
-33.7545 16.8021 1.5678 0.1940 0 3
-36.2671 -33.4876 2.0525 0.7864 0 20
-35.0462 -35.0759 2.0617 0.6599 0 20
6.0479 -42.6920 1.7928 0.9898 0 3
9.5257 -42.3546 1.8051 0.9731 0 3
7.8213 -29.2278 1.2580 0.2295 0 20
8.5921 -27.6077 1.2022 0.9560 0 3
10.4408 -29.3321 1.2946 0.6934 0 3
9.2919 -2.8145 0.2960 0.2752 0 25
9.2809 -2.4081 0.2923 0.2786 0 25
9.6135 -2.0854 0.2999 0.2809 0 1
9.5885 -1.6792 0.2967 0.2848 0 24
4.0627 -0.5441 0.1250 0.2659 25 14
3.9775 -0.3705 0.1218 0.3198 25 14
3.9703 -0.2091 0.1212 0.3214 25 14
3.9638 -0.0491 0.1208 0.3223 25 14
3.9782 0.1109 0.1213 0.3210 25 14
4.0081 0.2735 0.1225 0.3180 25 14
4.0459 0.4402 0.1241 0.2650 25 14
4.3570 0.6523 0.1343 0.0918 25 14
9.8770 1.8879 0.3065 0.2755 0 1
9.9297 2.3157 0.3108 0.2710 0 1
9.9882 2.7574 0.3159 0.2666 0 1
10.0514 3.2154 0.3217 0.2563 0 1
10.1196 3.6923 0.3284 0.2511 0 1
10.1891 4.1895 0.3358 0.2587 0 1
10.1948 4.6799 0.3420 0.2541 0 1
10.2027 5.1903 0.3489 0.2490 0 1
10.2129 5.7240 0.3569 0.2434 0 1
10.1870 6.2610 0.3645 0.2720 0 1
10.0859 6.7727 0.3703 0.2677 0 1
9.9832 7.3032 0.3771 0.2630 0 1
10.0192 7.9678 0.3902 0.2302 0 2
9.5854 8.2738 0.3860 0.6739 0 2
9.5780 8.9646 0.3999 0.2031 0 2
9.6328 9.7722 0.4183 0.1941 0 2
9.6955 10.6617 0.4393 0.1849 0 2
9.7675 11.6502 0.4634 0.1752 0 2
9.8508 12.7591 0.4914 0.1653 0 2
6.4680 9.1133 0.3407 0.9057 22 6
8.9163 13.6993 0.4983 0.8465 0 21
8.7339 14.6790 0.5207 0.8556 0 3
8.1326 15.0119 0.5205 0.4670 0 3
8.1082 16.5217 0.5610 0.4332 0 3
8.0795 18.2891 0.6095 0.3988 0 3
8.8615 22.4640 0.7361 0.9129 0 3
8.4049 24.1056 0.7782 0.9416 0 3
7.9551 26.1569 0.8334 0.2919 0 3
3.1237 14.3221 0.4468 0.2533 0 9
2.4770 14.0507 0.4349 0.1759 0 9
0.7385 13.7265 0.4190 0.1698 0 9
0.2201 16.2999 0.4969 0.0712 0 9
-32.2015 37.3915 1.5042 0.6036 0 3
-32.1577 34.4355 1.4363 0.6322 0 3
-32.1184 31.7317 1.3763 0.6597 0 3
-32.0829 29.2414 1.3233 0.6862 0 3
-32.0508 26.9328 1.2762 0.7115 0 3
-32.0214 24.7801 1.2343 0.7357 0 3
-31.8284 22.6434 1.1907 0.7213 0 3
-31.9672 20.8573 1.1635 0.7803 0 3
-31.9445 19.0554 1.1339 0.8007 0 3
-30.0133 16.3032 1.0412 0.8568 0 3
-35.0783 17.2642 1.1918 0.3139 0 3
-35.8119 -33.3675 1.4921 0.6815 0 20
-34.8635 -35.2089 1.5104 0.6648 0 20
6.2443 -42.6924 1.3153 0.9895 0 3
9.7265 -42.3547 1.3247 0.9725 0 3
7.9662 -29.2409 0.9238 0.9661 0 20
8.7287 -27.6075 0.8826 0.9550 0 3
10.2829 -28.4815 0.9231 0.2237 0 3
10.8251 -26.5825 0.8749 0.8982 0 3
10.7442 -23.6159 0.7909 0.1027 0 2
10.5061 -20.8260 0.7111 0.1142 0 2
10.0014 -17.9870 0.6274 0.9136 0 9
10.1235 -16.5969 0.5926 0.9749 0 20
10.5895 -15.8857 0.5820 0.1615 0 2
10.3326 -14.2249 0.5359 0.1484 0 1
10.2483 -12.9768 0.5041 0.1648 0 1
10.1816 -11.8766 0.4769 0.1667 0 1
10.0834 -10.8465 0.4514 0.1745 0 1
10.0005 -9.9247 0.4295 0.1908 0 1
9.9003 -9.0643 0.4092 0.1929 0 1
9.8070 -8.2788 0.3912 0.2018 0 1
9.7426 -7.5746 0.3762 0.2277 0 1
9.7066 -6.9385 0.3637 0.2355 0 1
9.6748 -6.3435 0.3527 0.2429 0 1
9.4063 -5.6398 0.3343 0.2437 0 2
9.3810 -5.1231 0.3258 0.2500 0 25
9.0571 -4.4830 0.3081 0.4201 0 9
8.9182 -3.9758 0.2976 0.4336 0 9
8.9897 -3.5814 0.2950 0.2601 0 9
9.3063 -3.2801 0.3008 0.2708 0 25
9.2932 -2.8607 0.2964 0.2748 0 25
9.2820 -2.4531 0.2927 0.2783 0 25
9.6131 -2.1307 0.3002 0.2806 0 1
9.5874 -1.7236 0.2969 0.2849 0 24
4.1194 -0.5705 0.1268 0.2621 25 14
3.9783 -0.3886 0.1219 0.3196 25 14
3.9711 -0.2271 0.1213 0.3212 25 14
3.9645 -0.0669 0.1209 0.3222 25 14
3.9749 0.0929 0.1212 0.3213 25 14
4.0047 0.2551 0.1223 0.3184 25 14
4.0406 0.4212 0.1238 0.2655 25 14
4.1750 0.6058 0.1286 0.0959 25 14
9.8716 1.8408 0.3061 0.2759 0 1
9.9234 2.2671 0.3103 0.2714 0 1
9.9815 2.7072 0.3153 0.2671 0 1
10.0440 3.1632 0.3210 0.2569 0 1
10.1117 3.6378 0.3276 0.2517 0 1
10.1851 4.1343 0.3351 0.2439 0 1
10.1941 4.6240 0.3412 0.2546 0 1
10.2017 5.1320 0.3481 0.2496 0 1
10.2116 5.6630 0.3559 0.2441 0 1
10.1982 6.2048 0.3639 0.2725 0 1
10.0973 6.7145 0.3696 0.2682 0 1
9.9948 7.2428 0.3763 0.2635 0 1
10.0189 7.8941 0.3888 0.2310 0 2
9.6688 8.2699 0.3878 0.6707 0 2
9.5723 8.8787 0.3980 0.2040 0 2
9.6263 9.6779 0.4161 0.1952 0 2
9.6880 10.5576 0.4368 0.1859 0 2
9.7589 11.5339 0.4606 0.1763 0 2
9.8408 12.6281 0.4880 0.1664 0 2
6.5407 9.1284 0.3423 0.3574 22 6
9.0020 13.6956 0.4996 0.8443 0 21
8.8241 14.6796 0.5221 0.8533 0 3
8.1351 14.8563 0.5163 0.4707 0 3
8.1112 16.3410 0.5561 0.4371 0 3
8.0829 18.0761 0.6036 0.4027 0 3
7.8910 19.7426 0.6481 0.3677 0 3
8.5272 24.1064 0.7795 0.9401 0 3
7.9617 25.7612 0.8219 0.2959 0 3
3.3478 15.0240 0.4692 0.2580 0 9
2.5489 14.0868 0.4364 0.8435 0 9
1.9042 13.6350 0.4197 0.6603 0 9
0.7821 13.4099 0.4095 0.9251 0 9
0.4314 23.9470 0.7301 0.6537 0 9
-32.2067 37.7403 1.5124 0.6004 0 3
-32.1624 34.7532 1.4434 0.6291 0 3
-32.1226 32.0233 1.3827 0.6567 0 3
-32.0867 29.5107 1.3289 0.6833 0 3
-32.0542 27.1832 1.2812 0.7087 0 3
-32.0246 25.0141 1.2387 0.7330 0 3
-31.9975 22.9816 1.2009 0.7561 0 3
-31.9699 21.0651 1.1671 0.7780 0 3
-31.9470 19.2526 1.1370 0.7985 0 3
-32.1099 17.6299 1.1167 0.8970 0 3
-32.1144 15.9857 1.0935 0.6054 0 3
-36.1371 -33.3675 1.4994 0.6782 0 20
-34.8640 -34.8935 1.5036 0.6678 0 20
6.0480 -42.6930 1.3144 0.9901 0 3
9.0291 -40.1465 1.2544 0.9561 0 3
7.8462 -29.3210 0.9253 0.1121 0 20
8.6263 -27.7176 0.8849 0.2849 0 3
10.2047 -28.6687 0.9276 0.2226 0 3
8.9501 -2.7110 0.1814 0.2858 0 25
8.9468 -2.3214 0.1793 0.2896 0 2
9.2668 -2.0102 0.1839 0.2923 0 1
9.2780 -1.6248 0.1827 0.2945 0 1
3.9901 -0.5343 0.0781 0.3093 25 14
3.9546 -0.3683 0.0770 0.9628 25 14
3.9283 -0.2069 0.0763 0.9721 25 14
3.9025 -0.0483 0.0757 0.9798 25 14
3.9068 0.1089 0.0758 0.9784 25 14
3.9322 0.2683 0.0764 0.9702 25 14
3.9581 0.4306 0.0772 0.9605 25 14
4.1216 0.6171 0.0808 0.2617 25 14
9.4789 1.8118 0.1872 0.2845 0 24
9.5589 2.2292 0.1904 0.2816 0 1
9.6094 2.6528 0.1933 0.2772 0 1
9.6626 3.0910 0.1968 0.2724 0 1
9.7189 3.5461 0.2007 0.2671 0 1
9.7771 4.0201 0.2050 0.2594 0 1
9.7916 4.4948 0.2090 0.2681 0 1
9.7912 4.9809 0.2131 0.2629 0 1
9.7918 5.4880 0.2177 0.2573 0 1
9.7928 6.0188 0.2229 0.2509 0 1
9.7057 6.5174 0.2267 0.2790 0 1
9.6005 7.0233 0.2307 0.2742 0 1
9.5009 7.5555 0.2354 0.2669 0 1
9.5578 8.2499 0.2449 0.6760 0 2
9.1067 8.5236 0.2419 0.2136 0 2
9.1382 9.2704 0.2525 0.2047 0 2
9.1740 10.0883 0.2645 0.1954 0 2
9.2149 10.9911 0.2782 0.1858 0 2
9.2619 11.9963 0.2939 0.1758 0 2
6.4760 9.1247 0.2170 0.9861 22 6
8.8874 13.6550 0.3160 0.8485 0 21
8.7336 14.6786 0.3313 0.8559 0 3
8.1944 15.1260 0.3337 0.4636 0 3
8.1747 16.6571 0.3599 0.4298 0 3
8.1515 18.4521 0.3912 0.3954 0 3
8.8856 22.5250 0.4696 0.9107 0 3
8.4046 24.1050 0.4951 0.9419 0 3
8.0061 26.3248 0.5337 0.2884 0 3
11.5638 44.3626 0.8892 0.0616 0 1
3.2754 15.0172 0.2981 0.8882 0 9
2.5150 14.2663 0.2810 0.2906 0 9
1.9994 14.8035 0.2897 0.3870 0 9
1.4198 26.3891 0.5126 0.5357 0 9
0.2384 17.6495 0.3423 0.3681 0 9
-32.0146 37.1746 0.9515 0.6073 0 3
-32.0485 31.6627 0.8738 0.7072 0 3
-35.6118 32.4577 0.9345 0.2533 0 3
-31.8929 26.8001 0.8080 0.7152 0 3
-35.7339 27.6531 0.8763 0.6731 0 3
-31.8440 22.6545 0.7580 0.7624 0 3
-34.7330 22.6618 0.8044 0.5516 0 3
-35.9759 21.4602 0.8125 0.2913 0 3
-32.7279 17.7777 0.7224 0.4828 0 3
-36.0785 17.7565 0.7799 0.4472 0 3
-36.2547 16.0649 0.7691 0.4108 0 3
-35.5571 -33.1302 0.9426 0.5520 0 20
-34.7025 -35.0464 0.9566 0.7814 0 20
6.2445 -42.6934 0.8368 0.9898 0 3
8.4299 -44.9265 0.8866 0.6833 0 3
9.1864 -40.0027 0.7960 0.7425 0 3
7.9559 -29.2031 0.5870 0.9664 0 20
8.7339 -27.6240 0.5619 0.2855 0 3
9.8269 -27.2186 0.5613 0.2341 0 3
9.9044 -24.3214 0.5093 0.1015 0 2
9.7467 -21.4234 0.4565 0.1132 0 2
9.6209 -19.0712 0.4143 0.1248 0 2
9.5182 -17.1180 0.3799 0.1361 0 2
9.8526 -16.1528 0.3670 0.8706 0 2
9.7442 -14.6176 0.3407 0.1481 0 1
9.6267 -13.2531 0.3177 0.1667 0 24
9.6356 -12.2009 0.3015 0.1768 0 1
9.5912 -11.1879 0.2858 0.1825 0 1
9.5311 -10.2525 0.2715 0.1921 0 1
9.4635 -9.3918 0.2586 0.1943 0 1
9.3885 -8.5958 0.2469 0.2035 0 1
9.3403 -7.8848 0.2371 0.2268 0 1
9.3139 -7.2413 0.2288 0.2382 0 1
9.2930 -6.6428 0.2216 0.2460 0 1
9.3049 -6.1010 0.2158 0.2755 0 1
9.0173 -5.4066 0.2039 0.2542 0 25
9.0025 -4.9164 0.1989 0.2605 0 25
8.6670 -4.2899 0.1876 0.1949 0 9
8.6582 -3.8599 0.1839 0.2759 0 9
8.8901 -3.5417 0.1856 0.7720 0 9
8.9586 -3.1576 0.1842 0.2813 0 25
8.9509 -2.7553 0.1816 0.2853 0 25
8.9484 -2.3649 0.1795 0.2892 0 2
9.2658 -2.0538 0.1841 0.2912 0 1
9.2460 -1.6622 0.1822 0.2948 0 24
4.0420 -0.5598 0.0791 0.2672 25 14
3.9576 -0.3866 0.0771 0.9617 25 14
3.9312 -0.2248 0.0764 0.9711 25 14
3.9053 -0.0659 0.0758 0.9790 25 14
3.9040 0.0912 0.0757 0.9793 25 14
3.9293 0.2503 0.0764 0.9712 25 14
3.9552 0.4123 0.0771 0.9616 25 14
4.0635 0.5897 0.0796 0.2656 25 14
9.4740 1.7666 0.1869 0.2875 0 24
9.5534 2.1825 0.1901 0.2820 0 1
9.6036 2.6047 0.1930 0.2777 0 1
9.6565 3.0411 0.1964 0.2730 0 1
9.7124 3.4942 0.2002 0.2677 0 1
9.7711 3.9662 0.2045 0.2600 0 1
9.7918 4.4415 0.2085 0.2686 0 1
9.7912 4.9255 0.2126 0.2635 0 1
9.7917 5.4301 0.2172 0.2580 0 1
9.7931 5.9583 0.2223 0.2516 0 1
9.7173 6.4618 0.2263 0.2795 0 1
9.6124 6.9657 0.2302 0.2748 0 1
9.5104 7.4934 0.2348 0.2676 0 1
9.5720 8.1872 0.2443 0.2340 0 2
9.1034 8.4438 0.2408 0.2146 0 2
9.1345 9.1835 0.2512 0.2057 0 2
9.1697 9.9928 0.2630 0.1965 0 2
9.2100 10.8852 0.2765 0.1869 0 2
9.2563 11.8780 0.2921 0.1770 0 2
6.5277 9.1102 0.2174 0.6835 22 6
9.3723 14.2589 0.3309 0.1562 0 2
8.8238 14.6792 0.3322 0.8536 0 3
8.1964 14.9683 0.3310 0.4674 0 3
8.1771 16.4738 0.3567 0.4337 0 3
8.1543 18.2356 0.3874 0.3993 0 3
8.9712 22.4452 0.4688 0.9123 0 3
8.5270 24.1058 0.4959 0.9404 0 3
8.0576 26.0716 0.5293 0.2925 0 3
11.5089 43.3507 0.8699 0.0648 0 1
3.3242 14.9179 0.2964 0.1302 0 9
2.6111 26.4214 0.5149 0.2903 0 9
0.3175 17.6259 0.3419 0.5199 0 9
-0.3612 16.2404 0.3151 0.8718 0 9
-32.0188 37.5201 0.9567 0.6041 0 3
-31.9512 31.8524 0.8750 0.6604 0 3
-30.0264 27.6157 0.7912 0.8024 0 3
-31.8957 27.0487 0.8111 0.7125 0 3
-35.4091 27.6578 0.8714 0.6204 0 3
-31.8491 22.8750 0.7605 0.7598 0 3
-34.3965 22.6640 0.7989 0.5554 0 3
-35.9698 21.6770 0.8145 0.2906 0 3
-32.3831 17.7799 0.7165 0.4867 0 3
-35.6769 17.7590 0.7729 0.4512 0 3
-36.3404 16.2992 0.7725 0.3084 0 3
-35.9508 -33.1955 0.9490 0.5377 0 20
-34.7530 -34.7824 0.9536 0.7838 0 20
6.0482 -42.6940 0.8363 0.9904 0 3
8.1995 -44.8116 0.8835 0.2430 0 3
9.4598 -42.0618 0.8362 0.0513 0 3
7.8630 -29.3837 0.5899 0.2634 0 20
8.7343 -28.0647 0.5701 0.2814 0 3
9.7500 -27.3915 0.5639 0.2330 0 3
8.6327 -2.6148 0.0750 0.2963 0 25
8.6364 -2.2408 0.0742 0.3955 0 2
8.9450 -1.9404 0.0761 0.3029 0 1
8.9581 -1.5688 0.0756 0.3050 0 1
3.9652 -0.5310 0.0332 0.9631 25 14
3.9508 -0.3680 0.0330 0.9639 25 14
3.9246 -0.2067 0.0327 0.9732 25 14
3.8988 -0.0483 0.0324 0.9809 25 14
3.9035 0.1088 0.0325 0.9794 25 14
3.9288 0.2680 0.0327 0.9712 25 14
3.9547 0.4302 0.0331 0.9614 25 14
4.0513 0.6065 0.0340 0.2663 25 14
9.1425 1.7475 0.0774 0.2961 0 24
9.2149 2.1490 0.0786 0.2921 0 1
9.2583 2.5559 0.0798 0.2878 0 1
9.3036 2.9762 0.0812 0.2830 0 1
9.3509 3.4118 0.0827 0.2777 0 1
9.3958 3.8633 0.0844 0.2700 0 1
9.4216 4.3249 0.0862 0.2786 0 1
9.4141 4.7891 0.0878 0.2735 0 1
9.4068 5.2722 0.0896 0.2679 0 1
9.3981 5.7762 0.0917 0.2614 0 1
9.3535 6.2809 0.0936 0.2895 0 1
9.2462 6.7641 0.0952 0.2848 0 1
9.1418 7.2700 0.0971 0.2775 0 1
9.1580 7.9048 0.1005 0.2437 0 2
8.8258 8.2607 0.1005 0.7062 0 2
8.6921 8.8178 0.1029 0.2153 0 2
8.7059 9.5736 0.1075 0.2060 0 2
8.7216 10.4028 0.1128 0.1963 0 2
8.7396 11.3199 0.1189 0.1864 0 2
6.4362 9.0685 0.0924 0.9426 22 6
8.7843 13.4966 0.1338 0.1655 0 2
8.7181 14.6525 0.1417 0.1546 0 3
8.2571 15.2418 0.1441 0.4602 0 3
8.2394 16.7888 0.1554 0.5930 0 3
8.2247 18.6179 0.1692 0.3919 0 3
8.8970 22.5540 0.2015 0.1088 0 3
8.4044 24.1044 0.2122 0.9421 0 3
8.1518 26.8039 0.2328 0.2849 0 3
9.2991 35.6743 0.3064 0.0723 0 2
3.2478 14.8910 0.1267 0.4010 0 9
2.5012 26.5303 0.2215 0.9681 0 9
1.3016 24.1915 0.2014 0.1928 0 9
0.3546 26.2593 0.2183 0.6637 0 9
-30.2315 38.1031 0.4043 0.8652 0 3
-31.8300 36.9602 0.4054 0.6109 0 3
-30.0922 32.2237 0.3664 0.2169 0 3
-30.0946 29.7323 0.3516 0.2365 0 3
-35.8247 32.6517 0.4029 0.6783 0 3
-31.7411 26.6726 0.3446 0.9578 0 3
-35.7359 27.6546 0.3756 0.6170 0 3
-30.1834 21.4731 0.3079 0.5848 0 3
-30.2440 19.7330 0.3001 0.2741 0 3
-29.8427 17.8017 0.2888 0.5159 0 3
-30.0943 16.3472 0.2846 0.2872 0 3
-36.0766 17.7556 0.3342 0.4473 0 3
-37.6133 16.6669 0.3419 0.2985 0 3
-35.3133 -32.9030 0.4012 0.8885 0 20
-34.5400 -34.8822 0.4080 0.8695 0 20
8.4684 -45.1314 0.3816 0.1181 0 3
8.3640 -36.4218 0.3106 0.0632 0 3
8.2204 -30.1742 0.2599 0.9665 0 20
8.8430 -27.9691 0.2438 0.2820 0 3
9.0455 -25.0541 0.2214 0.1001 0 2
8.9751 -22.0394 0.1978 0.1120 0 2
8.9190 -19.6041 0.1790 0.1237 0 2
8.8735 -17.5898 0.1637 0.1353 0 2
8.9937 -16.1747 0.1538 0.9074 0 2
9.1660 -15.0271 0.1463 0.1416 0 1
9.1067 -13.6612 0.1365 0.1664 0 1
9.0965 -12.5232 0.1286 0.1776 0 1
9.0897 -11.5096 0.1219 0.1853 0 1
9.0687 -10.5784 0.1158 0.1931 0 1
8.9952 -9.6760 0.1098 0.1986 0 24
8.9776 -8.9095 0.1051 0.2048 0 1
8.9483 -8.1928 0.1008 0.2286 0 1
8.9305 -7.5388 0.0971 0.2405 0 1
8.9214 -6.9361 0.0939 0.2488 0 1
8.9422 -6.3921 0.0914 0.2790 0 1
6.3180 -4.1426 0.0628 0.7436 14 6
8.6594 -5.1920 0.0839 0.2647 0 25
8.6535 -4.7259 0.0819 0.2711 0 25
8.6483 -4.2806 0.0802 0.2770 0 25
8.6437 -3.8535 0.0787 0.2824 0 25
8.6396 -3.4419 0.0773 0.2874 0 25
8.6361 -3.0439 0.0761 0.2919 0 25
8.6330 -2.6575 0.0751 0.2959 0 25
8.6322 -2.2813 0.0742 0.2954 0 2
8.9437 -1.9824 0.0761 0.3026 0 1
8.9566 -1.6102 0.0756 0.3048 0 1
3.9762 -0.5507 0.0334 0.3103 25 14
3.9538 -0.3862 0.0330 0.9627 25 14
3.9275 -0.2246 0.0327 0.9722 25 14
3.9017 -0.0659 0.0324 0.9801 25 14
3.9007 0.0911 0.0324 0.9802 25 14
3.9260 0.2501 0.0327 0.9722 25 14
3.9518 0.4119 0.0330 0.9626 25 14
3.9974 0.5801 0.0336 0.3084 25 14
9.1727 1.7104 0.0776 0.2970 0 1
9.2101 2.1041 0.0785 0.2926 0 1
9.2534 2.5097 0.0797 0.2883 0 1
9.2984 2.9284 0.0810 0.2835 0 1
9.3455 3.3622 0.0825 0.2783 0 1
9.3909 3.8119 0.0842 0.2706 0 1
9.4224 4.2740 0.0860 0.2792 0 1
9.4149 4.7363 0.0876 0.2741 0 1
9.4076 5.2171 0.0894 0.2685 0 1
9.3994 5.7188 0.0914 0.2621 0 1
9.3653 6.2277 0.0935 0.2901 0 1
9.2584 6.7092 0.0950 0.2853 0 1
9.1519 7.2109 0.0968 0.2782 0 1
9.1607 7.8354 0.1002 0.2445 0 2
8.9019 8.2569 0.1009 0.7031 0 2
8.6906 8.7372 0.1024 0.2163 0 2
8.7043 9.4855 0.1070 0.2070 0 2
8.7198 10.3058 0.1122 0.1974 0 2
8.7375 11.2123 0.1181 0.1875 0 2
6.5003 9.0719 0.0928 0.9841 22 6
8.7815 13.3601 0.1329 0.1667 0 2
8.7935 14.6288 0.1419 0.8537 0 3
8.2586 15.0820 0.1429 0.4639 0 3
8.2440 16.6087 0.1541 0.4302 0 3
8.2269 18.3980 0.1675 0.3958 0 3
8.8898 22.2414 0.1991 0.1101 0 3
8.5267 24.1051 0.2125 0.9406 0 3
8.1349 26.3217 0.2290 0.9535 0 3
9.2819 34.9621 0.3006 0.0737 0 2
3.1536 14.1525 0.1205 0.5031 0 9
3.3832 24.2262 0.2033 0.5045 0 9
0.4300 23.8692 0.1984 0.1586 0 9
-31.8332 37.3026 0.4076 0.6077 0 3
-30.0948 32.5191 0.3683 0.2194 0 3
-30.0872 29.9942 0.3531 0.2355 0 3
-30.2394 27.8117 0.3415 0.6816 0 3
-31.7388 26.9157 0.3459 0.7161 0 3
-35.4078 27.6567 0.3734 0.6205 0 3
