ply
format ascii 1.0
element vertex 1403
property float32 x
property float32 y
property float32 z
property float32 CosAngle
property uint32 ObjIdx
property uint32 ObjTag
end_header
15.8841 6.0680 2.2266 0.1766 0 1
13.4272 5.7573 1.9131 0.2834 0 14
12.0158 5.7337 1.7434 0.2467 0 14
10.8063 5.7000 1.5999 0.4862 0 14
10.3427 5.9981 1.5656 0.4460 0 14
10.2293 6.4947 1.5867 0.4232 0 14
10.2792 7.1210 1.6375 0.3162 0 14
16.4147 12.3755 2.6919 0.1286 0 2
16.9348 13.8681 2.8663 0.1207 0 2
16.4228 14.5888 2.8765 0.6535 0 3
15.2703 14.7033 2.7759 0.6776 0 0
14.0758 14.6869 2.6639 0.7061 0 0
12.8582 14.5428 2.5420 0.7383 0 3
11.9842 14.7040 2.4840 0.7643 0 3
11.0204 14.6883 2.4046 0.7890 0 3
10.1274 14.6918 2.3367 0.8125 0 3
5.9982 9.4961 1.4708 0.5490 0 8
8.4685 14.6810 2.2193 0.8554 0 3
7.6975 14.6759 2.1701 0.8748 0 3
7.5296 15.8744 2.3007 0.4502 0 3
7.4544 17.4977 2.4906 0.4159 0 3
7.2474 19.1046 2.6757 0.9245 0 3
8.0543 24.1088 3.3285 0.9381 0 3
6.9898 24.1019 3.2861 0.9502 0 3
6.9482 28.1356 3.7950 0.2731 0 3
2.5924 12.6617 1.6924 0.3527 0 9
1.2912 15.8117 2.0774 0.5535 0 9
0.9496 22.9674 3.0101 0.8211 0 9
0.0200 17.1843 2.2503 0.1382 0 9
-0.5586 14.3193 1.8765 0.1083 0 9
-2.0875 26.3184 3.4572 0.5418 0 9
2.7817 -18.3862 2.4350 0.6374 0 22
3.6803 -19.1048 2.5477 0.6399 0 22
7.3086 -31.1487 4.1896 0.3955 0 3
7.6638 -27.6244 3.7540 0.2862 0 3
9.5058 -29.5958 4.0705 0.9462 0 3
10.8609 -29.6670 4.1370 0.9335 0 3
12.2291 -29.6581 4.2009 0.9193 0 3
12.6886 -27.5756 3.9749 0.9037 0 3
14.6005 -28.6429 4.2099 0.8865 0 3
16.0753 -28.6333 4.3000 0.8680 0 3
17.6171 -28.6233 4.4012 0.8480 0 3
19.9011 -29.6022 4.6709 0.8267 0 3
20.4670 -27.9511 4.5365 0.5480 0 3
21.2190 -26.6626 4.4621 0.0729 0 3
20.8376 -24.1278 4.1747 0.0829 0 2
19.5681 -20.8994 3.7491 0.0923 0 2
18.5683 -18.3002 3.4139 0.1014 0 2
17.7633 -16.1535 3.1440 0.1101 0 2
17.9361 -15.0404 3.0652 0.1371 0 1
17.6307 -13.6171 2.9171 0.1377 0 1
5.9684 -4.2384 0.9586 0.9015 14 6
16.9067 -11.0125 2.6421 0.1332 0 1
16.4669 -9.8078 2.5098 0.1353 0 1
15.9744 -8.6653 2.3798 0.1333 0 1
8.6657 -4.2597 1.2644 0.3765 0 9
8.7359 -3.8668 1.2510 0.9324 0 9
15.0223 -5.9402 2.1154 0.1645 0 1
14.3448 -5.0162 1.9900 0.1744 0 25
14.2138 -4.3383 1.9460 0.1783 0 25
14.1036 -3.6927 1.9091 0.1818 0 25
14.0124 -3.0735 1.8785 0.1847 0 25
13.9387 -2.4755 1.8538 0.1872 0 25
14.4354 -1.9696 1.9078 0.1896 0 1
14.4328 -1.3818 1.8986 0.1919 0 1
14.4485 -0.7997 1.8949 0.1923 0 1
14.4790 -0.2192 1.8962 0.1922 0 1
14.5838 0.3650 1.9103 0.1896 0 1
14.7297 0.9614 1.9329 0.1874 0 1
14.8953 1.5748 1.9614 0.1847 0 1
15.0795 2.2096 1.9957 0.1823 0 1
15.2628 2.8666 2.0336 0.1789 0 1
15.4724 3.5544 2.0788 0.1739 0 1
15.6989 4.2767 2.1307 0.1824 0 1
15.7640 4.9823 2.1649 0.1795 0 1
15.8416 5.7160 2.2053 0.1783 0 1
15.8320 6.4420 2.2382 0.2018 0 1
12.6459 5.7477 1.8190 0.3794 0 14
11.3074 5.6976 1.6580 0.3989 0 14
10.4524 5.8043 1.5656 0.4392 0 14
10.2594 6.2488 1.5730 0.3985 0 14
7.5581 16.7326 2.1976 0.4314 0 3
7.4811 18.5092 2.3895 0.3967 0 3
7.6944 21.4814 2.7311 0.7858 0 3
7.5569 24.1050 3.0236 0.9453 0 3
7.1340 26.4302 3.2767 0.2895 0 3
1.4345 13.8765 1.6698 0.5480 0 9
1.5803 25.1104 3.0115 0.7618 0 9
0.5300 23.3531 2.7959 0.4108 0 9
-0.2908 16.6466 1.9928 0.7699 0 9
-0.9090 15.7575 1.8892 0.3539 0 9
0.3170 -38.8931 4.6554 0.1620 0 6
1.8793 -38.8727 4.6582 0.9545 0 22
2.3154 -17.9025 2.1606 0.7487 0 22
3.1719 -18.6145 2.2601 0.9871 0 6
4.1158 -19.4114 2.3751 0.5928 0 22
7.6892 -30.2275 3.7332 0.2634 0 3
8.8330 -29.6809 3.7066 0.9537 0 3
10.1440 -29.6724 3.7534 0.9418 0 3
11.4688 -29.6073 3.8004 0.9284 0 3
12.6725 -29.1789 3.8076 0.4067 0 3
13.4243 -27.7988 3.6950 0.7434 0 3
9.8396 -18.4455 2.5023 0.9992 0 9
16.7821 -28.6295 3.9721 0.8600 0 3
18.2054 -28.3808 4.0358 0.8338 0 3
19.2574 -27.5232 4.0206 0.7866 0 3
20.1902 -26.5221 3.9897 0.7617 0 3
19.0712 -23.0684 3.5825 0.0884 0 2
18.0242 -20.1009 3.2315 0.0980 0 2
17.1919 -17.6892 2.9525 0.1073 0 2
16.9466 -16.0907 2.7971 0.7001 0 2
16.7921 -14.7082 2.6719 0.1373 0 1
16.5034 -13.3234 2.5387 0.1409 0 1
16.2299 -12.0593 2.4201 0.1408 0 1
15.8033 -10.7854 2.2901 0.1325 0 1
15.3603 -9.6026 2.1682 0.1338 0 24
14.9990 -8.5591 2.0670 0.1395 0 1
14.6300 -7.5867 1.9725 0.1545 0 1
8.6168 -4.0381 1.1390 0.9677 0 9
14.2003 -5.9717 1.8438 0.1756 0 1
13.5889 -5.0827 1.7365 0.1829 0 25
13.4726 -4.4313 1.6976 0.1871 0 25
13.3740 -3.8111 1.6645 0.1908 0 25
13.2914 -3.2167 1.6368 0.1941 0 25
13.2236 -2.6433 1.6141 0.1968 0 25
13.6779 -2.1672 1.6576 0.1981 0 2
13.6157 -1.6001 1.6409 0.2018 0 24
5.6465 -0.4346 0.6778 0.1754 25 14
5.5611 -0.2040 0.6661 0.1785 25 14
5.4444 0.0190 0.6517 0.1578 25 14
5.6040 0.2448 0.6714 0.1771 25 14
5.7540 0.4834 0.6911 0.1721 25 14
14.1472 1.7628 1.7064 0.1868 0 1
14.3145 2.3707 1.7367 0.1839 0 1
14.4892 3.0017 1.7711 0.1804 0 1
14.6794 3.6614 1.8108 0.1839 0 1
14.8577 4.3464 1.8529 0.1919 0 1
14.9134 5.0209 1.8835 0.1888 0 1
14.9858 5.7248 1.9201 0.1852 0 1
13.5477 5.8089 1.7643 0.8912 0 14
12.0246 5.7379 1.5947 0.3092 0 14
10.7816 5.6870 1.4590 0.4879 0 14
10.0059 5.8028 1.3845 0.3003 0 14
9.7914 6.2167 1.3882 0.9167 0 14
9.7540 6.7573 1.4203 0.8005 0 14
14.5370 10.9599 2.1791 0.1358 0 9
15.5701 12.7506 2.4088 0.1315 0 2
16.0495 14.2572 2.5695 0.1233 0 2
15.1421 14.5799 2.5160 0.6839 0 3
14.0748 14.6859 2.4347 0.7071 0 0
12.8578 14.5423 2.3234 0.7394 0 3
11.9838 14.7035 2.2704 0.7654 0 3
11.0271 14.6973 2.1992 0.7901 0 3
10.1271 14.6914 2.1357 0.8136 0 3
9.2763 14.6858 2.0791 0.8358 0 3
8.4682 14.6806 2.0285 0.8566 0 3
7.6973 14.6755 1.9835 0.8761 0 3
7.5894 16.0005 2.1197 0.4473 0 3
7.5186 17.6482 2.2961 0.4129 0 3
7.2876 19.2106 2.4593 0.3779 0 3
8.0541 24.1082 3.0423 0.9395 0 3
7.0587 24.3397 3.0333 0.3064 0 3
7.0396 28.5058 3.5144 0.2700 0 3
7.4166 36.2241 4.4257 0.8739 0 6
3.1723 25.9514 3.1293 0.3704 0 9
1.2269 15.0243 1.8043 0.8291 0 9
0.0183 15.7277 1.8825 0.0842 0 9
-0.6059 15.5297 1.8602 0.8098 0 9
2.7689 -18.3022 2.2156 0.6399 0 22
3.6680 -19.0407 2.3209 0.6197 0 22
7.6184 -32.4693 3.9919 0.2463 0 3
7.7600 -27.9712 3.4744 0.2830 0 3
9.5317 -29.6763 3.7308 0.9475 0 3
10.8611 -29.6677 3.7815 0.9348 0 3
12.2294 -29.6589 3.8399 0.9206 0 3
12.7172 -27.6379 3.6414 0.4252 0 3
14.6009 -28.6437 3.8482 0.8877 0 3
16.0757 -28.6341 3.9305 0.8691 0 3
17.6175 -28.6241 4.0230 0.8491 0 3
19.3447 -28.7745 4.1500 0.0634 0 3
19.7894 -27.0257 4.0093 0.7734 0 3
19.6531 -24.6950 3.7776 0.0838 0 2
18.4787 -21.3965 3.3839 0.0936 0 2
17.5556 -18.7500 3.0744 0.1030 0 2
16.8132 -16.5704 2.8255 0.1121 0 2
16.6409 -13.9543 2.5994 0.1376 0 1
16.3577 -12.6339 2.4739 0.1446 0 1
5.9915 -4.2548 0.8796 0.8993 14 6
15.6014 -10.1623 2.2286 0.1394 0 1
15.1904 -9.0475 2.1162 0.1363 0 1
14.7936 -8.0247 2.0144 0.1431 0 1
8.6922 -4.2727 1.1593 0.5517 0 9
8.7394 -3.8683 1.1439 0.8550 0 9
13.6493 -5.3973 1.7568 0.1808 0 25
13.5242 -4.7292 1.7149 0.1852 0 25
13.4176 -4.0953 1.6791 0.1892 0 25
13.3278 -3.4896 1.6490 0.1926 0 25
13.2533 -2.9070 1.6240 0.1956 0 25
13.2092 -2.3459 1.6058 0.2695 0 2
13.6748 -1.8659 1.6519 0.2019 0 1
5.6892 -0.5447 0.6841 0.1738 25 14
5.5996 -0.3099 0.6713 0.1771 25 14
5.4982 -0.0832 0.6582 0.1562 25 14
5.5190 0.1381 0.6608 0.1556 25 14
5.6826 0.3709 0.6816 0.1745 25 14
14.0708 1.4877 1.6936 0.1882 0 1
14.2408 2.0867 1.7227 0.1850 0 1
14.4055 2.7055 1.7544 0.1821 0 1
14.5890 3.3515 1.7917 0.1858 0 1
14.7906 4.0293 1.8348 0.1804 0 1
14.8856 4.7047 1.8686 0.1903 0 1
14.9501 5.3943 1.9023 0.1870 0 1
15.0278 6.1148 1.9419 0.1854 0 1
12.6688 5.7581 1.6656 0.3955 0 14
11.3094 5.6987 1.5158 0.4018 0 14
10.2916 5.7150 1.4090 0.5641 0 14
9.8488 5.9987 1.3803 0.2383 0 14
7.6177 16.8645 2.0072 0.4284 0 3
7.5485 18.6760 2.1849 0.3937 0 3
8.0938 22.5965 2.6035 0.9136 0 3
7.5567 24.1044 2.7400 0.9465 0 3
3.7030 13.7190 1.5413 0.0673 0 9
1.4827 14.3434 1.5641 0.2687 0 9
1.7062 27.1119 2.9466 0.4934 0 9
0.3093 13.6289 1.4787 0.2408 0 9
-0.2884 16.5107 1.7911 0.1948 0 9
-0.8982 15.5704 1.6917 0.4370 0 9
-2.8055 -38.8096 4.2205 0.8753 0 6
1.8794 -38.8754 4.2216 0.9802 0 22
2.3127 -17.8815 1.9557 0.6693 0 22
7.9346 -46.5644 5.1235 0.1794 0 3
7.5091 -35.4149 3.9267 0.0367 0 3
7.7941 -30.6397 3.4292 0.2602 0 3
8.8332 -29.6816 3.3590 0.9549 0 3
10.1442 -29.6731 3.4014 0.9430 0 3
11.4691 -29.6081 3.4440 0.9295 0 3
12.7838 -29.4353 3.4809 0.4036 0 3
13.3935 -27.7351 3.3407 0.6999 0 3
9.8686 -18.4999 2.2743 0.9807 0 9
16.7826 -28.6303 3.5996 0.8611 0 3
17.6549 -27.5227 3.5467 0.8074 0 3
18.5562 -26.5210 3.5109 0.7854 0 3
17.9993 -23.6441 3.2232 0.0892 0 2
17.0350 -20.6054 2.8999 0.0991 0 2
16.2700 -18.1446 2.6434 0.1087 0 2
15.6665 -16.1197 2.4382 0.5922 0 2
15.8445 -15.0443 2.3699 0.1371 0 1
15.5798 -13.6464 2.2465 0.1445 0 1
15.3234 -12.3707 2.1361 0.1447 0 1
14.9888 -11.1371 2.0255 0.1392 0 1
6.1228 -4.1787 0.8040 0.3972 14 6
14.2924 -8.9350 1.8283 0.1470 0 1
13.9556 -7.9636 1.7428 0.1542 0 1
13.7240 -7.1169 1.6768 0.1710 0 1
8.6792 -4.0673 1.0396 0.9124 0 9
12.9566 -5.4487 1.5246 0.1891 0 25
12.8467 -4.8051 1.4877 0.1937 0 25
12.7524 -4.1944 1.4561 0.1979 0 25
12.6722 -3.6112 1.4292 0.2017 0 25
12.6050 -3.0506 1.4067 0.2049 0 25
12.5497 -2.5086 1.3881 0.2076 0 25
13.0020 -2.0601 1.4279 0.2104 0 1
12.9965 -1.5273 1.4194 0.2132 0 1
5.3174 -0.4093 0.5785 0.1613 25 14
5.2033 -0.1909 0.5648 0.1652 25 14
5.1253 0.0179 0.5559 0.2351 25 14
5.2446 0.2291 0.5694 0.1639 25 14
5.4208 0.4554 0.5900 0.1829 25 14
13.3881 1.6682 1.4634 0.1976 0 1
13.5379 2.2421 1.4884 0.1956 0 1
13.6854 2.8352 1.5159 0.1920 0 1
13.8538 3.4555 1.5487 0.1871 0 1
14.0429 4.1081 1.5870 0.1826 0 1
14.1167 4.7527 1.6156 0.1971 0 1
14.1715 5.4138 1.6455 0.1935 0 1
13.6675 5.8603 1.6130 0.3599 0 14
12.0351 5.7429 1.4464 0.3729 0 14
10.7744 5.6832 1.3213 0.4166 0 14
10.0210 5.8116 1.2565 0.9500 0 14
9.8413 6.2484 1.2644 0.9045 0 14
9.8063 6.7935 1.2940 0.7751 0 14
14.0970 10.6282 1.9149 0.1501 0 2
14.4119 11.8021 2.0205 0.1422 0 2
14.7823 13.1314 2.1447 0.1340 0 2
15.1416 14.5794 2.2799 0.6847 0 3
13.9664 14.5728 2.1894 0.7226 0 3
12.8574 14.5418 2.1054 0.7403 0 3
11.9835 14.7030 2.0574 0.7664 0 3
11.0268 14.6968 1.9929 0.7912 0 3
10.1268 14.6909 1.9354 0.8147 0 3
9.2761 14.6854 1.8840 0.8369 0 3
8.4680 14.6801 1.8382 0.8577 0 3
7.7060 14.6922 1.7995 0.4780 0 3
7.6500 16.1283 1.9362 0.4443 0 3
7.5837 17.8010 2.0987 0.4099 0 3
7.3566 19.3924 2.2497 0.3749 0 3
8.0539 24.1076 2.7569 0.9407 0 3
7.1390 24.6165 2.7801 0.3032 0 3
7.1332 28.8849 3.2272 0.2668 0 3
2.9011 14.1696 1.5688 0.8429 0 9
2.3858 14.6172 1.6065 0.9533 0 9
1.6954 13.8698 1.5156 0.0883 0 9
0.5715 13.8216 1.5005 0.1451 0 9
0.0177 15.2417 1.6532 0.2956 0 9
-0.6010 15.4054 1.6722 0.9351 0 9
-2.0157 16.8145 1.8369 0.2993 0 9
1.1542 -38.8783 4.2189 0.9944 0 22
2.7575 -18.2268 1.9995 0.6417 0 22
6.2834 -32.6173 3.6029 0.9777 0 3
8.7409 -37.2534 4.1505 0.2431 0 3
7.8584 -28.3258 3.1884 0.2798 0 3
9.5319 -29.6771 3.3809 0.9487 0 3
10.8614 -29.6685 3.4269 0.9360 0 3
12.2065 -29.6033 3.4732 0.9217 0 3
12.8241 -27.8701 3.3276 0.4222 0 3
14.4012 -28.2520 3.4396 0.6062 0 3
16.0762 -28.6349 3.5619 0.8702 0 3
17.5756 -28.5560 3.6370 0.8502 0 3
18.1676 -27.0237 3.5320 0.8032 0 3
18.5363 -25.3143 3.4032 0.0845 0 2
17.4534 -21.9309 3.0401 0.0945 0 2
16.6041 -19.2259 2.7554 0.1043 0 2
15.9223 -17.0056 2.5269 0.1137 0 2
16.2089 -15.9749 2.4685 0.1347 0 2
15.6925 -14.2704 2.3007 0.1447 0 1
15.4446 -12.9511 2.1863 0.1414 0 1
15.1664 -11.7138 2.0786 0.1324 0 1
6.0148 -4.2713 0.8002 0.8970 14 6
14.4659 -9.4227 1.8726 0.1435 0 1
14.1059 -8.4016 1.7808 0.1509 0 1
13.8117 -7.4921 1.7043 0.1682 0 1
8.7488 -4.3005 1.0574 0.1782 0 9
8.7780 -3.8854 1.0412 0.8927 0 9
12.8956 -5.0992 1.5041 0.1916 0 25
12.7943 -4.4740 1.4702 0.1961 0 25
12.7077 -3.8786 1.4411 0.2000 0 25
12.6346 -3.3081 1.4166 0.2035 0 25
12.5739 -2.7580 1.3963 0.2064 0 25
12.5247 -2.2244 1.3798 0.2089 0 2
12.9947 -1.7731 1.4226 0.2127 0 1
5.3615 -0.5133 0.5842 0.1847 25 14
5.2549 -0.2909 0.5708 0.1635 25 14
5.1609 -0.0781 0.5599 0.2406 25 14
5.1740 0.1295 0.5614 0.2399 25 14
5.3395 0.3485 0.5804 0.1608 25 14
5.4970 0.5812 0.5996 0.1800 25 14
13.4697 1.9737 1.4766 0.1958 0 1
13.6149 2.5570 1.5026 0.1938 0 1
13.7732 3.1641 1.5328 0.1891 0 1
13.9525 3.8010 1.5685 0.1848 0 1
14.0930 4.4542 1.6031 0.1932 0 1
14.1443 5.1036 1.6310 0.1952 0 1
14.2067 5.7807 1.6636 0.1914 0 1
12.6787 5.7626 1.5106 0.3481 0 14
11.3125 5.7002 1.3740 0.4022 0 14
10.2845 5.7111 1.2760 0.5887 0 14
9.9011 6.0305 1.2575 0.9402 0 14
7.6842 17.0116 1.8157 0.4253 0 3
7.6170 18.8454 1.9771 0.3906 0 3
8.1159 22.6582 2.3410 0.9121 0 3
7.5565 24.1038 2.4570 0.9476 0 3
7.3128 27.0924 2.7295 0.2832 0 3
2.7745 26.8400 2.6246 0.5141 0 9
1.0324 16.4046 1.5988 0.1831 0 9
0.5118 22.5511 2.1941 0.2172 0 6
-0.2711 15.5205 1.5099 0.3929 0 9
-35.2545 -34.5840 4.8036 0.9279 0 20
0.3171 -38.9042 3.7843 0.9921 0 22
1.8801 -38.8891 3.7871 0.9986 0 22
2.3053 -17.8243 1.7482 0.6722 0 22
5.7808 -33.9245 3.3473 0.0386 0 3
8.9804 -42.3540 4.2113 0.9751 0 3
8.0513 -31.6510 3.1767 0.2569 0 3
8.2157 -27.6067 2.8016 0.9560 0 3
10.1445 -29.6739 3.0503 0.9440 0 3
11.4913 -29.6652 3.0944 0.9306 0 3
12.8452 -29.5765 3.1364 0.9156 0 3
13.4341 -27.8190 3.0049 0.6661 0 3
9.9276 -18.6105 2.0517 0.5656 0 9
16.3415 -27.8779 3.1432 0.0727 0 3
17.1180 -26.6856 3.0838 0.0884 0 3
16.9770 -24.2640 2.8804 0.0896 0 2
16.0940 -21.1413 2.5844 0.0998 0 2
15.3953 -18.6220 2.3502 0.1098 0 2
14.8302 -16.5388 2.1607 0.1194 0 2
14.7160 -13.9728 1.9738 0.1514 0 1
14.4840 -12.6866 1.8728 0.1530 0 1
14.2276 -11.4861 1.7786 0.1410 0 1
13.9227 -10.3450 1.6871 0.1498 0 1
6.1252 -4.1803 0.7213 0.7130 14 6
13.3328 -8.3351 1.5294 0.1577 0 1
13.0812 -7.4647 1.4650 0.1757 0 1
12.9242 -6.7021 1.4161 0.1817 0 1
8.7049 -4.0794 0.9351 0.9575 0 9
12.2714 -5.1605 1.2949 0.1998 0 25
12.1829 -4.5568 1.2652 0.2045 0 25
12.1067 -3.9821 1.2397 0.2087 0 25
12.0419 -3.4315 1.2179 0.2125 0 25
11.9874 -2.9012 1.1996 0.2157 0 25
11.9425 -2.3872 1.1846 0.2184 0 25
12.3809 -1.9617 1.2193 0.2212 0 1
12.3807 -1.4549 1.2125 0.2225 0 1
5.0591 -0.3894 0.4935 0.2450 25 14
4.9847 -0.1828 0.4852 0.2492 25 14
4.9077 0.0171 0.4774 0.2458 25 14
5.0103 0.2188 0.4878 0.2479 25 14
5.1247 0.4305 0.5002 0.2418 25 14
12.7107 1.5838 1.2459 0.2166 0 1
12.8432 2.1270 1.2662 0.2064 0 1
12.9707 2.6871 1.2884 0.2029 0 1
13.1128 3.2707 1.3145 0.1988 0 1
13.2737 3.8830 1.3452 0.1934 0 1
13.3821 4.5054 1.3734 0.2024 0 1
13.4372 5.1332 1.3991 0.2043 0 1
13.4879 5.7833 1.4275 0.2003 0 1
12.0442 5.7472 1.2981 0.3613 0 14
10.7974 5.6953 1.1874 0.4304 0 14
10.0330 5.8186 1.1281 0.8990 0 14
9.8717 6.2677 1.1374 0.8863 0 14
9.8418 6.8181 1.1646 0.7946 0 14
13.1707 9.9298 1.6044 0.1608 0 2
13.4163 10.9868 1.6867 0.1530 0 2
13.7029 12.1726 1.7828 0.1447 0 2
14.0399 13.5186 1.8958 0.1361 0 2
13.9649 14.5712 1.9631 0.7140 0 3
12.8570 14.5414 1.8880 0.7412 0 3
11.9831 14.7026 1.8449 0.7673 0 3
11.0264 14.6964 1.7871 0.7921 0 3
6.2914 9.1270 1.0782 0.3605 22 6
9.2758 14.6850 1.6895 0.8379 0 3
8.4678 14.6797 1.6484 0.8588 0 3
7.7635 14.8018 1.6258 0.4750 0 3
7.7114 16.2578 1.7502 0.4412 0 3
7.6497 17.9560 1.8984 0.4068 0 3
7.4267 19.5772 2.0366 0.3717 0 3
8.0537 24.1070 2.4722 0.9418 0 3
7.1010 24.4855 2.4798 0.7664 0 3
3.4100 13.8084 1.3835 0.1131 0 9
1.9719 16.1312 1.5807 0.3386 0 9
1.3001 15.9207 1.5537 0.6974 0 9
0.9749 23.5792 2.2955 0.3731 0 9
0.0185 15.8701 1.5437 0.1176 0 9
-0.6133 15.7203 1.5302 0.5462 0 9
-1.9731 24.8761 2.4272 0.8232 0 9
-0.4077 -38.9062 3.7845 0.9944 0 22
1.1551 -38.9082 3.7862 0.9907 0 22
4.2770 -38.7272 3.7898 0.8036 0 6
7.8732 -40.8703 4.0484 0.0319 0 3
8.7875 -37.4517 3.7418 0.9717 0 3
7.9590 -28.6886 2.8959 0.2766 0 3
9.5141 -29.6215 3.0262 0.9498 0 3
10.8422 -29.6161 3.0677 0.9370 0 3
12.2068 -29.6041 3.1147 0.9228 0 3
12.9325 -28.1056 3.0093 0.4191 0 3
14.3265 -28.1055 3.0684 0.5986 0 3
16.0439 -28.5774 3.1878 0.8712 0 3
16.6527 -27.0564 3.0902 0.3186 0 3
17.4700 -25.9859 3.0457 0.0847 0 2
16.4768 -22.5017 2.7127 0.0951 0 2
15.7003 -19.7280 2.4524 0.1052 0 2
15.0781 -17.4590 2.2438 0.1150 0 2
15.0792 -16.1051 2.1460 0.7433 0 2
14.8397 -14.6254 2.0266 0.1439 0 1
14.5866 -13.2647 1.9177 0.1495 0 1
14.3728 -12.0524 1.8245 0.1482 0 1
14.0582 -10.8579 1.7278 0.1452 0 1
6.0446 -4.2925 0.7211 0.6676 14 6
13.4720 -8.7753 1.5639 0.1532 0 1
13.1817 -7.8511 1.4924 0.1616 0 1
12.9943 -7.0487 1.4379 0.1790 0 1
12.8456 -6.3143 1.3923 0.1855 0 1
8.8112 -3.9001 0.9373 0.8635 0 9
12.2223 -4.8330 1.2784 0.2024 0 25
12.1406 -4.2454 1.2510 0.2068 0 25
12.0706 -3.6842 1.2276 0.2108 0 25
12.0114 -3.1450 1.2077 0.2143 0 25
11.9622 -2.6238 1.1912 0.2172 0 25
12.2995 -2.1844 1.2151 0.2201 0 2
12.3302 -1.6824 1.2104 0.2220 0 24
5.0956 -0.4879 0.4979 0.2429 25 14
5.0185 -0.2778 0.4889 0.2474 25 14
4.9435 -0.0748 0.4809 0.2440 25 14
4.9567 0.1240 0.4823 0.2433 25 14
5.0705 0.3310 0.4942 0.2447 25 14
5.1897 0.5487 0.5076 0.2382 25 14
12.7794 1.8726 1.2563 0.2066 0 1
12.9098 2.4246 1.2777 0.2046 0 1
13.0450 2.9968 1.3019 0.2008 0 1
13.1967 3.5950 1.3304 0.1956 0 1
13.3605 4.2227 1.3629 0.2040 0 1
13.4102 4.8387 1.3867 0.2005 0 1
13.4629 5.4780 1.4138 0.2022 0 1
13.5200 6.1450 1.4445 0.2241 0 1
11.3279 5.7080 1.2338 0.3940 0 14
10.2833 5.7104 1.1441 0.6106 0 14
9.9356 6.0515 1.1316 0.9751 0 14
7.7486 17.1542 1.6205 0.4222 0 3
7.6866 19.0175 1.7660 0.3875 0 3
8.1359 22.7141 2.0772 0.4126 0 3
7.5563 24.1031 2.1747 0.9486 0 3
7.4052 27.4349 2.4465 0.2799 0 3
3.2422 14.2656 1.2595 0.6238 0 9
2.8458 15.3493 1.3440 0.9166 0 9
1.4791 14.3085 1.2384 0.1937 0 9
1.5292 24.2991 2.0961 0.3344 0 9
0.3426 15.0938 1.2998 0.4341 0 9
-0.2873 16.4505 1.4165 0.2231 0 9
-0.9746 16.8946 1.4569 0.1671 0 9
-35.1927 -34.5234 4.2443 0.9305 0 20
0.3171 -38.9058 3.3496 0.9977 0 22
1.8815 -38.9174 3.3544 0.9954 0 22
7.9473 -46.6387 4.0731 0.0282 0 3
8.9807 -42.3556 3.7276 0.9760 0 3
8.1637 -32.0926 2.8509 0.2536 0 3
8.2159 -27.6074 2.4798 0.9569 0 3
10.1447 -29.6746 2.6999 0.9450 0 3
11.4916 -29.6660 2.7390 0.9315 0 3
12.8566 -29.6027 2.7786 0.3974 0 3
13.4834 -27.9211 2.6694 0.2556 0 3
15.2475 -28.5834 2.7891 0.8822 0 3
9.7322 -16.6028 1.6569 0.9785 0 20
15.9906 -24.9281 2.5497 0.0897 0 2
15.1890 -21.7084 2.2810 0.1002 0 2
14.5565 -19.1216 2.0690 0.1105 0 2
14.0462 -16.9901 1.8979 0.1205 0 2
14.3725 -16.0284 1.8535 0.1428 0 2
13.9436 -14.3469 1.7224 0.1374 0 1
13.7173 -13.0245 1.6285 0.1559 0 1
13.5088 -11.8324 1.5461 0.1437 0 1
13.2354 -10.6850 1.4645 0.1529 0 1
12.9956 -9.6561 1.3939 0.1523 0 1
6.1313 -4.1845 0.6391 0.7130 14 6
12.4956 -7.8117 1.2687 0.1685 0 1
12.3389 -7.0411 1.2231 0.1864 0 1
12.2128 -6.3332 1.1844 0.1888 0 1
8.7438 -4.0976 0.8313 0.7505 0 9
11.6563 -4.9019 1.0887 0.2106 0 25
11.5855 -4.3334 1.0649 0.2153 0 25
11.5245 -3.7906 1.0445 0.2195 0 25
11.4725 -3.2693 1.0270 0.2232 0 25
11.4287 -2.7659 1.0123 0.2265 0 25
11.3925 -2.2773 1.0002 0.2292 0 2
11.8151 -1.8720 1.0299 0.2310 0 1
4.9263 -0.5789 0.4270 0.2509 25 14
4.8532 -0.3736 0.4191 0.2557 25 14
4.7804 -0.1753 0.4118 0.2525 25 14
4.7083 0.0164 0.4054 0.2565 25 14
4.8051 0.2099 0.4141 0.2511 25 14
4.9146 0.4129 0.4246 0.2523 25 14
5.0274 0.6264 0.4362 0.2457 25 14
12.2174 2.0234 1.0662 0.2173 0 1
12.3283 2.5541 1.0839 0.2136 0 1
12.4509 3.1056 1.1048 0.2096 0 1
12.5866 3.6820 1.1290 0.2051 0 1
12.7174 4.2816 1.1553 0.2132 0 1
12.7580 4.8738 1.1758 0.2095 0 1
12.8083 5.4919 1.1998 0.2053 0 1
12.8567 6.1349 1.2264 0.2339 0 1
10.9615 5.7819 1.0669 0.4353 0 14
10.0254 5.8142 0.9978 0.8569 0 14
9.8269 6.2392 1.0021 0.8073 0 14
9.7831 6.7774 1.0246 0.8030 0 14
12.3602 9.3187 1.3327 0.1715 0 2
12.5511 10.2783 1.3966 0.1637 0 2
12.7723 11.3459 1.4708 0.1554 0 2
13.0303 12.5465 1.5573 0.1468 0 2
13.3338 13.9127 1.6591 0.1378 0 2
12.8543 14.5384 1.6707 0.7420 0 3
11.9827 14.7021 1.6329 0.7681 0 3
11.0261 14.6959 1.5817 0.7929 0 3
6.2800 9.1104 0.9526 0.9118 22 6
9.2755 14.6846 1.4953 0.8387 0 3
8.4675 14.6793 1.4590 0.8596 0 3
7.8217 14.9128 1.4498 0.4720 0 3
7.7737 16.3891 1.5617 0.4381 0 3
7.7168 18.1134 1.6951 0.4037 0 3
7.4980 19.7652 1.8200 0.3686 0 3
8.0535 24.1063 2.1881 0.9428 0 3
7.4640 25.7371 2.3071 0.2968 0 3
2.0535 25.1476 2.1722 0.7360 0 9
0.9583 23.1791 1.9973 0.2639 0 9
-0.9950 25.5051 2.1975 0.2161 0 9
-2.0868 26.3101 2.2722 0.8862 0 9
-36.0427 -34.0631 4.2695 0.9250 0 20
-0.4077 -38.9085 3.3499 0.9956 0 22
6.4467 -42.6117 3.7103 0.9860 0 3
4.7499 -24.6569 2.1618 0.9942 0 6
8.8221 -37.5994 3.3250 0.9716 0 3
8.0621 -29.0600 2.5964 0.2733 0 3
9.5324 -29.6786 2.6837 0.9507 0 3
10.8328 -29.5902 2.7129 0.9379 0 3
12.2304 -29.6612 2.7622 0.9237 0 3
13.0425 -28.3447 2.6862 0.4160 0 3
14.3616 -28.1744 2.7226 0.6469 0 3
15.4700 -27.5552 2.7206 0.8455 0 3
16.3446 -26.5558 2.6846 0.8505 0 3
15.5361 -23.1094 2.3974 0.0954 0 2
14.8323 -20.2560 2.1614 0.1058 0 2
14.2700 -17.9308 1.9729 0.1159 0 2
13.9299 -16.1295 1.8348 0.7703 0 2
14.0568 -15.0131 1.7706 0.1458 0 1
13.8056 -13.6063 1.6688 0.1522 0 1
13.6098 -12.3764 1.5837 0.1513 0 1
13.3561 -11.1999 1.5006 0.1481 0 1
13.1070 -10.1232 1.4258 0.1571 0 1
6.0796 -4.3173 0.6420 0.3364 14 6
12.6011 -8.2080 1.2947 0.1639 0 1
12.4027 -7.3871 1.2428 0.1835 0 1
12.2698 -6.6557 1.2018 0.1861 0 1
12.1539 -5.9743 1.1659 0.1964 0 1
8.8295 -3.9082 0.8313 0.8470 0 9
11.6171 -4.5937 1.0755 0.2132 0 25
11.5517 -4.0395 1.0536 0.2176 0 25
11.4956 -3.5087 1.0348 0.2216 0 25
11.4480 -2.9974 1.0188 0.2250 0 25
11.4084 -2.5023 1.0055 0.2280 0 25
11.8202 -2.0993 1.0336 0.2289 0 1
11.8148 -1.6121 1.0266 0.2318 0 1
4.8865 -0.4678 0.4226 0.2535 25 14
4.8155 -0.2665 0.4152 0.2504 25 14
4.7411 -0.0718 0.4082 0.2547 25 14
4.7545 0.1190 0.4095 0.2539 25 14
4.8651 0.3176 0.4197 0.2553 25 14
4.9740 0.5259 0.4306 0.2488 25 14
12.1690 1.7831 1.0589 0.2188 0 1
12.2755 2.3055 1.0753 0.2154 0 1
12.3925 2.8469 1.0947 0.2115 0 1
12.5219 3.4112 1.1173 0.2073 0 1
12.6659 4.0032 1.1436 0.2016 0 1
12.7380 4.5961 1.1659 0.2113 0 1
12.7837 5.2016 1.1882 0.2073 0 1
12.8350 5.8336 1.2138 0.2087 0 1
11.3661 5.7272 1.0957 0.3925 0 14
10.2901 5.7142 1.0133 0.6452 0 14
9.8870 6.0220 0.9967 0.9608 0 14
7.8139 17.2989 1.4225 0.4191 0 3
7.7221 19.1052 1.5443 0.9220 0 3
8.6358 24.1095 1.9192 0.9365 0 3
7.5561 24.1025 1.8929 0.9495 0 3
3.9671 14.6974 1.1408 0.4108 0 9
2.7033 14.5804 1.1113 0.8274 0 9
1.6158 15.6304 1.1776 0.5637 0 9
1.4349 22.8007 1.7121 0.5128 0 9
0.6019 26.5197 1.9879 0.8838 0 9
-1.5645 15.9493 1.2010 0.2082 0 9
-30.6512 18.7670 2.6933 0.7791 0 3
-30.6174 17.0956 2.6279 0.7985 0 3
-35.1155 -34.4477 3.6863 0.3801 0 20
0.3171 -38.9108 2.9161 0.9968 0 22
1.8800 -38.8861 2.9175 0.9731 0 22
5.5217 -42.6924 3.2260 0.9905 0 3
8.9806 -42.3548 3.2446 0.9739 0 3
8.1886 -32.1907 2.4892 0.6861 0 3
8.2161 -27.6081 2.1586 0.9577 0 3
10.1177 -29.5956 2.3439 0.9458 0 3
11.4918 -29.6667 2.3842 0.9323 0 3
12.8574 -29.6046 2.4188 0.9173 0 3
13.3163 -27.5752 2.2948 0.9009 0 3
14.4280 -27.0471 2.2973 0.8489 0 3
9.7538 -16.6396 1.4454 0.9780 0 20
14.3091 -22.3068 1.9860 0.1003 0 2
13.7441 -19.6434 1.7966 0.1109 0 2
13.2894 -17.4571 1.6442 0.1211 0 2
13.3302 -16.1241 1.5678 0.7854 0 2
13.2054 -14.7269 1.4823 0.1391 0 1
12.9883 -13.3640 1.3966 0.1495 0 1
12.8065 -12.1597 1.3234 0.1578 0 1
12.5853 -11.0235 1.2538 0.1556 0 1
12.3791 -9.9938 1.1923 0.1637 0 1
12.1506 -9.0283 1.1344 0.1621 0 1
6.1441 -4.1932 0.5574 0.8009 14 7
11.7796 -7.3641 1.0411 0.1871 0 1
11.6654 -6.6568 1.0065 0.1935 0 1
11.5748 -6.0024 0.9771 0.2051 0 1
8.7714 -4.1105 0.7259 0.8965 0 9
11.1009 -4.6683 0.9025 0.2213 0 25
11.0450 -4.1312 0.8837 0.2260 0 25
10.9967 -3.6169 0.8675 0.2302 0 25
10.9554 -3.1219 0.8537 0.2340 0 25
10.9206 -2.6430 0.8420 0.2372 0 25
11.0360 -2.2060 0.8434 0.2448 0 2
6.0639 -0.9608 0.4601 0.9636 25 14
4.7305 -0.5559 0.3569 0.2615 25 14
4.6618 -0.3588 0.3504 0.2585 25 14
4.5911 -0.1684 0.3443 0.2631 25 14
4.5247 0.0158 0.3391 0.2671 25 14
4.6151 0.2016 0.3462 0.2617 25 14
4.7207 0.3966 0.3550 0.2552 25 14
4.8246 0.6012 0.3644 0.2562 25 14
11.6511 1.9296 0.8850 0.2281 0 1
11.7453 2.4333 0.8989 0.2250 0 1
11.8509 2.9559 0.9153 0.2190 0 1
11.9682 3.5011 0.9345 0.2145 0 1
12.0973 4.0728 0.9566 0.2096 0 1
12.1465 4.6402 0.9744 0.2225 0 1
12.1821 5.2234 0.9933 0.2182 0 1
12.2256 5.8338 1.0151 0.2135 0 1
10.8771 5.7374 0.9216 0.5048 0 14
10.0592 5.8337 0.8714 0.9565 0 14
9.8693 6.2661 0.8761 0.8990 0 14
9.8508 6.8243 0.8981 0.8232 0 14
11.6450 8.7795 1.0929 0.1822 0 2
11.7920 9.6567 1.1422 0.1744 0 2
10.3139 9.1621 1.0338 0.9432 0 20
12.1577 11.7063 1.2648 0.1575 0 2
12.3867 12.9245 1.3416 0.1485 0 2
12.6561 14.3141 1.4319 0.1391 0 2
11.9823 14.7017 1.4213 0.7688 0 3
11.0068 14.6702 1.3744 0.5965 0 3
6.2846 9.1170 0.8298 0.9120 22 6
8.7314 13.8231 1.2253 0.8443 0 21
8.4673 14.6789 1.2699 0.8604 0 3
7.8807 15.0252 1.2715 0.4689 0 3
7.8369 16.5223 1.3704 0.4350 0 3
7.7849 18.2733 1.4885 0.4005 0 3
8.5174 22.4524 1.7996 0.9159 0 3
8.0533 24.1057 1.9046 0.9436 0 3
7.5539 26.0471 2.0324 0.2935 0 3
1.6536 13.5278 1.0213 0.7730 0 9
0.7070 17.1010 1.2826 0.2759 0 9
0.0174 14.9820 1.1227 0.9063 0 9
-0.9953 25.5135 1.9134 0.7616 0 9
-1.2658 15.9586 1.1997 0.4837 0 9
-30.6327 17.8606 2.6573 0.7896 0 3
-35.8402 -33.8718 3.6955 0.8634 0 20
-0.4077 -38.9124 2.9162 0.9964 0 22
4.7590 -24.7041 1.8854 0.6150 0 6
9.9370 -42.3510 3.2600 0.9724 0 3
8.1676 -29.4405 2.2896 0.2700 0 3
9.5326 -29.6793 2.3361 0.9515 0 3
10.8342 -29.5941 2.3617 0.5166 0 3
12.2307 -29.6620 2.4044 0.9245 0 3
13.1542 -28.5874 2.3582 0.4129 0 3
14.0441 -27.5515 2.3175 0.8648 0 3
10.3489 -18.4334 1.5842 0.8643 0 9
10.2282 -16.6183 1.4623 0.3177 0 20
13.9903 -20.8101 1.8792 0.1060 0 2
13.4887 -18.4210 1.7110 0.1164 0 2
13.0806 -16.4364 1.5742 0.1265 0 2
13.0624 -13.9511 1.4322 0.1440 0 1
12.8872 -12.7011 1.3560 0.1540 0 1
12.6917 -11.5415 1.2856 0.1518 0 1
12.4711 -10.4577 1.2197 0.1600 0 1
12.2594 -9.4685 1.1608 0.1584 0 1
12.0331 -8.5452 1.1060 0.1663 0 1
11.8396 -7.7120 1.0589 0.1771 0 1
11.7165 -6.9785 1.0220 0.1906 0 1
11.6137 -6.2998 0.9901 0.2010 0 1
11.2111 -5.5108 0.9362 0.4680 0 2
8.8330 -3.9098 0.7239 0.9239 0 9
11.0700 -4.3773 0.8921 0.2239 0 25
11.0182 -3.8529 0.8747 0.2284 0 25
10.9737 -3.3494 0.8598 0.2323 0 25
10.9360 -2.8634 0.8472 0.2358 0 25
10.9045 -2.3918 0.8366 0.2388 0 25
11.3004 -2.0069 0.8601 0.2405 0 1
6.1005 -0.8324 0.4614 0.9609 25 14
4.6942 -0.4494 0.3534 0.2641 25 14
4.6233 -0.2559 0.3470 0.2610 25 14
4.5550 -0.0689 0.3414 0.2653 25 14
4.5685 0.1143 0.3425 0.2645 25 14
4.6708 0.3049 0.3508 0.2582 25 14
4.7758 0.5049 0.3599 0.2594 25 14
11.6087 1.7010 0.8792 0.2296 0 1
11.7013 2.1976 0.8922 0.2267 0 1
11.8001 2.7108 0.9073 0.2209 0 1
11.9124 3.2452 0.9252 0.2167 0 1
12.0358 3.8040 0.9459 0.2119 0 1
12.1326 4.3777 0.9666 0.2243 0 1
12.1646 4.9497 0.9842 0.2203 0 1
12.2044 5.5470 1.0046 0.2158 0 1
12.2394 6.1673 1.0271 0.2493 0 1
10.3050 5.7225 0.8833 0.5703 0 14
9.9249 6.0450 0.8709 0.9076 0 14
7.8803 17.4459 1.2214 0.4159 0 3
7.7219 19.1048 1.3148 0.9227 0 3
8.6355 24.1089 1.6340 0.9372 0 3
7.5559 24.1019 1.6116 0.9502 0 3
7.5968 28.1446 1.8600 0.2733 0 3
2.0758 14.4001 0.9283 0.0391 0 9
1.5542 15.0352 0.9644 0.2135 0 9
1.6720 26.5685 1.6985 0.9749 0 9
0.3906 17.2103 1.0984 0.2539 0 9
-0.2607 14.9261 0.9525 0.5242 0 9
-1.5636 15.9401 1.0219 0.2415 0 9
-30.7201 26.4062 2.5847 0.7525 0 3
-31.0860 24.6214 2.5302 0.3090 0 3
-31.5044 22.9563 2.4872 0.8570 0 3
-31.2760 20.9208 2.4008 0.8258 0 3
-31.4226 19.2393 2.3509 0.8477 0 3
-31.7285 17.7159 2.3186 0.3373 0 3
-36.9465 -33.4413 3.1796 0.8551 0 20
-35.2399 -34.5697 3.1497 0.5285 0 20
0.3172 -38.9227 2.4835 0.9976 0 22
5.5218 -42.6935 2.7467 0.9913 0 3
8.9905 -42.4017 2.7656 0.2201 0 3
8.2411 -32.3971 2.1329 0.2470 0 3
8.2916 -27.8618 1.8548 0.2837 0 3
10.1180 -29.5963 1.9957 0.9465 0 3
10.2190 -26.3809 1.8051 0.7210 0 3
12.8577 -29.6054 2.0594 0.9180 0 3
13.2261 -27.3883 1.9406 0.0776 0 3
14.0776 -26.3903 1.9084 0.0889 0 2
9.7898 -16.7010 1.2352 0.4929 0 20
12.9497 -20.1876 1.5303 0.1109 0 2
12.5521 -17.9398 1.3970 0.1215 0 2
12.2923 -16.1473 1.2948 0.8102 0 2
12.4944 -15.1131 1.2512 0.1404 0 1
12.2827 -13.6978 1.1739 0.1556 0 1
12.1364 -12.4875 1.1111 0.1644 0 1
11.9651 -11.3608 1.0527 0.1578 0 1
11.7846 -10.3221 0.9996 0.1662 0 1
11.5981 -9.3632 0.9511 0.1648 0 1
11.4072 -8.4759 0.9068 0.1762 0 1
6.1575 -4.2024 0.4757 0.9156 14 6
11.1500 -6.9705 0.8390 0.1978 0 1
11.0714 -6.3178 0.8133 0.2085 0 1
10.7037 -5.5507 0.7693 0.2214 0 2
8.7991 -4.1235 0.6200 0.8869 0 9
9.0483 -3.8051 0.6263 0.5030 0 9
10.5534 -3.9473 0.7189 0.2367 0 25
10.5159 -3.4588 0.7063 0.2410 0 25
10.4837 -2.9875 0.6955 0.2447 0 25
10.4566 -2.5307 0.6864 0.2479 0 25
10.8286 -2.1646 0.7046 0.2493 0 1
6.0858 -0.9643 0.3931 0.9609 25 14
4.5499 -0.5347 0.2923 0.2721 25 14
4.4815 -0.3450 0.2868 0.2691 25 14
4.4137 -0.1619 0.2818 0.1999 25 14
4.3605 0.0152 0.2782 0.3185 25 14
4.4398 0.1939 0.2836 0.2722 25 14
4.5370 0.3811 0.2905 0.2657 25 14
4.6379 0.5779 0.2982 0.2667 25 14
6.0689 1.0051 0.3925 0.9625 25 14
11.2190 2.3242 0.7310 0.2357 0 1
11.3070 2.8203 0.7435 0.2317 0 1
11.4068 3.3369 0.7583 0.2252 0 1
11.5170 3.8775 0.7754 0.2203 0 1
11.5918 4.4283 0.7917 0.2293 0 1
11.6201 4.9825 0.8067 0.2290 0 1
11.6498 5.5591 0.8236 0.2243 0 1
10.9005 5.7497 0.7863 0.7283 0 14
10.1024 5.8588 0.7451 0.8320 0 14
9.9087 6.2912 0.7489 0.7567 0 14
9.8836 6.8470 0.7672 0.5025 0 14
11.0090 8.3000 0.8797 0.1929 0 2
11.1207 9.1069 0.9171 0.1850 0 2
10.3478 9.1922 0.8831 0.7352 0 20
11.3959 10.9727 1.0094 0.1681 0 2
11.5665 12.0687 1.0666 0.1591 0 2
11.7656 13.3070 1.1333 0.1497 0 2
11.9411 14.6511 1.2060 0.7694 0 3
11.0255 14.6950 1.1722 0.7943 0 3
6.2964 9.1342 0.7079 0.9928 22 6
8.7135 13.7948 1.0411 0.8467 0 21
8.4671 14.6785 1.0812 0.8611 0 3
7.9405 15.1392 1.0908 0.4657 0 3
7.9010 16.6574 1.1763 0.4318 0 3
7.8541 18.4358 1.2786 0.3973 0 3
8.5405 22.5133 1.5363 0.9141 0 3
8.0531 24.1051 1.6216 0.9444 0 3
7.6336 26.3218 1.7487 0.9565 0 3
0.6207 15.0117 0.9586 0.3927 0 9
-0.5796 14.8579 0.9487 0.4442 0 9
-30.7410 27.4363 2.6290 0.6812 0 3
-30.9943 25.5025 2.5610 0.3053 0 3
-31.1868 23.6268 2.4964 0.3132 0 3
-31.2912 21.7855 2.4327 0.7525 0 3
-31.4360 20.0620 2.3794 0.7738 0 3
-31.6679 18.4642 2.3389 0.3344 0 3
-31.7948 16.8656 2.2964 0.3406 0 3
-35.7964 -33.8303 3.1426 0.8742 0 20
1.1536 -38.8597 2.4805 0.9710 0 6
5.2503 -47.5405 3.0518 0.9930 0 3
3.5864 -18.6174 1.2097 0.6833 0 6
9.9371 -42.3514 2.7756 0.9732 0 3
8.1103 -29.2338 1.9357 0.9634 0 20
9.5329 -29.6801 1.9890 0.9522 0 3
10.8625 -29.6715 2.0161 0.9394 0 3
12.2091 -29.6096 2.0435 0.9252 0 3
12.7881 -27.7917 1.9520 0.0722 0 3
13.6147 -26.7091 1.9128 0.0834 0 3
10.3343 -18.4075 1.3469 0.8899 0 9
10.2057 -16.5816 1.2423 0.6990 0 20
12.7263 -18.9299 1.4554 0.1166 0 2
12.3700 -16.8932 1.3359 0.1270 0 2
12.7395 -16.0077 1.3053 0.1505 0 2
12.3719 -14.3254 1.2077 0.1455 0 1
12.2013 -13.0315 1.1390 0.1604 0 1
12.0582 -11.8841 1.0802 0.1538 0 1
11.8651 -10.7898 1.0233 0.1624 0 1
11.6948 -9.8067 0.9738 0.1690 0 1
11.4924 -8.8761 0.9265 0.1691 0 1
11.3204 -8.0390 0.8859 0.1803 0 1
11.1949 -7.2921 0.8525 0.1947 0 1
11.1058 -6.6147 0.8248 0.2056 0 1
11.0348 -5.9858 0.8010 0.2132 0 1
10.6723 -5.2460 0.7588 0.2243 0 25
8.8756 -3.9286 0.6193 0.9770 0 9
10.5728 -4.1807 0.7254 0.2346 0 25
10.5326 -3.6831 0.7119 0.2391 0 25
10.4980 -3.2042 0.7003 0.2430 0 25
10.4685 -2.7410 0.6905 0.2465 0 25
10.4440 -2.2908 0.6822 0.2495 0 2
10.8263 -1.9227 0.7016 0.2518 0 1
6.1226 -0.8354 0.3943 0.9582 25 14
4.5130 -0.4321 0.2893 0.2668 25 14
4.4462 -0.2461 0.2841 0.2716 25 14
4.3705 -0.0662 0.2789 0.2020 25 14
4.3898 0.1099 0.2802 0.2011 25 14
4.4912 0.2931 0.2872 0.2688 25 14
4.5918 0.4855 0.2946 0.2620 25 14
6.1033 0.8943 0.3936 0.9598 25 14
11.1807 2.0999 0.7259 0.2374 0 1
11.2652 2.5879 0.7375 0.2336 0 1
11.3589 3.0944 0.7512 0.2274 0 1
11.4646 3.6235 0.7672 0.2226 0 1
11.5789 4.1779 0.7854 0.2312 0 1
11.6082 4.7233 0.7996 0.2271 0 1
11.6353 5.2883 0.8155 0.2265 0 1
11.6684 5.8796 0.8337 0.2216 0 1
10.3558 5.7507 0.7558 0.5935 0 14
9.9621 6.0677 0.7442 0.7671 0 14
7.9477 17.5951 1.0172 0.4126 0 3
7.7472 19.1675 1.0892 0.3778 0 3
8.6353 24.1083 1.3492 0.9378 0 3
7.6255 24.3239 1.3430 0.3064 0 3
7.6961 28.5126 1.5560 0.2699 0 3
8.2305 36.2137 1.9566 0.9935 0 6
2.5613 13.8149 0.7403 0.3289 0 9
3.7499 26.0134 1.3847 0.6663 0 9
1.4516 14.0421 0.7438 0.5004 0 9
0.9891 15.7175 0.8297 0.7291 0 9
0.3743 16.4923 0.8691 0.3655 0 9
-31.0581 36.8629 2.5396 0.2544 0 3
-31.1564 34.1015 2.4336 0.2640 0 3
-31.4018 31.7137 2.3514 0.2732 0 3
-31.8017 29.6372 2.2903 0.2821 0 3
-32.3049 23.5396 2.1059 0.7445 0 3
-32.2680 21.5844 2.0453 0.7665 0 3
-32.2369 19.7378 1.9915 0.7872 0 3
-32.2083 17.9838 1.9435 0.8067 0 3
-32.8559 16.6517 1.9407 0.3330 0 3
-36.8980 -33.3974 2.6221 0.8657 0 20
-35.0123 -34.3464 2.5840 0.5357 0 20
5.5219 -42.6945 2.2681 0.9919 0 3
9.3831 -44.2531 2.3833 0.2065 0 3
8.7290 -34.3151 1.8655 0.3172 0 3
8.4062 -28.2467 1.5527 0.2803 0 3
10.1455 -29.6769 1.6524 0.9471 0 3
11.4718 -29.6151 1.6733 0.9336 0 3
11.9748 -27.5725 1.5838 0.8912 0 3
12.8295 -26.5670 1.5544 0.8730 0 3
12.5883 -23.5984 1.4091 0.0995 0 2
9.8616 -16.8235 1.0274 0.3284 0 20
11.8276 -18.4384 1.1541 0.1215 0 2
11.5517 -16.5099 1.0616 0.1321 0 2
11.9663 -15.7191 1.0408 0.1559 0 2
11.6279 -14.0651 0.9615 0.1429 0 1
11.5031 -12.8284 0.9078 0.1662 0 1
11.3687 -11.6975 0.8594 0.1598 0 1
11.2135 -10.6472 0.8147 0.1670 0 1
11.0688 -9.6952 0.7752 0.1670 0 1
10.9014 -8.8008 0.7382 0.1788 0 1
10.7622 -7.9967 0.7064 0.1869 0 1
6.1742 -4.2137 0.3938 0.9768 14 6
10.5953 -6.6237 0.6583 0.2128 0 1
10.5385 -6.0137 0.6393 0.2207 0 1
10.2178 -5.2987 0.6064 0.2319 0 25
8.8435 -4.1443 0.5145 0.5920 0 9
9.0941 -3.8244 0.5198 0.3082 0 9
10.1044 -3.7794 0.5684 0.2474 0 25
10.0759 -3.3141 0.5588 0.2516 0 25
10.0515 -2.8644 0.5507 0.2554 0 25
10.0309 -2.4277 0.5437 0.2586 0 25
10.3910 -2.0771 0.5583 0.2609 0 1
10.3530 -1.6404 0.5523 0.2652 0 24
4.3472 -0.5109 0.2306 0.2019 25 14
4.2663 -0.3284 0.2254 0.2065 25 14
4.2378 -0.1554 0.2234 0.3277 25 14
4.2243 0.0148 0.2226 0.3289 25 14
4.2596 0.1861 0.2246 0.3259 25 14
4.3401 0.3646 0.2295 0.2029 25 14
4.4628 0.5561 0.2369 0.2692 25 14
6.0898 1.0085 0.3252 0.9598 25 14
10.7385 2.2247 0.5778 0.2464 0 1
10.8149 2.6975 0.5872 0.2424 0 1
10.8975 3.1879 0.5982 0.2380 0 1
10.9906 3.7002 0.6110 0.2310 0 1
11.0816 4.2334 0.6250 0.2400 0 1
11.1029 4.7607 0.6365 0.2357 0 1
11.1266 5.3094 0.6495 0.2350 0 1
10.8726 5.7350 0.6476 0.4632 0 14
10.1820 5.9050 0.6201 0.8139 0 14
10.0601 6.3873 0.6278 0.4683 0 14
10.8892 7.5437 0.6979 0.2583 0 1
10.9630 8.2653 0.7234 0.6209 0 2
10.5224 8.6170 0.7165 0.1957 0 2
10.6167 9.4311 0.7482 0.1874 0 2
10.7248 10.3265 0.7844 0.1788 0 2
10.8491 11.3202 0.8261 0.1697 0 2
10.9932 12.4334 0.8744 0.1604 0 2
11.1614 13.6945 0.9308 0.1507 0 2
11.0183 14.6855 0.9673 0.7948 0 3
6.3116 9.1562 0.5859 0.8185 22 7
8.6956 13.7665 0.8579 0.8490 0 21
8.4668 14.6781 0.8928 0.8617 0 3
8.0011 15.2547 0.9075 0.4625 0 3
7.9633 16.7887 0.9790 0.5960 0 3
7.9245 18.6009 1.0652 0.3940 0 3
8.5637 22.5745 1.2721 0.9123 0 3
8.0529 24.1045 1.3390 0.9450 0 3
7.7399 26.6884 1.4640 0.2869 0 3
1.8060 14.7741 0.7842 0.2367 0 9
1.1417 13.9818 0.7391 0.6414 0 9
0.7154 17.3021 0.9124 0.2745 0 9
-30.8135 37.9867 2.5770 0.7869 0 3
-31.2092 35.4639 2.4889 0.2596 0 3
-31.4746 32.9945 2.4024 0.1802 0 3
-31.7017 30.6671 2.3238 0.2780 0 3
-31.9114 28.4809 2.2535 0.2867 0 3
-32.3218 24.4866 2.1364 0.7339 0 3
-32.2835 22.4763 2.0725 0.7565 0 3
-32.2510 20.5821 2.0157 0.7778 0 3
-32.2213 18.7868 1.9651 0.7978 0 3
-32.6153 17.3008 1.9451 0.5722 0 3
-35.5801 -33.6259 2.5792 0.7926 0 20
5.2504 -47.5415 2.5200 0.9936 0 3
3.5853 -18.6115 0.9986 0.8868 0 6
9.9372 -42.3517 2.2919 0.9738 0 3
8.1009 -29.2001 1.5965 0.9640 0 20
9.5331 -29.6808 1.6424 0.9528 0 3
10.8628 -29.6723 1.6648 0.9400 0 3
11.8515 -28.7424 1.6380 0.0711 0 3
12.4570 -27.0723 1.5701 0.8816 0 3
12.8221 -25.1541 1.4875 0.0943 0 2
10.3373 -18.4129 1.1125 0.7019 0 9
10.1974 -16.5683 1.0250 0.8211 0 20
11.5687 -17.2081 1.0925 0.4324 0 20
11.8170 -16.1381 1.0538 0.8227 0 2
11.7217 -14.7288 0.9917 0.1507 0 1
11.5543 -13.3788 0.9314 0.1620 0 1
11.4353 -12.2133 0.8815 0.1627 0 1
11.2833 -11.1204 0.8347 0.1645 0 1
11.1364 -10.1272 0.7931 0.1715 0 1
10.9751 -9.2032 0.7546 0.1716 0 1
10.8247 -8.3605 0.7206 0.1832 0 1
10.6994 -7.5980 0.6914 0.1984 0 1
10.6243 -6.9204 0.6680 0.2097 0 1
10.5637 -6.2918 0.6478 0.2163 0 1
10.2397 -5.5545 0.6137 0.2293 0 2
10.1941 -5.0110 0.5985 0.2350 0 25
8.9045 -3.9414 0.5130 0.9595 0 9
10.1191 -4.0013 0.5733 0.2453 0 25
10.0886 -3.5278 0.5631 0.2497 0 25
10.0624 -3.0712 0.5543 0.2537 0 25
10.0400 -2.6288 0.5468 0.2572 0 25
10.1096 -2.2175 0.5453 0.2665 0 2
10.3917 -1.8456 0.5561 0.2625 0 1
4.9671 -0.6777 0.2641 0.0106 25 14
4.3032 -0.4120 0.2278 0.2044 25 14
4.2444 -0.2349 0.2240 0.3269 25 14
4.2304 -0.0640 0.2229 0.3284 25 14
4.2422 0.1062 0.2236 0.3275 25 14
4.2843 0.2796 0.2262 0.2058 25 14
4.4071 0.4660 0.2335 0.1994 25 14
6.1244 0.8974 0.3261 0.9571 25 14
10.7045 2.0104 0.5738 0.2476 0 1
10.7787 2.4762 0.5827 0.2443 0 1
10.8584 2.9580 0.5929 0.2401 0 1
10.9459 3.4595 0.6048 0.2333 0 1
11.0445 3.9851 0.6186 0.2281 0 1
11.0924 4.5135 0.6309 0.2378 0 1
11.1162 5.0524 0.6433 0.2332 0 1
11.1382 5.6124 0.6571 0.2323 0 1
11.1457 6.1893 0.6717 0.2549 0 1
10.0813 6.1403 0.6219 0.3369 0 14
8.0162 17.7467 0.8097 0.4093 0 3
7.8202 19.3480 0.8677 0.3744 0 3
8.6351 24.1077 1.0647 0.9384 0 3
7.7118 24.5992 1.0719 0.3030 0 3
7.7979 28.8899 1.2442 0.2666 0 3
2.5484 13.7451 0.5813 0.6173 0 9
1.9585 13.5863 0.5707 0.7774 0 9
1.4746 14.2650 0.5963 0.4675 0 9
0.8473 13.4634 0.5609 0.3708 0 9
0.3660 16.1255 0.6707 0.9497 0 9
-32.3517 35.4098 1.9943 0.6208 0 3
-32.3033 32.6242 1.9090 0.6485 0 3
-32.2598 30.0642 1.8335 0.6752 0 3
-32.2206 27.6960 1.7666 0.7008 0 3
-32.1850 25.4918 1.7071 0.7252 0 3
-31.1330 22.6858 1.6017 0.6182 0 3
-32.1203 21.4856 1.6068 0.7704 0 3
-32.0932 19.6498 1.5647 0.7912 0 3
-32.0682 17.9056 1.5271 0.8106 0 3
-33.9173 17.1896 1.5810 0.3227 0 3
-36.8849 -33.3855 2.0686 0.7803 0 20
-35.0445 -34.3781 2.0412 0.6708 0 20
5.0082 -38.7226 1.6235 0.8050 0 6
8.4845 -40.0152 1.7008 0.7385 0 3
9.3650 -36.8151 1.5795 0.5412 0 3
8.3659 -28.1114 1.2195 0.4595 0 3
10.1457 -29.6776 1.3041 0.9475 0 3
10.6794 -27.5693 1.2293 0.9339 0 3
11.5373 -26.5650 1.2042 0.8663 0 3
11.7307 -24.2918 1.1216 0.0987 0 2
11.3852 -21.3430 1.0058 0.1101 0 2
10.6561 -18.1788 0.8762 0.2912 0 9
10.8855 -16.9697 0.8383 0.1321 0 2
11.2810 -16.1231 0.8182 0.1566 0 2
11.0084 -14.4607 0.7557 0.1435 0 1
10.8867 -13.1684 0.7104 0.1594 0 1
10.7864 -12.0291 0.6718 0.1686 0 1
10.6619 -10.9704 0.6361 0.1688 0 1
10.5463 -10.0137 0.6047 0.1776 0 1
10.4143 -9.1219 0.5756 0.1811 0 1
10.2939 -8.3104 0.5501 0.1895 0 1
10.1935 -7.5741 0.5280 0.2095 0 1
6.1928 -4.2264 0.3117 0.9743 14 6
10.0951 -6.3110 0.4950 0.2235 0 1
9.8097 -5.5978 0.4696 0.2366 0 2
9.7746 -5.0688 0.4578 0.2425 0 25
8.9025 -4.1720 0.4088 0.5390 0 9
9.1486 -3.8473 0.4127 0.4398 0 9
9.3476 -3.4963 0.4150 0.2521 0 9
9.6718 -3.1812 0.4233 0.2623 0 25
9.6540 -2.7511 0.4174 0.2660 0 25
9.6390 -2.3328 0.4124 0.2693 0 2
9.9882 -1.9966 0.4235 0.2716 0 1
9.9946 -1.5836 0.4208 0.2739 0 1
4.1370 -0.4862 0.1732 0.3338 25 14
4.1226 -0.3173 0.1719 0.3362 25 14
4.1040 -0.1505 0.1708 0.2625 25 14
4.0931 0.0143 0.1702 0.3120 25 14
4.1299 0.1804 0.1719 0.3363 25 14
4.1663 0.3500 0.1738 0.3325 25 14
4.2390 0.5282 0.1776 0.2070 25 14
10.2364 1.6953 0.4314 0.2664 0 1
10.2980 2.1334 0.4373 0.2571 0 1
10.3643 2.5851 0.4441 0.2531 0 1
10.4354 3.0527 0.4521 0.2487 0 1
10.5119 3.5391 0.4612 0.2438 0 1
10.5977 4.0485 0.4717 0.2362 0 1
10.6271 4.5567 0.4808 0.2464 0 1
10.6426 5.0784 0.4903 0.2416 0 1
10.6604 5.6230 0.5011 0.2405 0 1
10.6587 6.1814 0.5123 0.2639 0 1
10.5610 6.7053 0.5201 0.2599 0 1
10.4626 7.2481 0.5292 0.2554 0 1
10.4876 7.9069 0.5461 0.2242 0 2
10.1059 8.2759 0.5431 0.6530 0 2
10.0527 8.9301 0.5591 0.1980 0 2
10.1290 9.7529 0.5847 0.1894 0 2
10.2163 10.6598 0.6139 0.1804 0 2
10.3167 11.6683 0.6476 0.1710 0 2
10.4332 12.8010 0.6866 0.1613 0 2
10.5693 14.0870 0.7323 0.1512 0 2
6.3307 9.1840 0.4638 0.6767 22 7
8.6675 13.7220 0.6748 0.8512 0 21
8.4666 14.6777 0.7045 0.8622 0 3
8.0625 15.3719 0.7217 0.4592 0 3
8.0290 16.9272 0.7790 0.4253 0 3
7.9960 18.7689 0.8483 0.3907 0 3
8.5870 22.6360 1.0066 0.9103 0 3
8.0527 24.1039 1.0567 0.9455 0 3
7.8362 27.0204 1.1698 0.2835 0 3
3.2816 26.8460 1.1245 0.5815 0 9
1.9295 23.6288 0.9857 0.3467 0 9
0.7245 17.5236 0.7292 0.1032 0 9
0.0202 17.3650 0.7220 0.4005 0 9
-30.5081 37.6103 2.0136 0.8777 0 3
-32.3760 36.7898 2.0377 0.6076 0 3
-32.3251 33.8861 1.9472 0.6358 0 3
-32.2794 31.2260 1.8674 0.6630 0 3
-32.2383 28.7727 1.7967 0.6891 0 3
-32.2011 26.4955 1.7339 0.7140 0 3
-30.2479 22.9154 1.5779 0.7406 0 3
-32.1337 22.3721 1.6280 0.7604 0 3
-32.1055 20.4892 1.5836 0.7817 0 3
-32.0795 18.7042 1.5440 0.8018 0 3
-33.5085 17.7746 1.5771 0.4737 0 3
-33.9711 16.3075 1.5668 0.3257 0 3
-35.2995 -33.3607 2.0195 0.6865 0 20
8.6550 -36.8873 1.5754 0.9793 0 3
8.1118 -29.2392 1.2617 0.9645 0 20
9.5334 -29.6815 1.2962 0.9533 0 3
10.8519 -29.6425 1.3125 0.9405 0 3
11.1609 -27.0676 1.2174 0.8978 0 3
11.9225 -25.9107 1.1859 0.0934 0 2
11.5353 -22.6298 1.0561 0.1048 0 2
10.3505 -18.4363 0.8791 0.9880 0 9
10.1976 -16.5686 0.8089 0.8526 0 20
10.8643 -16.1602 0.8097 0.8454 0 2
11.0850 -15.1383 0.7801 0.1513 0 1
10.9251 -13.7278 0.7295 0.1634 0 1
10.8310 -12.5412 0.6890 0.1644 0 1
10.7206 -11.4500 0.6522 0.1662 0 1
10.5980 -10.4450 0.6187 0.1736 0 1
10.4765 -9.5271 0.5888 0.1736 0 1
10.3480 -8.6773 0.5615 0.1856 0 1
10.2351 -7.9051 0.5377 0.1938 0 1
10.1646 -7.2183 0.5184 0.2134 0 1
10.1158 -6.5891 0.5020 0.2204 0 1
10.0732 -5.9997 0.4875 0.2285 0 1
9.7904 -5.3108 0.4631 0.2398 0 25
9.4156 -4.6283 0.4362 0.2681 0 9
8.9302 -3.9528 0.4061 0.9905 0 9
9.3884 -3.7124 0.4198 0.3563 0 9
9.6810 -3.3853 0.4264 0.2604 0 25
9.6619 -2.9490 0.4200 0.2644 0 25
9.6456 -2.5255 0.4146 0.2678 0 25
9.9876 -2.1907 0.4251 0.2705 0 1
9.9911 -1.7744 0.4219 0.2731 0 1
4.2788 -0.5838 0.1796 0.0936 25 14
4.1291 -0.3953 0.1725 0.3352 25 14
4.1125 -0.2276 0.1713 0.2617 25 14
4.0962 -0.0620 0.1703 0.3118 25 14
4.1097 0.1028 0.1709 0.2622 25 14
4.1492 0.2708 0.1729 0.3344 25 14
4.1864 0.4426 0.1750 0.3303 25 14
4.4462 0.6515 0.1868 0.0900 25 14
10.2675 1.9284 0.4344 0.2583 0 1
10.3330 2.3738 0.4408 0.2550 0 1
10.4017 2.8337 0.4483 0.2508 0 1
10.4757 3.3109 0.4568 0.2461 0 1
10.5566 3.8090 0.4666 0.2388 0 1
10.6211 4.3217 0.4768 0.2485 0 1
10.6350 4.8337 0.4857 0.2439 0 1
10.6523 5.3675 0.4960 0.2388 0 1
10.6680 5.9240 0.5074 0.2375 0 1
10.6064 6.4601 0.5164 0.2618 0 1
8.0858 17.9008 0.5988 0.4059 0 3
7.8945 19.5318 0.6422 0.3710 0 3
8.6349 24.1070 0.7806 0.9388 0 3
7.8026 24.8886 0.7951 0.2996 0 3
7.9024 29.2769 0.9244 0.2631 0 3
3.3599 14.7833 0.4621 0.2554 0 9
2.2168 15.3784 0.4736 0.8394 0 9
0.8594 13.6563 0.4171 0.1397 0 9
0.5332 23.4948 0.7164 0.0079 0 9
-0.2551 14.6038 0.4452 0.5134 0 9
-32.1691 35.2099 1.4538 0.6246 0 3
-32.1287 32.4479 1.3920 0.6523 0 3
-32.0924 29.9081 1.3373 0.6790 0 3
-32.0594 27.5574 1.2887 0.7046 0 3
-32.0294 25.3685 1.2455 0.7290 0 3
-32.0019 23.3189 1.2070 0.7523 0 3
-31.9741 21.3877 1.1726 0.7743 0 3
-31.9508 19.5627 1.1420 0.7950 0 3
-31.9301 17.8285 1.1148 0.8718 0 3
-35.0505 17.7639 1.1978 0.4575 0 3
-35.1458 16.0728 1.1781 0.4214 0 3
-36.8706 -33.3726 1.5160 0.6608 0 20
-34.8663 -34.2033 1.4889 0.2557 0 20
5.5222 -42.6967 1.3124 0.9927 0 3
5.2277 -24.6553 0.7683 0.9937 0 6
8.7241 -34.2960 1.0788 0.6203 0 3
8.3583 -28.0859 0.8933 0.9948 0 3
9.9826 -29.2004 0.9407 0.2195 0 3
10.4989 -27.1033 0.8860 0.9839 0 3
10.8651 -25.0172 0.8314 0.0977 0 2
10.6018 -21.9541 0.7432 0.1093 0 2
10.0151 -18.7746 0.6487 0.3896 0 9
10.2232 -17.4403 0.6162 0.1318 0 2
10.3633 -16.1556 0.5851 0.8580 0 2
10.3982 -14.8614 0.5529 0.1439 0 1
10.2805 -13.5045 0.5174 0.1606 0 1
10.2108 -12.3509 0.4885 0.1701 0 1
10.1255 -11.2921 0.4623 0.1704 0 1
10.0362 -10.3266 0.4390 0.1867 0 1
9.9459 -9.4436 0.4181 0.1888 0 1
9.8479 -8.6258 0.3991 0.1978 0 1
9.7635 -7.8822 0.3825 0.2209 0 1
9.7225 -7.2241 0.3692 0.2320 0 1
6.2124 -4.2398 0.2293 0.8845 14 6
9.6732 -6.0472 0.3478 0.2251 0 1
9.3923 -5.3596 0.3296 0.2471 0 25
9.3686 -4.8583 0.3217 0.2532 0 25
8.9064 -4.1738 0.2998 0.4229 0 9
8.9862 -3.7790 0.2972 0.3872 0 9
9.2378 -3.4552 0.3007 0.9198 0 9
9.2991 -3.0586 0.2984 0.2729 0 25
9.2871 -2.6465 0.2944 0.2767 0 25
9.2756 -2.2449 0.2909 0.2762 0 2
9.6158 -1.9221 0.2989 0.2828 0 1
9.6255 -1.5251 0.2971 0.2850 0 1
3.9821 -0.4680 0.1222 0.3187 25 14
3.9746 -0.3059 0.1215 0.3205 25 14
3.9677 -0.1455 0.1210 0.3218 25 14
3.9614 0.0138 0.1208 0.3225 25 14
3.9898 0.1743 0.1217 0.3199 25 14
4.0202 0.3377 0.1230 0.3167 25 14
4.0647 0.5065 0.1249 0.2633 25 14
9.8479 1.6309 0.3043 0.2775 0 1
9.8956 2.0501 0.3081 0.2741 0 1
9.9515 2.4822 0.3126 0.2694 0 1
10.0113 2.9287 0.3180 0.2649 0 1
10.0764 3.3924 0.3241 0.2544 0 1
10.1462 3.8760 0.3311 0.2490 0 1
10.1909 4.3696 0.3380 0.2570 0 1
10.1974 4.8660 0.3444 0.2522 0 1
10.2061 5.3834 0.3517 0.2470 0 1
10.2169 5.9252 0.3600 0.2455 0 1
10.1504 6.4446 0.3665 0.2705 0 1
10.0490 6.9616 0.3727 0.2661 0 1
9.9458 7.4985 0.3797 0.2618 0 1
10.0201 8.2056 0.3948 0.2275 0 2
9.5460 8.4800 0.3892 0.2086 0 2
9.5963 9.2400 0.4061 0.2000 0 2
9.6536 10.0728 0.4253 0.1909 0 2
9.7192 10.9925 0.4473 0.1816 0 2
9.7947 12.0176 0.4726 0.1718 0 2
9.8823 13.1714 0.5020 0.1618 0 2
9.4167 13.6607 0.5058 0.8330 0 21
8.8404 13.9957 0.5046 0.8074 0 21
8.4664 14.6773 0.5165 0.8625 0 3
8.1249 15.4908 0.5332 0.4558 0 3
8.0993 17.0754 0.5761 0.4219 0 3
8.0688 18.9397 0.6276 0.3873 0 3
8.6069 22.6883 0.7397 0.4515 0 3
8.0525 24.1033 0.7747 0.9459 0 3
7.9348 27.3604 0.8684 0.2801 0 3
2.3355 14.3090 0.4420 0.8820 0 9
1.1258 13.7860 0.4216 0.8593 0 9
0.9309 22.5150 0.6869 0.8446 0 6
-32.1893 36.5777 1.4853 0.6113 0 3
-31.1276 32.6308 1.3747 0.7692 0 3
-32.1088 31.0609 1.3618 0.6668 0 3
-32.0743 28.6263 1.3105 0.6929 0 3
-32.0430 26.3654 1.2649 0.7178 0 3
-32.0144 24.2537 1.2243 0.7416 0 3
-31.9855 22.2689 1.1881 0.7642 0 3
-31.9614 20.3973 1.1558 0.7856 0 3
-31.9391 18.6223 1.1270 0.8056 0 3
-33.5068 17.7737 1.1562 0.4739 0 3
-34.9062 16.7564 1.1803 0.3153 0 3
-35.3067 -33.3675 1.4809 0.6867 0 20
-34.7817 -35.6216 1.5177 0.7684 0 20
8.6682 -36.9433 1.1567 0.9746 0 3
8.1120 -29.2399 0.9250 0.9649 0 20
8.8669 -27.6066 0.8839 0.9536 0 3
10.3596 -28.2979 0.9186 0.2248 0 3
10.9653 -26.5932 0.8769 0.9265 0 3
10.7160 -23.2887 0.7815 0.1039 0 2
10.4842 -20.5676 0.7037 0.1154 0 2
10.0720 -17.9403 0.6272 0.9896 0 9
10.1449 -16.4829 0.5900 0.1376 0 2
10.5862 -15.7466 0.5784 0.1625 0 2
10.3189 -14.0922 0.5324 0.1494 0 1
10.2418 -12.8692 0.5014 0.1657 0 1
10.1722 -11.7784 0.4744 0.1660 0 1
10.0754 -10.7609 0.4494 0.1824 0 1
9.9938 -9.8495 0.4277 0.1916 0 1
9.8919 -8.9955 0.4076 0.1937 0 1
9.7998 -8.2177 0.3899 0.2025 0 1
9.7395 -7.5223 0.3751 0.2283 0 1
9.7040 -6.8911 0.3628 0.2361 0 1
9.6724 -6.3004 0.3519 0.2434 0 1
9.4043 -5.6012 0.3337 0.2442 0 2
9.3792 -5.0877 0.3253 0.2504 0 25
9.0005 -4.4242 0.3057 0.2201 0 9
8.9317 -3.9534 0.2977 0.3231 0 9
8.9888 -3.5544 0.2947 0.2295 0 9
9.3053 -3.2540 0.3005 0.2710 0 25
9.2924 -2.8362 0.2962 0.2750 0 25
9.2814 -2.4301 0.2925 0.2785 0 25
9.6132 -2.1086 0.3000 0.2807 0 1
9.5878 -1.7028 0.2968 0.2827 0 24
4.0938 -0.5586 0.1259 0.2638 25 14
3.9780 -0.3809 0.1218 0.3197 25 14
3.9708 -0.2198 0.1212 0.3213 25 14
3.9642 -0.0600 0.1209 0.3223 25 14
3.9761 0.0995 0.1212 0.3212 25 14
4.0059 0.2615 0.1224 0.3183 25 14
4.0423 0.4274 0.1239 0.2653 25 14
4.2294 0.6197 0.1303 0.0947 25 14
9.8731 1.8543 0.3062 0.2758 0 1
9.9250 2.2800 0.3104 0.2713 0 1
9.9831 2.7196 0.3154 0.2670 0 1
10.0456 3.1750 0.3212 0.2567 0 1
10.1132 3.6490 0.3277 0.2516 0 1
10.1867 4.1449 0.3352 0.2438 0 1
10.1941 4.6333 0.3413 0.2545 0 1
10.2018 5.1405 0.3482 0.2495 0 1
10.2117 5.6707 0.3561 0.2440 0 1
10.1969 6.2107 0.3640 0.2724 0 1
8.1566 18.0575 0.3843 0.4025 0 3
7.9701 19.7191 0.4125 0.3676 0 3
8.6347 24.1064 0.4966 0.9390 0 3
8.0623 25.7173 0.5227 0.2962 0 3
11.4622 42.4651 0.8531 0.0653 0 1
3.3756 14.8526 0.2954 0.9277 0 9
2.0794 14.4248 0.2827 0.3934 0 9
2.7037 26.1551 0.5100 0.0769 0 9
1.6469 26.1690 0.5086 0.6681 0 9
0.5420 23.8795 0.4633 0.4198 0 9
-32.0247 38.0103 0.9640 0.5995 0 3
-30.0720 32.9147 0.8647 0.9663 0 3
-31.9562 32.2736 0.8809 0.6560 0 3
-35.0429 32.6579 0.9290 0.6863 0 3
-31.8999 27.4203 0.8159 0.7083 0 3
-34.9236 27.6609 0.8641 0.6257 0 3
