ply
format ascii 1.0
element vertex 1381
property float32 x
property float32 y
property float32 z
property float32 CosAngle
property uint32 ObjIdx
property uint32 ObjTag
end_header
-18.6151 11.6909 -9.0517 0.1121 0 2
-20.1624 11.5605 -9.5704 0.1060 0 2
-21.7738 11.3477 -10.1106 0.1004 0 2
-23.4367 11.0411 -10.6681 0.0951 0 2
-25.1336 10.6290 -11.2370 0.0903 0 2
-26.8418 10.1009 -11.8096 0.0859 0 2
-25.6271 8.4854 -11.1162 0.9382 0 6
-30.1712 8.6620 -12.9258 0.0785 0 2
-32.1646 7.8509 -13.6336 0.2384 0 2
-16.7862 3.3893 -7.0518 0.8853 26 14
-16.8555 2.7039 -7.0295 0.8983 26 14
-37.2944 4.4549 -15.4663 0.0702 0 1
-38.2315 3.0157 -15.7919 0.0660 0 1
-38.7128 1.4930 -15.9531 0.0655 0 1
-38.8183 -0.0631 -15.9847 0.0654 0 1
-38.6094 -1.6147 -15.9125 0.0697 0 1
-36.1811 -2.9724 -14.9489 0.0690 0 2
-35.4040 -4.3459 -14.6881 0.0693 0 25
-34.3707 -5.6283 -14.3417 0.0710 0 25
-22.4399 -4.6069 -9.4331 0.9272 16 6
-33.1432 -8.2040 -14.0597 0.0751 0 1
-31.3112 -9.0996 -13.4268 0.0702 0 24
-29.5146 -9.8791 -12.8163 0.0737 0 1
-27.5333 -10.4634 -12.1288 0.0794 0 1
-25.5571 -10.9062 -11.4421 0.0909 0 1
-23.7222 -11.2700 -10.8147 0.0950 0 1
-21.9920 -11.5525 -10.2293 0.1055 0 1
-20.3759 -11.7711 -9.6899 0.1185 0 1
-18.8823 -11.9445 -9.2004 0.1175 0 1
-17.3831 -11.9999 -8.6979 0.1245 0 1
-15.9448 -11.9803 -8.2126 0.1275 0 1
-14.5775 -11.8982 -7.7484 0.1352 0 1
-13.2916 -11.7690 -7.3104 0.1421 0 1
-12.0457 -11.5614 -6.8752 0.1506 0 24
-11.0109 -11.4526 -6.5421 0.1634 0 1
-9.9975 -11.2716 -6.2041 0.1791 0 1
-9.0812 -11.1069 -5.9078 0.1881 0 1
-8.2224 -10.9240 -5.6301 0.1974 0 1
-7.4140 -10.7205 -5.3673 0.2048 0 1
-6.6549 -10.5006 -5.1192 0.2145 0 1
-5.9463 -10.2731 -4.8878 0.2246 0 1
-5.2840 -10.0381 -4.6712 0.2339 0 1
-4.6649 -9.7978 -4.4685 0.2445 0 1
-4.0734 -9.5229 -4.2650 0.2556 0 24
-3.5471 -9.3099 -4.1025 0.2654 0 1
-3.0427 -9.0646 -3.9373 0.2766 0 1
-2.5714 -8.8201 -3.7831 0.2878 0 1
-2.1293 -8.5710 -3.6367 0.2953 0 1
-1.7162 -8.3238 -3.4997 0.3069 0 1
-1.3301 -8.0794 -3.3717 0.3185 0 1
-0.9691 -7.8397 -3.2528 0.3347 0 1
-0.6292 -7.5796 -3.1319 0.3475 0 24
-0.3145 -7.3702 -3.0377 0.3584 0 1
-0.0176 -7.1213 -2.9324 0.3708 0 24
0.2608 -6.9141 -2.8491 0.3821 0 1
0.5221 -6.6910 -2.7636 0.3939 0 1
0.7674 -6.4713 -2.6834 0.4057 0 1
0.9979 -6.2549 -2.6082 0.4174 0 1
1.2145 -6.0413 -2.5375 0.4291 0 1
1.4176 -5.8293 -2.4703 0.4397 0 1
1.6083 -5.6200 -2.4071 0.4510 0 1
1.7803 -5.3922 -2.3383 0.4608 0 24
1.9465 -5.1860 -2.2810 0.4718 0 24
2.1144 -5.0117 -2.2399 0.4846 0 1
2.2633 -4.8150 -2.1908 0.4955 0 1
2.3984 -4.6116 -2.1405 0.4893 0 1
2.5227 -4.4085 -2.0915 0.5007 0 1
3.8762 -0.3666 -1.6539 0.6703 0 1
3.8864 -0.2105 -1.6534 0.6706 0 1
3.8935 -0.0543 -1.6541 0.6695 0 1
3.8996 0.1023 -1.6571 0.6683 0 1
3.9023 0.2595 -1.6613 0.6666 0 1
3.9014 0.4174 -1.6668 0.6644 0 1
3.8946 0.5757 -1.6724 0.6524 0 1
3.8825 0.7343 -1.6785 0.6500 0 1
3.8667 0.8935 -1.6858 0.6472 0 1
3.8471 1.0534 -1.6944 0.6439 0 1
3.8237 1.2140 -1.7042 0.6402 0 1
3.7964 1.3755 -1.7153 0.6361 0 1
3.7652 1.5379 -1.7277 0.6315 0 1
3.7298 1.7013 -1.7415 0.6265 0 1
3.6903 1.8658 -1.7566 0.6211 0 1
3.6465 2.0315 -1.7732 0.6153 0 1
3.5982 2.1985 -1.7912 0.6087 0 1
3.5455 2.3669 -1.8109 0.6021 0 1
3.4883 2.5370 -1.8323 0.5951 0 1
3.4262 2.7087 -1.8554 0.5877 0 1
3.3590 2.8822 -1.8802 0.5800 0 1
3.2865 3.0575 -1.9068 0.5762 0 1
3.2090 3.2353 -1.9358 0.5676 0 1
3.1256 3.4153 -1.9667 0.5587 0 1
3.0360 3.5974 -1.9997 0.5494 0 1
2.9400 3.7820 -2.0349 0.5399 0 1
2.8369 3.9686 -2.0723 0.5344 0 1
2.7239 4.1535 -2.1100 0.5249 0 1
2.6034 4.3405 -2.1501 0.5151 0 1
2.4751 4.5295 -2.1927 0.5056 0 1
2.3385 4.7207 -2.2379 0.4954 0 1
2.1931 4.9142 -2.2860 0.4850 0 1
2.0386 5.1100 -2.3371 0.4744 0 1
1.8742 5.3083 -2.3914 0.4640 0 1
1.6995 5.5086 -2.4489 0.4531 0 1
1.5137 5.7114 -2.5100 0.4420 0 1
1.3163 5.9167 -2.5749 0.4309 0 1
1.1064 6.1245 -2.6438 0.4197 0 1
0.8836 6.3359 -2.7175 0.4085 0 1
0.6466 6.5507 -2.7963 0.3977 0 1
0.3944 6.7678 -2.8798 0.3853 0 1
0.1261 6.9878 -2.9689 0.3738 0 1
-0.1596 7.2102 -3.0637 0.3622 0 1
-0.4638 7.4351 -3.1646 0.3507 0 1
-0.7876 7.6590 -3.2707 0.3420 0 1
-1.1322 7.8836 -3.3833 0.3306 0 1
-1.4987 8.1066 -3.5021 0.3203 0 1
-1.8886 8.3289 -3.6279 0.3091 0 1
-2.3036 8.5507 -3.7619 0.2982 0 1
-2.7454 8.7717 -3.9045 0.2873 0 1
-3.2159 8.9908 -4.0563 0.2765 0 1
-3.7173 9.2085 -4.2185 0.2662 0 1
-4.2519 9.4236 -4.3918 0.2557 0 1
-4.8214 9.6339 -4.5764 0.2453 0 1
-5.4306 9.8424 -4.7753 0.2311 0 1
-6.0751 10.0352 -4.9833 0.2262 0 1
-6.7544 10.2081 -5.1997 0.2168 0 1
-7.4766 10.3693 -5.4305 0.2064 0 1
-8.2483 10.5215 -5.6793 0.1935 0 1
-9.0764 10.6662 -5.9495 0.1848 0 1
-9.9623 10.7968 -6.2407 0.1761 0 1
-10.8629 10.8631 -6.5260 0.1729 0 24
-11.9043 10.9845 -6.8809 0.1605 0 1
-12.9726 11.0394 -7.2360 0.1524 0 1
-14.1012 11.0549 -7.6116 0.1449 0 1
-15.2992 11.0316 -8.0124 0.1209 0 24
-16.6702 11.0305 -8.4914 0.1184 0 24
-18.3196 11.0906 -9.0972 0.9902 0 2
-18.8906 10.4234 -9.1653 0.9572 0 2
-20.1094 10.0643 -9.5526 0.1091 0 2
-21.4917 9.6973 -10.0161 0.1040 0 2
-22.8792 9.2362 -10.4812 0.0994 0 2
-24.2511 8.6746 -10.9411 0.0952 0 2
-25.5938 8.0110 -11.3924 0.0843 0 2
-28.3438 7.6364 -12.4698 0.0924 0 2
-16.6211 3.7692 -7.2400 0.8049 26 14
-16.6475 3.0780 -7.1918 0.9016 26 14
-17.0129 2.4436 -7.3013 0.1507 26 14
-32.6411 3.3571 -13.9391 0.0879 0 1
-33.1333 2.0674 -14.1025 0.0869 0 1
-33.3864 0.7394 -14.1861 0.0817 0 1
-33.3366 -0.6011 -14.1637 0.0818 0 1
-33.0026 -1.9229 -14.0433 0.0793 0 1
-30.7695 -3.0367 -13.1344 0.0796 0 25
-30.0974 -4.1967 -12.9091 0.0810 0 25
-25.0276 -4.5210 -10.8038 0.9841 0 20
-29.1842 -6.4920 -12.7006 0.0782 0 1
-27.9074 -7.3958 -12.2644 0.0834 0 1
-26.5341 -8.1856 -11.7959 0.0865 0 1
-25.0695 -8.8512 -11.2939 0.0954 0 1
-23.5906 -9.4107 -10.7893 0.0987 0 1
-22.1380 -9.8795 -10.2982 0.1071 0 1
-20.7190 -10.2631 -9.8221 0.1192 0 1
-19.3578 -10.5775 -9.3708 0.1250 0 1
-18.0028 -10.7978 -8.9177 0.1244 0 1
-16.6770 -10.9365 -8.4719 0.1269 0 1
-15.3748 -10.9902 -8.0283 0.1339 0 1
-14.1387 -10.9907 -7.6074 0.1402 0 1
-12.9662 -10.9423 -7.2073 0.1480 0 1
-11.8737 -10.8661 -6.8373 0.1606 0 1
-10.8623 -10.7734 -6.4990 0.1689 0 1
-9.9153 -10.6576 -6.1837 0.1845 0 1
-9.0492 -10.5460 -5.9032 0.1933 0 1
-8.2327 -10.4130 -5.6389 0.2023 0 1
-7.4595 -10.2564 -5.3874 0.2091 0 1
-6.7289 -10.0792 -5.1481 0.2188 0 1
-6.0435 -9.8909 -4.9239 0.2288 0 1
-5.3999 -9.6923 -4.7132 0.2380 0 1
-4.7959 -9.4853 -4.5151 0.2485 0 1
-4.2299 -9.2729 -4.3296 0.2582 0 1
-3.6989 -9.0554 -4.1553 0.2690 0 1
-3.2014 -8.8356 -3.9922 0.2801 0 1
-2.7352 -8.6145 -3.8395 0.2912 0 1
-2.2965 -8.3867 -3.6938 0.2986 0 1
-1.8855 -8.1594 -3.5575 0.3100 0 1
-1.5006 -7.9336 -3.4300 0.3241 0 1
-1.1400 -7.7121 -3.3117 0.3385 0 1
-0.8015 -7.4911 -3.2004 0.3494 0 1
-0.4837 -7.2717 -3.0958 0.3612 0 1
-0.1852 -7.0545 -2.9978 0.3730 0 1
0.0953 -6.8396 -2.9058 0.3847 0 1
0.3589 -6.6272 -2.8194 0.3965 0 1
0.6068 -6.4173 -2.7382 0.4082 0 1
0.8400 -6.2100 -2.6620 0.4199 0 1
1.0594 -6.0052 -2.5904 0.4315 0 1
1.2657 -5.8019 -2.5226 0.4419 0 1
1.4545 -5.5809 -2.4500 0.4534 0 24
1.6418 -5.4006 -2.3978 0.4649 0 1
1.8054 -5.1812 -2.3308 0.4745 0 24
1.9645 -4.9839 -2.2757 0.4853 0 24
2.1268 -4.8188 -2.2375 0.4982 0 1
2.2676 -4.6254 -2.1883 0.4914 0 1
2.3953 -4.4268 -2.1382 0.5029 0 1
2.5147 -4.2319 -2.0912 0.5142 0 1
2.6261 -4.0406 -2.0471 0.5253 0 1
2.7312 -3.8542 -2.0067 0.5580 0 1
2.8335 -3.6761 -1.9717 0.5679 0 1
2.9295 -3.5003 -1.9390 0.5774 0 1
3.0194 -3.3266 -1.9084 0.5867 0 1
3.1035 -3.1549 -1.8800 0.5956 0 1
3.1822 -2.9850 -1.8535 0.6041 0 1
3.2557 -2.8169 -1.8288 0.6122 0 1
3.3242 -2.6503 -1.8060 0.6200 0 1
3.3878 -2.4853 -1.7849 0.6273 0 1
3.4479 -2.3223 -1.7659 0.6243 0 1
3.5040 -2.1608 -1.7488 0.6306 0 1
3.5565 -2.0006 -1.7334 0.6396 0 1
3.6051 -1.8414 -1.7197 0.6447 0 1
3.6496 -1.6829 -1.7073 0.6494 0 1
3.6903 -1.5251 -1.6962 0.6536 0 1
3.7270 -1.3677 -1.6865 0.6574 0 1
3.7600 -1.2109 -1.6781 0.6607 0 1
3.7894 -1.0544 -1.6709 0.6635 0 1
3.8151 -0.8981 -1.6650 0.6659 0 1
3.8372 -0.7421 -1.6603 0.6678 0 1
3.8559 -0.5862 -1.6568 0.6692 0 1
3.8710 -0.4302 -1.6545 0.6701 0 1
3.8826 -0.2742 -1.6535 0.6705 0 1
3.8908 -0.1181 -1.6536 0.6705 0 1
3.8976 0.0383 -1.6558 0.6689 0 1
3.9016 0.1952 -1.6595 0.6674 0 1
3.9022 0.3528 -1.6644 0.6654 0 1
3.8985 0.5110 -1.6703 0.6532 0 1
3.8879 0.6694 -1.6759 0.6510 0 1
3.8736 0.8284 -1.6827 0.6484 0 1
3.8555 0.9880 -1.6908 0.6453 0 1
3.8337 1.1483 -1.7001 0.6418 0 1
3.8081 1.3095 -1.7106 0.6378 0 1
3.7784 1.4715 -1.7225 0.6334 0 1
3.7448 1.6345 -1.7357 0.6286 0 1
3.7070 1.7985 -1.7503 0.6234 0 1
3.6649 1.9637 -1.7663 0.6177 0 1
3.6184 2.1301 -1.7837 0.6117 0 1
3.5676 2.2979 -1.8027 0.6048 0 1
3.5122 2.4673 -1.8234 0.5980 0 1
3.4522 2.6384 -1.8458 0.5908 0 1
3.3871 2.8111 -1.8698 0.5832 0 1
3.3167 2.9856 -1.8957 0.5752 0 1
3.2413 3.1625 -1.9237 0.5711 0 1
3.1603 3.3415 -1.9538 0.5623 0 1
3.0733 3.5228 -1.9859 0.5532 0 1
2.9800 3.7063 -2.0203 0.5438 0 1
2.8800 3.8923 -2.0569 0.5342 0 1
2.7709 4.0778 -2.0943 0.5288 0 1
2.6535 4.2639 -2.1334 0.5191 0 1
2.5285 4.4521 -2.1750 0.5097 0 1
2.3953 4.6424 -2.2191 0.4996 0 1
2.2535 4.8349 -2.2660 0.4892 0 1
2.1028 5.0298 -2.3159 0.4787 0 1
1.9313 5.1967 -2.3551 0.4687 0 24
1.7628 5.3981 -2.4123 0.4576 0 24
1.5909 5.6283 -2.4846 0.4466 0 1
1.3983 5.8326 -2.5479 0.4355 0 1
1.1898 6.0198 -2.6067 0.4233 0 24
0.9761 6.2488 -2.6867 0.4131 0 1
0.7451 6.4629 -2.7636 0.4024 0 1
0.4993 6.6788 -2.8451 0.3909 0 1
0.2377 6.8976 -2.9319 0.3785 0 1
-0.0408 7.1191 -3.0243 0.3669 0 1
-0.3373 7.3430 -3.1226 0.3554 0 1
-0.6530 7.5676 -3.2267 0.3467 0 1
-0.9889 7.7917 -3.3365 0.3353 0 1
-1.3464 8.0159 -3.4529 0.3248 0 1
-1.7265 8.2381 -3.5756 0.3137 0 1
-2.1310 8.4602 -3.7062 0.3027 0 1
-2.5617 8.6816 -3.8452 0.2917 0 1
-3.0202 8.9016 -3.9931 0.2809 0 1
-3.5085 9.1195 -4.1508 0.2676 0 1
-4.0295 9.3363 -4.3197 0.2599 0 1
-4.5845 9.5487 -4.4996 0.2495 0 1
-5.1761 9.7562 -4.6916 0.2352 0 1
-5.8091 9.9612 -4.8985 0.2301 0 1
-6.4721 10.1391 -5.1098 0.2206 0 1
-7.1764 10.3051 -5.3345 0.2102 0 1
-7.9245 10.4572 -5.5737 0.2011 0 1
-8.7323 10.6095 -5.8372 0.1883 0 1
-9.5658 10.7145 -6.1016 0.1801 0 24
-10.4774 10.8270 -6.4003 0.1746 0 24
-11.4467 10.9152 -6.7190 0.1636 0 24
-12.4861 10.9836 -7.0643 0.1563 0 24
-13.5847 11.0145 -7.4294 0.1499 0 24
-14.8186 11.0589 -7.8547 0.1286 0 1
-16.1686 11.0841 -8.3274 0.1213 0 1
-17.5287 11.0086 -8.7929 0.1192 0 1
-18.6507 10.6937 -9.1328 0.9764 0 2
-19.5504 10.1889 -9.3652 0.1113 0 2
-20.9256 9.8581 -9.8263 0.1061 0 2
-22.3133 9.4363 -10.2915 0.1013 0 2
-23.6943 8.9164 -10.7545 0.0969 0 2
-25.0458 8.2929 -11.2075 0.0930 0 2
-27.4606 7.8838 -12.1365 0.2750 0 2
-16.8670 4.1170 -7.3755 0.1682 26 14
-16.6265 3.3571 -7.2055 0.8088 26 14
-16.6889 2.6772 -7.1801 0.9031 26 14
-19.6306 2.3449 -8.3984 0.0473 26 14
-32.9583 2.5998 -14.0442 0.0872 0 1
-33.3139 1.2848 -14.1623 0.0864 0 1
-33.3863 -0.0543 -14.1826 0.0817 0 1
-33.1809 -1.3877 -14.1076 0.0790 0 1
-31.9911 -2.6282 -13.6357 0.0792 0 2
-30.3963 -3.7312 -13.0093 0.0803 0 25
-29.6080 -4.8484 -12.7450 0.0820 0 25
-22.2757 -4.5732 -9.6601 0.9829 16 6
-28.4463 -7.0414 -12.4487 0.0793 0 1
-27.1116 -7.8791 -11.9935 0.0845 0 1
-25.6566 -8.5878 -11.4933 0.0938 0 1
-24.2016 -9.1973 -10.9983 0.0969 0 1
-22.7287 -9.6992 -10.4976 0.1050 0 1
-21.2862 -10.1127 -10.0110 0.1101 0 1
-19.9100 -10.4588 -9.5538 0.1226 0 1
-18.5606 -10.7224 -9.1057 0.1219 0 1
-17.1648 -10.8581 -8.6281 0.1242 0 24
-15.8984 -10.9750 -8.2066 0.1310 0 1
-14.6367 -10.9975 -7.7772 0.1383 0 1
-13.3862 -10.9259 -7.3402 0.1449 0 24
-12.3051 -10.8955 -6.9819 0.1528 0 1
-11.2679 -10.8149 -6.6346 0.1655 0 1
-10.2921 -10.7050 -6.3083 0.1740 0 1
-9.3968 -10.5944 -6.0157 0.1897 0 1
-8.5602 -10.4697 -5.7449 0.1986 0 1
-7.7714 -10.3248 -5.4896 0.2056 0 1
-7.0216 -10.1530 -5.2440 0.2148 0 1
-6.3180 -9.9690 -5.0137 0.2247 0 1
-5.6579 -9.7748 -4.7978 0.2344 0 1
-5.0210 -9.5386 -4.5791 0.2445 0 24
-4.4566 -9.3603 -4.4039 0.2547 0 1
-3.8991 -9.1155 -4.2117 0.2655 0 24
-3.4006 -8.9256 -4.0575 0.2755 0 1
-2.9220 -8.7049 -3.9006 0.2866 0 1
-2.4722 -8.4797 -3.7521 0.2939 0 1
-2.0501 -8.2521 -3.6121 0.3053 0 1
-1.6547 -8.0253 -3.4809 0.3168 0 1
-1.2843 -7.8016 -3.3587 0.3338 0 1
-0.9340 -7.5558 -3.2342 0.3450 0 24
-0.6110 -7.3610 -3.1377 0.3563 0 1
-0.3048 -7.1429 -3.0371 0.3681 0 1
-0.0171 -6.9089 -2.9349 0.3804 0 24
0.2532 -6.7136 -2.8540 0.3917 0 1
0.5074 -6.5027 -2.7707 0.4034 0 1
0.7464 -6.2943 -2.6926 0.4151 0 1
0.9714 -6.0885 -2.6191 0.4268 0 1
1.1831 -5.8851 -2.5500 0.4385 0 1
1.3818 -5.6820 -2.4841 0.4487 0 1
1.5631 -5.4621 -2.4134 0.4587 0 24
1.7446 -5.2839 -2.3638 0.4715 0 1
1.9101 -5.0890 -2.3091 0.4827 0 1
2.0659 -4.8966 -2.2576 0.4937 0 1
2.2125 -4.7068 -2.2093 0.5045 0 1
2.3442 -4.5074 -2.1582 0.4982 0 1
2.4669 -4.3110 -2.1100 0.5096 0 1
3.8112 -0.3604 -1.6765 0.6785 0 1
3.8212 -0.2070 -1.6759 0.6787 0 1
3.8282 -0.0534 -1.6767 0.6777 0 1
3.8340 0.1006 -1.6797 0.6765 0 1
3.8365 0.2551 -1.6839 0.6748 0 1
3.8354 0.4103 -1.6893 0.6727 0 1
3.8271 0.5657 -1.6943 0.6607 0 1
3.8150 0.7215 -1.7004 0.6584 0 1
3.7992 0.8779 -1.7077 0.6555 0 1
3.7796 1.0349 -1.7162 0.6523 0 1
3.7562 1.1926 -1.7260 0.6486 0 1
3.7290 1.3511 -1.7370 0.6445 0 1
3.6978 1.5104 -1.7493 0.6399 0 1
3.6626 1.6707 -1.7630 0.6350 0 1
3.6232 1.8319 -1.7781 0.6296 0 1
3.5796 1.9942 -1.7945 0.6238 0 1
3.5315 2.1577 -1.8124 0.6177 0 1
3.4790 2.3225 -1.8319 0.6107 0 1
3.4222 2.4889 -1.8532 0.6037 0 1
3.3605 2.6568 -1.8761 0.5963 0 1
3.2938 2.8262 -1.9007 0.5931 0 1
3.2224 2.9979 -1.9275 0.5848 0 1
3.1454 3.1713 -1.9561 0.5763 0 1
3.0627 3.3466 -1.9867 0.5674 0 1
2.9740 3.5239 -2.0194 0.5582 0 1
2.8789 3.7033 -2.0543 0.5487 0 1
2.7771 3.8849 -2.0914 0.5390 0 1
2.6655 4.0644 -2.1286 0.5338 0 1
2.5466 4.2457 -2.1682 0.5241 0 1
2.4200 4.4288 -2.2102 0.5146 0 1
2.2854 4.6136 -2.2548 0.5045 0 1
2.1423 4.8003 -2.3021 0.4941 0 1
1.9784 4.9592 -2.3383 0.4844 0 24
1.8188 5.1513 -2.3925 0.4734 0 24
1.6574 5.3722 -2.4622 0.4624 0 1
1.4753 5.5666 -2.5220 0.4514 0 1
1.2820 5.7629 -2.5855 0.4403 0 1
1.0738 5.9436 -2.6451 0.4276 0 24
0.8594 6.1626 -2.7250 0.4179 0 1
0.6284 6.3668 -2.8018 0.4072 0 1
0.3830 6.5721 -2.8831 0.3958 0 1
0.1223 6.7794 -2.9695 0.3834 0 1
-0.1547 6.9885 -3.0613 0.3719 0 1
-0.4491 7.1991 -3.1590 0.3604 0 1
-0.7620 7.4098 -3.2622 0.3518 0 1
-1.0942 7.6186 -3.3708 0.3405 0 1
-1.4467 7.8253 -3.4851 0.3302 0 1
-1.8208 8.0298 -3.6059 0.3191 0 1
-2.2180 8.2329 -3.7341 0.3082 0 1
-2.6397 8.4337 -3.8702 0.2974 0 1
-3.0873 8.6315 -4.0146 0.2867 0 1
-3.5625 8.8251 -4.1679 0.2763 0 1
-4.0682 9.0165 -4.3321 0.2631 0 1
-4.6054 9.2023 -4.5066 0.2556 0 1
-5.1750 9.3791 -4.6913 0.2456 0 1
-5.7805 9.5486 -4.8884 0.2366 0 1
-6.4133 9.6927 -5.0900 0.2273 0 1
-7.0817 9.8216 -5.3028 0.2181 0 1
-7.7882 9.9346 -5.5284 0.2081 0 1
-8.5444 10.0410 -5.7741 0.1953 0 1
-9.3525 10.1359 -6.0399 0.1867 0 1
-10.2097 10.2099 -6.3234 0.1791 0 1
-11.1089 10.2505 -6.6198 0.1711 0 1
-12.0635 10.2658 -6.9372 0.1629 0 1
-13.0661 10.2434 -7.2711 0.1556 0 1
-14.1180 10.1799 -7.6226 0.1480 0 1
-15.2721 10.1053 -8.0200 0.1293 0 1
-16.4704 9.9711 -8.4320 0.1258 0 1
-17.6720 9.7509 -8.8393 0.1216 0 1
-18.8885 9.4533 -9.2503 0.1204 0 1
-20.2574 9.1404 -9.7329 0.8080 0 2
-21.2522 8.5794 -10.0371 0.7228 0 2
-22.6252 8.0930 -10.5234 0.5467 0 2
-23.6046 7.3884 -10.8321 0.1013 0 1
-24.7234 6.6610 -11.2136 0.0991 0 1
-16.4537 3.7313 -7.3888 0.9575 26 14
-16.4532 3.0421 -7.3277 0.9879 26 14
-16.7315 2.4032 -7.4027 0.4631 26 14
-28.0968 2.8897 -12.3698 0.0799 0 1
-28.5226 1.7797 -12.5156 0.0789 0 1
-28.7477 0.6367 -12.5930 0.0785 0 1
-28.7326 -0.5181 -12.5854 0.0801 0 1
-28.4671 -1.6586 -12.4882 0.0808 0 1
-26.9004 -2.6548 -11.8381 0.0913 0 2
-26.3623 -3.6759 -11.6569 0.0920 0 25
-25.0909 -4.5325 -11.1663 0.8396 0 20
-24.8587 -5.5298 -11.1529 0.0961 0 25
-24.4672 -6.4841 -11.0852 0.0997 0 24
-23.5084 -7.2522 -10.7741 0.1011 0 1
-22.3978 -7.9078 -10.4024 0.1072 0 1
-21.2103 -8.4612 -10.0008 0.1135 0 1
-20.0356 -8.9412 -9.6086 0.1221 0 1
-18.8671 -9.3457 -9.2209 0.1222 0 1
-17.6603 -9.6499 -8.8135 0.1278 0 1
-16.4729 -9.8801 -8.4123 0.1309 0 1
-15.2408 -9.9947 -7.9819 0.1376 0 24
-14.1613 -10.1228 -7.6234 0.1436 0 1
-13.0717 -10.1612 -7.2509 0.1509 0 1
-12.0419 -10.1623 -6.9007 0.1635 0 1
-11.0823 -10.1419 -6.5790 0.1714 0 1
-10.1719 -10.0887 -6.2742 0.1798 0 1
-9.3337 -10.0324 -6.0011 0.1953 0 1
-8.5412 -9.9539 -5.7441 0.2040 0 1
-7.7898 -9.8528 -5.5007 0.2101 0 1
-7.0711 -9.7223 -5.2649 0.2195 0 1
-6.3747 -9.5487 -5.0281 0.2290 0 24
-5.7360 -9.3877 -4.8180 0.2387 0 24
-5.1514 -9.2463 -4.6354 0.2483 0 1
-4.5841 -9.0663 -4.4492 0.2587 0 1
-4.0498 -8.8782 -4.2736 0.2684 0 1
-3.5475 -8.6848 -4.1086 0.2792 0 1
-3.0754 -8.4877 -3.9536 0.2902 0 1
-2.6302 -8.2838 -3.8063 0.2973 0 1
-2.2115 -8.0764 -3.6672 0.3086 0 1
-1.8185 -7.8694 -3.5372 0.3225 0 1
-1.4493 -7.6626 -3.4153 0.3368 0 1
-1.1026 -7.4592 -3.3022 0.3483 0 1
-0.7760 -7.2531 -3.1946 0.3591 0 1
-0.4688 -7.0480 -3.0934 0.3708 0 1
-0.1797 -6.8441 -2.9984 0.3826 0 1
0.0925 -6.6417 -2.9090 0.3943 0 1
0.3488 -6.4410 -2.8249 0.4060 0 1
0.5902 -6.2420 -2.7458 0.4177 0 1
0.8176 -6.0449 -2.6715 0.4293 0 1
1.0320 -5.8498 -2.6015 0.4409 0 1
1.2337 -5.6554 -2.5350 0.4511 0 1
1.4236 -5.4620 -2.4720 0.4627 0 1
1.6024 -5.2708 -2.4126 0.4740 0 1
1.7708 -5.0819 -2.3568 0.4853 0 1
1.9194 -4.8694 -2.2922 0.4938 0 24
2.0791 -4.7106 -2.2550 0.5072 0 1
2.2163 -4.5208 -2.2050 0.5004 0 1
2.3424 -4.3289 -2.1556 0.5118 0 1
2.4603 -4.1404 -2.1092 0.5231 0 1
2.5705 -3.9550 -2.0657 0.5341 0 1
2.6767 -3.7772 -2.0275 0.5666 0 1
2.7779 -3.6040 -1.9928 0.5765 0 1
2.8729 -3.4328 -1.9604 0.5860 0 1
2.9620 -3.2634 -1.9301 0.5952 0 1
3.0454 -3.0958 -1.9018 0.6040 0 1
3.1234 -2.9299 -1.8755 0.6125 0 1
3.1963 -2.7655 -1.8510 0.6206 0 1
3.2643 -2.6026 -1.8283 0.6283 0 1
3.3275 -2.4411 -1.8074 0.6356 0 1
3.3862 -2.2808 -1.7880 0.6425 0 1
3.4417 -2.1223 -1.7708 0.6424 0 1
3.4940 -1.9655 -1.7557 0.6479 0 1
3.5423 -1.8093 -1.7420 0.6530 0 1
3.5865 -1.6538 -1.7296 0.6577 0 1
3.6268 -1.4988 -1.7186 0.6619 0 1
3.6633 -1.3444 -1.7090 0.6656 0 1
3.6961 -1.1903 -1.7006 0.6689 0 1
3.7252 -1.0365 -1.6934 0.6717 0 1
3.7507 -0.8830 -1.6875 0.6741 0 1
3.7727 -0.7296 -1.6828 0.6760 0 1
3.7911 -0.5763 -1.6794 0.6774 0 1
3.8060 -0.4230 -1.6771 0.6783 0 1
3.8175 -0.2696 -1.6760 0.6787 0 1
3.8256 -0.1161 -1.6762 0.6786 0 1
3.8321 0.0377 -1.6783 0.6771 0 1
3.8359 0.1920 -1.6820 0.6756 0 1
3.8363 0.3469 -1.6869 0.6736 0 1
3.8311 0.5022 -1.6921 0.6616 0 1
3.8204 0.6578 -1.6977 0.6594 0 1
3.8061 0.8140 -1.7045 0.6567 0 1
3.7880 0.9707 -1.7126 0.6537 0 1
3.7662 1.1281 -1.7218 0.6502 0 1
3.7406 1.2863 -1.7323 0.6462 0 1
3.7111 1.4452 -1.7441 0.6418 0 1
3.6775 1.6051 -1.7573 0.6370 0 1
3.6398 1.7659 -1.7717 0.6318 0 1
3.5979 1.9278 -1.7876 0.6262 0 1
3.5517 2.0908 -1.8049 0.6202 0 1
3.5010 2.2551 -1.8238 0.6134 0 1
3.4460 2.4208 -1.8443 0.6066 0 1
3.3863 2.5881 -1.8665 0.5994 0 1
3.3216 2.7568 -1.8904 0.5918 0 1
3.2522 2.9276 -1.9164 0.5882 0 1
3.1775 3.1002 -1.9442 0.5798 0 1
3.0972 3.2748 -1.9740 0.5711 0 1
3.0109 3.4513 -2.0058 0.5620 0 1
2.9185 3.6298 -2.0398 0.5526 0 1
2.8195 3.8105 -2.0759 0.5430 0 1
2.7119 3.9910 -2.1132 0.5377 0 1
2.5960 4.1715 -2.1518 0.5281 0 1
2.4727 4.3538 -2.1928 0.5182 0 1
2.3414 4.5379 -2.2363 0.5086 0 1
2.2018 4.7238 -2.2825 0.4984 0 1
2.0535 4.9118 -2.3315 0.4879 0 1
1.8960 5.1017 -2.3836 0.4772 0 1
1.7287 5.2934 -2.4387 0.4668 0 1
1.5510 5.4870 -2.4971 0.4559 0 1
1.3623 5.6825 -2.5591 0.4448 0 1
1.1621 5.8799 -2.6249 0.4337 0 1
0.9497 6.0798 -2.6949 0.4226 0 1
0.7244 6.2832 -2.7699 0.4112 0 1
0.4850 6.4880 -2.8493 0.4005 0 1
0.2307 6.6945 -2.9336 0.3890 0 1
-0.0395 6.9029 -3.0232 0.3766 0 1
-0.3267 7.1130 -3.1184 0.3651 0 1
-0.6320 7.3243 -3.2196 0.3536 0 1
-0.9561 7.5333 -3.3256 0.3451 0 1
-1.3003 7.7415 -3.4379 0.3347 0 1
-1.6654 7.9464 -3.5557 0.3236 0 1
-2.0529 8.1502 -3.6808 0.3126 0 1
-2.4644 8.3520 -3.8136 0.3018 0 1
-2.9013 8.5511 -3.9546 0.2910 0 1
-3.3651 8.7467 -4.1043 0.2804 0 1
-3.8578 8.9385 -4.2636 0.2673 0 1
-4.3824 9.1277 -4.4343 0.2570 0 1
-4.9383 9.3080 -4.6146 0.2497 0 1
-5.5291 9.4810 -4.8067 0.2355 0 1
-6.1507 9.6356 -5.0063 0.2311 0 1
-6.8045 9.7710 -5.2146 0.2218 0 1
-7.4950 9.8905 -5.4347 0.2116 0 1
-8.2296 9.9988 -5.6714 0.1989 0 1
-9.0155 10.0981 -5.9285 0.1902 0 1
-9.8542 10.1831 -6.2059 0.1817 0 1
-10.7363 10.2378 -6.4970 0.1744 0 1
-11.6671 10.2631 -6.8051 0.1660 0 1
-12.6514 10.2578 -7.1330 0.1586 0 1
-13.6816 10.2104 -7.4764 0.1509 0 1
-14.7780 10.1308 -7.8467 0.1321 0 1
-15.9839 10.0384 -8.2661 0.1283 0 1
-17.1788 9.8497 -8.6723 0.1242 0 1
-18.3958 9.5872 -9.0848 0.1183 0 1
-19.9087 9.3790 -9.6380 0.1316 0 2
-20.8121 8.8014 -9.8961 0.7331 0 2
-21.9922 8.2759 -10.2908 0.6364 0 2
-23.5269 7.7900 -10.8536 0.1098 0 2
-24.2775 6.9700 -11.0617 0.0992 0 1
-16.4452 4.0140 -7.4135 0.9518 26 14
-16.4388 3.3192 -7.3446 0.9633 26 14
-16.5031 2.6474 -7.3199 0.8561 26 14
-18.7293 2.2373 -8.2607 0.1412 26 14
-28.3739 2.2382 -12.4648 0.0793 0 1
-28.6822 1.1062 -12.5706 0.0787 0 1
-28.7691 -0.0468 -12.5993 0.0800 0 1
-28.6012 -1.1962 -12.5367 0.0805 0 1
-28.1958 -2.3164 -12.3898 0.0833 0 1
-26.5985 -3.2650 -11.7361 0.0914 0 25
-25.9746 -4.2534 -11.5270 0.0930 0 25
-22.1561 -4.5486 -9.9056 0.9835 16 6
-24.9806 -6.1835 -11.2703 0.0969 0 1
-23.9535 -6.9613 -10.9243 0.0997 0 1
-22.8576 -7.6509 -10.5563 0.1056 0 1
-21.7001 -8.2466 -10.1666 0.1117 0 1
-20.5159 -8.7549 -9.7687 0.1201 0 1
-19.3453 -9.1906 -9.3797 0.1257 0 1
-18.1506 -9.5346 -8.9790 0.1255 0 1
-16.9572 -9.7961 -8.5765 0.1314 0 1
-15.7713 -9.9765 -8.1729 0.1345 0 1
-14.6196 -10.0923 -7.7800 0.1412 0 1
-13.5102 -10.1511 -7.4008 0.1479 0 1
-12.4520 -10.1634 -7.0392 0.1555 0 1
-11.4063 -10.0996 -6.6721 0.1638 0 24
-10.5377 -10.1141 -6.3967 0.1763 0 1
-9.6693 -10.0572 -6.1100 0.1918 0 1
-8.8597 -9.9888 -5.8474 0.2004 0 1
-8.0918 -9.8968 -5.5986 0.2093 0 1
-7.3595 -9.7776 -5.3595 0.2157 0 1
-6.6467 -9.6109 -5.1176 0.2251 0 24
-6.0105 -9.4838 -4.9173 0.2346 0 1
-5.3932 -9.3175 -4.7148 0.2441 0 1
-4.8115 -9.1407 -4.5238 0.2544 0 1
-4.2640 -8.9557 -4.3440 0.2640 0 1
-3.7489 -8.7643 -4.1747 0.2747 0 1
-3.2646 -8.5686 -4.0157 0.2857 0 1
-2.8089 -8.3680 -3.8657 0.2927 0 1
-2.3793 -8.1612 -3.7230 0.3039 0 1
-1.9692 -7.9263 -3.5768 0.3191 0 24
-1.5973 -7.7470 -3.4641 0.3293 0 1
-1.2374 -7.5166 -3.3362 0.3429 0 24
-0.9070 -7.3372 -3.2377 0.3543 0 1
-0.5920 -7.1316 -3.1340 0.3660 0 1
-0.2956 -6.9272 -3.0365 0.3778 0 1
-0.0166 -6.7069 -2.9373 0.3900 0 24
0.2460 -6.5227 -2.8586 0.4012 0 1
0.4934 -6.3230 -2.7776 0.4129 0 1
0.7264 -6.1252 -2.7013 0.4246 0 1
0.9460 -5.9292 -2.6295 0.4362 0 1
1.1529 -5.7350 -2.5619 0.4462 0 1
1.3429 -5.5223 -2.4889 0.4578 0 24
1.5306 -5.3486 -2.4364 0.4694 0 1
1.7032 -5.1587 -2.3792 0.4807 0 1
1.8568 -4.9470 -2.3141 0.4909 0 24
2.0072 -4.7575 -2.2614 0.5003 0 24
2.1623 -4.6001 -2.2261 0.4956 0 1
2.2919 -4.4069 -2.1754 0.5072 0 1
2.4131 -4.2170 -2.1278 0.5185 0 1
3.7477 -0.3544 -1.6986 0.6866 0 1
3.7576 -0.2035 -1.6980 0.6868 0 1
3.7643 -0.0525 -1.6987 0.6858 0 1
3.7700 0.0989 -1.7017 0.6846 0 1
3.7722 0.2509 -1.7059 0.6829 0 1
3.7699 0.4033 -1.7108 0.6709 0 1
3.7614 0.5560 -1.7156 0.6690 0 1
3.7492 0.7091 -1.7217 0.6666 0 1
3.7333 0.8627 -1.7289 0.6638 0 1
3.7138 1.0169 -1.7374 0.6606 0 1
3.6905 1.1717 -1.7471 0.6569 0 1
3.6633 1.3273 -1.7581 0.6528 0 1
3.6322 1.4836 -1.7704 0.6483 0 1
3.5971 1.6408 -1.7840 0.6433 0 1
3.5579 1.7989 -1.7989 0.6380 0 1
3.5145 1.9580 -1.8153 0.6323 0 1
3.4666 2.1181 -1.8331 0.6261 0 1
3.4144 2.2794 -1.8524 0.6192 0 1
3.3580 2.4422 -1.8735 0.6122 0 1
3.2968 2.6064 -1.8963 0.6095 0 1
3.2310 2.7724 -1.9210 0.6016 0 1
3.1601 2.9399 -1.9475 0.5934 0 1
3.0838 3.1091 -1.9759 0.5849 0 1
3.0018 3.2800 -2.0062 0.5761 0 1
2.9138 3.4527 -2.0385 0.5669 0 1
2.8197 3.6272 -2.0730 0.5575 0 1
2.7190 3.8036 -2.1097 0.5478 0 1
2.6090 3.9783 -2.1467 0.5427 0 1
2.4916 4.1541 -2.1857 0.5330 0 1
2.3668 4.3314 -2.2272 0.5231 0 1
2.2342 4.5102 -2.2711 0.5135 0 1
2.0933 4.6906 -2.3177 0.5032 0 1
1.9324 4.8439 -2.3532 0.4935 0 24
1.7756 5.0288 -2.4064 0.4826 0 24
1.6169 5.2412 -2.4749 0.4716 0 1
1.4385 5.4276 -2.5336 0.4607 0 1
1.2492 5.6154 -2.5957 0.4496 0 1
1.0487 5.8047 -2.6616 0.4385 0 1
0.8342 5.9821 -2.7253 0.4261 0 24
0.6111 6.1910 -2.8071 0.4160 0 1
0.3722 6.3858 -2.8863 0.4053 0 1
0.1188 6.5815 -2.9702 0.3939 0 1
-0.1500 6.7781 -3.0591 0.3816 0 1
-0.4351 6.9757 -3.1537 0.3701 0 1
-0.7377 7.1735 -3.2539 0.3587 0 1
-1.0583 7.3685 -3.3589 0.3503 0 1
-1.3978 7.5604 -3.4692 0.3401 0 1
-1.7571 7.7489 -3.5852 0.3291 0 1
-2.1377 7.9350 -3.7080 0.3182 0 1
-2.5408 8.1178 -3.8381 0.3074 0 1
-2.9676 8.2966 -3.9758 0.2968 0 1
-3.4193 8.4703 -4.1216 0.2863 0 1
-3.8970 8.6372 -4.2756 0.2762 0 1
-4.4044 8.8006 -4.4405 0.2632 0 1
-4.9412 8.9554 -4.6151 0.2532 0 1
-5.5086 9.0995 -4.7996 0.2435 0 1
-6.1023 9.2226 -4.9898 0.2377 0 1
-6.7246 9.3263 -5.1880 0.2286 0 1
-7.3782 9.4116 -5.3961 0.2198 0 1
-8.0670 9.4800 -5.6166 0.2059 0 1
-8.8080 9.5458 -5.8607 0.1973 0 1
-9.5893 9.5894 -6.1191 0.1890 0 1
-10.4067 9.6026 -6.3893 0.1818 0 1
-11.2657 9.5869 -6.6747 0.1735 0 1
-12.1641 9.5363 -6.9743 0.1661 0 1
-13.0980 9.4444 -7.2862 0.1588 0 1
-14.0684 9.3088 -7.6117 0.1520 0 1
-15.0903 9.1356 -7.9596 0.1366 0 1
-16.1376 8.9043 -8.3165 0.1308 0 1
-17.1984 8.6075 -8.6779 0.1289 0 1
-18.2579 8.2382 -9.0381 0.1238 0 1
-19.2989 7.7909 -9.3908 0.1228 0 1
-20.3003 7.2614 -9.7282 0.1180 0 1
-21.2707 6.6579 -10.0569 0.1163 0 1
-22.1631 5.9712 -10.3570 0.1111 0 1
-16.3248 3.7020 -7.5531 0.9420 26 14
-16.3555 3.0241 -7.5050 0.9265 26 14
-16.4809 2.3672 -7.5128 0.7343 26 14
-24.6865 2.5389 -11.1978 0.0991 0 1
-24.9914 1.5594 -11.2985 0.0985 0 1
-25.1760 0.5576 -11.3626 0.0963 0 1
-25.2041 -0.4544 -11.3744 0.0962 0 1
-25.0241 -1.4580 -11.3105 0.0967 0 1
-24.6748 -2.4352 -11.1878 0.0989 0 1
-23.4267 -3.2665 -10.6728 0.1030 0 25
-22.8684 -4.1310 -10.4856 0.1048 0 25
-22.1974 -4.9378 -10.2607 0.1071 0 25
-21.8258 -5.7841 -10.1881 0.2086 0 2
-21.1542 -6.5259 -9.9890 0.1147 0 1
-20.2457 -7.1480 -9.6879 0.1214 0 1
-19.2944 -7.6969 -9.3731 0.1254 0 1
-18.2854 -8.1602 -9.0350 0.1278 0 1
-17.2407 -8.5401 -8.6814 0.1330 0 1
-16.1887 -8.8458 -8.3240 0.1356 0 1
-15.1395 -9.0804 -7.9657 0.1414 0 1
-14.1106 -9.2535 -7.6139 0.1475 0 1
-13.1106 -9.3717 -7.2717 0.1543 0 1
-12.1497 -9.4446 -6.9437 0.1666 0 1
-11.2487 -9.4929 -6.6415 0.1741 0 1
-10.3842 -9.5030 -6.3514 0.1821 0 1
-9.5444 -9.4663 -6.0656 0.1980 0 24
-8.8119 -9.4716 -5.8373 0.2058 0 1
-8.0831 -9.4201 -5.6008 0.2145 0 1
-7.3841 -9.3397 -5.3722 0.2206 0 1
-6.7178 -9.2366 -5.1534 0.2299 0 1
-6.0863 -9.1167 -4.9461 0.2392 0 1
-5.4885 -8.9827 -4.7499 0.2484 0 1
-4.9227 -8.8357 -4.5638 0.2586 0 1
-4.3878 -8.6780 -4.3877 0.2680 0 1
-3.8712 -8.4867 -4.2089 0.2779 0 24
-3.4067 -8.3402 -4.0651 0.2893 0 1
-2.9569 -8.1608 -3.9166 0.2962 0 1
-2.5322 -7.9750 -3.7755 0.3097 0 1
-2.1324 -7.7874 -3.6432 0.3210 0 1
-1.7501 -7.5731 -3.5072 0.3339 0 24
-1.4013 -7.4088 -3.4023 0.3466 0 1
-1.0673 -7.2199 -3.2931 0.3571 0 1
-0.7519 -7.0277 -3.1891 0.3688 0 1
-0.4547 -6.8356 -3.0912 0.3805 0 1
-0.1744 -6.6441 -2.9989 0.3921 0 1
0.0899 -6.4532 -2.9121 0.4038 0 1
0.3392 -6.2632 -2.8302 0.4155 0 1
0.5743 -6.0745 -2.7531 0.4271 0 1
0.7963 -5.8870 -2.6805 0.4387 0 1
1.0056 -5.7004 -2.6118 0.4486 0 1
1.1991 -5.4967 -2.5385 0.4611 0 24
1.3890 -5.3295 -2.4851 0.4718 0 1
1.5644 -5.1459 -2.4269 0.4831 0 1
1.7298 -4.9642 -2.3720 0.4943 0 1
1.8759 -4.7590 -2.3082 0.5030 0 24
2.0200 -4.5769 -2.2574 0.5134 0 24
2.1668 -4.4199 -2.2211 0.5093 0 1
2.2913 -4.2344 -2.1724 0.5207 0 1
2.4077 -4.0519 -2.1267 0.5319 0 1
2.5172 -3.8730 -2.0843 0.5651 0 1
2.6238 -3.7026 -2.0476 0.5752 0 1
2.7239 -3.5340 -2.0133 0.5850 0 1
2.8180 -3.3671 -1.9812 0.5945 0 1
2.9062 -3.2019 -1.9511 0.6036 0 1
2.9889 -3.0383 -1.9231 0.6124 0 1
3.0662 -2.8762 -1.8970 0.6209 0 1
3.1386 -2.7155 -1.8727 0.6289 0 1
3.2060 -2.5561 -1.8501 0.6366 0 1
3.2688 -2.3980 -1.8292 0.6439 0 1
3.3271 -2.2409 -1.8100 0.6507 0 1
3.3815 -2.0852 -1.7926 0.6577 0 1
3.4332 -1.9312 -1.7774 0.6562 0 1
3.4810 -1.7780 -1.7637 0.6612 0 1
3.5249 -1.6254 -1.7515 0.6659 0 1
3.5649 -1.4733 -1.7405 0.6701 0 1
3.6012 -1.3215 -1.7309 0.6738 0 1
3.6337 -1.1702 -1.7225 0.6771 0 1
3.6626 -1.0191 -1.7154 0.6799 0 1
3.6879 -0.8682 -1.7095 0.6822 0 1
3.7096 -0.7174 -1.7049 0.6841 0 1
3.7279 -0.5667 -1.7014 0.6855 0 1
3.7427 -0.4160 -1.6991 0.6864 0 1
3.7540 -0.2652 -1.6981 0.6868 0 1
3.7619 -0.1142 -1.6982 0.6867 0 1
3.7681 0.0370 -1.7003 0.6852 0 1
3.7718 0.1887 -1.7040 0.6837 0 1
3.7719 0.3410 -1.7089 0.6817 0 1
3.7653 0.4936 -1.7135 0.6698 0 1
3.7546 0.6465 -1.7191 0.6676 0 1
3.7403 0.7999 -1.7258 0.6650 0 1
3.7222 0.9538 -1.7338 0.6620 0 1
3.7005 1.1084 -1.7430 0.6585 0 1
3.6749 1.2637 -1.7535 0.6545 0 1
3.6454 1.4197 -1.7652 0.6502 0 1
3.6120 1.5765 -1.7783 0.6454 0 1
3.5744 1.7342 -1.7927 0.6402 0 1
3.5327 1.8929 -1.8084 0.6346 0 1
3.4867 2.0526 -1.8256 0.6287 0 1
3.4363 2.2134 -1.8443 0.6219 0 1
3.3816 2.3756 -1.8647 0.6151 0 1
3.3223 2.5391 -1.8868 0.6079 0 1
3.2585 2.7044 -1.9107 0.6049 0 1
3.1897 2.8713 -1.9365 0.5968 0 1
3.1156 3.0398 -1.9641 0.5884 0 1
3.0359 3.2100 -1.9936 0.5797 0 1
2.9505 3.3819 -2.0251 0.5707 0 1
2.8589 3.5557 -2.0587 0.5614 0 1
2.7609 3.7313 -2.0944 0.5518 0 1
2.6549 3.9070 -2.1314 0.5466 0 1
2.5404 4.0821 -2.1695 0.5370 0 1
2.4187 4.2588 -2.2099 0.5271 0 1
2.2893 4.4371 -2.2529 0.5176 0 1
2.1519 4.6168 -2.2983 0.5074 0 1
1.9938 4.7689 -2.3323 0.4979 0 24
1.8408 4.9531 -2.3843 0.4871 0 24
1.6869 5.1655 -2.4519 0.4760 0 1
1.5126 5.3513 -2.5092 0.4651 0 1
1.3278 5.5385 -2.5699 0.4542 0 1
1.1320 5.7273 -2.6342 0.4431 0 1
0.9245 5.9181 -2.7027 0.4320 0 1
0.7046 6.1116 -2.7759 0.4206 0 1
0.4714 6.3062 -2.8534 0.4100 0 1
0.2240 6.5015 -2.9353 0.3985 0 1
-0.0384 6.6977 -3.0222 0.3871 0 1
-0.3167 6.8949 -3.1144 0.3748 0 1
-0.6120 7.0927 -3.2122 0.3634 0 1
-0.9251 7.2892 -3.3154 0.3549 0 1
-1.2569 7.4829 -3.4237 0.3446 0 1
-1.6079 7.6721 -3.5370 0.3336 0 1
-1.9797 7.8593 -3.6570 0.3226 0 1
-2.3734 8.0436 -3.7841 0.3118 0 1
-2.7904 8.2242 -3.9187 0.3011 0 1
-3.2317 8.4001 -4.0611 0.2906 0 1
-3.6987 8.5699 -4.2117 0.2804 0 1
-4.1937 8.7348 -4.3720 0.2673 0 1
-4.7184 8.8934 -4.5426 0.2572 0 1
-5.2731 9.0421 -4.7230 0.2474 0 1
-5.8570 9.1755 -4.9117 0.2414 0 1
-6.4667 9.2860 -5.1059 0.2323 0 1
-7.1075 9.3792 -5.3099 0.2233 0 1
-7.7802 9.4528 -5.5242 0.2135 0 1
-8.4998 9.5205 -5.7587 0.2008 0 1
-9.2658 9.5750 -6.0121 0.1923 0 1
-10.0691 9.6016 -6.2779 0.1842 0 1
-10.9092 9.5964 -6.5559 0.1767 0 1
-11.7930 9.5618 -6.8505 0.1691 0 1
-12.7115 9.4864 -7.1568 0.1621 0 1
-13.6686 9.3702 -7.4776 0.1547 0 1
-14.6621 9.2083 -7.8123 0.1361 0 1
-15.7078 9.0063 -8.1700 0.1331 0 1
-16.7663 8.7380 -8.5310 0.1311 0 1
-17.8256 8.3977 -8.8911 0.1258 0 1
-18.8827 7.9855 -9.2508 0.1246 0 1
-19.8942 7.4864 -9.5912 0.1202 0 1
-20.8811 6.9139 -9.9249 0.1156 0 1
-21.8110 6.2618 -10.2391 0.1142 0 1
-16.3118 3.9815 -7.5762 0.9391 26 14
-16.3335 3.2979 -7.5187 0.9108 26 14
-16.3749 2.6268 -7.4831 0.9544 26 14
-18.6241 2.2247 -8.4633 0.1187 26 14
-24.8809 1.9626 -11.2616 0.0985 0 1
-25.1163 0.9686 -11.3413 0.0965 0 1
-25.2141 -0.0410 -11.3770 0.0962 0 1
-25.1171 -1.0505 -11.3432 0.0964 0 1
-24.7463 -2.0330 -11.2036 0.0988 0 24
-23.6187 -2.8993 -10.7372 0.1024 0 25
-23.1109 -3.7845 -10.5669 0.1040 0 25
-22.0063 -4.5178 -10.1367 0.9785 16 6
-21.7540 -5.3848 -10.1120 0.1087 0 25
-21.5166 -6.2531 -10.1103 0.1134 0 1
-20.6219 -6.9026 -9.8124 0.1198 0 1
-19.6874 -7.4818 -9.5031 0.1237 0 1
-18.7093 -7.9840 -9.1785 0.1236 0 1
-17.6675 -8.3935 -8.8258 0.1309 0 1
-16.6217 -8.7315 -8.4718 0.1333 0 1
-15.5664 -8.9926 -8.1116 0.1392 0 1
-14.5278 -9.1899 -7.7566 0.1452 0 1
-13.5156 -9.3301 -7.4105 0.1514 0 1
-12.5350 -9.4184 -7.0747 0.1586 0 1
-11.6125 -9.4782 -6.7635 0.1711 0 1
-10.7325 -9.5030 -6.4682 0.1788 0 1
-9.8967 -9.4988 -6.1896 0.1941 0 1
-9.1196 -9.4854 -5.9372 0.2023 0 1
-8.3765 -9.4440 -5.6960 0.2109 0 1
-7.6452 -9.3505 -5.4498 0.2213 0 24
-6.9856 -9.2808 -5.2413 0.2261 0 1
-6.3400 -9.1674 -5.0294 0.2352 0 1
-5.7113 -9.0116 -4.8140 0.2450 0 24
-5.1498 -8.8970 -4.6385 0.2544 0 1
-4.6025 -8.7435 -4.4584 0.2637 0 1
-4.0855 -8.5808 -4.2882 0.2742 0 1
-3.5978 -8.4111 -4.1279 0.2849 0 1
-3.1379 -8.2359 -3.9768 0.2917 0 1
-2.7024 -8.0510 -3.8319 0.3027 0 1
-2.2927 -7.8643 -3.6962 0.3164 0 1
-1.9005 -7.6500 -3.5567 0.3291 0 24
-1.5434 -7.4856 -3.4487 0.3420 0 1
-1.2013 -7.2973 -3.3370 0.3534 0 1
-0.8784 -7.1061 -3.2308 0.3640 0 1
-0.5739 -6.9140 -3.1304 0.3757 0 1
-0.2869 -6.7222 -3.0359 0.3874 0 1
-0.0161 -6.5146 -2.9395 0.3995 0 24
0.2391 -6.3407 -2.8631 0.4107 0 1
0.4800 -6.1514 -2.7841 0.4223 0 1
0.7072 -5.9634 -2.7096 0.4339 0 1
0.9216 -5.7765 -2.6394 0.4439 0 1
1.1202 -5.5723 -2.5646 0.4571 0 24
1.3144 -5.4049 -2.5099 0.4672 0 1
1.4940 -5.2207 -2.4502 0.4785 0 1
1.6634 -5.0382 -2.3940 0.4898 0 1
1.8143 -4.8338 -2.3296 0.4981 0 24
1.9623 -4.6511 -2.2778 0.5091 0 24
2.1136 -4.4965 -2.2419 0.5046 0 1
2.2414 -4.3098 -2.1919 0.5161 0 1
2.3611 -4.1261 -2.1450 0.5273 0 1
3.6857 -0.3485 -1.7201 0.6946 0 1
3.6955 -0.2002 -1.7195 0.6948 0 1
3.7020 -0.0516 -1.7202 0.6938 0 1
3.7075 0.0973 -1.7232 0.6926 0 1
3.7095 0.2467 -1.7273 0.6910 0 1
3.7058 0.3964 -1.7316 0.6790 0 1
3.6972 0.5465 -1.7364 0.6771 0 1
3.6850 0.6969 -1.7425 0.6748 0 1
3.6692 0.8478 -1.7497 0.6720 0 1
3.6496 0.9993 -1.7581 0.6688 0 1
3.6264 1.1514 -1.7678 0.6651 0 1
3.5993 1.3041 -1.7787 0.6611 0 1
3.5683 1.4575 -1.7909 0.6566 0 1
3.5334 1.6117 -1.8044 0.6516 0 1
3.4943 1.7667 -1.8192 0.6463 0 1
3.4511 1.9226 -1.8355 0.6406 0 1
3.4035 2.0795 -1.8531 0.6345 0 1
3.3516 2.2375 -1.8723 0.6276 0 1
3.2956 2.3969 -1.8934 0.6254 0 1
3.2353 2.5578 -1.9162 0.6179 0 1
3.1700 2.7200 -1.9408 0.6101 0 1
3.0996 2.8837 -1.9670 0.6019 0 1
3.0239 3.0488 -1.9951 0.5935 0 1
2.9426 3.2154 -2.0251 0.5847 0 1
2.8555 3.3836 -2.0571 0.5756 0 1
2.7623 3.5534 -2.0911 0.5662 0 1
2.6627 3.7249 -2.1274 0.5566 0 1
2.5543 3.8949 -2.1641 0.5515 0 1
2.4385 4.0654 -2.2026 0.5418 0 1
2.3154 4.2373 -2.2435 0.5320 0 1
2.1848 4.4105 -2.2868 0.5219 0 1
2.0461 4.5848 -2.3327 0.5122 0 1
1.8991 4.7603 -2.3813 0.5017 0 1
1.7339 4.9109 -2.4198 0.4917 0 24
1.5781 5.1151 -2.4871 0.4808 0 1
1.4031 5.2940 -2.5446 0.4699 0 1
1.2178 5.4740 -2.6055 0.4589 0 1
1.0216 5.6549 -2.6699 0.4479 0 1
0.8142 5.8384 -2.7389 0.4368 0 1
0.5932 6.0102 -2.8060 0.4242 0 24
0.3618 6.2080 -2.8893 0.4148 0 1
0.1154 6.3931 -2.9709 0.4034 0 1
-0.1456 6.5783 -3.0572 0.3920 0 1
-0.4219 6.7636 -3.1486 0.3798 0 1
-0.7146 6.9487 -3.2456 0.3685 0 1
-1.0243 7.1320 -3.3477 0.3601 0 1
-1.3515 7.3104 -3.4541 0.3499 0 1
-1.6971 7.4844 -3.5657 0.3390 0 1
-2.0624 7.6552 -3.6836 0.3281 0 1
-2.4482 7.8220 -3.8081 0.3174 0 1
-2.8557 7.9838 -3.9396 0.3069 0 1
-3.2858 8.1397 -4.0784 0.2964 0 1
-3.7395 8.2881 -4.2247 0.2863 0 1
-4.2181 8.4284 -4.3790 0.2734 0 1
-4.7243 8.5624 -4.5437 0.2635 0 1
-5.2576 8.6849 -4.7170 0.2538 0 1
-5.8177 8.7925 -4.8985 0.2465 0 1
-6.3998 8.8758 -5.0841 0.2405 0 1
-7.0079 8.9392 -5.2775 0.2316 0 1
-7.6430 8.9816 -5.4795 0.2231 0 1
-8.3183 9.0151 -5.6993 0.2066 0 1
-9.0342 9.0343 -5.9362 0.1983 0 1
-9.7802 9.0245 -6.1830 0.1904 0 1
-10.5585 8.9851 -6.4416 0.1815 0 1
-11.3676 8.9119 -6.7112 0.1742 0 1
-12.2020 8.7984 -6.9894 0.1668 0 1
-13.0638 8.6441 -7.2782 0.1603 0 1
-13.9427 8.4408 -7.5727 0.1541 0 1
-14.8509 8.1943 -7.8807 0.1444 0 1
-15.7796 7.8974 -8.1985 0.1388 0 1
-16.6967 7.5337 -8.5108 0.1344 0 1
-17.5987 7.1045 -8.8179 0.1298 0 1
-18.4769 6.6092 -9.1175 0.1255 0 1
-19.2971 6.0401 -9.3948 0.1230 0 1
-20.0426 5.3999 -9.6443 0.1198 0 1
-16.2000 3.6737 -7.7180 0.9720 26 14
-16.2156 2.9982 -7.6618 0.9899 26 14
-16.3473 2.3480 -7.6733 0.8511 26 14
-22.1411 2.2772 -10.3415 0.1129 0 1
-22.3807 1.3965 -10.4188 0.1122 0 1
-22.5061 0.4984 -10.4594 0.1091 0 1
-22.5156 -0.4060 -10.4629 0.1091 0 1
-22.3728 -1.3036 -10.4125 0.1095 0 1
-22.1000 -2.1811 -10.3181 0.1105 0 1
-21.4901 -2.9965 -10.0814 0.7817 0 2
-21.0809 -3.8081 -9.9532 0.9961 0 2
-20.6185 -4.5866 -9.8140 0.1220 0 1
-19.9656 -5.2911 -9.5967 0.1247 0 1
-19.2431 -5.9364 -9.3565 0.1275 0 1
-18.4596 -6.5174 -9.0956 0.1285 0 1
-17.6226 -7.0300 -8.8153 0.1319 0 1
-16.7457 -7.4730 -8.5200 0.1364 0 1
-15.8391 -7.8458 -8.2126 0.1399 0 1
-14.9162 -8.1504 -7.8975 0.1464 0 1
-13.9936 -8.3931 -7.5815 0.1518 0 1
-13.0850 -8.5809 -7.2702 0.1583 0 1
-12.1991 -8.7202 -6.9672 0.1701 0 1
-11.3598 -8.8305 -6.6851 0.1773 0 1
-10.5470 -8.9007 -6.4122 0.1848 0 1
-9.7728 -8.9435 -6.1550 0.2000 0 1
-9.0430 -8.9690 -5.9177 0.2080 0 1
-8.3410 -8.9654 -5.6895 0.2163 0 1
-7.6466 -8.9114 -5.4558 0.2269 0 24
-7.0151 -8.8730 -5.2554 0.2306 0 1
-6.3947 -8.7923 -5.0513 0.2399 0 1
-5.7879 -8.6698 -4.8433 0.2488 0 24
-5.2437 -8.5821 -4.6728 0.2587 0 1
-4.7108 -8.4554 -4.4972 0.2679 0 1
-4.2058 -8.3181 -4.3307 0.2782 0 1
-3.7277 -8.1721 -4.1733 0.2887 0 1
-3.2752 -8.0182 -4.0242 0.2977 0 1
-2.8462 -7.8551 -3.8819 0.3086 0 1
-2.4409 -7.6875 -3.7475 0.3197 0 1
-2.0514 -7.4917 -3.6090 0.3321 0 24
-1.6968 -7.3426 -3.5014 0.3451 0 1
-1.3560 -7.1691 -3.3900 0.3564 0 1
-1.0337 -6.9932 -3.2845 0.3669 0 1
-0.7290 -6.8138 -3.1839 0.3785 0 1
-0.4412 -6.6338 -3.0890 0.3901 0 1
-0.1694 -6.4535 -2.9995 0.4016 0 1
0.0874 -6.2733 -2.9150 0.4133 0 1
0.3300 -6.0934 -2.8353 0.4249 0 1
0.5592 -5.9141 -2.7601 0.4364 0 1
0.7757 -5.7352 -2.6890 0.4464 0 1
0.9773 -5.5397 -2.6136 0.4596 0 24
1.1736 -5.3798 -2.5583 0.4695 0 1
1.3558 -5.2020 -2.4977 0.4809 0 1
1.5278 -5.0257 -2.4406 0.4922 0 1
1.6903 -4.8508 -2.3867 0.5033 0 1
1.8339 -4.6525 -2.3235 0.5112 0 24
1.9758 -4.4765 -2.2735 0.5222 0 24
2.1191 -4.3224 -2.2367 0.5181 0 1
2.2418 -4.1431 -2.1887 0.5295 0 1
2.3568 -3.9663 -2.1436 0.5406 0 1
2.4671 -3.7959 -2.1034 0.5737 0 1
2.5724 -3.6301 -2.0672 0.5837 0 1
2.6715 -3.4659 -2.0332 0.5935 0 1
2.7646 -3.3033 -2.0014 0.6029 0 1
2.8519 -3.1422 -1.9716 0.6120 0 1
2.9339 -2.9824 -1.9438 0.6208 0 1
3.0106 -2.8240 -1.9179 0.6292 0 1
3.0823 -2.6668 -1.8937 0.6372 0 1
3.1492 -2.5109 -1.8713 0.6448 0 1
3.2115 -2.3559 -1.8506 0.6520 0 1
3.2690 -2.2018 -1.8313 0.6551 0 1
3.3234 -2.0494 -1.8141 0.6658 0 1
3.3742 -1.8980 -1.7987 0.6715 0 1
3.4213 -1.7475 -1.7850 0.6694 0 1
3.4648 -1.5977 -1.7728 0.6740 0 1
3.5046 -1.4483 -1.7619 0.6781 0 1
3.5405 -1.2993 -1.7523 0.6819 0 1
3.5728 -1.1506 -1.7439 0.6851 0 1
3.6014 -1.0020 -1.7369 0.6879 0 1
3.6265 -0.8537 -1.7310 0.6902 0 1
3.6480 -0.7055 -1.7264 0.6921 0 1
3.6661 -0.5573 -1.7229 0.6935 0 1
3.6807 -0.4091 -1.7207 0.6944 0 1
3.6919 -0.2608 -1.7196 0.6948 0 1
3.6997 -0.1123 -1.7198 0.6948 0 1
3.7057 0.0364 -1.7218 0.6932 0 1
3.7091 0.1856 -1.7255 0.6917 0 1
3.7082 0.3353 -1.7300 0.6797 0 1
3.7011 0.4852 -1.7343 0.6780 0 1
3.6904 0.6354 -1.7399 0.6758 0 1
3.6761 0.7862 -1.7466 0.6732 0 1
3.6581 0.9374 -1.7545 0.6702 0 1
3.6363 1.0892 -1.7637 0.6667 0 1
3.6108 1.2416 -1.7741 0.6628 0 1
3.5814 1.3948 -1.7858 0.6584 0 1
3.5481 1.5486 -1.7987 0.6537 0 1
3.5108 1.7033 -1.8130 0.6485 0 1
3.4692 1.8589 -1.8287 0.6430 0 1
3.4234 2.0153 -1.8458 0.6370 0 1
3.3733 2.1728 -1.8643 0.6303 0 1
3.3190 2.3316 -1.8845 0.6236 0 1
3.2605 2.4919 -1.9067 0.6210 0 1
3.1973 2.6536 -1.9305 0.6133 0 1
3.1290 2.8167 -1.9561 0.6053 0 1
3.0555 2.9812 -1.9834 0.5970 0 1
2.9765 3.1472 -2.0126 0.5883 0 1
2.8918 3.3147 -2.0438 0.5793 0 1
2.8011 3.4838 -2.0770 0.5701 0 1
2.7042 3.6546 -2.1123 0.5605 0 1
2.5996 3.8257 -2.1490 0.5554 0 1
2.4866 3.9957 -2.1866 0.5458 0 1
2.3665 4.1670 -2.2265 0.5360 0 1
2.2391 4.3396 -2.2688 0.5260 0 1
2.1037 4.5134 -2.3136 0.5164 0 1
1.9484 4.6605 -2.3470 0.5069 0 24
1.7980 4.8380 -2.3980 0.4961 0 24
1.6467 5.0424 -2.4646 0.4848 0 1
1.4757 5.2209 -2.5208 0.4744 0 1
1.2947 5.4004 -2.5802 0.4634 0 1
1.1030 5.5809 -2.6432 0.4524 0 1
0.9003 5.7633 -2.7102 0.4414 0 1
0.6841 5.9339 -2.7753 0.4280 0 24
0.4584 6.1325 -2.8573 0.4187 0 1
0.2177 6.3175 -2.9370 0.4081 0 1
-0.0372 6.5027 -3.0213 0.3967 0 1
-0.3072 6.6880 -3.1106 0.3853 0 1
-0.5930 6.8732 -3.2053 0.3731 0 1
-0.8958 7.0579 -3.3056 0.3618 0 1
-1.2158 7.2385 -3.4103 0.3535 0 1
-1.5537 7.4137 -3.5194 0.3434 0 1
-1.9108 7.5859 -3.6347 0.3325 0 1
-2.2881 7.7544 -3.7564 0.3218 0 1
-2.6866 7.9184 -3.8851 0.3112 0 1
-3.1074 8.0768 -4.0208 0.3007 0 1
-3.5514 8.2285 -4.1640 0.2905 0 1
-4.0195 8.3719 -4.3149 0.2803 0 1
-4.5144 8.5089 -4.4754 0.2675 0 1
-5.0365 8.6364 -4.6451 0.2577 0 1
-5.5862 8.7512 -4.8238 0.2482 0 1
-6.1592 8.8445 -5.0076 0.2441 0 1
-6.7563 8.9157 -5.1975 0.2352 0 1
-7.3804 8.9670 -5.3960 0.2266 0 1
-8.0348 8.9997 -5.6054 0.2100 0 1
-8.7382 9.0297 -5.8382 0.2016 0 1
-9.4720 9.0322 -6.0811 0.1936 0 1
-10.2360 9.0042 -6.3341 0.1845 0 1
-11.0340 8.9464 -6.6001 0.1771 0 1
-11.8583 8.8497 -6.8748 0.1700 0 1
-12.7096 8.7128 -7.1595 0.1630 0 1
-13.5821 8.5300 -7.4519 0.1566 0 1
-14.4753 8.2997 -7.7526 0.1496 0 1
-15.3999 8.0259 -8.0686 0.1411 0 1
-16.3233 7.6900 -8.3837 0.1364 0 1
-17.2326 7.2877 -8.6932 0.1318 0 1
-18.1223 6.8196 -8.9965 0.1272 0 1
-18.9751 6.2828 -9.2870 0.1244 0 1
-19.7461 5.6690 -9.5451 0.1210 0 1
-16.1977 3.9536 -7.7467 0.9637 26 14
-16.2037 3.2717 -7.6806 0.9768 26 14
-16.2414 2.6054 -7.6426 0.9924 26 14
-18.6592 2.2289 -8.7311 0.1138 26 14
-22.2960 1.7587 -10.3914 0.1124 0 1
-22.4659 0.8664 -10.4459 0.1119 0 1
-22.5282 -0.0366 -10.4671 0.1090 0 1
-22.4470 -0.9388 -10.4385 0.1094 0 1
-22.2265 -1.8260 -10.3617 0.1100 0 1
-21.8749 -2.6852 -10.2399 0.1124 0 1
-21.1829 -3.4688 -9.9731 0.9586 0 2
-20.8643 -4.2834 -9.8962 0.1199 0 1
-20.2414 -5.0104 -9.6885 0.1236 0 1
-19.5453 -5.6802 -9.4569 0.1266 0 1
-18.7889 -6.2890 -9.2058 0.1269 0 1
-17.9698 -6.8290 -8.9317 0.1308 0 1
-17.1064 -7.3000 -8.6415 0.1345 0 1
-16.1492 -7.6722 -8.3070 0.1370 0 24
-15.2347 -8.0028 -7.9956 0.1425 0 24
-14.3698 -8.3014 -7.7105 0.1493 0 1
-13.4535 -8.5104 -7.3965 0.1556 0 1
-12.5567 -8.6682 -7.0892 0.1621 0 1
-11.6994 -8.7905 -6.7992 0.1743 0 1
-10.8759 -8.8769 -6.5227 0.1817 0 1
-10.0794 -8.9248 -6.2551 0.1894 0 1
-9.3377 -8.9623 -6.0135 0.2047 0 1
-8.6243 -8.9703 -5.7816 0.2129 0 1
-7.9391 -8.9509 -5.5590 0.2214 0 1
-7.2771 -8.9003 -5.3416 0.2273 0 1
-6.6443 -8.8274 -5.1334 0.2361 0 1
-6.0420 -8.7365 -4.9353 0.2455 0 1
-5.4694 -8.6300 -4.7472 0.2547 0 1
-4.9250 -8.5086 -4.5678 0.2637 0 1
-4.4087 -8.3753 -4.3976 0.2740 0 1
-3.9197 -8.2326 -4.2365 0.2844 0 1
-3.4571 -8.0821 -4.0843 0.2950 0 1
-3.0184 -7.9223 -3.9390 0.3042 0 1
-2.6036 -7.7564 -3.8014 0.3152 0 1
-2.2044 -7.5614 -3.6595 0.3273 0 24
-1.8417 -7.4133 -3.5491 0.3376 0 1
-1.4928 -7.2402 -3.4347 0.3518 0 1
-1.1632 -7.0655 -3.3270 0.3632 0 1
-0.8513 -6.8871 -3.2243 0.3737 0 1
-0.5568 -6.7073 -3.1271 0.3853 0 1
-0.2785 -6.5271 -3.0354 0.3969 0 1
-0.0157 -6.3312 -2.9416 0.4090 0 24
0.2326 -6.1668 -2.8673 0.4201 0 1
0.4672 -5.9873 -2.7903 0.4317 0 1
0.6888 -5.8083 -2.7176 0.4417 0 1
0.8982 -5.6296 -2.6487 0.4532 0 1
1.0960 -5.4521 -2.5839 0.4647 0 1
1.2827 -5.2744 -2.5220 0.4763 0 1
1.4588 -5.0975 -2.4635 0.4876 0 1
1.6251 -4.9220 -2.4083 0.4988 0 1
1.7734 -4.7247 -2.3447 0.5077 0 24
1.9189 -4.5482 -2.2936 0.5179 0 24
2.0666 -4.3964 -2.2571 0.5134 0 1
2.1927 -4.2160 -2.2079 0.5249 0 1
2.3108 -4.0382 -2.1617 0.5361 0 1
3.6251 -0.3428 -1.7412 0.7025 0 1
3.6348 -0.1969 -1.7406 0.7028 0 1
3.6411 -0.0508 -1.7412 0.7018 0 1
3.6464 0.0957 -1.7442 0.7006 0 1
3.6482 0.2426 -1.7483 0.6886 0 1
3.6431 0.3897 -1.7520 0.6871 0 1
3.6345 0.5372 -1.7568 0.6852 0 1
3.6223 0.6851 -1.7628 0.6829 0 1
3.6065 0.8334 -1.7699 0.6801 0 1
3.5870 0.9822 -1.7783 0.6769 0 1
3.5638 1.1315 -1.7879 0.6733 0 1
3.5368 1.2814 -1.7988 0.6692 0 1
3.5060 1.4320 -1.8109 0.6648 0 1
3.4712 1.5833 -1.8243 0.6599 0 1
3.4323 1.7354 -1.8391 0.6546 0 1
3.3893 1.8882 -1.8552 0.6489 0 1
3.3420 2.0419 -1.8727 0.6428 0 1
3.2907 2.1968 -1.8919 0.6407 0 1
3.2354 2.3531 -1.9130 0.6337 0 1
3.1755 2.5105 -1.9356 0.6263 0 1
3.1107 2.6691 -1.9599 0.6185 0 1
3.0408 2.8290 -1.9860 0.6104 0 1
2.9657 2.9901 -2.0138 0.6020 0 1
2.8852 3.1526 -2.0435 0.5932 0 1
2.7989 3.3165 -2.0751 0.5842 0 1
2.7067 3.4818 -2.1088 0.5748 0 1
2.6082 3.6486 -2.1445 0.5653 0 1
2.5013 3.8141 -2.1810 0.5602 0 1
2.3870 3.9797 -2.2190 0.5506 0 1
2.2657 4.1463 -2.2593 0.5408 0 1
2.1370 4.3139 -2.3020 0.5308 0 1
1.9882 4.4550 -2.3328 0.5221 0 24
1.8559 4.6521 -2.3949 0.5107 0 1
1.7027 4.8225 -2.4455 0.5002 0 1
1.5406 4.9938 -2.4989 0.4899 0 1
1.3690 5.1656 -2.5553 0.4791 0 1
1.1875 5.3381 -2.6149 0.4682 0 1
0.9957 5.5113 -2.6780 0.4573 0 1
0.7930 5.6866 -2.7454 0.4461 0 1
0.5786 5.8623 -2.8168 0.4348 0 1
0.3513 6.0277 -2.8871 0.4223 0 24
0.1121 6.2134 -2.9715 0.4129 0 1
-0.1414 6.3882 -3.0554 0.4016 0 1
-0.4094 6.5624 -3.1440 0.3903 0 1
-0.6926 6.7355 -3.2377 0.3790 0 1
-0.9920 6.9074 -3.3368 0.3669 0 1
-1.3079 7.0741 -3.4399 0.3597 0 1
-1.6406 7.2349 -3.5473 0.3488 0 1
-1.9914 7.3918 -3.6605 0.3381 0 1
-2.3612 7.5441 -3.7799 0.3274 0 1
-2.7509 7.6908 -3.9057 0.3169 0 1
-3.1612 7.8309 -4.0380 0.3065 0 1
-3.5928 7.9630 -4.1772 0.2965 0 1
-4.0465 8.0856 -4.3234 0.2865 0 1
-4.5237 8.1988 -4.4776 0.2737 0 1
-5.0262 8.3027 -4.6409 0.2641 0 1
-5.5532 8.3927 -4.8121 0.2547 0 1
-6.1016 8.4622 -4.9885 0.2478 0 1
-6.6708 8.5093 -5.1701 0.2421 0 1
-7.2620 8.5339 -5.3581 0.2336 0 1
-7.8755 8.5353 -5.5532 0.2254 0 1
-8.5324 8.5326 -5.7699 0.2089 0 1
-9.2158 8.5037 -5.9960 0.2010 0 1
-9.9228 8.4441 -6.2302 0.1934 0 1
-10.6547 8.3530 -6.4737 0.1849 0 1
-11.4068 8.2250 -6.7244 0.1780 0 1
-12.1789 8.0586 -6.9830 0.1710 0 1
-12.9629 7.8476 -7.2458 0.1649 0 1
-13.7585 7.5916 -7.5139 0.1581 0 1
-14.5607 7.2873 -7.7857 0.1526 0 1
-15.3665 6.9335 -8.0611 0.1452 0 1
-16.1510 6.5201 -8.3284 0.1401 0 1
-16.9006 6.0453 -8.5828 0.1353 0 1
-17.6108 5.5123 -8.8238 0.1316 0 1
-18.2602 4.9197 -9.0427 0.1294 0 1
-16.1449 3.6612 -7.9160 0.9570 26 14
-16.1538 2.9868 -7.8551 0.9787 26 14
-16.3190 2.3440 -7.8833 0.5106 26 14
-20.0542 2.0625 -9.6398 0.1221 0 1
-20.2654 1.2645 -9.7091 0.1216 0 1
-20.3678 0.4511 -9.7416 0.1218 0 1
-20.3590 -0.3671 -9.7366 0.1219 0 1
-20.2472 -1.1797 -9.6980 0.1224 0 1
-20.0230 -1.9761 -9.6209 0.1245 0 1
-19.6990 -2.7468 -9.5105 0.1260 0 1
-19.2927 -3.4851 -9.3744 0.1294 0 1
-18.8070 -4.1836 -9.2127 0.1303 0 1
-18.2414 -4.8342 -9.0235 0.1330 0 1
-17.6102 -5.4326 -8.8122 0.1360 0 1
-16.9251 -5.9756 -8.5826 0.1396 0 1
-16.1920 -6.4593 -8.3358 0.1425 0 1
-15.4271 -6.8846 -8.0780 0.1471 0 1
-14.6231 -7.2435 -7.8031 0.1507 0 1
-13.8114 -7.5468 -7.5257 0.1557 0 1
-12.9953 -7.7944 -7.2459 0.1617 0 1
-12.1912 -7.9948 -6.9711 0.1730 0 1
-11.4175 -8.1614 -6.7108 0.1808 0 1
-10.6596 -8.2862 -6.4559 0.1880 0 1
-9.9263 -8.3769 -6.2107 0.2029 0 1
-9.2334 -8.4499 -5.9849 0.2105 0 1
-8.5622 -8.4921 -5.7663 0.2185 0 1
-7.9138 -8.5062 -5.5554 0.2268 0 1
-7.2831 -8.4878 -5.3479 0.2320 0 1
-6.6774 -8.4458 -5.1482 0.2410 0 1
-6.0982 -8.3847 -4.9575 0.2503 0 1
-5.5454 -8.3065 -4.7757 0.2592 0 1
-5.0171 -8.2112 -4.6012 0.2681 0 1
-4.5144 -8.1029 -4.4353 0.2781 0 1
-4.0364 -7.9830 -4.2774 0.2864 0 1
-3.5824 -7.8536 -4.1276 0.2968 0 1
-3.1519 -7.7163 -3.9856 0.3078 0 1
-2.7334 -7.5439 -3.8367 0.3192 0 24
-2.3551 -7.4173 -3.7212 0.3296 0 1
-1.9820 -7.2380 -3.5884 0.3423 0 24
-1.6414 -7.1027 -3.4858 0.3549 0 1
-1.3130 -6.9421 -3.3783 0.3661 0 1
-1.0020 -6.7781 -3.2763 0.3765 0 1
-0.7073 -6.6105 -3.1789 0.3881 0 1
-0.4285 -6.4415 -3.0869 0.3995 0 1
-0.1646 -6.2717 -3.0000 0.4111 0 1
0.0850 -6.1014 -2.9178 0.4227 0 1
0.3212 -5.9310 -2.8401 0.4342 0 1
0.5446 -5.7602 -2.7666 0.4442 0 1
0.7538 -5.5733 -2.6892 0.4574 0 24
0.9560 -5.4193 -2.6313 0.4672 0 1
1.1452 -5.2497 -2.5693 0.4785 0 1
1.3238 -5.0793 -2.5099 0.4900 0 1
1.4926 -4.9098 -2.4538 0.5012 0 1
1.6521 -4.7413 -2.4008 0.5122 0 1
1.7933 -4.5495 -2.3383 0.5203 0 24
1.9330 -4.3798 -2.2892 0.5322 0 24
2.0729 -4.2282 -2.2517 0.5269 0 1
2.1940 -4.0547 -2.2044 0.5382 0 1
2.3078 -3.8838 -2.1602 0.5719 0 1
2.4184 -3.7210 -2.1221 0.5822 0 1
2.5226 -3.5597 -2.0862 0.5922 0 1
2.6205 -3.3998 -2.0525 0.6019 0 1
2.7126 -3.2413 -2.0210 0.6113 0 1
2.7992 -3.0840 -1.9915 0.6203 0 1
2.8803 -2.9280 -1.9639 0.6290 0 1
2.9563 -2.7731 -1.9382 0.6374 0 1
3.0274 -2.6194 -1.9143 0.6453 0 1
3.0938 -2.4667 -1.8920 0.6529 0 1
3.1554 -2.3148 -1.8713 0.6564 0 1
3.2124 -2.1637 -1.8520 0.6632 0 1
3.2667 -2.0144 -1.8352 0.6738 0 1
3.3171 -1.8659 -1.8198 0.6795 0 1
3.3635 -1.7180 -1.8060 0.6847 0 1
3.4062 -1.5707 -1.7935 0.6820 0 1
3.4456 -1.4239 -1.7827 0.6862 0 1
3.4812 -1.2775 -1.7732 0.6899 0 1
3.5132 -1.1314 -1.7649 0.6931 0 1
3.5416 -0.9854 -1.7578 0.6959 0 1
3.5665 -0.8396 -1.7520 0.6982 0 1
