ply
format ascii 1.0
element vertex 1379
property float32 x
property float32 y
property float32 z
property float32 CosAngle
property uint32 ObjIdx
property uint32 ObjTag
end_header
7.7576 -4.0625 -0.2184 0.3051 0 25
7.7696 -3.6786 -0.2144 0.3108 0 25
7.7802 -3.3074 -0.2108 0.3161 0 25
7.7895 -2.9475 -0.2077 0.3208 0 25
7.7977 -2.5972 -0.2050 0.3251 0 25
7.8047 -2.2552 -0.2026 0.3290 0 2
8.0897 -1.9889 -0.2078 0.3327 0 1
8.1070 -1.6505 -0.2063 0.3352 0 1
4.0335 -0.6535 -0.1019 0.3047 25 14
3.9367 -0.4763 -0.0989 0.9714 25 14
3.9280 -0.3156 -0.0983 0.9775 25 14
3.9054 -0.1561 -0.0975 0.9782 25 14
3.8799 0.0011 -0.0968 0.9855 25 14
3.9015 0.1581 -0.0974 0.9792 25 14
3.9268 0.3177 -0.0982 0.9705 25 14
3.9367 0.4785 -0.0989 0.9713 25 14
4.0146 0.6527 -0.1014 0.3062 25 14
8.3022 1.6950 -0.2113 0.3270 0 1
8.3255 2.0517 -0.2138 0.3231 0 1
8.3522 2.4184 -0.2168 0.3178 0 1
8.3763 2.7950 -0.2202 0.3105 0 1
8.3972 3.1827 -0.2240 0.3053 0 1
8.4179 3.5840 -0.2282 0.2997 0 1
8.4382 4.0008 -0.2329 0.2936 0 1
8.4318 4.4214 -0.2374 0.3033 0 1
8.4055 4.8483 -0.2420 0.2971 0 1
8.3745 5.2902 -0.2470 0.2911 0 1
8.3410 5.7509 -0.2527 0.2846 0 1
8.2902 6.2222 -0.2585 0.3146 0 1
8.1803 6.6704 -0.2632 0.3070 0 1
8.0765 7.1454 -0.2689 0.3005 0 1
7.9670 7.6411 -0.2753 0.2935 0 1
7.9772 8.2921 -0.2869 0.8080 0 2
7.5406 8.4972 -0.2833 0.2422 0 2
7.5035 9.1733 -0.2956 0.2248 0 2
6.7668 8.9872 -0.2806 0.8160 22 6
6.4768 9.3632 -0.2839 0.3337 22 6
7.3621 11.6151 -0.3429 0.1938 0 2
7.3009 12.6133 -0.3635 0.1828 0 2
7.2303 13.7374 -0.3871 0.1716 0 2
7.1479 15.0168 -0.4148 0.1602 0 2
7.0509 16.4912 -0.4473 0.1486 0 2
6.9352 18.2143 -0.4860 0.1367 0 2
6.7953 20.2618 -0.5330 0.1247 0 2
6.6229 22.7437 -0.5908 0.1125 0 2
6.4058 25.8249 -0.6636 0.1001 0 2
6.1244 29.7667 -0.7579 0.0877 0 2
5.7461 35.0069 -0.8847 0.0751 0 2
1.9453 15.8046 -0.3971 0.8944 0 9
2.0836 25.2770 -0.6325 0.9930 0 9
0.7142 16.9875 -0.4240 0.2146 0 9
0.0261 14.5091 -0.3618 0.4697 0 9
-31.2903 38.5354 -1.2379 0.6002 0 3
-31.5294 35.7872 -1.1894 0.6294 0 3
-31.1403 32.6030 -1.1244 0.5851 0 3
-33.8101 32.6612 -1.1723 0.6992 0 3
-31.2794 27.8740 -1.0448 0.7111 0 3
-33.6788 27.6646 -1.0869 0.6395 0 3
-30.2981 22.9108 -0.9473 0.9278 0 3
-31.2650 21.7227 -0.9494 0.7825 0 3
-35.5757 22.6525 -1.0518 0.5424 0 3
-31.2559 18.1782 -0.9017 0.8239 0 3
-36.2811 19.1914 -1.0236 0.8426 0 3
-33.8132 16.1807 -0.9348 0.2630 0 3
-41.2081 17.7197 -1.1186 0.4008 0 3
-41.5538 15.9205 -1.1097 0.5304 0 3
-34.9407 -33.2352 -1.2026 0.9500 0 20
-33.7807 -34.8245 -1.2099 0.9727 0 20
5.0826 -44.1030 -1.1071 0.0600 0 2
5.6581 -36.2198 -0.9142 0.0727 0 2
6.0606 -30.6550 -0.7793 0.0853 0 2
6.3575 -26.5052 -0.6797 0.0978 0 2
6.5851 -23.2829 -0.6034 0.1101 0 2
6.7650 -20.7009 -0.5431 0.1223 0 2
6.9104 -18.5797 -0.4944 0.1344 0 2
7.0303 -16.8010 -0.4542 0.1463 0 2
7.5262 -16.1318 -0.4439 0.1744 0 2
7.4696 -14.4623 -0.4059 0.1480 0 1
7.4819 -13.1596 -0.3775 0.1802 0 24
7.5711 -12.1515 -0.3570 0.1919 0 24
7.6420 -11.2322 -0.3388 0.2010 0 24
7.7033 -10.3973 -0.3227 0.2104 0 24
7.7462 -9.6209 -0.3080 0.2192 0 24
7.7747 -8.8985 -0.2947 0.2309 0 24
7.7985 -8.2327 -0.2828 0.2445 0 24
7.8244 -7.6213 -0.2724 0.2592 0 24
7.8529 -7.0565 -0.2633 0.2714 0 24
7.9601 -6.5940 -0.2578 0.2966 0 1
8.0068 -6.1069 -0.2511 0.3044 0 1
6.2513 -4.3818 -0.1904 0.7948 14 6
6.3539 -4.0829 -0.1884 0.5790 14 6
-34.4532 -33.8750 -1.7409 0.9781 0 20
-32.9323 -35.0937 -1.7340 0.9814 0 20
3.8431 -42.0858 -1.5227 0.0630 0 2
4.6047 -34.8718 -1.2673 0.0757 0 2
5.1451 -29.7040 -1.0862 0.0884 0 2
5.5479 -25.8093 -0.9512 0.1009 0 2
5.8592 -22.7603 -0.8468 0.1133 0 2
6.1066 -20.3017 -0.7639 0.1256 0 2
6.3076 -18.2716 -0.6965 0.1378 0 2
6.5047 -16.6406 -0.6437 0.9993 0 2
6.9446 -14.2641 -0.5716 0.1518 0 1
7.0529 -13.1184 -0.5366 0.1836 0 1
7.1521 -12.1085 -0.5067 0.1945 0 1
7.2437 -11.2085 -0.4808 0.2066 0 1
7.3207 -10.3862 -0.4578 0.2170 0 1
7.3850 -9.6304 -0.4373 0.2211 0 1
7.4313 -8.9233 -0.4184 0.2310 0 1
7.4721 -8.2718 -0.4016 0.2407 0 1
7.5192 -7.6792 -0.3872 0.2740 0 1
7.5384 -7.1035 -0.3732 0.2766 0 24
7.5793 -6.5872 -0.3618 0.2870 0 24
7.7071 -6.1722 -0.3558 0.2982 0 1
7.4187 -5.4665 -0.3320 0.2899 0 25
6.2664 -4.2395 -0.2726 0.8017 14 6
6.5577 -4.0621 -0.2779 0.5667 14 6
7.4850 -4.2298 -0.3098 0.3107 0 25
7.5027 -3.8503 -0.3038 0.3168 0 25
7.5185 -3.4838 -0.2986 0.3224 0 25
7.5324 -3.1288 -0.2939 0.3275 0 25
7.5447 -2.7837 -0.2898 0.3322 0 25
7.5555 -2.4473 -0.2862 0.3363 0 25
7.8265 -2.1915 -0.2928 0.3409 0 1
7.8456 -1.8601 -0.2905 0.3438 0 1
7.8640 -1.5334 -0.2887 0.3460 0 1
3.9352 -0.6042 -0.1434 0.9672 25 14
3.9265 -0.4421 -0.1424 0.9745 25 14
3.9178 -0.2822 -0.1415 0.9803 25 14
3.8965 -0.1235 -0.1405 0.9804 25 14
3.8784 0.0331 -0.1397 0.9855 25 14
3.9033 0.1905 -0.1408 0.9781 25 14
3.9212 0.3499 -0.1418 0.9781 25 14
3.9303 0.5107 -0.1428 0.9716 25 14
4.0487 0.6927 -0.1480 0.3031 25 14
8.0478 1.7125 -0.2965 0.3377 0 1
8.0670 2.0589 -0.3000 0.3327 0 1
8.0883 2.4147 -0.3041 0.3247 0 1
8.1047 2.7791 -0.3087 0.3199 0 1
8.1203 3.1548 -0.3139 0.3146 0 1
8.1350 3.5433 -0.3197 0.3089 0 1
8.1487 3.9464 -0.3262 0.3027 0 1
8.1428 4.3562 -0.3327 0.3126 0 1
8.1104 4.7679 -0.3390 0.3064 0 1
8.0740 5.1944 -0.3459 0.3002 0 1
8.0346 5.6383 -0.3537 0.2936 0 1
7.9917 6.1022 -0.3623 0.2867 0 1
7.8886 6.5420 -0.3693 0.3160 0 1
7.7815 7.0000 -0.3771 0.3095 0 1
7.6681 7.4773 -0.3859 0.3024 0 1
7.6558 8.0909 -0.4013 0.2663 0 2
7.3360 8.4057 -0.4020 0.8995 0 2
7.1576 8.8998 -0.4115 0.2332 0 2
6.6394 8.9715 -0.4021 0.7996 22 6
7.0391 10.3583 -0.4512 0.2127 0 2
6.9677 11.1968 -0.4752 0.2020 0 2
6.8862 12.1272 -0.5025 0.1910 0 2
6.7926 13.1690 -0.5339 0.1798 0 2
6.6840 14.3470 -0.5703 0.1683 0 2
6.5571 15.6941 -0.6128 0.1566 0 2
6.4069 17.2547 -0.6632 0.1447 0 2
6.2270 19.0899 -0.7235 0.1326 0 2
6.0080 21.2864 -0.7969 0.1204 0 2
5.7360 23.9718 -0.8881 0.1081 0 2
5.3900 27.3415 -1.0041 0.0956 0 2
2.1642 13.9038 -0.5070 0.3132 0 9
2.4288 21.1769 -0.7680 0.4846 0 20
1.7513 23.6330 -0.8538 0.6718 0 9
0.5571 16.5040 -0.5950 0.9017 0 9
-31.1091 37.6709 -1.7603 0.6096 0 3
-29.2388 32.6388 -1.5789 0.7724 0 3
-31.1197 32.0462 -1.6095 0.6667 0 3
-34.3698 32.6565 -1.7082 0.6930 0 3
-31.1255 27.2781 -1.4912 0.7196 0 3
-34.2470 27.6599 -1.5861 0.6329 0 3
-31.1275 23.1357 -1.3974 0.7679 0 3
-33.2069 22.6667 -1.4486 0.5687 0 3
-36.1336 22.5898 -1.5354 0.8113 0 3
-31.1689 17.7841 -1.2930 0.6051 0 3
-36.1294 18.7302 -1.4663 0.8495 0 3
-35.2360 16.5046 -1.4019 0.2430 0 3
-42.1491 17.7125 -1.6473 0.3931 0 3
-43.6208 16.2998 -1.6778 0.2666 0 3
-34.7203 -33.5772 -1.7403 0.9784 0 20
-33.2468 -34.8465 -1.7353 0.9807 0 20
1.7399 -40.8524 -1.4733 0.5466 0 20
3.6462 -43.9418 -1.5887 0.0604 0 2
4.4699 -36.1535 -1.3125 0.0731 0 2
5.0472 -30.6445 -1.1190 0.0858 0 2
5.4737 -26.5306 -0.9760 0.0983 0 2
5.8011 -23.3326 -0.8663 0.1108 0 2
6.0599 -20.7682 -0.7795 0.1231 0 2
6.2694 -18.6601 -0.7093 0.1353 0 2
6.4421 -16.8915 -0.6514 0.1473 0 2
6.9538 -16.2395 -0.6365 0.1758 0 2
6.9340 -14.5470 -0.5806 0.1494 0 1
6.9807 -13.2457 -0.5395 0.1830 0 24
7.1327 -12.3073 -0.5125 0.1923 0 1
7.2265 -11.3874 -0.4859 0.2055 0 1
7.3056 -10.5491 -0.4623 0.2149 0 1
7.3747 -9.7836 -0.4414 0.2190 0 1
7.4222 -9.0639 -0.4221 0.2290 0 1
7.4641 -8.4017 -0.4049 0.2387 0 1
7.5086 -7.7965 -0.3900 0.2628 0 1
7.5299 -7.2141 -0.3757 0.2745 0 24
7.5710 -6.6908 -0.3640 0.2855 0 24
7.6098 -6.1983 -0.3536 0.2941 0 24
7.4148 -5.5588 -0.3339 0.2877 0 2
6.2672 -4.3161 -0.2742 0.7971 14 6
6.4472 -4.0678 -0.2747 0.5734 14 6
7.4811 -4.3096 -0.3111 0.3094 0 25
7.4992 -3.9272 -0.3050 0.3155 0 25
7.5154 -3.5582 -0.2996 0.3212 0 25
7.5297 -3.2010 -0.2948 0.3265 0 25
7.5423 -2.8540 -0.2906 0.3312 0 25
7.5534 -2.5158 -0.2869 0.3355 0 25
7.7334 -2.2346 -0.2900 0.3674 0 2
7.8417 -1.9279 -0.2910 0.3431 0 1
7.8603 -1.6003 -0.2890 0.3456 0 1
3.9721 -0.6435 -0.1450 0.3094 25 14
3.9282 -0.4753 -0.1426 0.9731 25 14
3.9196 -0.3149 -0.1417 0.9792 25 14
3.9017 -0.1560 -0.1407 0.9788 25 14
3.8763 0.0011 -0.1397 0.9860 25 14
3.8982 0.1579 -0.1406 0.9797 25 14
3.9193 0.3171 -0.1417 0.9793 25 14
3.9284 0.4774 -0.1426 0.9730 25 14
3.9596 0.6438 -0.1445 0.3104 25 14
8.0439 1.6422 -0.2958 0.3384 0 1
8.0630 1.9870 -0.2992 0.3335 0 1
8.0847 2.3409 -0.3033 0.3282 0 1
8.1014 2.7033 -0.3077 0.3209 0 1
8.1172 3.0765 -0.3128 0.3157 0 1
8.1320 3.4622 -0.3184 0.3101 0 1
8.1459 3.8622 -0.3248 0.3040 0 1
8.1487 4.2730 -0.3315 0.3138 0 1
8.1175 4.6821 -0.3376 0.3076 0 1
8.0818 5.1053 -0.3444 0.3015 0 1
8.0430 5.5455 -0.3520 0.2950 0 1
8.0009 6.0050 -0.3604 0.2881 0 1
7.9099 6.4500 -0.3677 0.3173 0 1
7.8040 6.9043 -0.3754 0.3108 0 1
7.6920 7.3774 -0.3840 0.3039 0 1
7.6700 7.9728 -0.3986 0.2681 0 2
7.4389 8.3826 -0.4038 0.8649 0 2
7.1683 8.7635 -0.4079 0.2353 0 2
6.7225 8.9284 -0.4027 0.8253 22 6
6.4995 9.3960 -0.4116 0.9422 22 6
6.9832 11.0173 -0.4700 0.2042 0 2
6.9039 11.9274 -0.4965 0.1933 0 2
6.8129 12.9445 -0.5270 0.1821 0 2
6.7077 14.0921 -0.5623 0.1707 0 2
6.5849 15.4012 -0.6035 0.1590 0 2
6.4400 16.9135 -0.6521 0.1472 0 2
6.2669 18.6861 -0.7101 0.1351 0 2
6.0568 20.7996 -0.7805 0.1230 0 2
5.7971 23.3712 -0.8676 0.1106 0 2
5.4686 26.5794 -0.9777 0.0982 0 2
2.2690 13.8231 -0.5047 0.3542 0 9
1.7606 14.3045 -0.5193 0.4706 0 9
1.3802 16.7441 -0.6053 0.4155 0 9
0.6911 16.4378 -0.5928 0.2497 0 9
-19.0465 36.5056 -1.4836 0.4371 0 6
-31.1076 38.3105 -1.7781 0.6035 0 3
-31.1139 35.3156 -1.6958 0.6328 0 3
-31.1188 32.5805 -1.6233 0.6610 0 3
-31.1237 30.0662 -1.5592 0.6371 0 3
-30.9776 27.6051 -1.4950 0.5174 0 3
-33.6776 27.6636 -1.5703 0.6393 0 3
-31.1275 23.5380 -1.4061 0.7631 0 3
-31.1829 21.6656 -1.3681 0.5755 0 3
-35.5741 22.6515 -1.5195 0.5422 0 3
-31.1227 18.1007 -1.2972 0.8271 0 3
-36.1300 19.1115 -1.4727 0.8458 0 3
-35.1814 16.8355 -1.4053 0.4372 0 3
-41.2056 17.7186 -1.6161 0.4007 0 3
-41.6809 15.9692 -1.6082 0.1943 0 3
-34.9873 -33.2795 -1.7398 0.9787 0 20
-33.5618 -34.5989 -1.7368 0.9799 0 20
3.4313 -45.9643 -1.6607 0.0578 0 2
4.3250 -37.5290 -1.3611 0.0705 0 2
4.9430 -31.6427 -1.1539 0.0832 0 2
5.3953 -27.2901 -1.0023 0.0957 0 2
5.7401 -23.9314 -0.8867 0.1082 0 2
6.0112 -21.2537 -0.7958 0.1206 0 2
6.2297 -19.0628 -0.7226 0.1328 0 2
6.4091 -17.2319 -0.6624 0.1449 0 2
6.9035 -16.4980 -0.6444 0.9965 0 2
6.9230 -14.8388 -0.5900 0.1470 0 1
6.9581 -13.4720 -0.5463 0.1760 0 24
7.1129 -12.5105 -0.5185 0.1900 0 1
7.2077 -11.5683 -0.4911 0.2033 0 1
7.2902 -10.7151 -0.4670 0.2128 0 1
7.3618 -9.9364 -0.4456 0.2230 0 1
7.4130 -9.2070 -0.4259 0.2270 0 1
7.4559 -8.5337 -0.4083 0.2367 0 1
7.4979 -7.9154 -0.3928 0.2609 0 1
7.5597 -7.3635 -0.3802 0.2790 0 1
7.5625 -6.7956 -0.3663 0.2829 0 24
7.6021 -6.2974 -0.3557 0.2930 0 24
7.4099 -5.6516 -0.3358 0.2857 0 2
6.2680 -4.3935 -0.2758 0.7924 14 6
6.3392 -4.0734 -0.2715 0.5801 14 6
-34.3855 -33.8085 -2.2728 0.9790 0 20
-32.8556 -35.0120 -2.2629 0.9833 0 20
2.0769 -40.8157 -1.9262 0.7917 0 20
3.2935 -36.0667 -1.7069 0.0735 0 2
4.0431 -30.6188 -1.4556 0.0862 0 2
4.5978 -26.5440 -1.2697 0.0988 0 2
5.0241 -23.3727 -1.1267 0.1114 0 2
5.3616 -20.8273 -1.0136 0.1238 0 2
5.6348 -18.7334 -0.9220 0.1361 0 2
5.8603 -16.9758 -0.8464 0.1482 0 2
6.3893 -16.3454 -0.8271 0.1769 0 2
6.4066 -14.6259 -0.7526 0.1507 0 1
6.5365 -13.4260 -0.7038 0.1842 0 1
6.6700 -12.4061 -0.6639 0.1941 0 1
6.7879 -11.4921 -0.6291 0.2075 0 1
6.8923 -10.6648 -0.5985 0.2171 0 1
6.9818 -9.9054 -0.5712 0.2274 0 1
7.0491 -9.1923 -0.5460 0.2315 0 1
7.1072 -8.5342 -0.5234 0.2414 0 1
7.1713 -7.9389 -0.5042 0.2658 0 1
7.2416 -7.3958 -0.4878 0.2843 0 1
7.3150 -6.8930 -0.4737 0.2928 0 1
7.3826 -6.4162 -0.4610 0.3009 0 1
7.4063 -5.9313 -0.4472 0.2606 0 1
7.1589 -5.2750 -0.4191 0.3002 0 25
6.2830 -4.2507 -0.3575 0.7992 14 6
6.5422 -4.0525 -0.3627 0.5677 14 6
7.2399 -4.0913 -0.3919 0.3211 0 25
7.2616 -3.7265 -0.3847 0.3271 0 25
7.2809 -3.3737 -0.3782 0.3327 0 25
7.2980 -3.0314 -0.3725 0.3379 0 25
7.3132 -2.6983 -0.3674 0.3425 0 25
7.3292 -2.3740 -0.3631 0.3465 0 2
7.5908 -2.1255 -0.3715 0.3488 0 1
7.6127 -1.8049 -0.3687 0.3550 0 1
7.6320 -1.4881 -0.3665 0.3572 0 1
3.9266 -0.6029 -0.1872 0.9688 25 14
3.9180 -0.4412 -0.1858 0.9762 25 14
3.9095 -0.2816 -0.1847 0.9819 25 14
3.8928 -0.1234 -0.1836 0.9809 25 14
3.8751 0.0331 -0.1826 0.9859 25 14
3.9000 0.1904 -0.1840 0.9784 25 14
3.9129 0.3492 -0.1852 0.9797 25 14
3.9219 0.5096 -0.1864 0.9732 25 14
3.9926 0.6831 -0.1909 0.3072 25 14
7.8046 1.6608 -0.3761 0.3480 0 1
7.8197 1.9958 -0.3804 0.3441 0 1
7.8340 2.3387 -0.3853 0.3351 0 1
7.8462 2.6905 -0.3909 0.3303 0 1
7.8571 3.0526 -0.3973 0.3250 0 1
7.8666 3.4264 -0.4044 0.3193 0 1
7.8745 3.8136 -0.4124 0.3131 0 1
7.8772 4.2141 -0.4210 0.3230 0 1
7.8404 4.6092 -0.4287 0.3168 0 1
7.8000 5.0181 -0.4371 0.3106 0 1
7.7560 5.4428 -0.4466 0.3041 0 1
7.7081 5.8857 -0.4571 0.2971 0 1
7.6355 6.3321 -0.4675 0.3308 0 1
7.5275 6.7715 -0.4772 0.3240 0 1
7.4131 7.2286 -0.4880 0.3169 0 1
7.2978 7.7125 -0.5004 0.3035 0 1
7.2854 8.3477 -0.5222 0.2681 0 2
6.8573 8.5264 -0.5157 0.9397 0 2
6.6055 8.9257 -0.5233 0.7992 22 6
6.7074 9.8701 -0.5624 0.2231 0 2
6.6228 10.6425 -0.5908 0.2124 0 2
6.5268 11.4942 -0.6230 0.2014 0 2
6.4171 12.4410 -0.6598 0.1902 0 2
6.2908 13.5030 -0.7021 0.1787 0 2
6.1444 14.7063 -0.7512 0.1670 0 2
5.9728 16.0856 -0.8087 0.1552 0 2
5.7695 17.6874 -0.8769 0.1431 0 2
5.5254 19.5765 -0.9587 0.1309 0 2
5.2272 21.8455 -1.0587 0.1185 0 2
4.8556 24.6309 -1.1832 0.1060 0 2
2.1545 13.8415 -0.6602 0.3785 0 9
2.4172 21.0757 -0.9998 0.7273 0 20
3.0422 41.0530 -1.9402 0.0744 0 1
1.6567 49.0754 -2.3143 0.0625 0 24
-0.0938 14.4795 -0.6824 0.3843 0 9
-29.7080 39.0742 -2.3134 0.7991 0 3
-29.3671 35.5615 -2.1737 0.1548 0 3
-30.9442 34.5425 -2.1857 0.6419 0 3
-30.9560 31.8776 -2.0943 0.6699 0 3
-29.0980 27.6475 -1.8918 0.5484 0 3
-30.9737 27.1451 -1.9411 0.7228 0 3
-29.1924 23.5776 -1.7686 0.7726 0 3
-30.8194 22.9067 -1.8098 0.9281 0 3
-30.9865 21.1511 -1.7682 0.7934 0 3
-30.9892 19.3736 -1.7225 0.8144 0 3
-31.1662 17.7825 -1.6912 0.5007 0 3
-35.9801 18.6528 -1.9101 0.8527 0 3
-36.9132 17.2902 -1.9212 0.2523 0 3
-40.1351 16.8662 -2.0518 0.6784 0 3
-45.3630 16.9508 -2.2824 0.2388 0 3
-34.7020 -33.5594 -2.2752 0.9780 0 20
-33.1694 -34.7653 -2.2647 0.9825 0 20
-18.8138 -27.4403 -1.5681 0.6729 0 6
1.9483 -45.7439 -2.1579 0.0581 0 2
3.1055 -37.4253 -1.7700 0.0709 0 2
3.9078 -31.6067 -1.5010 0.0836 0 2
4.4958 -27.2967 -1.3039 0.0962 0 2
4.9447 -23.9668 -1.1534 0.1088 0 2
5.2980 -21.3094 -1.0349 0.1212 0 2
5.5830 -19.1335 -0.9394 0.1336 0 2
5.8172 -17.3141 -0.8609 0.1458 0 2
6.3415 -16.6277 -0.8387 0.1745 0 2
6.3899 -14.9227 -0.7651 0.1442 0 1
6.4647 -13.5624 -0.7081 0.1786 0 24
6.6445 -12.6078 -0.6717 0.1918 0 1
6.7643 -11.6715 -0.6358 0.2053 0 1
6.8726 -10.8297 -0.6045 0.2149 0 1
6.9642 -10.0562 -0.5765 0.2253 0 1
7.0362 -9.3345 -0.5509 0.2294 0 1
7.0958 -8.6653 -0.5279 0.2394 0 1
7.1580 -8.0572 -0.5080 0.2638 0 1
7.2258 -7.5028 -0.4909 0.2826 0 1
7.3004 -6.9942 -0.4765 0.2911 0 1
7.3691 -6.5124 -0.4635 0.2993 0 1
7.4036 -6.0304 -0.4500 0.2651 0 1
7.1523 -5.3621 -0.4213 0.2987 0 25
6.2840 -4.3276 -0.3596 0.7946 14 6
6.4321 -4.0583 -0.3584 0.5745 14 6
7.2352 -4.1680 -0.3935 0.3198 0 25
7.2573 -3.8005 -0.3861 0.3259 0 25
7.2771 -3.4454 -0.3795 0.3316 0 25
7.2947 -3.1011 -0.3736 0.3368 0 25
7.3102 -2.7661 -0.3684 0.3416 0 25
7.3238 -2.4394 -0.3638 0.3459 0 25
7.5863 -2.1921 -0.3722 0.3482 0 1
7.6082 -1.8705 -0.3693 0.3530 0 1
7.6282 -1.5530 -0.3669 0.3568 0 1
3.9284 -0.6365 -0.1876 0.9671 25 14
3.9198 -0.4742 -0.1861 0.9748 25 14
3.9112 -0.3143 -0.1849 0.9809 25 14
3.8981 -0.1558 -0.1839 0.9793 25 14
3.8727 0.0011 -0.1825 0.9865 25 14
3.8949 0.1578 -0.1837 0.9801 25 14
3.9111 0.3164 -0.1849 0.9809 25 14
3.9201 0.4764 -0.1861 0.9746 25 14
3.9291 0.6388 -0.1876 0.9669 25 14
7.8014 1.5927 -0.3753 0.3488 0 1
7.8167 1.9263 -0.3794 0.3450 0 1
7.8313 2.2675 -0.3843 0.3360 0 1
7.8438 2.6173 -0.3897 0.3313 0 1
7.8550 2.9772 -0.3959 0.3261 0 1
7.8647 3.3484 -0.4029 0.3205 0 1
7.8730 3.7328 -0.4107 0.3144 0 1
7.8798 4.1320 -0.4193 0.3079 0 1
7.8484 4.5269 -0.4270 0.3180 0 1
7.8086 4.9327 -0.4353 0.3119 0 1
7.7654 5.3540 -0.4445 0.3054 0 1
7.7183 5.7930 -0.4548 0.2985 0 1
7.6570 6.2437 -0.4657 0.3321 0 1
7.5503 6.6798 -0.4751 0.3255 0 1
7.4372 7.1330 -0.4857 0.3184 0 1
7.3193 7.6081 -0.4976 0.3053 0 1
7.3023 8.2287 -0.5185 0.2700 0 2
6.9524 8.4996 -0.5175 0.9141 0 2
6.7210 8.9265 -0.5266 0.7942 22 6
6.4828 9.3718 -0.5371 0.5293 22 6
6.6411 10.4776 -0.5847 0.2146 0 2
6.5476 11.3118 -0.6160 0.2037 0 2
6.4409 12.2376 -0.6518 0.1925 0 2
6.3183 13.2740 -0.6929 0.1811 0 2
6.1764 14.4457 -0.7405 0.1695 0 2
6.0104 15.7854 -0.7961 0.1576 0 2
5.8143 17.3368 -0.8618 0.1456 0 2
5.5795 19.1604 -0.9406 0.1334 0 2
5.2938 21.3418 -1.0363 0.1211 0 2
4.9393 24.0069 -1.1552 0.1086 0 2
2.2866 13.9308 -0.6654 0.2720 0 9
2.5556 20.7634 -0.9860 0.8057 0 20
2.5222 30.5984 -1.4470 0.2779 0 20
1.1282 26.8342 -1.2658 0.9978 0 20
0.0259 14.4328 -0.6802 0.9290 0 9
-19.0518 36.5159 -1.9412 0.4218 0 6
-29.8662 39.9643 -2.3514 0.5765 0 3
-29.4700 36.2937 -2.2035 0.1482 0 3
-29.0653 32.9904 -2.0722 0.5349 0 3
-30.9537 32.4076 -2.1122 0.6642 0 3
-30.9639 29.9117 -2.0291 0.6914 0 3
-18.5423 16.5236 -1.1706 0.6098 0 6
-29.1973 23.9833 -1.7808 0.7289 0 3
-30.0020 22.6870 -1.7728 0.6331 0 3
-30.9858 21.5287 -1.7783 0.7889 0 3
-30.9887 19.7318 -1.7315 0.8102 0 3
-30.9906 18.0239 -1.6897 0.8303 0 3
-30.8164 16.3008 -1.6431 0.9686 0 3
-37.0806 17.7443 -1.9374 0.4370 0 3
-40.2693 17.3160 -2.0660 0.7886 0 3
-45.3896 17.3901 -2.2909 0.2380 0 3
-35.0191 -33.3098 -2.2779 0.9768 0 20
-33.4836 -34.5181 -2.2665 0.9817 0 20
1.6439 -47.9222 -2.2600 0.0555 0 2
2.9030 -38.8864 -1.8379 0.0683 0 2
3.7635 -32.6571 -1.5494 0.0810 0 2
4.3881 -28.0901 -1.3400 0.0936 0 2
4.8613 -24.5889 -1.1813 0.1062 0 2
4.4650 -18.6151 -0.9022 0.4600 0 6
5.5290 -19.5487 -0.9575 0.1310 0 2
5.7725 -17.6639 -0.8758 0.1433 0 2
6.2280 -16.7450 -0.8420 0.9989 0 2
6.3742 -15.2331 -0.7783 0.1418 0 1
6.4748 -13.8781 -0.7218 0.1796 0 1
6.6184 -12.8142 -0.6797 0.1895 0 1
6.7400 -11.8547 -0.6427 0.2031 0 1
6.8523 -10.9979 -0.6107 0.2127 0 1
6.9463 -10.2097 -0.5820 0.2232 0 1
7.0231 -9.4792 -0.5560 0.2273 0 1
7.0841 -8.7986 -0.5324 0.2374 0 1
7.1444 -8.1772 -0.5118 0.2618 0 1
7.2096 -7.6110 -0.4941 0.2807 0 1
7.2856 -7.0965 -0.4793 0.2894 0 1
7.3554 -6.6095 -0.4661 0.2976 0 1
7.4003 -6.1302 -0.4529 0.2634 0 1
7.1456 -5.4500 -0.4236 0.2971 0 25
6.2849 -4.4054 -0.3617 0.7899 14 6
6.3302 -4.0676 -0.3546 0.7664 14 6
-34.3088 -33.7331 -2.8024 0.9825 0 20
-32.9231 -35.0839 -2.8022 0.2201 0 20
0.5028 -47.3596 -2.7585 0.0591 0 1
1.3368 -26.2724 -1.5322 0.5184 0 20
2.8810 -31.5498 -1.8452 0.0840 0 2
3.6032 -27.2873 -1.6031 0.0967 0 2
4.1553 -23.9893 -1.4180 0.1093 0 2
4.5903 -21.3546 -1.2722 0.1218 0 2
4.9415 -19.1954 -1.1545 0.1342 0 2
5.2304 -17.3887 -1.0576 0.1465 0 2
5.7756 -16.7305 -1.0309 0.1752 0 2
5.8660 -15.0068 -0.9385 0.1452 0 1
5.9772 -13.6457 -0.8677 0.1793 0 24
6.1822 -12.6982 -0.8226 0.1946 0 1
6.3278 -11.7696 -0.7783 0.2072 0 1
6.4596 -10.9362 -0.7398 0.2179 0 1
6.5732 -10.1709 -0.7053 0.2275 0 1
6.6658 -9.4571 -0.6739 0.2316 0 1
6.7421 -8.7920 -0.6453 0.2419 0 1
6.8240 -8.1942 -0.6211 0.2665 0 1
6.8987 -7.6370 -0.5994 0.2858 0 1
6.9836 -7.1323 -0.5814 0.2947 0 1
7.0617 -6.6543 -0.5651 0.3032 0 1
7.0992 -6.1699 -0.5478 0.2690 0 1
6.8805 -5.5102 -0.5134 0.3015 0 2
6.9164 -5.0964 -0.5004 0.3106 0 25
6.2998 -4.2621 -0.4430 0.7966 14 6
6.5206 -4.0391 -0.4467 0.5310 14 6
7.0101 -3.9614 -0.4690 0.3314 0 25
7.0352 -3.6104 -0.4606 0.3374 0 25
7.0577 -3.2703 -0.4530 0.3430 0 25
7.0776 -2.9399 -0.4464 0.3482 0 25
7.0952 -2.6178 -0.4405 0.3528 0 25
7.1159 -2.3049 -0.4357 0.5086 0 2
7.3683 -2.0632 -0.4457 0.3600 0 1
7.3926 -1.7527 -0.4425 0.3638 0 1
4.1940 -0.8178 -0.2489 0.2910 25 14
3.9182 -0.6016 -0.2309 0.9703 25 14
3.9096 -0.4402 -0.2291 0.9777 25 14
3.9011 -0.2810 -0.2278 0.9835 25 14
3.8892 -0.1232 -0.2266 0.9813 25 14
3.8719 0.0331 -0.2255 0.9861 25 14
3.8958 0.1902 -0.2272 0.9862 25 14
3.9047 0.3484 -0.2283 0.9812 25 14
3.9136 0.5085 -0.2299 0.9747 25 14
3.9381 0.6737 -0.2327 0.3113 25 14
7.5786 1.6127 -0.4513 0.3633 0 1
7.5905 1.9373 -0.4563 0.3593 0 1
7.6005 2.2690 -0.4620 0.3550 0 1
7.6086 2.6090 -0.4685 0.3501 0 1
7.6150 2.9585 -0.4758 0.3447 0 1
7.6197 3.3189 -0.4841 0.3389 0 1
7.6224 3.6915 -0.4933 0.3325 0 1
7.6221 4.0776 -0.5035 0.3225 0 1
7.5887 4.4612 -0.5127 0.3292 0 1
7.5450 4.8540 -0.5225 0.3230 0 1
7.4973 5.2613 -0.5335 0.3164 0 1
7.4454 5.6851 -0.5456 0.3093 0 1
7.3936 6.1315 -0.5594 0.3015 0 1
7.2917 6.5593 -0.5712 0.3343 0 1
7.1757 6.9972 -0.5837 0.3272 0 1
7.0547 7.4557 -0.5978 0.3138 0 1
7.0106 8.0328 -0.6210 0.2785 0 2
6.8507 8.5182 -0.6367 0.9400 0 2
6.4902 8.7700 -0.6355 0.2422 0 2
6.4052 9.4255 -0.6637 0.2335 0 2
6.3101 10.1401 -0.6956 0.2228 0 2
6.2027 10.9235 -0.7316 0.2118 0 2
6.0806 11.7887 -0.7726 0.2006 0 2
5.9410 12.7521 -0.8194 0.1891 0 2
5.7802 13.8347 -0.8733 0.1775 0 2
5.5934 15.0638 -0.9359 0.1656 0 2
5.3743 16.4757 -1.0094 0.1535 0 2
5.1141 18.1195 -1.0966 0.1413 0 2
4.8009 20.0639 -1.2016 0.1290 0 2
4.4173 22.4072 -1.3302 0.1165 0 2
2.4468 15.7194 -0.9266 0.5649 0 9
2.3695 20.6602 -1.2112 0.8443 0 20
1.6674 22.5005 -1.3141 0.9603 0 6
1.4269 42.2685 -2.4633 0.0735 0 1
-30.7531 37.2398 -2.8130 0.6160 0 3
-30.7751 34.3537 -2.6863 0.6450 0 3
-30.5122 31.4207 -2.5509 0.1659 0 3
-29.8773 28.3880 -2.4004 0.7000 0 3
-29.7828 26.1014 -2.3065 0.7259 0 3
-29.4885 23.8167 -2.2077 0.1917 0 3
-29.2410 21.7335 -2.1220 0.1923 0 3
-29.1618 19.9056 -2.0564 0.7964 0 3
-30.8555 19.2900 -2.1194 0.8175 0 3
-31.1647 17.7817 -2.0898 0.5004 0 3
-35.8318 18.5760 -2.3507 0.8557 0 3
-35.9155 16.8229 -2.3099 0.9642 0 3
-42.1440 17.7104 -2.6625 0.3928 0 3
-34.6244 -33.4844 -2.8054 0.9814 0 20
-32.9070 -34.4903 -2.7765 0.9596 0 20
0.1160 -49.5351 -2.8851 0.0512 0 1
1.6497 -38.7335 -2.2580 0.0686 0 2
2.7041 -32.5876 -1.9045 0.0814 0 2
3.4708 -28.0725 -1.6475 0.0941 0 2
4.0526 -24.6058 -1.4524 0.1067 0 2
4.5086 -21.8528 -1.2996 0.1192 0 2
4.8749 -19.6074 -1.1768 0.1317 0 2
5.1752 -17.7361 -1.0761 0.1440 0 2
5.7069 -16.9857 -1.0437 0.9883 0 2
5.8408 -15.3149 -0.9547 0.1428 0 1
5.9752 -13.9541 -0.8841 0.1811 0 1
6.1492 -12.9006 -0.8324 0.1923 0 1
6.2986 -11.9514 -0.7868 0.2049 0 1
6.4338 -11.1012 -0.7473 0.2157 0 1
6.5513 -10.3234 -0.7121 0.2253 0 1
6.6489 -9.6008 -0.6802 0.2295 0 1
6.7271 -8.9244 -0.6509 0.2398 0 1
6.8077 -8.3135 -0.6258 0.2644 0 1
6.8839 -7.7487 -0.6037 0.2741 0 1
6.9667 -7.2338 -0.5849 0.2929 0 1
7.0461 -6.7506 -0.5683 0.3014 0 1
7.0936 -6.2688 -0.5514 0.2672 0 1
7.1166 -5.7966 -0.5346 0.2693 0 1
6.9089 -5.1796 -0.5029 0.3090 0 25
6.3008 -4.3392 -0.4456 0.7920 14 6
6.4171 -4.0488 -0.4419 0.5755 14 6
7.0046 -4.0351 -0.4708 0.3301 0 25
7.0303 -3.6816 -0.4622 0.3362 0 25
7.0533 -3.3394 -0.4545 0.3419 0 25
7.0737 -3.0071 -0.4477 0.3472 0 25
7.0917 -2.6835 -0.4416 0.3519 0 25
7.1093 -2.3679 -0.4364 0.3559 0 2
7.3634 -2.1277 -0.4464 0.3586 0 1
7.3877 -1.8163 -0.4431 0.3633 0 1
7.4095 -1.5085 -0.4404 0.3671 0 1
3.9199 -0.6351 -0.2313 0.9686 25 14
3.9114 -0.4732 -0.2295 0.9763 25 14
3.9029 -0.3136 -0.2280 0.9824 25 14
3.8944 -0.1557 -0.2270 0.9796 25 14
3.8691 0.0011 -0.2253 0.9868 25 14
3.8916 0.1577 -0.2268 0.9803 25 14
3.9029 0.3157 -0.2281 0.9824 25 14
3.9118 0.4754 -0.2295 0.9761 25 14
3.9208 0.6374 -0.2314 0.9684 25 14
7.5760 1.5467 -0.4504 0.3641 0 1
7.5882 1.8700 -0.4552 0.3602 0 1
7.5986 2.2002 -0.4607 0.3560 0 1
7.6071 2.5383 -0.4671 0.3512 0 1
7.6139 2.8858 -0.4742 0.3459 0 1
7.6189 3.2438 -0.4823 0.3401 0 1
7.6220 3.6138 -0.4913 0.3339 0 1
7.6232 3.9974 -0.5013 0.3272 0 1
7.5973 4.3821 -0.5108 0.3304 0 1
7.5543 4.7721 -0.5204 0.3243 0 1
7.5075 5.1762 -0.5311 0.3178 0 1
7.4565 5.5965 -0.5430 0.3108 0 1
7.4035 6.0370 -0.5564 0.3031 0 1
7.3147 6.4713 -0.5688 0.3357 0 1
7.2002 6.9057 -0.5811 0.3287 0 1
7.0785 7.3578 -0.5947 0.3212 0 1
6.9661 7.8497 -0.6113 0.3069 0 1
6.9370 8.4807 -0.6381 0.2710 0 2
6.5066 8.6416 -0.6300 0.8282 0 2
6.4234 9.2860 -0.6576 0.2356 0 2
6.3307 9.9878 -0.6887 0.2250 0 2
6.2259 10.7561 -0.7238 0.2141 0 2
6.1070 11.6033 -0.7637 0.2029 0 2
5.9713 12.5449 -0.8092 0.1915 0 2
5.8152 13.6010 -0.8615 0.1799 0 2
5.6342 14.7974 -0.9222 0.1680 0 2
5.4224 16.1681 -0.9932 0.1560 0 2
5.1715 17.7594 -1.0773 0.1438 0 2
4.8704 19.6351 -1.1783 0.1315 0 2
4.5030 21.8863 -1.3014 0.1191 0 2
4.0457 24.6474 -1.4548 0.1065 0 2
2.5380 20.6201 -1.2100 0.7736 0 20
2.6920 32.6582 -1.9086 0.0812 0 2
1.7154 40.8004 -2.3785 0.0728 0 1
0.0879 48.9463 -2.8508 0.0615 0 1
-30.7481 37.8677 -2.8411 0.6099 0 3
-30.7708 34.9262 -2.7111 0.6391 0 3
-30.5498 31.9848 -2.5761 0.6674 0 3
-29.9104 28.8940 -2.4222 0.1731 0 3
-18.5421 16.5234 -1.4465 0.7600 0 6
-29.3199 24.0841 -2.2100 0.6387 0 3
-29.3111 22.1645 -2.1403 0.1914 0 3
-29.1604 20.2604 -2.0681 0.7920 0 3
-30.8544 19.6462 -2.1304 0.8133 0 3
-30.8595 17.9476 -2.0792 0.8333 0 3
-35.8311 18.9534 -2.3609 0.8520 0 3
-37.0786 17.7433 -2.3941 0.4368 0 3
-40.0781 17.2338 -2.5409 0.7038 0 3
-46.1575 17.6843 -2.8789 0.3632 0 3
-34.9406 -33.2351 -2.8086 0.9803 0 20
-33.2671 -34.2950 -2.7828 0.9574 0 20
-19.1412 -27.4283 -1.9481 0.8642 0 6
1.4570 -42.4742 -2.4753 0.0660 0 2
2.5152 -33.6927 -1.9678 0.0788 0 2
3.3307 -28.9014 -1.6945 0.0915 0 2
3.9447 -25.2521 -1.4886 0.1041 0 2
4.4230 -22.3722 -1.3283 0.1167 0 2
4.4449 -18.5317 -1.1100 0.6569 0 6
5.1180 -18.0954 -1.0953 0.1415 0 2
5.5734 -17.0545 -1.0450 0.9870 0 2
5.8146 -15.6334 -0.9715 0.1403 0 1
5.9365 -14.1871 -0.8957 0.1564 0 1
6.1153 -13.1077 -0.8424 0.1900 0 1
6.2695 -12.1386 -0.7957 0.2000 0 1
6.4073 -11.2695 -0.7550 0.2135 0 1
6.5288 -10.4787 -0.7191 0.2231 0 1
6.6316 -9.7472 -0.6866 0.2273 0 1
6.7118 -9.0591 -0.6567 0.2377 0 1
6.7911 -8.4346 -0.6307 0.2624 0 1
6.8689 -7.8618 -0.6080 0.2722 0 1
6.9496 -7.3365 -0.5886 0.2911 0 1
7.0303 -6.8479 -0.5716 0.2997 0 1
7.0878 -6.3690 -0.5550 0.2655 0 1
7.1142 -5.8932 -0.5381 0.2738 0 1
6.9012 -5.2635 -0.5055 0.3074 0 25
6.3019 -4.4173 -0.4482 0.7874 14 6
6.3547 -4.0833 -0.4399 0.9424 14 6
-34.2426 -33.6680 -3.3313 0.9527 0 20
-33.0392 -35.2076 -3.3493 0.3869 0 20
-18.4853 -27.4453 -2.2955 0.8029 0 22
-1.4524 -49.0416 -3.4035 0.0507 0 1
0.4256 -40.0894 -2.7812 0.0695 0 1
1.6533 -32.4909 -2.2568 0.0817 0 2
2.5600 -28.0343 -1.9528 0.0945 0 2
3.2492 -24.6065 -1.7218 0.1071 0 2
3.7900 -21.8807 -1.5405 0.1197 0 2
4.2250 -19.6553 -1.3946 0.1323 0 2
4.5820 -17.7990 -1.2750 0.1447 0 2
5.1492 -17.1190 -1.2401 0.1731 0 2
5.3109 -15.3844 -1.1290 0.1430 0 1
5.4825 -14.0257 -1.0447 0.1837 0 1
5.6855 -12.9798 -0.9830 0.1938 0 1
5.8629 -12.0424 -0.9291 0.2038 0 1
6.0210 -11.1990 -0.8820 0.2176 0 1
6.1612 -10.4310 -0.8404 0.2283 0 1
6.2800 -9.7173 -0.8026 0.2315 0 1
6.3772 -9.0476 -0.7679 0.2565 0 1
6.4760 -8.4449 -0.7382 0.2668 0 1
6.5651 -7.8832 -0.7117 0.2768 0 1
6.6539 -7.3661 -0.6886 0.2961 0 1
6.7431 -6.8866 -0.6686 0.3050 0 1
6.7938 -6.4019 -0.6476 0.2708 0 1
6.8300 -5.9360 -0.6277 0.2794 0 1
6.6481 -5.3241 -0.5908 0.3132 0 2
6.6896 -4.9293 -0.5764 0.3209 0 25
6.2883 -4.2543 -0.5267 0.3283 14 6
6.4484 -3.9944 -0.5262 0.5306 14 6
6.7942 -3.8394 -0.5414 0.3417 0 25
6.8223 -3.5011 -0.5319 0.3477 0 25
6.8474 -3.1729 -0.5235 0.3533 0 25
6.8698 -2.8535 -0.5160 0.3585 0 25
6.8895 -2.5420 -0.5094 0.3631 0 25
7.0981 -2.2991 -0.5176 0.5095 0 2
7.1587 -2.0045 -0.5157 0.3715 0 1
7.1844 -1.7034 -0.5122 0.3741 0 1
4.1270 -0.8047 -0.2917 0.2955 25 14
3.9097 -0.6003 -0.2744 0.9718 25 14
3.9013 -0.4393 -0.2723 0.9791 25 14
3.8928 -0.2804 -0.2707 0.9849 25 14
3.8844 -0.1231 -0.2696 0.9891 25 14
3.8686 0.0331 -0.2684 0.9862 25 14
3.8877 0.1898 -0.2700 0.9875 25 14
3.8965 0.3477 -0.2714 0.9826 25 14
3.9054 0.5075 -0.2732 0.9760 25 14
3.9142 0.6697 -0.2755 0.9680 25 14
7.3655 1.5673 -0.5224 0.3736 0 1
7.3747 1.8822 -0.5280 0.3696 0 1
7.3819 2.2038 -0.5344 0.3653 0 1
7.3868 2.5329 -0.5417 0.3604 0 1
7.3896 2.8709 -0.5499 0.3550 0 1
7.3903 3.2190 -0.5592 0.3491 0 1
7.3887 3.5784 -0.5695 0.3428 0 1
7.3806 3.9484 -0.5807 0.3328 0 1
7.3530 4.3227 -0.5917 0.3395 0 1
7.3063 4.7004 -0.6027 0.3333 0 1
7.2553 5.0915 -0.6149 0.3267 0 1
7.1998 5.4975 -0.6284 0.3197 0 1
7.1441 5.9245 -0.6438 0.3118 0 1
7.0698 6.3598 -0.6597 0.3446 0 1
6.9528 6.7798 -0.6737 0.3374 0 1
6.8283 7.2164 -0.6892 0.3298 0 1
6.7120 7.6907 -0.7081 0.3153 0 1
6.6572 8.2775 -0.7369 0.2797 0 2
6.4109 8.6628 -0.7476 0.9713 0 2
6.1288 9.0187 -0.7564 0.2438 0 2
6.0253 9.6823 -0.7911 0.2332 0 2
5.9089 10.4061 -0.8301 0.2222 0 2
5.7773 11.2006 -0.8743 0.2110 0 2
5.6276 12.0795 -0.9244 0.1995 0 2
5.4564 13.0596 -0.9818 0.1879 0 2
5.2589 14.1630 -1.0480 0.1760 0 2
5.0293 15.4181 -1.1250 0.1640 0 2
4.7594 16.8629 -1.2155 0.1517 0 2
4.4385 18.5492 -1.3231 0.1394 0 2
4.0511 20.5495 -1.4530 0.1269 0 2
2.4320 15.6243 -1.0969 0.9714 0 9
2.0793 18.1294 -1.2659 0.0760 0 20
1.6624 22.4331 -1.5605 0.9944 0 6
1.2344 36.5656 -2.5380 0.0765 0 1
-0.2821 43.5398 -3.0204 0.0690 0 1
-19.4257 36.4929 -2.8678 0.9889 0 6
-30.5778 37.0276 -3.3312 0.6191 0 3
-30.6075 34.1666 -3.1821 0.6481 0 3
-30.6331 31.5452 -3.0503 0.6761 0 3
-30.6551 29.1270 -2.9334 0.7031 0 3
-30.6741 26.8825 -2.8294 0.7289 0 3
-30.6903 24.7873 -2.7366 0.7536 0 3
-30.5317 22.6928 -2.6389 0.3126 0 3
-30.4205 20.7648 -2.5550 0.1936 0 3
-30.1585 18.8543 -2.4673 0.2037 0 3
-29.9782 17.1047 -2.3943 0.2175 0 3
-30.9159 16.0274 -2.4157 0.4556 0 3
-40.9492 19.1807 -3.1368 0.8757 0 3
-40.2022 16.8944 -3.0251 0.3986 0 3
-34.6085 -33.4690 -3.3398 0.9502 0 20
-32.7182 -34.2924 -3.2879 0.3941 0 20
-18.8182 -27.4467 -2.3085 0.8270 0 22
0.0973 -41.5386 -2.8815 0.0671 0 1
1.4302 -33.5804 -2.3316 0.0791 0 2
2.3942 -28.8531 -2.0084 0.0918 0 2
3.1213 -25.2460 -1.7646 0.1045 0 2
3.6885 -22.3953 -1.5745 0.1171 0 2
4.1427 -20.0794 -1.4222 0.1297 0 2
4.5139 -18.1555 -1.2978 0.1421 0 2
5.0634 -17.3529 -1.2540 0.9633 0 2
5.2748 -15.6998 -1.1489 0.1405 0 1
5.4380 -14.2585 -1.0586 0.1525 0 1
5.6458 -13.1850 -0.9950 0.1915 0 1
5.8291 -12.2289 -0.9398 0.2015 0 1
5.9900 -11.3659 -0.8912 0.2153 0 1
6.1337 -10.5834 -0.8486 0.2261 0 1
6.2583 -9.8617 -0.8102 0.2357 0 1
6.3567 -9.1789 -0.7745 0.2399 0 1
6.4565 -8.5654 -0.7441 0.2647 0 1
6.5475 -7.9957 -0.7169 0.2748 0 1
6.6346 -7.4680 -0.6930 0.2942 0 1
6.7253 -6.9832 -0.6725 0.3032 0 1
6.7857 -6.5011 -0.6519 0.2690 0 1
6.8229 -6.0297 -0.6316 0.2776 0 1
6.6389 -5.4075 -0.5940 0.3116 0 2
6.6812 -5.0089 -0.5793 0.3193 0 25
6.2812 -4.3257 -0.5291 0.3268 14 6
6.3407 -4.0006 -0.5201 0.6325 14 6
6.7880 -3.9104 -0.5434 0.3404 0 25
6.8168 -3.5698 -0.5338 0.3465 0 25
6.8425 -3.2396 -0.5252 0.3522 0 25
6.8654 -2.9186 -0.5175 0.3574 0 25
6.8857 -2.6055 -0.5107 0.3622 0 25
6.9966 -2.3304 -0.5116 0.5806 0 2
7.1534 -2.0670 -0.5165 0.3697 0 1
7.1793 -1.7650 -0.5129 0.3736 0 1
4.2225 -0.8597 -0.2989 0.3239 25 14
3.9115 -0.6337 -0.2749 0.9701 25 14
3.9030 -0.4722 -0.2727 0.9777 25 14
3.8946 -0.3129 -0.2710 0.9838 25 14
3.8861 -0.1553 -0.2698 0.9883 25 14
3.8655 0.0011 -0.2681 0.9871 25 14
3.8859 0.1574 -0.2698 0.9884 25 14
3.8947 0.3151 -0.2711 0.9837 25 14
3.9035 0.4744 -0.2728 0.9775 25 14
3.9124 0.6361 -0.2750 0.9697 25 14
5.0280 1.0265 -0.3560 0.0051 25 14
7.3730 1.8169 -0.5268 0.3705 0 1
7.3806 2.1370 -0.5330 0.3663 0 1
7.3860 2.4645 -0.5401 0.3614 0 1
7.3892 2.8006 -0.5482 0.3561 0 1
7.3904 3.1465 -0.5572 0.3504 0 1
7.3893 3.5034 -0.5673 0.3441 0 1
7.3841 3.8720 -0.5784 0.3341 0 1
7.3621 4.2464 -0.5896 0.3407 0 1
7.3162 4.6217 -0.6003 0.3346 0 1
7.2662 5.0099 -0.6123 0.3281 0 1
7.2116 5.4127 -0.6255 0.3211 0 1
7.1550 5.8343 -0.6404 0.3134 0 1
7.0931 6.2753 -0.6570 0.3460 0 1
6.9775 6.6921 -0.6707 0.3389 0 1
6.8546 7.1251 -0.6859 0.3314 0 1
6.7364 7.5909 -0.7040 0.3172 0 1
6.6781 8.1643 -0.7317 0.2817 0 2
6.4971 8.6290 -0.7493 0.9506 0 2
6.1487 8.8889 -0.7498 0.2443 0 2
6.0476 9.5412 -0.7836 0.2354 0 2
5.9340 10.2518 -0.8217 0.2245 0 2
5.8057 11.0308 -0.8647 0.2133 0 2
5.6600 11.8910 -0.9136 0.2019 0 2
5.4936 12.8487 -0.9694 0.1903 0 2
5.3019 13.9247 -1.0336 0.1784 0 2
5.0795 15.1458 -1.1082 0.1664 0 2
4.8187 16.5479 -1.1956 0.1543 0 2
4.5093 18.1794 -1.2993 0.1420 0 2
4.1371 20.1079 -1.4241 0.1295 0 2
3.6817 22.4299 -1.5768 0.1170 0 2
2.5285 20.5430 -1.4358 0.8794 0 20
1.8491 22.4330 -1.5615 0.8057 0 6
1.4853 35.3271 -2.4528 0.0792 0 1
0.0754 41.9939 -2.9131 0.0739 0 1
-30.5712 37.6498 -3.3643 0.6130 0 3
-28.7563 32.6396 -3.0176 0.7767 0 3
-30.6281 32.0668 -3.0761 0.6704 0 3
-30.6509 29.6094 -2.9563 0.6976 0 3
-30.6704 27.3313 -2.8498 0.7237 0 3
-30.6871 25.2072 -2.7549 0.7486 0 3
-30.5379 23.0922 -2.6559 0.6380 0 3
-30.4933 21.1865 -2.5758 0.1875 0 3
-30.2083 19.2349 -2.4843 0.2023 0 3
-30.0011 17.4484 -2.4076 0.2163 0 3
-33.5846 17.7651 -2.6356 0.4722 0 3
-40.9481 19.5950 -3.1491 0.8723 0 3
-40.2428 17.3046 -3.0388 0.2161 0 3
-46.1545 17.6832 -3.4287 0.3630 0 3
-34.9763 -33.2690 -3.3486 0.9477 0 20
-33.2057 -34.2317 -3.3083 0.9593 0 20
-0.2558 -43.1072 -2.9904 0.0642 0 1
1.2577 -36.6643 -2.5449 0.0766 0 2
1.9573 -26.2194 -1.8239 0.5666 0 20
2.9868 -25.9169 -1.8098 0.1019 0 2
3.5823 -22.9322 -1.6101 0.1146 0 2
4.0568 -20.5199 -1.4510 0.1271 0 2
4.4132 -18.3993 -1.3126 0.5322 0 6
4.9312 -17.4349 -1.2569 0.9368 0 2
5.2353 -16.0201 -1.1692 0.1441 0 1
5.4068 -14.5371 -1.0759 0.1500 0 1
5.6050 -13.3949 -1.0073 0.1891 0 1
5.7933 -12.4175 -0.9505 0.2004 0 1
5.9583 -11.5361 -0.9007 0.2131 0 1
6.1055 -10.7386 -0.8569 0.2239 0 1
6.2341 -10.0057 -0.8178 0.2335 0 1
6.3375 -9.3150 -0.7816 0.2377 0 1
6.4366 -8.6876 -0.7500 0.2626 0 1
6.5295 -8.1097 -0.7223 0.2727 0 1
6.6150 -7.5712 -0.6974 0.2924 0 1
6.7073 -7.0808 -0.6766 0.3014 0 1
6.7774 -6.6016 -0.6563 0.2672 0 1
6.8157 -6.1244 -0.6356 0.2759 0 1
6.8448 -5.6701 -0.6166 0.2779 0 1
6.6726 -5.0892 -0.5821 0.3177 0 25
6.2797 -4.4017 -0.5320 0.8043 14 6
6.2955 -4.0453 -0.5191 0.9296 14 6
-34.1657 -33.5923 -3.8577 0.8928 0 20
-32.7466 -34.8958 -3.8530 0.3900 0 20
-20.1482 -27.4623 -2.7424 0.7823 0 22
-18.4902 -27.4526 -2.6649 0.8021 0 22
-1.2115 -40.9052 -3.2949 0.0680 0 1
0.3692 -34.7737 -2.7999 0.0797 0 1
1.4644 -28.7793 -2.3201 0.0922 0 2
2.3030 -25.2198 -2.0390 0.1049 0 2
2.9582 -22.4023 -1.8194 0.1176 0 2
3.4834 -20.1104 -1.6433 0.1302 0 2
3.9204 -18.2382 -1.5020 0.6899 0 2
4.5077 -17.5104 -1.4558 0.1706 0 2
4.7342 -15.7391 -1.3233 0.1477 0 1
4.9452 -14.3251 -1.2202 0.1534 0 1
5.1847 -13.2636 -1.1466 0.1941 0 1
5.3932 -12.3124 -1.0822 0.2057 0 1
5.5777 -11.4566 -1.0259 0.2181 0 1
5.7421 -10.6804 -0.9763 0.2279 0 1
5.8881 -9.9687 -0.9322 0.2376 0 1
6.0101 -9.2997 -0.8915 0.2562 0 1
6.1259 -8.6911 -0.8561 0.2668 0 1
6.2303 -8.1246 -0.8243 0.2771 0 1
6.3247 -7.5946 -0.7957 0.2972 0 1
6.4256 -7.1134 -0.7718 0.3064 0 1
6.4896 -6.6277 -0.7468 0.2723 0 1
6.5377 -6.1605 -0.7233 0.2812 0 1
6.5801 -5.7188 -0.7019 0.2897 0 1
6.4305 -5.1498 -0.6633 0.3234 0 25
6.4769 -4.7725 -0.6478 0.3312 0 25
6.2940 -4.2582 -0.6118 0.7535 14 6
6.4487 -3.9946 -0.6108 0.5301 14 6
6.5909 -3.7245 -0.6095 0.3519 0 25
6.6216 -3.3981 -0.5992 0.3580 0 25
6.6491 -3.0810 -0.5900 0.3636 0 25
6.6735 -2.7720 -0.5818 0.3687 0 25
6.6960 -2.4706 -0.5746 0.3784 0 2
6.9331 -2.2457 -0.5868 0.3774 0 1
6.9610 -1.9491 -0.5820 0.3818 0 1
6.9872 -1.6566 -0.5782 0.3843 0 1
4.0658 -0.7928 -0.3335 0.2784 25 14
3.9013 -0.5990 -0.3178 0.9730 25 14
3.8929 -0.4383 -0.3154 0.9804 25 14
3.8846 -0.2798 -0.3136 0.9861 25 14
3.8762 -0.1228 -0.3122 0.9903 25 14
3.8654 0.0330 -0.3112 0.9863 25 14
3.8796 0.1894 -0.3127 0.9888 25 14
3.8883 0.3470 -0.3143 0.9838 25 14
3.8971 0.5064 -0.3164 0.9773 25 14
3.9059 0.6682 -0.3190 0.9692 25 14
7.1637 1.5244 -0.5897 0.3838 0 1
7.1706 1.8301 -0.5958 0.3798 0 1
7.1752 2.1421 -0.6029 0.3755 0 1
7.1772 2.4611 -0.6109 0.3706 0 1
7.1769 2.7883 -0.6199 0.3652 0 1
7.1741 3.1248 -0.6300 0.3593 0 1
7.1687 3.4718 -0.6413 0.3530 0 1
7.1535 3.8269 -0.6532 0.3431 0 1
7.1305 4.1919 -0.6660 0.3365 0 1
7.0819 4.5561 -0.6780 0.3436 0 1
7.0281 4.9320 -0.6913 0.3370 0 1
6.9695 5.3217 -0.7060 0.3299 0 1
6.9104 5.7308 -0.7228 0.3220 0 1
6.8499 6.1619 -0.7418 0.3138 0 1
6.7430 6.5752 -0.7583 0.3476 0 1
6.6177 6.9938 -0.7752 0.3400 0 1
6.4962 7.4435 -0.7954 0.3255 0 1
6.3701 7.9205 -0.8184 0.3164 0 1
6.3040 8.5183 -0.8532 0.2805 0 2
5.9989 8.8276 -0.8593 0.9799 0 2
5.7647 9.2636 -0.8785 0.2435 0 2
5.6413 9.9348 -0.9198 0.2325 0 2
5.5024 10.6676 -0.9664 0.2213 0 2
5.3452 11.4733 -1.0191 0.2099 0 2
5.1665 12.3658 -1.0790 0.1982 0 2
4.9617 13.3627 -1.1477 0.1864 0 2
4.7255 14.4867 -1.2269 0.1743 0 2
4.4503 15.7676 -1.3191 0.1622 0 2
4.1265 17.2453 -1.4277 0.1498 0 2
3.7405 18.9741 -1.5571 0.1374 0 2
2.0863 13.4031 -1.0921 0.6893 0 20
2.2156 19.3181 -1.5656 0.2065 0 20
1.6606 22.4083 -1.8091 0.8142 0 6
1.0818 32.0442 -2.5815 0.0860 0 1
-0.2435 37.5824 -3.0260 0.0720 0 1
-2.0964 44.8563 -3.6155 0.0686 0 1
-30.4043 36.8175 -3.8444 0.6221 0 3
-29.4838 32.9123 -3.5577 0.9563 0 3
-30.4738 31.3812 -3.5219 0.6791 0 3
-30.5018 28.9813 -3.3876 0.7060 0 3
-30.5261 26.7528 -3.2681 0.7318 0 3
-30.5470 24.6716 -3.1614 0.7565 0 3
-30.5625 22.7158 -3.0660 0.7800 0 3
-30.5780 20.8723 -2.9808 0.8023 0 3
-30.5911 19.1247 -2.9047 0.8233 0 3
-31.1618 17.7800 -2.8886 0.4997 0 3
-31.4038 16.2804 -2.8480 0.2119 0 3
-35.8885 16.8103 -3.1908 0.8446 0 3
-45.9280 19.3005 -4.0111 0.8942 0 3
-34.5870 -33.4483 -3.8739 0.8891 0 20
-32.5704 -34.1375 -3.7989 0.9067 0 20
-18.8281 -27.4610 -2.6808 0.8084 0 22
-1.6120 -42.5328 -3.4269 0.0654 0 1
0.0840 -35.8900 -2.8896 0.0774 0 1
1.3311 -31.2544 -2.5187 0.0897 0 2
2.1477 -25.8825 -2.0911 0.1023 0 2
2.8354 -22.9333 -1.8605 0.1150 0 2
3.3841 -20.5465 -1.6766 0.1276 0 2
3.8313 -18.5701 -1.5266 0.1401 0 2
4.4262 -17.8028 -1.4770 0.8942 0 2
4.6808 -16.0416 -1.3454 0.1452 0 1
4.9056 -14.6010 -1.2402 0.1509 0 1
5.1382 -13.4726 -1.1609 0.1917 0 1
5.3525 -12.4999 -1.0948 0.2033 0 1
5.5416 -11.6258 -1.0369 0.2158 0 1
5.7098 -10.8343 -0.9860 0.2257 0 1
5.8599 -10.1111 -0.9409 0.2365 0 1
5.9847 -9.4306 -0.8993 0.2540 0 1
6.1031 -8.8127 -0.8631 0.2647 0 1
6.2097 -8.2380 -0.8306 0.2750 0 1
6.3060 -7.7008 -0.8014 0.2850 0 1
6.4056 -7.2102 -0.7765 0.3045 0 1
6.4789 -6.7273 -0.7520 0.2704 0 1
6.5283 -6.2544 -0.7279 0.2794 0 1
6.5718 -5.8077 -0.7061 0.2880 0 1
6.4217 -5.2306 -0.6668 0.3226 0 2
6.4677 -4.8488 -0.6508 0.3296 0 25
6.2957 -4.3357 -0.6155 0.7490 14 6
6.3402 -4.0003 -0.6036 0.7181 14 6
6.5842 -3.7929 -0.6118 0.3506 0 25
6.6156 -3.4644 -0.6013 0.3568 0 25
6.6437 -3.1455 -0.5918 0.3625 0 25
6.6687 -2.8350 -0.5834 0.3677 0 25
6.6922 -2.5323 -0.5761 0.3702 0 2
6.9273 -2.3073 -0.5879 0.3767 0 1
6.9552 -2.0098 -0.5829 0.3812 0 1
6.9820 -1.7165 -0.5789 0.3838 0 1
4.1627 -0.8475 -0.3420 0.3283 25 14
3.9030 -0.6324 -0.3183 0.9713 25 14
3.8946 -0.4712 -0.3159 0.9790 25 14
3.8863 -0.3123 -0.3139 0.9851 25 14
3.8779 -0.1550 -0.3125 0.9896 25 14
3.8619 0.0011 -0.3109 0.9872 25 14
3.8778 0.1571 -0.3125 0.9896 25 14
3.8865 0.3144 -0.3139 0.9850 25 14
3.8953 0.4734 -0.3159 0.9788 25 14
3.9041 0.6347 -0.3185 0.9710 25 14
4.1824 0.8539 -0.3437 0.3268 25 14
7.1693 1.7667 -0.5945 0.3807 0 1
7.1745 2.0773 -0.6014 0.3765 0 1
7.1770 2.3948 -0.6092 0.3716 0 1
7.1771 2.7203 -0.6180 0.3664 0 1
7.1749 3.0547 -0.6279 0.3606 0 1
7.1700 3.3995 -0.6389 0.3544 0 1
7.1578 3.7534 -0.6507 0.3444 0 1
7.1355 4.1157 -0.6632 0.3379 0 1
7.0924 4.4803 -0.6754 0.3449 0 1
7.0395 4.8536 -0.6884 0.3384 0 1
6.9820 5.2403 -0.7029 0.3314 0 1
6.9222 5.6445 -0.7191 0.3237 0 1
6.8628 6.0716 -0.7378 0.3155 0 1
6.7678 6.4910 -0.7550 0.3491 0 1
6.6441 6.9063 -0.7716 0.3416 0 1
6.5210 7.3482 -0.7910 0.3274 0 1
6.3968 7.8204 -0.8135 0.3183 0 1
6.3278 8.4041 -0.8470 0.2825 0 2
6.0821 8.7927 -0.8608 0.9782 0 2
5.7884 9.1323 -0.8705 0.2457 0 2
5.6679 9.7920 -0.9109 0.2348 0 2
5.5323 10.5113 -0.9564 0.2237 0 2
5.3792 11.3010 -1.0077 0.2123 0 2
5.2052 12.1743 -1.0660 0.2006 0 2
5.0062 13.1480 -1.1327 0.1888 0 2
4.7770 14.2437 -1.2096 0.1768 0 2
4.5105 15.4895 -1.2989 0.1647 0 2
4.1977 16.9228 -1.4038 0.1524 0 2
3.8258 18.5946 -1.5285 0.1399 0 2
2.2197 13.5229 -1.1034 0.6711 0 20
2.2680 18.4263 -1.4948 0.1274 0 20
1.8471 22.4079 -1.8103 0.9983 0 6
1.3205 31.4076 -2.5310 0.1262 0 1
0.0652 36.3068 -2.9232 0.0772 0 1
-1.6609 43.2009 -3.4808 0.0695 0 1
-30.3959 37.4340 -3.8824 0.6160 0 3
-30.5930 34.7243 -3.7261 0.1334 0 3
-30.4676 31.8987 -3.5516 0.6734 0 3
-30.4964 29.4601 -3.4139 0.7006 0 3
-30.5214 27.1985 -3.2915 0.7266 0 3
-30.5430 25.0887 -3.1824 0.7515 0 3
-30.5616 23.1101 -3.0849 0.7753 0 3
-30.5750 21.2433 -2.9976 0.7978 0 3
-30.5886 19.4770 -2.9197 0.8191 0 3
-30.6111 17.8032 -2.8511 0.9742 0 3
-31.4528 16.6374 -2.8648 0.2106 0 3
-40.7828 19.5159 -3.6402 0.8751 0 3
-41.1959 17.7144 -3.6105 0.3998 0 3
-41.9949 16.0895 -3.6208 0.3627 0 3
-34.9134 -33.2092 -3.8796 0.9486 0 20
-32.9789 -33.9979 -3.8136 0.9032 0 20
-19.1594 -27.4544 -2.6955 0.8437 0 22
-2.0486 -44.3517 -3.5747 0.0619 0 1
-0.2200 -37.0734 -2.9850 0.0740 0 1
1.1064 -32.2533 -2.5984 0.0870 0 2
1.9510 -26.1351 -2.1101 0.8967 0 20
2.7068 -23.4878 -1.9036 0.1124 0 2
3.2805 -20.9999 -1.7113 0.1250 0 2
3.7462 -18.9487 -1.5552 0.1375 0 2
4.2963 -17.9117 -1.4830 0.8905 0 2
4.6261 -16.3564 -1.3686 0.1286 0 1
4.8646 -14.8855 -1.2609 0.1484 0 1
5.0904 -13.6864 -1.1757 0.1893 0 1
5.3107 -12.6915 -1.1077 0.2010 0 1
5.5045 -11.7984 -1.0482 0.2134 0 1
5.6768 -10.9911 -0.9960 0.2234 0 1
5.8304 -10.2549 -0.9498 0.2343 0 1
5.9601 -9.5660 -0.9075 0.2374 0 1
6.0797 -8.9361 -0.8702 0.2625 0 1
6.1887 -8.3530 -0.8370 0.2729 0 1
6.2870 -7.8085 -0.8071 0.2830 0 1
6.3852 -7.3082 -0.7814 0.3026 0 1
6.4680 -6.8281 -0.7572 0.2686 0 1
6.5186 -6.3495 -0.7327 0.2776 0 1
6.5633 -5.8977 -0.7104 0.2863 0 1
6.4114 -5.3110 -0.6703 0.3209 0 2
6.4583 -4.9258 -0.6540 0.3280 0 25
6.2976 -4.4142 -0.6192 0.7445 14 6
6.2943 -4.0446 -0.6024 0.8806 14 6
-36.1987 -32.8351 -4.4805 0.8750 0 20
-34.1209 -33.5483 -4.3869 0.8937 0 20
-32.7658 -34.9163 -4.3898 0.5451 0 20
-20.1515 -27.4670 -3.1231 0.6853 0 22
-18.5003 -27.4675 -3.0361 0.8099 0 22
-2.9492 -42.1642 -3.8750 0.0641 0 1
-1.0476 -35.3716 -3.2442 0.0762 0 1
0.3258 -30.6890 -2.8137 0.0905 0 1
1.3853 -27.2256 -2.4992 0.1029 0 2
2.0925 -22.9152 -2.1095 0.1153 0 2
2.7145 -20.5575 -1.9010 0.1280 0 2
3.2772 -18.9198 -1.7604 0.7600 0 2
3.8484 -17.9033 -1.6788 0.1677 0 2
4.1323 -16.0522 -1.5196 0.1463 0 1
4.4080 -14.6547 -1.4030 0.1518 0 1
4.6741 -13.5397 -1.3132 0.1954 0 1
4.9170 -12.5790 -1.2382 0.2045 0 1
5.1307 -11.7131 -1.1723 0.2175 0 1
5.3200 -10.9272 -1.1142 0.2284 0 1
5.4883 -10.2083 -1.0626 0.2395 0 1
5.6391 -9.5470 -1.0165 0.2556 0 1
5.7728 -8.9326 -0.9750 0.2665 0 1
5.8933 -8.3611 -0.9378 0.2771 0 1
6.0022 -7.8272 -0.9043 0.2874 0 1
6.1083 -7.3347 -0.8751 0.3074 0 1
6.1855 -6.8475 -0.8460 0.2735 0 1
6.2460 -6.3789 -0.8185 0.2827 0 1
6.2998 -5.9363 -0.7936 0.2915 0 1
6.3431 -5.5128 -0.7705 0.2934 0 1
6.2282 -4.9879 -0.7315 0.3369 0 2
6.2769 -4.6251 -0.7148 0.3414 0 25
6.3218 -4.2770 -0.6997 0.3487 0 25
6.3624 -3.9411 -0.6861 0.3556 0 25
6.3991 -3.6161 -0.6738 0.3621 0 25
6.4320 -3.3008 -0.6628 0.3682 0 25
6.4616 -2.9941 -0.6529 0.3738 0 25
6.4894 -2.6955 -0.6442 0.3761 0 2
6.6563 -2.4559 -0.6504 0.7333 0 2
6.7443 -2.1845 -0.6499 0.3876 0 1
6.7735 -1.8967 -0.6449 0.3919 0 1
6.8003 -1.6123 -0.6407 0.3945 0 1
4.0092 -0.7817 -0.3745 0.2820 25 14
3.8929 -0.5977 -0.3611 0.9742 25 14
3.8846 -0.4374 -0.3584 0.9815 25 14
3.8763 -0.2792 -0.3563 0.9873 25 14
3.8680 -0.1226 -0.3548 0.9915 25 14
3.8621 0.0330 -0.3541 0.9861 25 14
3.8715 0.1890 -0.3553 0.9899 25 14
3.8802 0.3462 -0.3571 0.9850 25 14
3.8889 0.5053 -0.3595 0.9784 25 14
3.8976 0.6668 -0.3625 0.9704 25 14
4.2145 0.8968 -0.3950 0.3234 25 14
6.9771 1.7807 -0.6601 0.3900 0 1
6.9794 2.0836 -0.6678 0.3857 0 1
6.9788 2.3931 -0.6764 0.3808 0 1
6.9757 2.7101 -0.6861 0.3754 0 1
6.9698 3.0358 -0.6970 0.3695 0 1
6.9610 3.3712 -0.7091 0.3632 0 1
6.9396 3.7125 -0.7215 0.3533 0 1
6.9133 4.0641 -0.7352 0.3468 0 1
6.8705 4.4201 -0.7490 0.3538 0 1
6.8143 4.7820 -0.7632 0.3472 0 1
6.7531 5.1565 -0.7790 0.3402 0 1
6.6913 5.5490 -0.7969 0.3323 0 1
6.6271 5.9615 -0.8172 0.3240 0 1
6.5452 6.3823 -0.8381 0.3578 0 1
6.4193 6.7841 -0.8562 0.3502 0 1
6.2935 7.2112 -0.8775 0.3357 0 1
6.1658 7.6665 -0.9020 0.3266 0 1
6.0278 8.1451 -0.9290 0.3171 0 1
5.9496 8.7550 -0.9704 0.2805 0 2
5.6078 9.0114 -0.9730 0.9953 0 2
5.3964 9.5036 -1.0019 0.2429 0 2
5.2520 10.1823 -1.0503 0.2317 0 2
5.0894 10.9242 -1.1049 0.2202 0 2
4.9054 11.7409 -1.1665 0.2086 0 2
4.6959 12.6468 -1.2368 0.1967 0 2
4.4558 13.6600 -1.3173 0.1847 0 2
4.1784 14.8044 -1.4103 0.1725 0 2
3.8550 16.1108 -1.5187 0.1602 0 2
3.4737 17.6208 -1.6465 0.1478 0 2
2.0934 13.4489 -1.2478 0.9587 0 20
2.4662 21.5030 -1.9843 0.1226 0 2
1.7839 24.0730 -2.2130 0.1100 0 2
0.9724 28.8055 -2.6423 0.0951 0 2
-0.2136 32.9767 -3.0233 0.0904 0 1
-1.8040 38.5987 -3.5425 0.0694 0 1
-4.0352 46.3041 -4.2611 0.0615 0 1
-28.4013 40.6503 -4.5462 0.2030 0 3
-29.4312 38.7102 -4.4581 0.7782 0 3
-30.2746 36.6604 -4.3588 0.7721 0 3
-30.2771 33.7978 -4.1600 0.6540 0 3
-31.7236 32.6681 -4.1747 0.7190 0 3
-29.3889 27.9239 -3.7166 0.9731 0 3
-18.8476 16.5179 -2.2976 0.3993 0 22
-30.4049 24.5568 -3.5830 0.7593 0 3
-30.4246 22.6132 -3.4753 0.7828 0 3
-30.4438 20.7807 -3.3792 0.8050 0 3
-30.4602 19.0429 -3.2933 0.8260 0 3
-28.6419 16.3422 -3.0232 0.4258 0 3
-33.0982 17.1588 -3.4179 0.1945 0 3
-37.8632 17.7352 -3.8331 0.4283 0 3
-41.9562 17.6315 -4.1723 0.3572 0 3
-44.0088 16.4448 -4.3071 0.2099 0 3
-34.5413 -33.4040 -4.4052 0.8900 0 20
-32.6638 -34.2353 -4.3380 0.5516 0 20
-20.5255 -27.4967 -3.1457 0.8221 0 22
-18.8223 -27.4526 -3.0515 0.8264 0 22
-3.4408 -43.9636 -4.0428 0.0598 0 1
-1.3878 -36.6176 -3.3594 0.0737 0 1
0.0739 -31.5482 -2.8923 0.0878 0 1
1.1918 -27.9837 -2.5678 0.1001 0 2
1.9469 -23.4625 -2.1584 0.1127 0 2
2.5971 -21.0056 -1.9404 0.1254 0 2
3.1423 -19.0786 -1.7726 0.7547 0 2
3.7593 -18.2210 -1.7056 0.1645 0 2
4.0674 -16.3596 -1.5455 0.1438 0 1
4.3582 -14.9362 -1.4264 0.1493 0 1
4.6186 -13.7466 -1.3295 0.1930 0 1
4.8698 -12.7689 -1.2529 0.2021 0 1
5.0886 -11.8836 -1.1851 0.2152 0 1
5.2829 -11.0831 -1.1256 0.2261 0 1
5.4553 -10.3512 -1.0727 0.2373 0 1
5.6095 -9.6790 -1.0256 0.2494 0 1
5.7465 -9.0552 -0.9832 0.2643 0 1
5.8696 -8.4755 -0.9451 0.2749 0 1
5.9807 -7.9342 -0.9109 0.2853 0 1
6.0858 -7.4319 -0.8806 0.3055 0 1
6.1721 -6.9474 -0.8520 0.2715 0 1
6.2341 -6.4731 -0.8239 0.2808 0 1
6.2892 -6.0254 -0.7985 0.2897 0 1
6.3370 -5.6002 -0.7753 0.2915 0 1
6.2184 -5.0650 -0.7353 0.3295 0 2
6.2671 -4.6984 -0.7181 0.3398 0 25
6.3129 -4.3475 -0.7027 0.3473 0 25
6.3505 -4.0068 -0.6884 0.9210 14 6
6.3918 -3.6821 -0.6763 0.3608 0 25
6.4255 -3.3649 -0.6650 0.3670 0 25
6.4558 -3.0565 -0.6548 0.3726 0 25
6.4827 -2.7559 -0.6458 0.3779 0 25
6.5858 -2.4920 -0.6456 0.7397 0 2
6.7382 -2.2443 -0.6511 0.3869 0 1
6.7677 -1.9556 -0.6458 0.3914 0 1
6.7950 -1.6706 -0.6415 0.3940 0 1
4.1045 -0.8356 -0.3840 0.3326 25 14
3.8946 -0.6310 -0.3617 0.9725 25 14
3.8863 -0.4702 -0.3589 0.9802 25 14
3.8780 -0.3116 -0.3567 0.9862 25 14
3.8697 -0.1547 -0.3550 0.9908 25 14
3.8582 0.0011 -0.3537 0.9872 25 14
3.8697 0.1568 -0.3551 0.9907 25 14
3.8784 0.3137 -0.3567 0.9861 25 14
3.8871 0.4724 -0.3590 0.9799 25 14
3.8958 0.6334 -0.3618 0.9721 25 14
4.1294 0.8431 -0.3864 0.3306 25 14
6.9763 1.7192 -0.6587 0.3908 0 1
6.9791 2.0208 -0.6661 0.3865 0 1
6.9792 2.3288 -0.6745 0.3818 0 1
6.9765 2.6442 -0.6840 0.3765 0 1
6.9712 2.9680 -0.6946 0.3708 0 1
6.9630 3.3013 -0.7065 0.3645 0 1
6.9445 3.6415 -0.7189 0.3546 0 1
6.9190 3.9908 -0.7323 0.3482 0 1
6.8814 4.3470 -0.7462 0.3551 0 1
6.8263 4.7066 -0.7601 0.3486 0 1
6.7661 5.0783 -0.7756 0.3417 0 1
6.7037 5.4664 -0.7930 0.3339 0 1
6.6408 5.8752 -0.8129 0.3258 0 1
6.5701 6.3014 -0.8346 0.3593 0 1
6.4458 6.7002 -0.8524 0.3518 0 1
6.3187 7.1202 -0.8727 0.3375 0 1
6.1929 7.5710 -0.8967 0.3285 0 1
6.0571 8.0446 -0.9232 0.3191 0 1
5.9765 8.6400 -0.9631 0.2826 0 2
5.6862 8.9710 -0.9737 0.9946 0 2
5.4241 9.3709 -0.9926 0.2451 0 2
5.2831 10.0378 -1.0399 0.2340 0 2
5.1245 10.7659 -1.0931 0.2226 0 2
4.9452 11.5662 -1.1532 0.2110 0 2
4.7413 12.4523 -1.2215 0.1992 0 2
4.5080 13.4417 -1.2998 0.1872 0 2
4.2389 14.5569 -1.3900 0.1751 0 2
3.9258 15.8269 -1.4949 0.1628 0 2
3.5576 17.2910 -1.6184 0.1503 0 2
2.2153 13.4961 -1.2538 0.6952 0 20
1.6750 13.6090 -1.2571 0.5009 0 20
1.8450 22.3830 -2.0590 0.9984 0 6
1.1772 27.9986 -2.5691 0.0993 0 2
0.0574 31.9447 -2.9286 0.0862 0 1
-1.4312 37.2256 -3.4153 0.0720 0 1
-3.5039 44.4580 -4.0884 0.0647 0 1
-28.3495 37.9348 -4.3416 0.7339 0 3
-30.2224 37.2203 -4.3955 0.6190 0 3
-30.3084 31.7320 -4.0229 0.6763 0 3
-33.8032 32.6545 -4.3088 0.6966 0 3
