ply
format ascii 1.0
element vertex 1374
property float32 x
property float32 y
property float32 z
property float32 CosAngle
property uint32 ObjIdx
property uint32 ObjTag
end_header
-0.3048 -9.3225 -3.0193 0.2874 0 1
0.0674 -8.9470 -2.8962 0.2996 0 1
0.4104 -8.5873 -2.7829 0.3118 0 1
0.7271 -8.2422 -2.6783 0.3240 0 1
1.0198 -7.9104 -2.5817 0.3361 0 1
1.2869 -7.5678 -2.4848 0.3532 0 24
1.5429 -7.2867 -2.4109 0.3653 0 1
1.7766 -6.9903 -2.3346 0.3772 0 1
1.9878 -6.6833 -2.2570 0.3871 0 24
2.1958 -6.4248 -2.1978 0.3997 0 1
2.3837 -6.1539 -2.1362 0.4112 0 1
2.5588 -5.8908 -2.0789 0.4226 0 1
2.7220 -5.6350 -2.0257 0.4334 0 1
2.8742 -5.3857 -1.9760 0.4443 0 1
3.0120 -5.1354 -1.9271 0.4395 0 1
3.1341 -4.8825 -1.8780 0.4510 0 1
3.2471 -4.6371 -1.8324 0.4622 0 1
3.3515 -4.3986 -1.7900 0.4732 0 1
3.4496 -4.1683 -1.7514 0.4765 0 1
3.5411 -3.9445 -1.7158 0.4864 0 1
3.6317 -3.7319 -1.6856 0.5152 0 1
3.7178 -3.5250 -1.6584 0.5237 0 1
3.7979 -3.3214 -1.6332 0.5317 0 1
3.8724 -3.1209 -1.6099 0.5394 0 1
3.9415 -2.9231 -1.5884 0.5467 0 1
4.0055 -2.7279 -1.5687 0.5536 0 1
4.0653 -2.5356 -1.5509 0.5600 0 1
4.1208 -2.3454 -1.5348 0.5659 0 1
4.1717 -2.1571 -1.5202 0.5714 0 1
4.2184 -1.9705 -1.5071 0.5764 0 1
4.2608 -1.7853 -1.4954 0.5809 0 1
4.2993 -1.6013 -1.4851 0.5849 0 1
4.3337 -1.4185 -1.4760 0.5885 0 1
4.3648 -1.2367 -1.4685 0.5947 0 1
4.3926 -1.0558 -1.4623 0.5972 0 1
4.4166 -0.8753 -1.4574 0.5992 0 1
4.4371 -0.6953 -1.4538 0.6007 0 1
4.4540 -0.5154 -1.4514 0.6017 0 1
3.9127 -0.2939 -1.2701 0.7760 25 14
3.9017 -0.1357 -1.2637 0.7799 25 14
3.8954 0.0213 -1.2609 0.7817 25 14
3.9009 0.1783 -1.2640 0.7798 25 14
3.9073 0.3365 -1.2694 0.7764 25 14
3.9146 0.4964 -1.2773 0.7717 25 14
3.9210 0.6584 -1.2870 0.7298 25 14
4.4841 0.9397 -1.4830 0.5882 0 1
4.4699 1.1262 -1.4921 0.5759 0 1
4.4489 1.3132 -1.5015 0.5723 0 1
4.4239 1.5017 -1.5122 0.5683 0 1
4.3948 1.6918 -1.5243 0.5638 0 1
4.3614 1.8837 -1.5378 0.5588 0 1
4.3237 2.0775 -1.5528 0.5535 0 1
4.2817 2.2736 -1.5693 0.5473 0 1
4.2351 2.4721 -1.5873 0.5410 0 1
4.1836 2.6732 -1.6071 0.5344 0 1
4.1269 2.8772 -1.6285 0.5274 0 1
4.0654 3.0844 -1.6518 0.5200 0 1
3.9984 3.2951 -1.6771 0.5121 0 1
3.9256 3.5094 -1.7044 0.5039 0 1
3.8465 3.7277 -1.7338 0.4954 0 1
3.7608 3.9501 -1.7654 0.4865 0 1
3.6682 4.1770 -1.7994 0.4773 0 1
3.5670 4.4072 -1.8353 0.4814 0 1
3.4548 4.6383 -1.8721 0.4698 0 1
3.3362 4.8768 -1.9126 0.4599 0 1
3.2083 5.1203 -1.9559 0.4464 0 1
3.0703 5.3684 -2.0018 0.4362 0 1
2.9221 5.6225 -2.0511 0.4257 0 1
2.7630 5.8832 -2.1039 0.4150 0 1
2.5921 6.1507 -2.1605 0.4045 0 1
2.4084 6.4253 -2.2212 0.3935 0 1
2.2097 6.7038 -2.2848 0.4051 0 1
1.9930 6.9786 -2.3493 0.3940 0 1
1.7611 7.2609 -2.4185 0.3827 0 1
1.5170 7.5718 -2.4997 0.3503 0 1
1.2563 7.9103 -2.5926 0.3378 0 1
0.9736 8.2636 -2.6934 0.3251 0 1
0.6651 8.6140 -2.7966 0.3125 0 1
0.3306 8.9723 -2.9063 0.3032 0 1
-0.0316 9.3251 -3.0185 0.3103 0 1
-0.4228 9.6886 -3.1391 0.2984 0 1
-0.8480 10.0913 -3.2780 0.2719 0 1
-1.3122 10.5227 -3.4325 0.2631 0 1
-1.8103 10.9198 -3.5829 0.2495 0 24
-2.3677 11.4158 -3.7739 0.2327 0 1
-2.9634 11.8662 -3.9590 0.2206 0 24
-3.6306 12.3943 -4.1806 0.2069 0 24
-4.3825 12.9989 -4.4404 0.1957 0 1
-5.2011 13.5946 -4.7116 0.1845 0 1
-6.1030 14.2114 -5.0064 0.1772 0 1
-7.0919 14.8382 -5.3235 0.1691 0 1
-8.1833 15.4882 -5.6702 0.1573 0 1
-9.4365 16.2431 -6.0807 0.1382 0 1
-10.8928 17.1250 -6.5696 0.1218 0 1
-12.6108 18.1689 -7.1590 0.1105 0 1
-14.5905 19.3141 -7.8353 0.1159 0 1
-16.7230 20.3782 -8.5331 0.6743 0 2
-18.5477 20.8337 -9.0291 0.0909 0 2
-21.4781 22.2548 -10.0115 0.0820 0 2
-24.9688 23.8714 -11.1817 0.0734 0 25
-22.4604 19.8072 -9.6936 0.6963 0 5
-22.5342 18.3153 -9.3996 0.7825 0 5
-22.6490 16.9429 -9.1557 0.8172 0 5
-27.8285 19.1219 -10.9296 0.5445 0 3
-28.2482 17.7817 -10.8046 0.5126 0 3
-32.5472 18.7041 -12.1511 0.8768 0 3
-37.4219 19.5473 -13.6663 0.8945 0 3
-37.5216 17.7169 -13.4314 0.4124 0 3
-32.2964 13.6897 -11.3546 0.3768 0 5
-41.2544 13.6929 -14.0702 0.3564 0 5
-24.8997 -17.2061 -9.7970 0.7711 0 20
-37.9088 -28.5142 -15.3547 0.7610 0 9
-31.5963 -25.8193 -13.2080 0.4331 0 9
-28.4303 -25.2053 -12.2987 0.7360 0 9
1.1059 7.7957 -2.6454 0.3423 0 1
0.8209 8.1250 -2.7437 0.3294 0 1
0.5120 8.4567 -2.8465 0.3175 0 1
0.1781 8.7962 -2.9560 0.3082 0 1
-0.1826 9.1408 -3.0718 0.3153 0 1
-0.5716 9.4835 -3.1921 0.3034 0 1
-0.9935 9.8595 -3.3294 0.2768 0 1
-1.4518 10.2537 -3.4794 0.2685 0 1
-1.9470 10.6469 -3.6365 0.2569 0 1
-2.4896 11.0762 -3.8142 0.2382 0 1
-3.0719 11.4867 -3.9950 0.2259 0 24
-3.7213 11.9644 -4.2098 0.2127 0 24
-4.4510 12.5125 -4.4620 0.2005 0 1
-5.2396 13.0429 -4.7226 0.1894 0 1
-6.1038 13.5873 -5.0046 0.1821 0 1
-7.0477 14.1381 -5.3076 0.1728 0 1
-8.0848 14.7060 -5.6384 0.1636 0 1
-9.2455 15.3234 -6.0129 0.1470 0 1
-10.5716 16.0268 -6.4507 0.1273 0 1
-12.1290 16.8705 -6.9810 0.1176 0 1
-13.9334 17.8217 -7.6006 0.1061 0 1
-15.8748 18.7033 -8.2424 0.1124 0 1
-17.4750 18.9851 -8.6694 0.0979 0 2
-20.0127 20.0596 -9.5202 0.0892 0 2
-22.9684 21.2411 -10.5111 0.0808 0 25
-22.3918 19.0959 -9.8875 0.7679 0 5
-22.4921 17.6698 -9.6100 0.8380 0 5
-25.0202 18.0774 -10.3709 0.9768 0 21
-27.8026 18.4328 -11.2077 0.8468 0 3
-29.3021 17.7734 -11.5145 0.4974 0 3
-30.3624 16.7849 -11.6562 0.3755 0 3
-37.2978 18.7017 -14.0185 0.9018 0 3
-30.2752 13.6859 -11.1630 0.4275 0 5
-43.3915 17.5495 -15.7260 0.8643 0 3
-43.6285 13.6818 -15.3623 0.4021 0 5
-39.1346 -25.6977 -15.7299 0.4209 0 9
-34.9990 -25.0527 -14.4612 0.8358 0 20
-31.0465 -24.1691 -13.2192 0.0642 0 2
-26.8561 -22.6990 -11.8144 0.0718 0 2
-23.3223 -21.3780 -10.6297 0.0799 0 2
-20.3152 -20.1838 -9.6216 0.0882 0 2
-18.6086 -20.0383 -9.1878 0.9879 0 2
-15.7864 -18.4336 -8.1541 0.0885 0 1
-13.6527 -17.3047 -7.4057 0.1167 0 1
-11.9738 -16.5003 -6.8497 0.1261 0 1
-10.4806 -15.7372 -6.3527 0.1358 0 1
-9.1605 -15.0320 -5.9144 0.1465 0 1
-7.9909 -14.3843 -5.5285 0.1618 0 1
-6.9404 -13.7703 -5.1810 0.1709 0 1
-6.0054 -13.2119 -4.8760 0.1877 0 1
-5.1625 -12.6886 -4.6025 0.2002 0 1
-4.3991 -12.1958 -4.3560 0.2107 0 1
-3.7034 -11.7241 -4.1309 0.2207 0 1
-3.0688 -11.2751 -3.9261 0.2336 0 1
-2.4888 -10.8486 -3.7396 0.2397 0 1
-1.9473 -10.3888 -3.5513 0.2530 0 24
-1.4647 -10.0256 -3.4042 0.2675 0 1
-1.0104 -9.6017 -3.2438 0.2743 0 24
-0.5994 -9.2634 -3.1188 0.2877 0 1
-0.2172 -8.9035 -2.9923 0.2999 0 1
0.1355 -8.5578 -2.8756 0.3121 0 1
0.4615 -8.2251 -2.7678 0.3242 0 1
0.7634 -7.9045 -2.6681 0.3363 0 1
1.0402 -7.5731 -2.5683 0.3535 0 24
1.3041 -7.3022 -2.4922 0.3655 0 1
1.5460 -7.0138 -2.4131 0.3775 0 1
1.7711 -6.7342 -2.3395 0.3893 0 1
1.9744 -6.4420 -2.2638 0.3983 0 24
2.1758 -6.1978 -2.2069 0.4117 0 1
2.3578 -5.9402 -2.1473 0.4231 0 1
2.5276 -5.6894 -2.0917 0.4343 0 1
2.6860 -5.4448 -2.0399 0.4451 0 1
2.8341 -5.2061 -1.9915 0.4559 0 1
2.9643 -4.9593 -1.9412 0.4512 0 1
3.0834 -4.7170 -1.8934 0.4626 0 1
3.1938 -4.4814 -1.8489 0.4738 0 1
3.2959 -4.2519 -1.8075 0.4846 0 1
3.3908 -4.0287 -1.7692 0.4878 0 1
3.4831 -3.8158 -1.7358 0.5174 0 1
3.5736 -3.6118 -1.7071 0.5261 0 1
3.6579 -3.4110 -1.6804 0.5344 0 1
3.7363 -3.2132 -1.6557 0.5424 0 1
3.8093 -3.0182 -1.6329 0.5500 0 1
3.8770 -2.8257 -1.6119 0.5572 0 1
3.9396 -2.6355 -1.5925 0.5639 0 1
3.9983 -2.4480 -1.5752 0.5702 0 1
4.0526 -2.2623 -1.5594 0.5760 0 1
4.1024 -2.0784 -1.5451 0.5814 0 1
4.1480 -1.8959 -1.5323 0.5863 0 1
4.1895 -1.7147 -1.5209 0.5907 0 1
4.2269 -1.5346 -1.5109 0.5946 0 1
4.2607 -1.3556 -1.5022 0.6012 0 1
4.2912 -1.1775 -1.4951 0.6040 0 1
4.3180 -1.0000 -1.4892 0.6064 0 1
4.3412 -0.8230 -1.4845 0.6083 0 1
4.3607 -0.6463 -1.4811 0.6097 0 1
4.3767 -0.4697 -1.4789 0.6106 0 1
4.3892 -0.2931 -1.4780 0.6110 0 1
4.3982 -0.1164 -1.4782 0.6109 0 1
4.4072 0.0606 -1.4809 0.6092 0 1
4.4127 0.2384 -1.4848 0.6076 0 1
4.4147 0.4171 -1.4899 0.6055 0 1
4.4132 0.5969 -1.4963 0.6029 0 1
4.4081 0.7778 -1.5039 0.5998 0 1
4.3993 0.9601 -1.5129 0.5963 0 1
4.3813 1.1425 -1.5213 0.5842 0 1
4.3593 1.3262 -1.5309 0.5805 0 1
4.3333 1.5112 -1.5419 0.5764 0 1
4.3033 1.6977 -1.5543 0.5718 0 1
4.2690 1.8859 -1.5680 0.5668 0 1
4.2303 2.0760 -1.5832 0.5613 0 1
4.1873 2.2682 -1.6000 0.5551 0 1
4.1396 2.4627 -1.6184 0.5488 0 1
4.0871 2.6596 -1.6383 0.5421 0 1
4.0295 2.8592 -1.6600 0.5351 0 1
3.9671 3.0620 -1.6837 0.5275 0 1
3.8991 3.2679 -1.7093 0.5196 0 1
3.8252 3.4772 -1.7368 0.5114 0 1
3.7451 3.6901 -1.7665 0.5028 0 1
3.6584 3.9069 -1.7983 0.4939 0 1
3.5649 4.1279 -1.8325 0.4847 0 1
3.4639 4.3533 -1.8692 0.4752 0 1
3.3516 4.5786 -1.9064 0.4772 0 1
3.2321 4.8098 -1.9470 0.4638 0 1
3.1030 5.0448 -1.9899 0.4538 0 1
2.9647 5.2849 -2.0359 0.4436 0 1
2.8163 5.5306 -2.0852 0.4331 0 1
2.6572 5.7821 -2.1380 0.4224 0 1
2.4866 6.0397 -2.1945 0.4118 0 1
2.3034 6.3038 -2.2549 0.4008 0 1
2.1069 6.5750 -2.3197 0.3896 0 1
1.8928 6.8421 -2.3852 0.4013 0 1
1.6627 7.1124 -2.4541 0.3900 0 1
1.4199 7.4057 -2.5335 0.3575 0 1
1.1617 7.7277 -2.6256 0.3449 0 1
0.8817 8.0580 -2.7235 0.3319 0 1
0.5777 8.3874 -2.8247 0.3200 0 1
0.2491 8.7254 -2.9328 0.3107 0 1
-0.1060 9.0716 -3.0481 0.3178 0 1
-0.4890 9.4119 -3.1665 0.3059 0 1
-0.9034 9.7778 -3.2992 0.2794 0 1
-1.3546 10.1745 -3.4486 0.2709 0 1
-1.8415 10.5645 -3.6030 0.2593 0 1
-2.3737 10.9856 -3.7762 0.2406 0 1
-2.9456 11.3921 -3.9534 0.2287 0 24
-3.5823 11.8635 -4.1637 0.2150 0 24
-4.2977 12.4065 -4.4114 0.2028 0 1
-5.0706 12.9312 -4.6667 0.1917 0 1
-5.9204 13.4768 -4.9456 0.1844 0 1
-6.8456 14.0228 -5.2428 0.1750 0 1
-7.8332 14.5325 -5.5468 0.1654 0 24
-8.9915 15.1857 -5.9294 0.1491 0 1
-10.2800 15.8695 -6.3528 0.1392 0 1
-11.7912 16.6909 -6.8660 0.1196 0 1
-13.5392 17.6168 -7.4650 0.1080 0 1
-15.4626 18.5270 -8.1078 0.1143 0 1
-16.9966 18.7755 -8.5091 0.0998 0 2
-19.4580 19.8298 -9.3342 0.0909 0 2
-17.4446 16.4032 -8.0452 0.9605 0 6
-22.3811 19.4097 -9.9535 0.7669 0 5
-22.4623 17.9496 -9.6605 0.8237 0 5
-24.9548 18.3470 -10.4065 0.3953 0 21
-27.7863 18.7555 -11.2634 0.8426 0 3
-28.7675 17.7772 -11.3619 0.5041 0 3
-31.3179 17.6538 -12.0789 0.3054 0 3
-32.8313 16.8043 -12.3917 0.2543 0 3
-29.6301 13.6913 -10.9666 0.5259 0 5
-33.0417 13.6835 -12.0157 0.3658 0 5
-26.3524 8.5048 -9.3036 0.9498 0 6
-39.4058 -25.4106 -15.7537 0.5557 0 9
-24.7843 -17.4319 -10.1805 0.8400 0 20
-32.0070 -24.4932 -13.5412 0.0627 0 2
-27.6614 -22.9891 -12.0844 0.0702 0 2
-24.0040 -21.6393 -10.8583 0.0782 0 2
-20.8974 -20.4206 -9.8168 0.0865 0 2
-18.7668 -19.8756 -9.1843 0.9955 0 2
-16.2725 -18.6852 -8.3248 0.0861 0 1
-14.0264 -17.4783 -7.5295 0.1148 0 1
-12.3052 -16.6645 -6.9600 0.1258 0 1
-10.7736 -15.8899 -6.4501 0.1337 0 1
-9.4199 -15.1730 -6.0004 0.1444 0 1
-8.2203 -14.5125 -5.6038 0.1596 0 1
-7.1481 -13.8945 -5.2498 0.1686 0 1
-6.1896 -13.3226 -4.9357 0.1855 0 1
-5.3295 -12.7942 -4.6567 0.1956 0 1
-4.5507 -12.2956 -4.4050 0.2084 0 1
-3.8267 -11.7737 -4.1595 0.2196 0 24
-3.1947 -11.3649 -3.9664 0.2312 0 1
-2.6048 -10.9371 -3.7775 0.2428 0 1
-2.0608 -10.5123 -3.5992 0.2491 0 1
-1.5621 -10.1061 -3.4358 0.2651 0 1
-1.1041 -9.7178 -3.2860 0.2734 0 1
-0.6821 -9.3394 -3.1462 0.2852 0 1
-0.2935 -8.9765 -3.0176 0.2974 0 1
0.0650 -8.6280 -2.8989 0.3095 0 1
0.3964 -8.2927 -2.7894 0.3217 0 1
0.7030 -7.9697 -2.6881 0.3338 0 1
0.9877 -7.6613 -2.5954 0.3508 0 1
1.2520 -7.3629 -2.5093 0.3630 0 1
1.4975 -7.0725 -2.4289 0.3750 0 1
1.7259 -6.7911 -2.3542 0.3869 0 1
1.9326 -6.4976 -2.2776 0.3966 0 24
2.1367 -6.2518 -2.2198 0.4093 0 1
2.3213 -5.9927 -2.1592 0.4208 0 1
2.4935 -5.7406 -2.1028 0.4320 0 1
2.6543 -5.4948 -2.0502 0.4428 0 1
2.8044 -5.2549 -2.0012 0.4537 0 1
2.9385 -5.0101 -1.9515 0.4489 0 1
3.0596 -4.7664 -1.9030 0.4603 0 1
3.1717 -4.5294 -1.8578 0.4715 0 1
3.2755 -4.2988 -1.8158 0.4824 0 1
3.3716 -4.0739 -1.7767 0.4930 0 1
3.4637 -3.8583 -1.7420 0.5155 0 1
3.5554 -3.6536 -1.7128 0.5243 0 1
3.6410 -3.4522 -1.6858 0.5328 0 1
3.7206 -3.2538 -1.6607 0.5408 0 1
3.7947 -3.0582 -1.6375 0.5485 0 1
3.8634 -2.8652 -1.6160 0.5557 0 1
3.9271 -2.6745 -1.5964 0.5626 0 1
3.9866 -2.4865 -1.5786 0.5690 0 1
4.0418 -2.3005 -1.5625 0.5748 0 1
4.0925 -2.1162 -1.5480 0.5803 0 1
4.1390 -1.9334 -1.5349 0.5853 0 1
4.1812 -1.7519 -1.5232 0.5898 0 1
4.2195 -1.5716 -1.5128 0.5938 0 1
4.2540 -1.3924 -1.5039 0.6005 0 1
4.2852 -1.2142 -1.4964 0.6035 0 1
4.3128 -1.0366 -1.4903 0.6060 0 1
4.3367 -0.8595 -1.4854 0.6080 0 1
4.3570 -0.6827 -1.4817 0.6095 0 1
4.3737 -0.5061 -1.4793 0.6105 0 1
4.3869 -0.3296 -1.4781 0.6110 0 1
4.3966 -0.1529 -1.4781 0.6110 0 1
4.4056 0.0241 -1.4802 0.6095 0 1
4.4119 0.2017 -1.4839 0.6080 0 1
4.4146 0.3802 -1.4887 0.6060 0 1
4.4138 0.5597 -1.4948 0.6035 0 1
4.4095 0.7404 -1.5022 0.6005 0 1
4.4014 0.9224 -1.5109 0.5971 0 1
4.3853 1.1048 -1.5194 0.5849 0 1
4.3642 1.2882 -1.5288 0.5813 0 1
4.3390 1.4729 -1.5395 0.5773 0 1
4.3098 1.6591 -1.5516 0.5728 0 1
4.2764 1.8470 -1.5651 0.5679 0 1
4.2386 2.0366 -1.5800 0.5625 0 1
4.1965 2.2284 -1.5964 0.5563 0 1
4.1498 2.4224 -1.6144 0.5501 0 1
4.0983 2.6188 -1.6341 0.5435 0 1
4.0418 2.8178 -1.6554 0.5365 0 1
3.9804 3.0199 -1.6787 0.5291 0 1
3.9136 3.2252 -1.7039 0.5213 0 1
3.8409 3.4338 -1.7310 0.5131 0 1
3.7621 3.6459 -1.7602 0.5046 0 1
3.6769 3.8619 -1.7916 0.4958 0 1
3.5848 4.0820 -1.8252 0.4866 0 1
3.4854 4.3064 -1.8614 0.4772 0 1
3.3752 4.5314 -1.8984 0.4792 0 1
3.2576 4.7620 -1.9385 0.4658 0 1
3.1304 4.9959 -1.9808 0.4559 0 1
2.9940 5.2350 -2.0262 0.4457 0 1
2.8477 5.4794 -2.0748 0.4352 0 1
2.6909 5.7297 -2.1268 0.4246 0 1
2.5228 5.9862 -2.1825 0.4141 0 1
2.3422 6.2488 -2.2421 0.4031 0 1
2.1486 6.5185 -2.3060 0.3919 0 1
1.9383 6.7873 -2.3716 0.4036 0 1
1.7114 7.0561 -2.4395 0.3924 0 1
1.4707 7.3409 -2.5154 0.3600 0 1
1.2166 7.6603 -2.6060 0.3475 0 1
0.9416 7.9915 -2.7036 0.3343 0 1
0.6423 8.3185 -2.8032 0.3225 0 1
0.3189 8.6551 -2.9099 0.3131 0 1
-0.0305 9.0010 -3.0242 0.3013 0 1
-0.4076 9.3408 -3.1413 0.3083 0 1
-0.8149 9.6968 -3.2694 0.2819 0 1
-1.2590 10.0959 -3.4183 0.2733 0 1
-1.7378 10.4829 -3.5701 0.2616 0 1
-2.2599 10.8960 -3.7388 0.2430 0 1
-2.8217 11.2987 -3.9127 0.2314 0 24
-3.4583 11.8061 -4.1333 0.2175 0 1
-4.1473 12.3012 -4.3616 0.2061 0 1
-4.8868 12.7732 -4.5949 0.1939 0 24
-5.7405 13.3674 -4.8878 0.1866 0 1
-6.6475 13.9085 -5.1793 0.1760 0 1
-7.6144 14.4116 -5.4763 0.1678 0 24
-8.7485 15.0588 -5.8513 0.1576 0 1
-10.0023 15.7251 -6.2616 0.1412 0 1
-11.4623 16.5143 -6.7541 0.1216 0 1
-13.1565 17.4158 -7.3334 0.1099 0 1
-15.0611 18.3531 -7.9768 0.1162 0 1
-16.7536 18.8185 -8.4653 0.7031 0 2
-18.9203 19.6045 -9.1540 0.0927 0 2
-17.4085 16.6434 -8.0919 0.7009 0 6
-22.3654 19.7234 -10.0189 0.7695 0 5
-22.4363 18.2358 -9.7141 0.8065 0 5
-22.5431 16.8637 -9.4588 0.7832 0 5
-27.7695 19.0813 -11.3204 0.8383 0 3
-28.0078 17.6303 -11.1193 0.9416 0 3
-32.4098 18.6252 -12.5591 0.8773 0 3
-37.2671 19.4664 -14.1263 0.8949 0 3
-29.0215 13.7033 -10.7830 0.4088 0 5
-32.2847 13.6847 -11.7813 0.4285 0 5
-42.1208 15.8879 -15.1251 0.5177 0 3
-41.4206 13.7480 -14.6631 0.2910 0 5
-24.9229 -17.2222 -10.1784 0.5332 0 20
-33.0043 -24.8251 -13.8756 0.0612 0 2
-28.4959 -23.2858 -12.3642 0.0687 0 2
-24.7091 -21.9062 -11.0946 0.0765 0 2
1.0713 7.5516 -2.6570 0.3521 0 1
0.7940 7.8591 -2.7517 0.3393 0 1
0.4946 8.1700 -2.8513 0.3274 0 1
0.1719 8.4890 -2.9578 0.3182 0 1
-0.1761 8.8156 -3.0716 0.3064 0 1
-0.5513 9.1474 -3.1924 0.3134 0 1
-0.9552 9.4793 -3.3189 0.2868 0 1
-1.3938 9.8442 -3.4635 0.2786 0 1
-1.8659 10.2033 -3.6134 0.2670 0 1
-2.3783 10.5810 -3.7780 0.2484 0 1
-2.9279 10.9482 -3.9479 0.2373 0 24
-3.5484 11.4086 -4.1621 0.2270 0 1
-4.2165 11.8532 -4.3827 0.2108 0 1
-4.9305 12.2734 -4.6077 0.2000 0 24
-5.7322 12.7601 -4.8731 0.1880 0 24
-6.6174 13.2750 -5.1672 0.1822 0 1
-7.5680 13.7659 -5.4724 0.1720 0 1
-8.6122 14.2737 -5.8074 0.1641 0 1
-9.7696 14.8109 -6.1809 0.1477 0 1
-11.0848 15.4180 -6.6151 0.1296 0 1
-12.6114 16.1308 -7.1329 0.1167 0 1
-14.3319 16.8854 -7.7154 0.1097 0 24
-16.5577 17.9886 -8.5170 0.1206 0 2
-17.7925 17.8342 -8.7759 0.0999 0 2
-20.1873 18.6691 -9.5787 0.0915 0 2
-22.9300 19.5549 -10.4982 0.0835 0 25
-22.4048 17.6012 -9.9254 0.8005 0 5
-24.9332 18.0145 -10.7156 0.8812 0 21
-27.6807 18.3520 -11.5697 0.8473 0 3
-26.8827 16.3059 -10.9530 0.9960 0 3
-32.1133 17.7528 -12.7826 0.4628 0 3
-35.3596 17.7299 -13.7797 0.4294 0 3
-30.2577 13.6780 -11.5676 0.3121 0 5
-43.6861 17.6686 -16.4161 0.3604 0 3
-43.6778 13.6973 -15.9463 0.4618 0 5
-33.0037 -4.6030 -11.6085 0.9922 0 20
-25.5646 -4.6203 -9.0500 0.9867 0 20
-39.5334 -23.7411 -16.0644 0.0546 0 2
-34.4884 -22.6468 -14.3731 0.0610 0 2
-24.6644 -17.6551 -10.5665 0.5525 0 20
-26.4616 -20.5999 -11.6822 0.0751 0 2
-23.2550 -19.6553 -10.6072 0.0827 0 2
-20.4703 -18.7638 -9.6736 0.0906 0 2
-18.8067 -18.6851 -9.2353 0.0685 0 1
-16.0467 -17.2796 -8.2148 0.0902 0 1
-14.1096 -16.4756 -7.5565 0.1199 0 1
-12.4742 -15.8109 -7.0157 0.1289 0 1
-11.0024 -15.1617 -6.5259 0.1367 0 1
-9.6909 -14.5514 -6.0904 0.1517 0 1
-8.5265 -13.9917 -5.7079 0.1619 0 1
-7.4733 -13.4525 -5.3609 0.1706 0 1
-6.5243 -12.9447 -5.0498 0.1872 0 1
-5.6689 -12.4716 -4.7724 0.1981 0 1
-4.8898 -12.0183 -4.5200 0.2098 0 1
-4.1619 -11.5383 -4.2730 0.2206 0 24
-3.5255 -11.1609 -4.0774 0.2310 0 1
-2.9290 -10.7614 -3.8852 0.2438 0 1
-2.3783 -10.3669 -3.7053 0.2499 0 1
-1.8720 -9.9874 -3.5398 0.2658 0 1
-1.4000 -9.5831 -3.3738 0.2734 0 24
-0.9749 -9.2647 -3.2453 0.2856 0 1
-0.5771 -8.9187 -3.1134 0.2977 0 1
-0.2095 -8.5852 -2.9916 0.3098 0 1
0.1308 -8.2633 -2.8790 0.3219 0 1
0.4462 -7.9523 -2.7746 0.3341 0 1
0.7393 -7.6551 -2.6792 0.3511 0 1
1.0119 -7.3673 -2.5906 0.3630 0 1
1.2656 -7.0869 -2.5079 0.3752 0 1
1.5018 -6.8133 -2.4305 0.3871 0 1
1.7219 -6.5474 -2.3584 0.3989 0 1
1.9209 -6.2674 -2.2836 0.4076 0 24
2.1187 -6.0350 -2.2282 0.4212 0 1
2.2975 -5.7883 -2.1695 0.4326 0 1
2.4645 -5.5475 -2.1147 0.4435 0 1
2.6207 -5.3123 -2.0635 0.4545 0 1
2.7662 -5.0814 -2.0155 0.4489 0 1
2.8935 -4.8410 -1.9647 0.4605 0 1
3.0116 -4.6072 -1.9174 0.4719 0 1
3.1211 -4.3794 -1.8734 0.4829 0 1
3.2226 -4.1573 -1.8324 0.4938 0 1
3.3166 -3.9405 -1.7942 0.5043 0 1
3.4100 -3.7357 -1.7620 0.5265 0 1
3.4998 -3.5372 -1.7334 0.5352 0 1
3.5835 -3.3417 -1.7069 0.5435 0 1
3.6615 -3.1488 -1.6823 0.5514 0 1
3.7340 -2.9585 -1.6596 0.5590 0 1
3.8013 -2.7705 -1.6386 0.5661 0 1
3.8636 -2.5847 -1.6193 0.5729 0 1
3.9220 -2.4012 -1.6020 0.5791 0 1
3.9760 -2.2196 -1.5863 0.5849 0 1
4.0256 -2.0394 -1.5720 0.5903 0 1
4.0709 -1.8606 -1.5593 0.5951 0 1
4.1122 -1.6830 -1.5479 0.5995 0 1
4.1495 -1.5065 -1.5378 0.6066 0 1
4.1835 -1.3310 -1.5294 0.6099 0 1
4.2139 -1.1563 -1.5222 0.6128 0 1
4.2405 -0.9821 -1.5163 0.6152 0 1
4.2634 -0.8083 -1.5117 0.6171 0 1
4.2828 -0.6348 -1.5083 0.6185 0 1
4.2987 -0.4613 -1.5061 0.6194 0 1
4.3110 -0.2879 -1.5051 0.6198 0 1
4.3198 -0.1144 -1.5054 0.6197 0 1
4.3284 0.0595 -1.5080 0.6179 0 1
4.3336 0.2342 -1.5119 0.6163 0 1
4.3354 0.4096 -1.5170 0.6143 0 1
4.3335 0.5861 -1.5234 0.6117 0 1
4.3281 0.7637 -1.5310 0.6086 0 1
4.3173 0.9422 -1.5394 0.5963 0 1
4.2992 1.1211 -1.5478 0.5931 0 1
4.2771 1.3012 -1.5574 0.5894 0 1
4.2511 1.4825 -1.5684 0.5853 0 1
4.2209 1.6652 -1.5807 0.5808 0 1
4.1866 1.8495 -1.5944 0.5758 0 1
4.1479 2.0356 -1.6096 0.5703 0 1
4.1048 2.2235 -1.6263 0.5641 0 1
4.0572 2.4136 -1.6446 0.5578 0 1
4.0047 2.6060 -1.6644 0.5512 0 1
3.9472 2.8008 -1.6861 0.5441 0 1
3.8850 2.9986 -1.7096 0.5366 0 1
3.8172 3.1993 -1.7350 0.5288 0 1
3.7436 3.4030 -1.7624 0.5206 0 1
3.6638 3.6101 -1.7918 0.5120 0 1
3.5777 3.8207 -1.8234 0.5032 0 1
3.4847 4.0351 -1.8573 0.4940 0 1
3.3845 4.2535 -1.8936 0.4845 0 1
3.2752 4.4742 -1.9316 0.4864 0 1
3.1562 4.6969 -1.9713 0.4732 0 1
3.0286 4.9237 -2.0137 0.4632 0 1
2.8919 5.1552 -2.0592 0.4530 0 1
2.7456 5.3917 -2.1077 0.4425 0 1
2.5888 5.6333 -2.1597 0.4319 0 1
2.4210 5.8804 -2.2153 0.4214 0 1
2.2410 6.1331 -2.2747 0.4104 0 1
2.0482 6.3919 -2.3382 0.3993 0 1
1.8416 6.6571 -2.4062 0.4109 0 1
1.6165 6.9147 -2.4738 0.3997 0 1
1.3773 7.1834 -2.5480 0.3671 0 1
1.1256 7.4876 -2.6377 0.3546 0 1
0.8531 7.7962 -2.7321 0.3417 0 1
0.5582 8.1051 -2.8302 0.3299 0 1
0.2405 8.4229 -2.9354 0.3206 0 1
-0.1022 8.7474 -3.0475 0.3088 0 1
-0.4718 9.0809 -3.1677 0.3158 0 1
-0.8692 9.4073 -3.2911 0.3040 0 1
-1.3009 9.7716 -3.4341 0.2810 0 1
-1.7655 10.1283 -3.5815 0.2694 0 1
-2.2686 10.4992 -3.7419 0.2507 0 1
-2.8092 10.8645 -3.9092 0.2401 0 24
-3.4186 11.3216 -4.1199 0.2277 0 1
-4.0737 11.7599 -4.3355 0.2131 0 1
-4.7746 12.1763 -4.5562 0.2026 0 24
-5.5605 12.6576 -4.8161 0.1906 0 24
-6.4322 13.1759 -5.1077 0.1844 0 1
-7.3646 13.6632 -5.4071 0.1741 0 1
-8.3886 14.1675 -5.7357 0.1661 0 1
-9.5170 14.6916 -6.0980 0.1497 0 1
-10.7985 15.2856 -6.5196 0.1391 0 1
-12.2789 15.9769 -7.0196 0.1208 0 1
-14.0002 16.7747 -7.6115 0.1097 0 1
-15.8698 17.5308 -8.2377 0.1092 0 1
-17.3369 17.6682 -8.6232 0.1017 0 2
-17.4033 16.3644 -8.3219 0.1965 0 6
-22.3330 19.3680 -10.2981 0.0851 0 2
-22.3828 17.8861 -9.9811 0.8159 0 5
-24.8083 18.2393 -10.7266 0.4353 0 21
-27.6638 18.6728 -11.6269 0.8431 0 3
-28.7660 17.7763 -11.7800 0.5022 0 3
-31.5011 17.7571 -12.5972 0.4697 0 3
-34.6494 17.7349 -13.5598 0.4363 0 3
-29.6766 13.7128 -11.3885 0.5450 0 5
-33.0313 13.6792 -12.4545 0.3839 0 5
-26.2728 8.4791 -9.6172 0.5140 0 6
-34.3329 -4.4984 -12.0625 0.1160 0 20
-25.5700 -4.4026 -9.0387 0.9880 0 20
-40.6776 -23.9714 -16.4480 0.0533 0 2
-35.4644 -22.8690 -14.7003 0.0596 0 2
-24.6748 -17.3548 -10.5089 0.8406 0 20
-27.1825 -20.8013 -11.9238 0.0735 0 2
-23.8792 -19.8457 -10.8164 0.0811 0 2
-21.0134 -18.9433 -9.8557 0.0890 0 2
-19.4791 -19.0347 -9.4877 0.9908 0 2
-16.5022 -17.4772 -8.3735 0.0884 0 1
-14.4755 -16.6218 -7.6784 0.1161 0 1
-12.7956 -15.9446 -7.1219 0.1270 0 1
-11.2928 -15.2935 -6.6227 0.1347 0 1
-9.9466 -14.6702 -6.1745 0.1497 0 1
-8.7568 -14.1050 -5.7835 0.1598 0 1
-7.6830 -13.5639 -5.4305 0.1684 0 1
-6.6941 -13.0120 -5.0976 0.1816 0 24
-5.8388 -12.5675 -4.8274 0.1959 0 1
-5.0446 -12.1102 -4.5701 0.2075 0 1
-4.3031 -11.6266 -4.3188 0.2182 0 24
-3.6554 -11.2466 -4.1196 0.2286 0 1
-3.0477 -10.8420 -3.9233 0.2415 0 1
-2.4882 -10.4476 -3.7413 0.2475 0 1
-1.9658 -10.0275 -3.5597 0.2605 0 24
-1.4990 -9.6980 -3.4185 0.2714 0 1
-1.0609 -9.3376 -3.2738 0.2831 0 1
-0.6565 -8.9889 -3.1397 0.2952 0 1
-0.2829 -8.6530 -3.0160 0.3073 0 1
0.0628 -8.3288 -2.9015 0.3194 0 1
0.3831 -8.0156 -2.7955 0.3316 0 1
0.6806 -7.7156 -2.6982 0.3486 0 1
0.9573 -7.4260 -2.6083 0.3606 0 1
1.2148 -7.1443 -2.5245 0.3727 0 1
1.4544 -6.8691 -2.4460 0.3846 0 1
1.6778 -6.6016 -2.3729 0.3965 0 1
1.8799 -6.3205 -2.2972 0.4056 0 24
2.0803 -6.0867 -2.2408 0.4188 0 1
2.2616 -5.8387 -2.1812 0.4302 0 1
2.4310 -5.5967 -2.1257 0.4412 0 1
2.5893 -5.3604 -2.0738 0.4522 0 1
2.7374 -5.1293 -2.0254 0.4630 0 1
2.8681 -4.8900 -1.9749 0.4581 0 1
2.9880 -4.6549 -1.9269 0.4695 0 1
3.0992 -4.4259 -1.8822 0.4807 0 1
3.2023 -4.2027 -1.8406 0.4916 0 1
3.2978 -3.9848 -1.8019 0.5021 0 1
3.3907 -3.7770 -1.7682 0.5246 0 1
3.4818 -3.5779 -1.7392 0.5334 0 1
3.5667 -3.3818 -1.7122 0.5418 0 1
3.6458 -3.1884 -1.6872 0.5498 0 1
3.7195 -2.9976 -1.6641 0.5574 0 1
3.7878 -2.8091 -1.6428 0.5647 0 1
3.8512 -2.6228 -1.6232 0.5715 0 1
3.9103 -2.4389 -1.6054 0.5779 0 1
3.9652 -2.2569 -1.5894 0.5837 0 1
4.0157 -2.0764 -1.5749 0.5892 0 1
4.0619 -1.8974 -1.5618 0.5941 0 1
4.1040 -1.7196 -1.5501 0.5986 0 1
4.1421 -1.5428 -1.5398 0.6026 0 1
4.1768 -1.3671 -1.5310 0.6093 0 1
4.2079 -1.1923 -1.5236 0.6123 0 1
4.2353 -1.0180 -1.5174 0.6147 0 1
4.2590 -0.8441 -1.5125 0.6167 0 1
4.2791 -0.6705 -1.5089 0.6182 0 1
4.2957 -0.4971 -1.5064 0.6192 0 1
4.3087 -0.3237 -1.5052 0.6197 0 1
4.3182 -0.1502 -1.5052 0.6197 0 1
4.3269 0.0236 -1.5073 0.6182 0 1
4.3328 0.1981 -1.5110 0.6167 0 1
4.3353 0.3734 -1.5158 0.6147 0 1
4.3342 0.5496 -1.5220 0.6123 0 1
4.3295 0.7270 -1.5293 0.6093 0 1
4.3206 0.9055 -1.5378 0.5969 0 1
4.3032 1.0842 -1.5459 0.5938 0 1
4.2820 1.2640 -1.5553 0.5902 0 1
4.2568 1.4450 -1.5660 0.5862 0 1
4.2275 1.6274 -1.5780 0.5817 0 1
4.1940 1.8114 -1.5915 0.5768 0 1
4.1562 1.9970 -1.6063 0.5715 0 1
4.1140 2.1846 -1.6227 0.5654 0 1
4.0674 2.3743 -1.6407 0.5592 0 1
4.0159 2.5661 -1.6602 0.5526 0 1
3.9595 2.7604 -1.6814 0.5456 0 1
3.8983 2.9576 -1.7046 0.5382 0 1
3.8316 3.1576 -1.7296 0.5304 0 1
3.7592 3.3607 -1.7566 0.5223 0 1
3.6808 3.5671 -1.7856 0.5138 0 1
3.5960 3.7769 -1.8167 0.5050 0 1
3.5045 3.9905 -1.8501 0.4959 0 1
3.4058 4.2081 -1.8859 0.4865 0 1
3.2986 4.4286 -1.9237 0.4884 0 1
3.1814 4.6506 -1.9629 0.4752 0 1
3.0556 4.8766 -2.0048 0.4653 0 1
2.9209 5.1071 -2.0495 0.4551 0 1
2.7766 5.3425 -2.0975 0.4447 0 1
2.6220 5.5830 -2.1487 0.4341 0 1
2.4566 5.8291 -2.2036 0.4233 0 1
2.2791 6.0805 -2.2621 0.4127 0 1
2.0891 6.3380 -2.3248 0.4016 0 1
1.8854 6.6021 -2.3919 0.3903 0 1
1.6641 6.8611 -2.4594 0.4020 0 1
1.4271 7.1233 -2.5308 0.3907 0 1
1.1791 7.4239 -2.6186 0.3572 0 1
0.9112 7.7337 -2.7128 0.3442 0 1
0.6208 8.0406 -2.8094 0.3323 0 1
0.3080 8.3573 -2.9133 0.3230 0 1
-0.0294 8.6796 -3.0237 0.3113 0 1
-0.3933 9.0127 -3.1427 0.2995 0 1
-0.7848 9.3392 -3.2649 0.3064 0 1
-1.2093 9.6973 -3.4043 0.2796 0 1
-1.6667 10.0538 -3.5501 0.2718 0 1
-2.1612 10.4199 -3.7071 0.2603 0 1
-2.6926 10.7819 -3.8714 0.2433 0 24
-3.2907 11.2337 -4.0778 0.2301 0 1
-3.9203 11.6277 -4.2747 0.2165 0 24
-4.6217 12.0801 -4.5057 0.2051 0 24
-5.4112 12.6005 -4.7772 0.1934 0 1
-6.2505 13.0777 -5.0494 0.1865 0 1
-7.1652 13.5613 -5.3431 0.1762 0 1
-8.1694 14.0621 -5.6654 0.1682 0 1
-9.2744 14.5808 -6.0198 0.1583 0 1
-10.5218 15.1593 -6.4283 0.1410 0 1
-11.9578 15.8291 -6.9108 0.1241 0 1
-13.6254 16.6036 -7.4823 0.1116 0 1
-15.4736 17.3807 -8.1066 0.1109 0 1
-16.8934 17.5043 -8.4745 0.1040 0 2
-17.3083 16.5476 -8.3418 0.7531 0 6
-21.7529 19.1833 -10.1036 0.0868 0 2
-22.3613 18.1748 -10.0383 0.8015 0 5
-22.4457 16.7908 -9.7649 0.8185 0 5
-27.6465 18.9968 -11.6855 0.8389 0 3
-25.3970 15.9869 -10.4543 0.8121 0 21
-30.9065 17.7612 -12.4178 0.4764 0 3
-30.8111 16.0942 -12.1095 0.5360 0 3
-29.0246 13.7048 -11.1815 0.4072 0 5
-32.2488 13.6695 -12.2018 0.3096 0 5
-42.1806 15.9105 -15.7047 0.9882 0 3
-41.2590 13.6944 -15.1441 0.3675 0 5
-26.9593 -4.4118 -9.5165 0.9892 0 20
-36.4723 -23.0930 -15.0382 0.0583 0 2
-24.9241 -17.2230 -10.5539 0.5312 0 20
-27.9256 -21.0050 -12.1730 0.0720 0 2
-24.5219 -20.0384 -11.0319 0.0795 0 2
-21.5721 -19.1251 -10.0430 0.0873 0 2
1.0385 7.3207 -2.6680 0.3617 0 1
0.7687 7.6082 -2.7593 0.3491 0 1
0.4783 7.9000 -2.8558 0.3373 0 1
0.1661 8.2004 -2.9596 0.3281 0 1
-0.1699 8.5048 -3.0694 0.3164 0 1
-0.5315 8.8181 -3.1877 0.3046 0 1
-0.9206 9.1367 -3.3136 0.3115 0 1
-1.3399 9.4633 -3.4488 0.2886 0 1
-1.7907 9.7921 -3.5919 0.2771 0 1
-2.2769 10.1301 -3.7465 0.2657 0 1
-2.8058 10.4915 -3.9187 0.2470 0 1
-3.3810 10.8705 -4.1078 0.2357 0 1
-3.9911 11.2196 -4.2969 0.2224 0 24
-4.6696 11.6241 -4.5202 0.2111 0 24
-5.4299 12.0872 -4.7814 0.1994 0 1
-6.2336 12.5049 -5.0418 0.1927 0 1
-7.1045 12.9228 -5.3212 0.1825 0 1
-8.0565 13.3528 -5.6273 0.1693 0 1
-9.1011 13.7974 -5.9642 0.1656 0 1
-10.2449 14.2497 -6.3328 0.1477 0 1
-11.5372 14.7568 -6.7590 0.1384 0 1
-13.0346 15.3570 -7.2683 0.1180 0 1
-14.7397 16.0135 -7.8534 0.1182 0 1
-16.7060 16.7451 -8.5350 0.7430 0 2
-17.9918 16.6387 -8.8427 0.1023 0 2
-20.2251 17.2481 -9.5914 0.0943 0 2
-22.7389 17.8637 -10.4342 0.0867 0 25
-24.8380 17.9457 -11.0570 0.6965 0 21
-27.5589 18.2712 -11.9312 0.8477 0 3
-27.7975 16.8608 -11.7312 0.9468 0 3
-32.1115 17.7518 -13.2397 0.4611 0 3
-35.3576 17.7289 -14.2723 0.4277 0 3
-30.2694 13.6832 -11.9864 0.4244 0 5
-35.6066 14.4009 -13.8592 0.0819 0 21
-43.6230 13.6801 -16.4966 0.3150 0 5
-32.8796 -4.5857 -11.9790 0.9920 0 20
-25.4680 -4.6028 -9.3386 0.9865 0 20
-41.6312 -20.6450 -16.7677 0.0540 0 2
-36.9595 -20.2193 -15.2016 0.0595 0 2
-32.8174 -19.7079 -13.8129 0.0655 0 2
-29.1508 -19.1418 -12.5837 0.0719 0 2
-24.5132 -17.5468 -10.8778 0.8368 0 20
-23.0337 -17.9313 -10.5330 0.0859 0 2
-21.0720 -17.8102 -9.9556 0.9262 0 2
-18.7719 -17.2070 -9.1887 0.0678 0 1
-16.3316 -16.2260 -8.3071 0.1107 0 1
-14.5100 -15.6248 -7.6941 0.1196 0 1
-12.9069 -15.0712 -7.1599 0.1305 0 1
-11.4689 -14.5368 -6.6814 0.1379 0 1
-10.1714 -14.0165 -6.2490 0.1474 0 1
-9.0235 -13.5493 -5.8741 0.1613 0 1
-7.9465 -13.0400 -5.5102 0.1739 0 24
-7.0207 -12.6378 -5.2166 0.1870 0 1
-6.1570 -12.2159 -4.9361 0.1985 0 1
-5.3668 -11.8068 -4.6798 0.2090 0 1
-4.6422 -11.4099 -4.4448 0.2201 0 1
-3.9757 -11.0220 -4.2280 0.2298 0 1
-3.3627 -10.6456 -4.0284 0.2412 0 1
-2.7985 -10.2821 -3.8451 0.2485 0 1
-2.2773 -9.9267 -3.6749 0.2641 0 1
-1.7889 -9.5440 -3.5038 0.2721 0 24
-1.3507 -9.2456 -3.3715 0.2840 0 1
-0.9382 -8.9162 -3.2350 0.2956 0 1
-0.5562 -8.5963 -3.1083 0.3077 0 1
-0.2022 -8.2866 -2.9910 0.3197 0 1
0.1264 -7.9864 -2.8821 0.3318 0 1
0.4320 -7.6984 -2.7822 0.3489 0 1
0.7165 -7.4192 -2.6896 0.3608 0 1
0.9818 -7.1476 -2.6033 0.3727 0 1
1.2291 -6.8824 -2.5227 0.3848 0 1
1.4597 -6.6226 -2.4470 0.3967 0 1
1.6751 -6.3694 -2.3765 0.4085 0 1
1.8698 -6.1008 -2.3024 0.4164 0 24
2.0640 -5.8795 -2.2485 0.4306 0 1
2.2397 -5.6429 -2.1907 0.4417 0 1
2.4041 -5.4116 -2.1367 0.4529 0 1
2.5580 -5.1852 -2.0863 0.4638 0 1
2.6996 -4.9591 -2.0374 0.4582 0 1
2.8256 -4.7274 -1.9873 0.4697 0 1
2.9426 -4.5016 -1.9406 0.4810 0 1
3.0512 -4.2813 -1.8970 0.4921 0 1
3.1519 -4.0662 -1.8564 0.5028 0 1
3.2466 -3.8574 -1.8193 0.5343 0 1
3.3401 -3.6591 -1.7877 0.5437 0 1
3.4284 -3.4651 -1.7589 0.5441 0 1
3.5115 -3.2746 -1.7325 0.5524 0 1
3.5890 -3.0865 -1.7081 0.5603 0 1
3.6610 -2.9007 -1.6854 0.5679 0 1
3.7280 -2.7171 -1.6646 0.5750 0 1
3.7900 -2.5354 -1.6453 0.5817 0 1
3.8480 -2.3559 -1.6280 0.5880 0 1
3.9016 -2.1781 -1.6124 0.5938 0 1
3.9510 -2.0016 -1.5982 0.5990 0 1
3.9961 -1.8264 -1.5854 0.6039 0 1
4.0371 -1.6523 -1.5740 0.6082 0 1
4.0747 -1.4793 -1.5642 0.6153 0 1
4.1086 -1.3072 -1.5557 0.6186 0 1
4.1387 -1.1357 -1.5486 0.6215 0 1
4.1651 -0.9646 -1.5427 0.6239 0 1
4.1879 -0.7940 -1.5381 0.6257 0 1
4.2071 -0.6235 -1.5347 0.6271 0 1
4.2228 -0.4532 -1.5325 0.6280 0 1
4.2349 -0.2828 -1.5315 0.6284 0 1
4.2435 -0.1123 -1.5318 0.6283 0 1
4.2518 0.0585 -1.5343 0.6266 0 1
4.2567 0.2300 -1.5382 0.6250 0 1
4.2582 0.4023 -1.5433 0.6229 0 1
4.2561 0.5756 -1.5497 0.6204 0 1
4.2503 0.7500 -1.5574 0.6173 0 1
4.2378 0.9249 -1.5651 0.6052 0 1
4.2195 1.1004 -1.5735 0.6019 0 1
4.1974 1.2769 -1.5831 0.5983 0 1
4.1713 1.4547 -1.5940 0.5942 0 1
4.1411 1.6337 -1.6063 0.5896 0 1
4.1067 1.8142 -1.6200 0.5847 0 1
4.0680 1.9964 -1.6351 0.5793 0 1
4.0249 2.1802 -1.6517 0.5731 0 1
3.9773 2.3661 -1.6699 0.5668 0 1
3.9250 2.5541 -1.6897 0.5602 0 1
3.8677 2.7443 -1.7112 0.5532 0 1
3.8056 2.9373 -1.7347 0.5457 0 1
3.7380 3.1329 -1.7599 0.5379 0 1
3.6648 3.3314 -1.7871 0.5297 0 1
3.5855 3.5328 -1.8163 0.5212 0 1
3.4998 3.7375 -1.8476 0.5123 0 1
3.4075 3.9457 -1.8812 0.5032 0 1
3.3081 4.1574 -1.9171 0.4938 0 1
3.2010 4.3729 -1.9555 0.4922 0 1
3.0832 4.5882 -1.9947 0.4825 0 1
2.9571 4.8075 -2.0366 0.4725 0 1
2.8221 5.0308 -2.0814 0.4624 0 1
2.6778 5.2586 -2.1293 0.4520 0 1
2.5234 5.4909 -2.1805 0.4414 0 1
2.3583 5.7281 -2.2352 0.4306 0 1
2.1815 5.9701 -2.2935 0.4200 0 1
1.9923 6.2175 -2.3559 0.4088 0 1
1.7900 6.4706 -2.4225 0.3976 0 1
1.5725 6.7263 -2.4925 0.4092 0 1
1.3377 6.9770 -2.5634 0.3979 0 1
1.0914 7.2602 -2.6492 0.3643 0 1
0.8260 7.5490 -2.7402 0.3515 0 1
0.5399 7.8392 -2.8354 0.3397 0 1
0.2323 8.1377 -2.9376 0.3279 0 1
-0.0986 8.4413 -3.0461 0.3188 0 1
-0.4547 8.7528 -3.1626 0.3070 0 1
-0.8383 9.0732 -3.2879 0.3139 0 1
-1.2510 9.3966 -3.4206 0.2910 0 1
-1.6949 9.7236 -3.5615 0.2795 0 1
-2.1736 10.0596 -3.7136 0.2681 0 1
-2.6929 10.4149 -3.8817 0.2494 0 1
-3.2585 10.7913 -4.0676 0.2380 0 1
-3.8583 11.1380 -4.2533 0.2250 0 24
-4.5404 11.5789 -4.4878 0.2124 0 1
-5.2711 11.9989 -4.7290 0.2016 0 1
-6.0631 12.4200 -4.9871 0.1949 0 1
-6.9186 12.8358 -5.2616 0.1846 0 1
-7.8293 13.2229 -5.5449 0.1737 0 24
-8.8792 13.7071 -5.8931 0.1676 0 1
-9.9956 14.1491 -6.2510 0.1507 0 1
-11.2601 14.6512 -6.6676 0.1403 0 1
-12.7055 15.2234 -7.1549 0.1198 0 1
-14.3789 15.8839 -7.7311 0.1114 0 1
-16.4895 16.8046 -8.4953 0.1248 0 2
-17.3808 16.3432 -8.6087 0.6839 0 6
-19.7429 17.1218 -9.4298 0.0959 0 2
-22.1958 17.7366 -10.2521 0.0882 0 2
-24.6306 18.1087 -11.0312 0.4984 0 21
-27.5415 18.5903 -11.9900 0.8435 0 3
-28.7646 17.7754 -12.2012 0.5003 0 3
-31.4994 17.7561 -13.0476 0.4678 0 3
-28.3448 14.5079 -11.4897 0.4381 0 21
-29.6979 13.7226 -11.8048 0.3708 0 5
-33.0321 13.6795 -12.9008 0.3710 0 5
-38.6853 14.2266 -14.8730 0.1667 0 21
-42.5211 13.7229 -16.1224 0.2668 0 5
-34.2206 -4.4837 -12.4536 0.9930 0 20
-25.4769 -4.3865 -9.3282 0.5194 0 20
-37.8777 -20.3153 -15.5094 0.0583 0 2
-33.6308 -19.8187 -14.0856 0.0642 0 2
-29.8705 -19.2618 -12.8250 0.0705 0 2
-24.5337 -17.2556 -10.8230 0.8410 0 20
-23.5980 -18.0583 -10.7221 0.0844 0 2
-21.2871 -17.6915 -9.9876 0.9232 0 2
-19.3667 -17.4589 -9.4086 0.0693 0 1
-16.7444 -16.3624 -8.4478 0.0926 0 1
-14.8682 -15.7466 -7.8146 0.1177 0 1
-13.2233 -15.1839 -7.2653 0.1287 0 1
-11.7537 -14.6462 -6.7762 0.1360 0 1
-10.4281 -14.1224 -6.3346 0.1454 0 1
-9.2507 -13.6438 -5.9481 0.1593 0 1
-8.1839 -13.1822 -5.5987 0.1703 0 1
-7.2088 -12.7267 -5.2778 0.1848 0 1
-6.3287 -12.3016 -4.9918 0.1963 0 1
-5.5241 -11.8903 -4.7309 0.2068 0 1
-4.7865 -11.4907 -4.4916 0.2178 0 1
-4.1087 -11.1012 -4.2713 0.2275 0 1
-3.4850 -10.7222 -4.0682 0.2389 0 1
-2.9115 -10.3576 -3.8823 0.2461 0 1
-2.3813 -9.9987 -3.7088 0.2617 0 1
-1.8925 -9.6539 -3.5498 0.2734 0 1
-1.4398 -9.3147 -3.4010 0.2815 0 1
-1.0207 -8.9834 -3.2624 0.2932 0 1
-0.6326 -8.6614 -3.1337 0.3052 0 1
-0.2730 -8.3496 -3.0145 0.3172 0 1
0.0607 -8.0475 -2.9039 0.3293 0 1
0.3708 -7.7569 -2.8022 0.3464 0 1
0.6595 -7.4762 -2.7082 0.3584 0 1
0.9286 -7.2030 -2.6206 0.3703 0 1
1.1795 -6.9368 -2.5390 0.3823 0 1
1.4135 -6.6756 -2.4622 0.3942 0 1
1.6319 -6.4211 -2.3906 0.4060 0 1
1.8297 -6.1516 -2.3158 0.4160 0 24
2.0185 -5.9060 -2.2521 0.4253 0 24
2.2045 -5.6913 -2.2023 0.4394 0 1
2.3711 -5.4588 -2.1475 0.4506 0 1
2.5271 -5.2315 -2.0964 0.4616 0 1
2.6725 -5.0077 -2.0482 0.4558 0 1
2.8004 -4.7746 -1.9973 0.4674 0 1
2.9192 -4.5476 -1.9499 0.4787 0 1
3.0295 -4.3263 -1.9058 0.4898 0 1
3.1318 -4.1101 -1.8646 0.5007 0 1
3.2267 -3.8989 -1.8261 0.5112 0 1
3.3214 -3.6997 -1.7940 0.5418 0 1
3.4106 -3.5047 -1.7646 0.5424 0 1
3.4949 -3.3136 -1.7378 0.5508 0 1
3.5735 -3.1251 -1.7130 0.5587 0 1
3.6466 -2.9389 -1.6900 0.5663 0 1
3.7146 -2.7548 -1.6687 0.5736 0 1
3.7776 -2.5727 -1.6492 0.5804 0 1
3.8363 -2.3927 -1.6315 0.5867 0 1
3.8909 -2.2146 -1.6155 0.5925 0 1
3.9411 -2.0379 -1.6010 0.5980 0 1
3.9871 -1.8625 -1.5879 0.6029 0 1
4.0290 -1.6881 -1.5763 0.6074 0 1
4.0672 -1.5149 -1.5661 0.6145 0 1
4.1019 -1.3426 -1.5574 0.6180 0 1
4.1328 -1.1710 -1.5500 0.6209 0 1
4.1599 -0.9999 -1.5438 0.6234 0 1
4.1835 -0.8291 -1.5389 0.6254 0 1
4.2034 -0.6587 -1.5353 0.6269 0 1
4.2198 -0.4883 -1.5328 0.6279 0 1
4.2327 -0.3180 -1.5316 0.6284 0 1
4.2420 -0.1475 -1.5316 0.6284 0 1
4.2503 0.0232 -1.5337 0.6269 0 1
4.2560 0.1946 -1.5373 0.6254 0 1
4.2582 0.3667 -1.5422 0.6234 0 1
4.2568 0.5398 -1.5483 0.6209 0 1
4.2518 0.7139 -1.5557 0.6180 0 1
4.2411 0.8888 -1.5636 0.6058 0 1
4.2236 1.0641 -1.5717 0.6026 0 1
4.2023 1.2404 -1.5810 0.5991 0 1
4.1770 1.4179 -1.5917 0.5951 0 1
4.1476 1.5967 -1.6037 0.5906 0 1
4.1141 1.7769 -1.6171 0.5857 0 1
4.0763 1.9587 -1.6319 0.5804 0 1
4.0341 2.1422 -1.6482 0.5743 0 1
3.9875 2.3276 -1.6660 0.5681 0 1
3.9362 2.5152 -1.6855 0.5616 0 1
3.8798 2.7049 -1.7066 0.5547 0 1
3.8188 2.8973 -1.7297 0.5473 0 1
3.7524 3.0924 -1.7545 0.5395 0 1
3.6803 3.2902 -1.7813 0.5314 0 1
3.6023 3.4910 -1.8101 0.5230 0 1
3.5180 3.6951 -1.8410 0.5142 0 1
3.4271 3.9025 -1.8741 0.5051 0 1
3.3292 4.1135 -1.9095 0.4957 0 1
3.2243 4.3289 -1.9477 0.4936 0 1
3.1082 4.5435 -1.9864 0.4845 0 1
2.9838 4.7620 -2.0277 0.4746 0 1
2.8507 4.9844 -2.0719 0.4645 0 1
2.7084 5.2112 -2.1192 0.4541 0 1
2.5561 5.4426 -2.1697 0.4436 0 1
2.3932 5.6788 -2.2236 0.4328 0 1
2.2189 5.9198 -2.2812 0.4222 0 1
2.0324 6.1660 -2.3427 0.4111 0 1
1.8328 6.4179 -2.4084 0.3999 0 1
1.6190 6.6752 -2.4785 0.4116 0 1
1.3874 6.9249 -2.5484 0.4003 0 1
1.1435 7.2001 -2.6306 0.3669 0 1
0.8825 7.4902 -2.7214 0.3540 0 1
0.6006 7.7787 -2.8152 0.3422 0 1
0.2976 8.0755 -2.9159 0.3304 0 1
-0.0284 8.3782 -3.0232 0.3212 0 1
-0.3792 8.6878 -3.1379 0.3095 0 1
-0.7569 9.0065 -3.2613 0.2977 0 1
-1.1629 9.3256 -3.3911 0.2896 0 1
-1.6007 9.6555 -3.5316 0.2819 0 1
-2.0719 9.9896 -3.6813 0.2704 0 1
-2.5820 10.3388 -3.8452 0.2518 0 1
-3.1380 10.7127 -4.0280 0.2403 0 1
-3.7276 11.0564 -4.2102 0.2268 0 24
-4.3975 11.4942 -4.4407 0.2157 0 1
-5.1151 11.9111 -4.6775 0.2038 0 1
-5.8790 12.3006 -4.9194 0.1924 0 24
-6.7361 12.7492 -5.2030 0.1868 0 1
-7.6295 13.1327 -5.4804 0.1738 0 24
-8.6615 13.6172 -5.8233 0.1696 0 1
-9.7568 14.0571 -6.1744 0.1592 0 1
-10.9886 14.5461 -6.5781 0.1422 0 1
-12.3870 15.0945 -7.0458 0.1255 0 1
-14.0176 15.7453 -7.6068 0.1127 0 1
-16.1424 16.7261 -8.3877 0.0980 0 1
-17.1440 16.3905 -8.5585 0.1057 0 2
-19.2723 16.9957 -9.2720 0.0976 0 2
-21.6659 17.6096 -10.0744 0.0898 0 2
-24.3631 18.2252 -10.9787 0.0824 0 25
-24.1092 16.5662 -10.5552 0.3131 0 21
-25.9430 16.3306 -11.0614 0.7439 0 3
-27.8423 16.0003 -11.5873 0.9937 0 3
-27.7795 14.5106 -11.3090 0.4451 0 21
-29.0278 13.7063 -11.5832 0.4056 0 5
-32.3119 13.6962 -12.6635 0.3975 0 5
-41.3611 13.7283 -15.7252 0.3177 0 5
-26.8622 -4.3959 -9.8218 0.5127 0 20
-38.8189 -20.4073 -15.8249 0.0572 0 2
-29.3665 -16.9793 -12.2402 0.7789 0 6
-30.6085 -19.3802 -13.0724 0.0692 0 2
-24.8633 -17.1810 -10.9052 0.5291 0 20
-23.7341 -17.8523 -10.7164 0.8244 15 6
-21.5179 -17.5836 -10.0271 0.6943 0 2
-19.9817 -17.7151 -9.6357 0.0677 0 1
1.0074 7.1017 -2.6784 0.3714 0 1
0.7447 7.3710 -2.7664 0.3589 0 1
0.4629 7.6454 -2.8601 0.3471 0 1
0.1605 7.9268 -2.9606 0.3353 0 1
-0.1641 8.2129 -3.0674 0.3263 0 1
-0.5126 8.5042 -3.1813 0.3146 0 1
-0.8870 8.8029 -3.3037 0.3029 0 1
-1.2896 9.1081 -3.4350 0.2987 0 1
-1.7208 9.4099 -3.5720 0.2872 0 1
-2.1844 9.7183 -3.7195 0.2758 0 1
-2.6837 10.0351 -3.8789 0.2572 0 1
-3.2272 10.3759 -4.0575 0.2459 0 1
-3.7992 10.6802 -4.2329 0.2333 0 24
-4.4488 11.0742 -4.4564 0.2215 0 1
-5.1403 11.4425 -4.6841 0.2108 0 1
-5.8719 11.7794 -4.9148 0.1987 0 24
-6.6893 12.1675 -5.1848 0.1872 0 24
-7.5334 12.4858 -5.4452 0.1790 0 24
-8.4835 12.8611 -5.7532 0.1730 0 24
-9.5484 13.2811 -6.1080 0.1666 0 1
-10.6780 13.6578 -6.4737 0.1545 0 1
-11.9296 14.0552 -6.8840 0.1400 0 1
-13.3760 14.5320 -7.3752 0.1197 0 1
-15.3530 15.3890 -8.1172 0.0534 0 1
-16.7574 15.4971 -8.5230 0.8194 0 2
-18.0757 15.4151 -8.8708 0.1051 0 2
-20.1344 15.8176 -9.5610 0.0975 0 2
-22.4107 16.1920 -10.3241 0.0903 0 2
-24.9253 16.5252 -11.1671 0.0835 0 25
-27.6982 16.8006 -12.0967 0.0771 0 25
-30.7466 16.9973 -13.1187 0.0711 0 25
-32.0923 16.0916 -13.4057 0.3221 0 3
-30.3381 13.7143 -12.4323 0.4057 0 5
-41.6142 16.8307 -16.7620 0.0556 0 25
-43.5300 13.6509 -17.0351 0.2489 0 5
-32.7555 -4.5684 -12.3496 0.9918 0 20
-25.3713 -4.5853 -9.6274 0.9863 0 20
-42.0588 -16.7948 -16.9111 0.0551 0 2
-38.1241 -17.0316 -15.5920 0.0598 0 2
-34.4664 -17.0920 -14.3657 0.0649 0 2
-31.0986 -17.0130 -13.2367 0.0704 0 2
-28.0192 -16.8264 -12.2043 0.0764 0 2
-25.2172 -16.5588 -11.2650 0.0812 0 2
-23.4477 -16.7841 -10.7676 0.7319 0 2
-21.2147 -16.5153 -10.0393 0.0711 0 1
-18.6565 -15.7687 -9.1216 0.0914 0 1
-16.5696 -15.1882 -8.3933 0.1129 0 1
-14.8304 -14.7345 -7.8064 0.1214 0 1
-13.2804 -14.3008 -7.2876 0.1312 0 1
-11.8787 -13.8706 -6.8192 0.1394 0 1
-10.6059 -13.4429 -6.3939 0.1485 0 1
-9.4661 -13.0446 -6.0184 0.1622 0 1
-8.4353 -12.6661 -5.6825 0.1718 0 1
-7.4911 -12.2927 -5.3754 0.1879 0 1
-6.6241 -11.9239 -5.0935 0.1983 0 1
-5.8063 -11.5201 -4.8172 0.2087 0 24
-5.0931 -11.2048 -4.5960 0.2194 0 1
-4.4159 -10.8537 -4.3755 0.2289 0 1
-3.7906 -10.5087 -4.1715 0.2401 0 1
-3.2131 -10.1719 -3.9833 0.2511 0 1
-2.6789 -9.8427 -3.8091 0.2626 0 1
-2.1845 -9.5220 -3.6480 0.2742 0 1
-1.7255 -9.2058 -3.4974 0.2821 0 1
-1.2994 -8.8943 -3.3565 0.2940 0 1
-0.9039 -8.5904 -3.2255 0.3056 0 1
-0.5367 -8.2941 -3.1036 0.3176 0 1
-0.1953 -8.0059 -2.9904 0.3296 0 1
0.1224 -7.7284 -2.8862 0.3466 0 1
0.4185 -7.4588 -2.7896 0.3586 0 1
0.6949 -7.1957 -2.6995 0.3705 0 1
0.9531 -6.9389 -2.6154 0.3824 0 1
1.1944 -6.6878 -2.5368 0.3944 0 1
1.4197 -6.4408 -2.4628 0.4062 0 1
1.6304 -6.1994 -2.3937 0.4169 0 1
1.8209 -5.9413 -2.3204 0.4267 0 24
2.0034 -5.7066 -2.2584 0.4367 0 24
2.1844 -5.5035 -2.2110 0.4510 0 1
2.3461 -5.2811 -2.1578 0.4622 0 1
2.4977 -5.0630 -2.1081 0.4731 0 1
2.6357 -4.8417 -2.0585 0.4674 0 1
2.7603 -4.6181 -2.0090 0.4789 0 1
2.8761 -4.3999 -1.9629 0.4902 0 1
2.9838 -4.1867 -1.9198 0.5012 0 1
3.0838 -3.9782 -1.8796 0.5119 0 1
3.1804 -3.7787 -1.8443 0.5432 0 1
3.2732 -3.5858 -1.8129 0.5526 0 1
3.3598 -3.3958 -1.7838 0.5616 0 1
3.4419 -3.2096 -1.7573 0.5613 0 1
3.5188 -3.0261 -1.7330 0.5692 0 1
3.5903 -2.8447 -1.7105 0.5767 0 1
3.6568 -2.6653 -1.6897 0.5838 0 1
3.7185 -2.4876 -1.6706 0.5905 0 1
3.7761 -2.3119 -1.6533 0.5967 0 1
3.8295 -2.1378 -1.6377 0.6025 0 1
3.8785 -1.9649 -1.6235 0.6078 0 1
3.9234 -1.7932 -1.6108 0.6126 0 1
3.9645 -1.6226 -1.5996 0.6201 0 1
4.0020 -1.4529 -1.5898 0.6239 0 1
4.0356 -1.2840 -1.5814 0.6273 0 1
4.0656 -1.1156 -1.5742 0.6301 0 1
4.0918 -0.9476 -1.5684 0.6325 0 1
4.1144 -0.7800 -1.5637 0.6343 0 1
4.1334 -0.6126 -1.5603 0.6357 0 1
4.1489 -0.4453 -1.5581 0.6366 0 1
4.1609 -0.2779 -1.5572 0.6370 0 1
4.1694 -0.1104 -1.5574 0.6369 0 1
4.1773 0.0575 -1.5600 0.6352 0 1
4.1820 0.2260 -1.5639 0.6336 0 1
4.1831 0.3952 -1.5690 0.6315 0 1
4.1807 0.5654 -1.5753 0.6290 0 1
4.1748 0.7366 -1.5830 0.6260 0 1
4.1605 0.9080 -1.5901 0.6139 0 1
4.1421 1.0802 -1.5985 0.6107 0 1
4.1200 1.2534 -1.6081 0.6071 0 1
4.0938 1.4276 -1.6190 0.6030 0 1
4.0636 1.6031 -1.6312 0.5984 0 1
4.0292 1.7800 -1.6448 0.5935 0 1
3.9905 1.9583 -1.6599 0.5881 0 1
3.9474 2.1383 -1.6764 0.5823 0 1
3.9000 2.3201 -1.6945 0.5757 0 1
3.8477 2.5038 -1.7142 0.5691 0 1
3.7907 2.6897 -1.7356 0.5621 0 1
3.7288 2.8781 -1.7589 0.5547 0 1
3.6615 3.0688 -1.7840 0.5469 0 1
3.5886 3.2622 -1.8109 0.5387 0 1
3.5098 3.4583 -1.8399 0.5302 0 1
3.4247 3.6573 -1.8709 0.5214 0 1
3.3331 3.8595 -1.9042 0.5123 0 1
3.2349 4.0655 -1.9400 0.5067 0 1
3.1294 4.2751 -1.9784 0.5008 0 1
3.0130 4.4837 -2.0172 0.4917 0 1
2.8883 4.6957 -2.0586 0.4818 0 1
2.7551 4.9114 -2.1028 0.4717 0 1
2.6128 5.1309 -2.1500 0.4613 0 1
2.4607 5.3545 -2.2004 0.4508 0 1
2.2982 5.5823 -2.2542 0.4400 0 1
2.1246 5.8144 -2.3115 0.4295 0 1
1.9285 6.0184 -2.3599 0.4184 0 24
1.7407 6.2926 -2.4380 0.4072 0 1
1.5288 6.5393 -2.5077 0.3959 0 1
1.3010 6.7853 -2.5799 0.4075 0 1
1.0590 7.0445 -2.6600 0.3739 0 1
0.8004 7.3152 -2.7479 0.3613 0 1
0.5226 7.5882 -2.8402 0.3496 0 1
0.2246 7.8682 -2.9393 0.3378 0 1
-0.0953 8.1537 -3.0449 0.3287 0 1
-0.4387 8.4435 -3.1572 0.3170 0 1
-0.8076 8.7407 -3.2778 0.3053 0 1
-1.2042 9.0453 -3.4074 0.2937 0 1
-1.6293 9.3471 -3.5430 0.2896 0 1
-2.0860 9.6542 -3.6882 0.2782 0 1
-2.5774 9.9679 -3.8445 0.2669 0 1
-3.1116 10.3049 -4.0195 0.2482 0 1
-3.6889 10.6489 -4.2082 0.2387 0 1
-4.3131 10.9994 -4.4118 0.2238 0 1
-4.9757 11.3263 -4.6195 0.2128 0 24
-5.7120 11.7008 -4.8620 0.2012 0 24
-6.5149 12.0867 -5.1272 0.1898 0 24
-7.3762 12.4576 -5.4061 0.1852 0 1
-8.3109 12.8297 -5.7081 0.1720 0 1
-9.3296 13.2064 -6.0379 0.1686 0 1
-10.4338 13.5761 -6.3937 0.1540 0 1
-11.6605 13.9714 -6.7954 0.1419 0 1
-13.0606 14.4275 -7.2670 0.1215 0 1
-14.6567 14.9369 -7.8143 0.1130 0 1
-16.7131 15.7154 -8.5665 0.1284 0 2
-17.6765 15.3296 -8.7370 0.1067 0 2
-19.6928 15.7365 -9.4130 0.0990 0 2
-21.9225 16.1176 -10.1604 0.0918 0 2
-24.3864 16.4606 -10.9865 0.0849 0 25
-27.1045 16.7495 -11.8977 0.0784 0 25
-30.0948 16.9643 -12.9002 0.0723 0 25
-28.2335 14.4510 -11.8434 0.4380 0 21
-29.6746 13.7119 -12.2066 0.3899 0 5
-33.0347 13.6806 -13.3515 0.3695 0 5
-38.4362 14.1351 -15.2923 0.1670 0 21
-42.4150 13.6887 -16.6426 0.3087 0 5
-34.0916 -4.4668 -12.8390 0.9927 0 20
-25.7814 -4.4390 -9.7687 0.1523 0 20
-42.9019 -16.7203 -17.1937 0.0542 0 2
-38.9134 -16.9985 -15.8566 0.0588 0 2
-35.1970 -17.0921 -14.6107 0.0638 0 2
-31.7691 -17.0390 -13.4615 0.0693 0 2
-28.6310 -16.8723 -12.4095 0.0751 0 2
-25.7727 -16.6193 -11.4512 0.0814 0 2
-23.7621 -16.7129 -10.8480 0.6884 0 2
-21.8090 -16.6893 -10.2547 0.0549 0 1
-19.1310 -15.8995 -9.2888 0.0758 0 1
-16.9939 -15.3198 -8.5436 0.0943 0 1
-15.1745 -14.8282 -7.9225 0.1196 0 1
-13.5863 -14.3890 -7.3897 0.1294 0 1
-12.1577 -13.9604 -6.9127 0.1375 0 1
-10.8576 -13.5296 -6.4778 0.1466 0 1
-9.6537 -13.0737 -6.0685 0.1604 0 24
-8.6406 -12.7439 -5.7494 0.1698 0 1
-7.6523 -12.3259 -5.4175 0.1860 0 24
-6.7969 -11.9995 -5.1496 0.1961 0 1
-5.9649 -11.5945 -4.8689 0.2065 0 24
-5.2395 -11.2777 -4.6435 0.2171 0 1
-4.5513 -10.9259 -4.4197 0.2266 0 1
-3.9154 -10.5791 -4.2123 0.2378 0 1
-3.3286 -10.2410 -4.0210 0.2505 0 1
-2.7857 -9.9099 -3.8439 0.2603 0 1
-2.2744 -9.5498 -3.6657 0.2696 0 24
-1.8175 -9.2712 -3.5279 0.2797 0 1
-1.3846 -8.9578 -3.3847 0.2915 0 1
-0.9831 -8.6526 -3.2518 0.3031 0 1
-0.6102 -8.3545 -3.1280 0.3151 0 1
-0.2637 -8.0647 -3.0131 0.3271 0 1
0.0587 -7.7848 -2.9070 0.3441 0 1
0.3580 -7.4909 -2.8004 0.3565 0 24
0.6395 -7.2494 -2.7175 0.3680 0 1
0.9013 -6.9914 -2.6323 0.3799 0 1
1.1460 -6.7394 -2.5527 0.3918 0 1
1.3744 -6.4913 -2.4776 0.4038 0 1
1.5881 -6.2488 -2.4076 0.4155 0 1
1.7817 -5.9902 -2.3336 0.4243 0 24
1.9668 -5.7548 -2.2710 0.4343 0 24
2.1497 -5.5499 -2.2224 0.4487 0 1
2.3136 -5.3266 -2.1685 0.4599 0 1
2.4672 -5.1076 -2.1181 0.4708 0 1
2.6088 -4.8885 -2.0691 0.4650 0 1
2.7353 -4.6637 -2.0189 0.4765 0 1
2.8529 -4.4445 -1.9721 0.4879 0 1
2.9622 -4.2303 -1.9284 0.4989 0 1
3.0638 -4.0209 -1.8876 0.5097 0 1
3.1605 -3.8189 -1.8510 0.5412 0 1
3.2546 -3.6253 -1.8192 0.5507 0 1
3.3425 -3.4347 -1.7896 0.5598 0 1
3.4253 -3.2477 -1.7626 0.5597 0 1
3.5034 -3.0638 -1.7379 0.5676 0 1
3.5760 -2.8820 -1.7150 0.5752 0 1
3.6435 -2.7021 -1.6939 0.5824 0 1
3.7062 -2.5241 -1.6744 0.5891 0 1
3.7645 -2.3480 -1.6567 0.5955 0 1
3.8188 -2.1736 -1.6408 0.6014 0 1
3.8688 -2.0005 -1.6263 0.6067 0 1
3.9145 -1.8285 -1.6133 0.6116 0 1
3.9562 -1.6576 -1.6017 0.6193 0 1
3.9946 -1.4878 -1.5917 0.6232 0 1
4.0290 -1.3188 -1.5830 0.6266 0 1
4.0597 -1.1503 -1.5756 0.6296 0 1
4.0867 -0.9822 -1.5695 0.6320 0 1
4.1100 -0.8146 -1.5646 0.6340 0 1
4.1298 -0.6471 -1.5609 0.6355 0 1
4.1460 -0.4798 -1.5585 0.6365 0 1
4.1587 -0.3124 -1.5573 0.6370 0 1
4.1679 -0.1449 -1.5573 0.6370 0 1
4.1759 0.0228 -1.5593 0.6354 0 1
4.1813 0.1912 -1.5630 0.6340 0 1
4.1832 0.3603 -1.5678 0.6320 0 1
4.1815 0.5302 -1.5739 0.6296 0 1
4.1763 0.7012 -1.5813 0.6266 0 1
4.1638 0.8726 -1.5886 0.6145 0 1
4.1462 1.0446 -1.5966 0.6114 0 1
4.1249 1.2176 -1.6060 0.6078 0 1
4.0995 1.3916 -1.6166 0.6038 0 1
4.0702 1.5669 -1.6286 0.5994 0 1
4.0366 1.7434 -1.6419 0.5945 0 1
3.9989 1.9214 -1.6567 0.5892 0 1
3.9567 2.1011 -1.6729 0.5835 0 1
3.9101 2.2825 -1.6906 0.5770 0 1
3.8589 2.4658 -1.7100 0.5705 0 1
3.8028 2.6512 -1.7310 0.5636 0 1
3.7420 2.8390 -1.7539 0.5562 0 1
3.6758 3.0293 -1.7786 0.5485 0 1
3.6041 3.2221 -1.8052 0.5404 0 1
3.5265 3.4176 -1.8338 0.5320 0 1
3.4428 3.6160 -1.8644 0.5233 0 1
3.3525 3.8175 -1.8972 0.5142 0 1
3.2556 4.0226 -1.9324 0.5087 0 1
3.1522 4.2321 -1.9705 0.4989 0 1
3.0376 4.4405 -2.0090 0.4937 0 1
2.9147 4.6517 -2.0498 0.4839 0 1
2.7833 4.8666 -2.0935 0.4738 0 1
2.6429 5.0853 -2.1400 0.4635 0 1
2.4929 5.3080 -2.1898 0.4530 0 1
2.3326 5.5350 -2.2429 0.4422 0 1
2.1613 5.7662 -2.2994 0.4317 0 1
1.9673 5.9686 -2.3467 0.4207 0 24
1.7827 6.2423 -2.4241 0.4095 0 1
1.5736 6.4880 -2.4929 0.3982 0 1
1.3495 6.7357 -2.5652 0.4098 0 1
1.1098 6.9876 -2.6420 0.3765 0 1
0.8554 7.2598 -2.7296 0.3637 0 1
0.5815 7.5314 -2.8207 0.3520 0 1
0.2878 7.8099 -2.9183 0.3402 0 1
-0.0274 8.0948 -3.0227 0.3311 0 1
-0.3659 8.3832 -3.1334 0.3194 0 1
-0.7293 8.6788 -3.2522 0.3077 0 1
-1.1200 8.9819 -3.3799 0.2961 0 1
-1.5392 9.2847 -3.5143 0.2919 0 1
-1.9891 9.5903 -3.6574 0.2805 0 1
-2.4731 9.9027 -3.8113 0.2692 0 1
-2.9979 10.2343 -3.9822 0.2506 0 1
-3.5665 10.5785 -4.1686 0.2410 0 1
-4.1797 10.9249 -4.3679 0.2260 0 1
-4.8314 11.2505 -4.5720 0.2152 0 24
-5.5550 11.6227 -4.8103 0.2035 0 24
-6.3528 12.0237 -5.0780 0.1972 0 1
-7.1940 12.3831 -5.3477 0.1872 0 1
-8.1094 12.7493 -5.6422 0.1740 0 1
-9.1145 13.1317 -5.9689 0.1705 0 1
-10.1931 13.4931 -6.3146 0.1612 0 1
-11.3973 13.8885 -6.7088 0.1491 0 1
-12.7510 14.3225 -7.1606 0.1234 0 1
-14.3137 14.8313 -7.6967 0.1147 0 1
-16.3755 15.6558 -8.4597 0.1300 0 2
-17.2853 15.2435 -8.6059 0.1083 0 2
-19.2603 15.6544 -9.2680 0.1006 0 2
-21.4444 16.0417 -10.0002 0.0932 0 2
-23.8581 16.3937 -10.8094 0.0863 0 25
-26.5223 16.6953 -11.7025 0.0797 0 25
-29.4552 16.9272 -12.6857 0.0735 0 25
-27.6722 14.4546 -11.6579 0.4450 0 21
