ply
format ascii 1.0
element vertex 1372
property float32 x
property float32 y
property float32 z
property float32 CosAngle
property uint32 ObjIdx
property uint32 ObjTag
end_header
3.8138 -0.3911 -0.9649 0.9094 25 14
3.8052 -0.2362 -0.9596 0.9144 25 14
3.7983 -0.0828 -0.9562 0.9928 25 14
3.7986 0.0699 -0.9562 0.9927 25 14
3.8041 0.2231 -0.9591 0.9898 25 14
3.8093 0.3775 -0.9634 0.9853 25 14
3.8144 0.5336 -0.9694 0.9793 25 14
3.8210 0.6920 -0.9773 0.8978 25 14
3.9004 0.8696 -1.0058 0.5944 25 14
5.0267 1.3348 -1.3090 0.5282 0 1
5.0131 1.5494 -1.3206 0.5157 0 1
4.9882 1.7642 -1.3317 0.5115 0 1
4.9592 1.9816 -1.3441 0.5067 0 1
4.9260 2.2018 -1.3580 0.5012 0 1
4.8885 2.4253 -1.3735 0.4956 0 1
4.8464 2.6522 -1.3905 0.4895 0 1
4.7995 2.8830 -1.4091 0.4830 0 1
4.7474 3.1179 -1.4295 0.4761 0 1
4.6900 3.3575 -1.4517 0.4689 0 1
4.6273 3.6025 -1.4759 0.4612 0 1
4.5589 3.8532 -1.5023 0.4531 0 1
4.4842 4.1101 -1.5309 0.4446 0 1
4.4011 4.3721 -1.5613 0.4485 0 1
4.3051 4.6350 -1.5921 0.4398 0 1
4.2015 4.9048 -1.6254 0.4308 0 1
4.0899 5.1823 -1.6616 0.4196 0 1
3.9724 5.4721 -1.7019 0.4096 0 1
3.8453 5.7713 -1.7454 0.3994 0 1
3.7077 6.0810 -1.7925 0.3889 0 1
3.5587 6.4020 -1.8435 0.3781 0 1
3.3890 6.7192 -1.8940 0.4071 0 1
3.2076 7.0507 -1.9495 0.3854 0 1
3.0090 7.3882 -2.0078 0.3653 0 1
2.7937 7.7358 -2.0701 0.3543 0 1
2.5615 8.0975 -2.1375 0.3432 0 1
2.3190 8.5057 -2.2189 0.3128 0 1
2.0574 8.9486 -2.3110 0.3240 0 1
1.7647 9.3890 -2.4044 0.3114 0 1
1.4454 9.8574 -2.5075 0.2963 0 1
1.0960 10.3602 -2.6221 0.2834 0 1
0.7102 10.8776 -2.7435 0.2706 0 1
0.2861 11.4395 -2.8800 0.2589 0 24
-0.1834 12.0712 -3.0385 0.2305 0 1
-0.7042 12.7019 -3.2018 0.2253 0 24
-1.2933 13.4901 -3.4108 0.2062 0 1
-1.9540 14.3029 -3.6332 0.1823 0 1
-2.7078 15.2289 -3.8930 0.1725 0 1
-3.5546 16.1872 -4.1711 0.1602 0 24
-4.5410 17.3239 -4.5074 0.1538 0 1
-5.6589 18.5198 -4.8739 0.1412 0 1
-6.9491 19.8502 -5.2933 0.1319 0 1
-8.4673 21.3891 -5.7898 0.1163 0 1
-10.3309 23.3129 -6.4178 0.1060 0 1
-12.6056 25.6145 -7.1851 0.0994 0 1
-15.2720 28.1205 -8.0539 0.0934 0 1
-15.6955 26.3199 -7.7127 0.6210 0 15
-16.9990 26.0644 -7.8318 0.7820 0 15
-27.6781 38.9252 -12.0210 0.6051 0 3
-26.3225 34.0352 -10.8290 0.9183 0 21
-25.9620 30.9173 -10.1610 0.4152 0 21
-22.8427 25.0827 -8.5385 0.7735 0 5
-22.9741 23.2752 -8.2310 0.7180 0 5
-23.0298 21.5283 -7.9344 0.7260 0 5
-28.2952 24.3954 -9.4028 0.8762 0 3
-28.5170 22.6543 -9.1664 0.7934 0 3
-31.0094 22.6632 -9.6668 0.5777 0 3
-33.2664 22.3188 -10.0824 0.8375 0 3
-28.9550 17.7820 -8.5520 0.5133 0 3
-31.7155 17.7631 -9.1490 0.4798 0 3
-34.8957 17.7413 -9.8526 0.4455 0 3
-38.2455 17.5474 -10.5905 0.8310 0 3
-43.0291 17.6854 -11.7088 0.3749 0 3
-27.1165 9.8911 -7.2646 0.9525 0 22
-27.1217 7.4880 -7.0815 0.9844 0 22
-46.6441 8.9217 -11.9524 0.9619 0 22
-46.6263 6.9894 -11.8662 0.9849 0 22
-30.7074 -16.5498 -8.7795 0.8889 0 22
-30.6057 -18.1186 -8.9516 0.8869 0 22
-24.9899 -17.6490 -7.7000 0.9229 15 6
-33.5429 -32.8975 -11.8248 0.8849 0 20
-31.5905 -33.5776 -11.6032 0.9037 0 20
-30.3466 -34.9707 -11.6534 0.5477 0 20
-28.1057 -35.1476 -11.3265 0.6563 0 20
-27.9146 -37.9391 -11.8548 0.6271 0 20
-23.0356 -34.0982 -10.3568 0.9824 0 9
-19.6305 -31.7365 -9.3921 0.0693 0 2
-16.5391 -29.3095 -8.4702 0.5384 0 2
-13.3061 -25.9658 -7.3433 0.0847 0 1
-10.8483 -23.4458 -6.5020 0.0986 0 1
-8.8555 -21.3508 -5.8175 0.1104 0 1
-7.2182 -19.5934 -5.2553 0.1223 0 1
-5.8611 -18.1238 -4.7940 0.1407 0 1
-4.7289 -16.9169 -4.4209 0.1545 0 1
-3.7549 -15.8661 -4.1035 0.1698 0 1
-2.9074 -14.9407 -3.8309 0.1826 0 1
-2.1613 -14.1098 -3.5926 0.1962 0 1
-1.5009 -13.3690 -3.3859 0.2132 0 1
-0.9102 -12.6895 -3.2019 0.2243 0 1
-0.3782 -12.0355 -3.0306 0.2261 0 1
0.1002 -11.4145 -2.8729 0.2385 0 1
0.5311 -10.8351 -2.7303 0.2500 0 1
0.9204 -10.2946 -2.6013 0.2624 0 1
1.2733 -9.7880 -2.4842 0.2770 0 1
1.5940 -9.3103 -2.3773 0.2894 0 1
1.8797 -8.8296 -2.2721 0.2996 0 24
2.1538 -8.4368 -2.1915 0.3153 0 1
2.3995 -8.0365 -2.1109 0.3274 0 1
2.6256 -7.6568 -2.0372 0.3426 0 1
2.8345 -7.2965 -1.9701 0.3543 0 1
3.0268 -6.9501 -1.9079 0.3649 0 1
3.2042 -6.6177 -1.8505 0.3762 0 1
3.3684 -6.2981 -1.7976 0.3873 0 1
3.5215 -5.9922 -1.7493 0.3945 0 1
3.6611 -5.6928 -1.7035 0.3945 0 1
3.7824 -5.3922 -1.6577 0.4092 0 1
3.8932 -5.1012 -1.6151 0.4095 0 1
3.9941 -4.8187 -1.5752 0.4199 0 1
4.0866 -4.5456 -1.5384 0.4299 0 1
4.1716 -4.2808 -1.5044 0.4396 0 1
4.2495 -4.0238 -1.4729 0.4490 0 1
4.3260 -3.7783 -1.4456 0.4761 0 1
4.4019 -3.5432 -1.4222 0.4839 0 1
4.4722 -3.3126 -1.4007 0.4914 0 1
4.5371 -3.0863 -1.3811 0.4984 0 1
4.5982 -2.8646 -1.3635 0.5048 0 1
4.6544 -2.6461 -1.3475 0.5108 0 1
4.7061 -2.4307 -1.3331 0.5163 0 1
4.7533 -2.2178 -1.3201 0.5215 0 1
4.7964 -2.0074 -1.3086 0.5261 0 1
4.8354 -1.7990 -1.2985 0.5302 0 1
4.8704 -1.5923 -1.2896 0.5338 0 1
4.9016 -1.3871 -1.2821 0.5370 0 1
4.1173 -0.9883 -1.0657 0.9033 25 14
3.8352 -0.7591 -0.9840 0.8918 25 14
3.8257 -0.5986 -0.9746 0.9004 25 14
3.8166 -0.4409 -0.9670 0.9074 25 14
3.8079 -0.2854 -0.9611 0.9130 25 14
3.8000 -0.1316 -0.9570 0.9919 25 14
3.7968 0.0212 -0.9556 0.9934 25 14
3.8023 0.1742 -0.9580 0.9909 25 14
3.8077 0.3281 -0.9619 0.9869 25 14
3.8128 0.4836 -0.9673 0.9814 25 14
3.8188 0.6412 -0.9746 0.9003 25 14
3.8492 0.8066 -0.9898 0.6039 25 14
4.1031 1.0335 -1.0649 0.9039 25 14
5.0179 1.4807 -1.3168 0.5250 0 1
4.9966 1.6955 -1.3280 0.5129 0 1
4.9689 1.9120 -1.3400 0.5083 0 1
4.9370 2.1313 -1.3534 0.5029 0 1
4.9010 2.3537 -1.3684 0.4974 0 1
4.8604 2.5794 -1.3849 0.4915 0 1
4.8150 2.8090 -1.4030 0.4851 0 1
4.7646 3.0425 -1.4228 0.4784 0 1
4.7089 3.2806 -1.4444 0.4712 0 1
4.6478 3.5237 -1.4680 0.4637 0 1
4.5814 3.7726 -1.4937 0.4557 0 1
4.5087 4.0275 -1.5216 0.4474 0 1
4.4294 4.2888 -1.5517 0.4387 0 1
4.3365 4.5505 -1.5821 0.4426 0 1
4.2354 4.8180 -1.6145 0.4337 0 1
4.1262 5.0927 -1.6496 0.4245 0 1
4.0109 5.3787 -1.6887 0.4128 0 1
3.8869 5.6749 -1.7312 0.4027 0 1
3.7528 5.9811 -1.7771 0.3923 0 1
3.6075 6.2984 -1.8268 0.3816 0 1
3.4469 6.6215 -1.8788 0.4104 0 1
3.2667 6.9431 -1.9312 0.3890 0 1
3.0743 7.2801 -1.9889 0.3688 0 1
2.8641 7.6235 -2.0497 0.3579 0 1
2.6375 7.9806 -2.1154 0.3467 0 1
2.3972 8.3684 -2.1909 0.3168 0 1
-25.2228 34.5269 -11.2669 0.0603 0 25
-27.7393 34.9329 -11.7539 0.6460 0 3
-27.8878 32.3596 -11.2563 0.6746 0 3
-22.7722 24.3706 -8.7888 0.7184 0 5
-22.8551 22.5689 -8.4637 0.6883 0 5
-18.0865 16.4782 -6.4472 0.9683 0 6
-26.7195 22.4465 -9.1953 0.1580 0 3
-28.4118 21.9829 -9.4658 0.8021 0 3
-31.8490 22.6565 -10.2990 0.5661 0 3
-28.5500 18.6285 -8.9827 0.8453 0 3
-33.2123 19.8150 -10.1907 0.8650 0 3
-32.6772 17.7555 -9.7994 0.4676 0 3
-36.0135 17.7326 -10.5776 0.4332 0 3
-37.9222 16.8143 -10.9307 0.3981 0 3
-44.6108 17.6708 -12.6436 0.3624 0 3
-27.0321 9.4697 -7.5474 0.9225 0 22
-27.0499 7.0965 -7.3688 0.9147 0 22
-32.8644 -33.0687 -12.2849 0.8911 0 20
-28.8322 -31.4433 -11.2412 0.7096 0 20
-28.0763 -33.2044 -11.4579 0.6777 0 20
-23.5451 -30.2303 -10.0967 0.8973 0 20
-22.8352 -31.8836 -10.3338 0.6800 0 9
-19.4398 -29.5859 -9.3282 0.0728 0 2
-16.5494 -27.5379 -8.4658 0.5624 0 2
-13.4927 -24.6434 -7.4032 0.0879 0 1
-11.0957 -22.3535 -6.5759 0.1039 0 24
-9.1908 -20.5505 -5.9319 0.1116 0 1
-7.5804 -18.9595 -5.3804 0.1248 0 1
-6.2336 -17.6134 -4.9232 0.1430 0 1
-5.1003 -16.4901 -4.5482 0.1568 0 1
-4.1224 -15.5109 -4.2290 0.1720 0 1
-3.2681 -14.6440 -3.9536 0.1847 0 1
-2.5138 -13.8631 -3.7125 0.1982 0 1
-1.8436 -13.1599 -3.5015 0.2152 0 1
-1.2435 -12.5206 -3.3154 0.2273 0 1
-0.7001 -11.8937 -3.1394 0.2279 0 1
-0.2102 -11.2988 -2.9777 0.2402 0 1
0.2320 -10.7426 -2.8313 0.2517 0 1
0.6324 -10.2217 -2.6986 0.2641 0 1
0.9963 -9.7352 -2.5786 0.2784 0 1
1.3276 -9.2746 -2.4688 0.2910 0 1
1.6298 -8.8374 -2.3679 0.3033 0 1
1.9065 -8.4242 -2.2759 0.3170 0 1
2.1610 -8.0340 -2.1922 0.3291 0 1
2.3954 -7.6635 -2.1157 0.3444 0 1
2.6122 -7.3113 -2.0458 0.3562 0 1
2.8122 -6.9729 -1.9812 0.3669 0 1
2.9967 -6.6471 -1.9213 0.3783 0 1
3.1675 -6.3337 -1.8660 0.3895 0 1
3.3258 -6.0314 -1.8149 0.4005 0 1
3.4732 -5.7403 -1.7679 0.4075 0 1
3.6034 -5.4485 -1.7213 0.4011 0 1
3.7193 -5.1603 -1.6761 0.4119 0 1
3.8259 -4.8820 -1.6344 0.4225 0 1
3.9240 -4.6126 -1.5957 0.4327 0 1
4.0141 -4.3514 -1.5600 0.4426 0 1
4.0969 -4.0978 -1.5269 0.4522 0 1
4.1747 -3.8527 -1.4969 0.4800 0 1
4.2545 -3.6209 -1.4721 0.4881 0 1
4.3285 -3.3936 -1.4493 0.4958 0 1
4.3969 -3.1705 -1.4284 0.5030 0 1
4.4605 -2.9513 -1.4093 0.5099 0 1
4.5199 -2.7361 -1.3922 0.5162 0 1
4.5746 -2.5238 -1.3767 0.5220 0 1
4.6248 -2.3141 -1.3627 0.5273 0 1
4.6707 -2.1068 -1.3501 0.5323 0 1
4.7124 -1.9016 -1.3390 0.5368 0 1
4.7501 -1.6983 -1.3292 0.5407 0 1
4.7838 -1.4964 -1.3208 0.5442 0 1
4.8138 -1.2959 -1.3136 0.5471 0 1
3.9124 -0.8863 -1.0570 0.7376 25 14
3.8397 -0.7090 -1.0289 0.8903 25 14
3.8303 -0.5491 -1.0196 0.8984 25 14
3.8212 -0.3919 -1.0122 0.9050 25 14
3.8137 -0.2367 -1.0068 0.8581 25 14
3.8081 -0.0830 -1.0037 0.8609 25 14
3.8065 0.0700 -1.0032 0.8613 25 14
3.8093 0.2234 -1.0055 0.9110 25 14
3.8154 0.3781 -1.0103 0.9067 25 14
3.8219 0.5346 -1.0169 0.9008 25 14
3.8287 0.6934 -1.0253 0.8935 25 14
3.9054 0.8707 -1.0543 0.5919 25 14
4.9257 1.3080 -1.3429 0.5375 0 1
4.9094 1.5173 -1.3540 0.5251 0 1
4.8842 1.7274 -1.3651 0.5209 0 1
4.8548 1.9399 -1.3776 0.5161 0 1
4.8212 2.1550 -1.3915 0.5106 0 1
4.7834 2.3731 -1.4070 0.5050 0 1
4.7409 2.5945 -1.4241 0.4990 0 1
4.6936 2.8194 -1.4427 0.4925 0 1
4.6412 3.0482 -1.4631 0.4856 0 1
4.5835 3.2813 -1.4853 0.4784 0 1
4.5206 3.5194 -1.5096 0.4707 0 1
4.4520 3.7628 -1.5360 0.4627 0 1
4.3770 4.0118 -1.5645 0.4542 0 1
4.2953 4.2670 -1.5953 0.4454 0 1
4.2011 4.5231 -1.6266 0.4494 0 1
4.0979 4.7839 -1.6598 0.4404 0 1
3.9866 5.0515 -1.6957 0.4292 0 1
3.8698 5.3306 -1.7357 0.4193 0 1
3.7434 5.6185 -1.7790 0.4091 0 1
3.6069 5.9157 -1.8257 0.3986 0 1
3.4593 6.2232 -1.8761 0.3879 0 1
3.2996 6.5419 -1.9307 0.3770 0 1
3.1185 6.8548 -1.9844 0.3859 0 1
2.9219 7.1743 -2.0412 0.3752 0 1
2.7104 7.5052 -2.1026 0.3642 0 1
2.4827 7.8484 -2.1691 0.3530 0 1
2.2416 8.2217 -2.2455 0.3227 0 1
1.9868 8.6419 -2.3366 0.3101 0 1
1.7056 9.0744 -2.4330 0.3213 0 1
1.3946 9.5113 -2.5330 0.3086 0 1
1.0558 9.9804 -2.6445 0.2933 0 1
0.6828 10.4568 -2.7612 0.2806 0 1
0.2741 10.9577 -2.8883 0.2553 0 1
-0.1751 11.5287 -3.0382 0.2406 0 1
-0.6718 12.1183 -3.1981 0.2356 0 24
-1.2286 12.8151 -3.3923 0.2164 0 1
-1.8479 13.5264 -3.5973 0.2041 0 1
-2.5464 14.3213 -3.8328 0.1804 0 1
-3.3412 15.2157 -4.1049 0.1708 0 1
-4.2267 16.1248 -4.3924 0.1622 0 24
-5.2567 17.2035 -4.7400 0.1527 0 1
-6.4155 18.3259 -5.1162 0.1409 0 1
-7.7501 19.5774 -5.5481 0.1299 0 1
-9.3679 21.1397 -6.0928 0.1156 0 1
-11.3210 23.0042 -6.7559 0.1051 0 1
-13.6471 25.1284 -7.5348 0.0985 0 1
-16.5542 27.7599 -8.5166 0.0934 0 2
-19.1086 29.2990 -9.2171 0.0737 0 2
-23.5312 33.0932 -10.6998 0.0635 0 25
-26.1026 33.7508 -11.2427 0.3983 0 3
-25.7722 30.6912 -10.5603 0.7031 0 21
-22.7158 24.9434 -8.8897 0.6192 0 5
-22.8433 23.1427 -8.5684 0.7058 0 5
-22.9159 21.4219 -8.2658 0.7275 0 5
-23.0152 19.8432 -8.0073 0.7599 0 5
-28.3866 22.5507 -9.5529 0.7948 0 3
-31.0081 22.6622 -10.1202 0.5761 0 3
-33.1223 22.2221 -10.5100 0.8387 0 3
-28.9536 17.7811 -8.9531 0.5118 0 3
-33.2534 18.6244 -10.0430 0.8777 0 3
-34.8938 17.7403 -10.3146 0.4443 0 3
-38.6101 17.7147 -11.1935 0.4094 0 3
-43.0263 17.6842 -12.2577 0.3738 0 3
-27.0112 9.8527 -7.5762 0.9762 0 22
-27.0420 7.4660 -7.3922 0.9855 0 22
-46.4110 8.8771 -12.4510 0.9951 0 22
-46.4624 6.9648 -12.3796 0.9751 0 22
-30.5614 -16.4711 -9.1480 0.8858 0 22
-33.4921 -32.8476 -12.3612 0.8837 0 20
-24.0035 -25.5133 -9.2304 0.9987 0 20
-28.1299 -32.4161 -11.3093 0.6862 0 20
-27.9559 -34.9602 -11.7951 0.6583 0 20
-24.9150 -33.8624 -11.0777 0.3583 0 9
-20.7515 -30.7172 -9.7679 0.0695 0 2
-16.9686 -27.4331 -8.4997 0.0799 0 2
-14.3847 -25.4917 -7.7127 0.0757 0 1
-11.8043 -23.0352 -6.8204 0.0980 0 1
-9.7695 -21.1144 -6.1303 0.1079 0 1
-8.0620 -19.4377 -5.5449 0.1193 0 1
-6.6332 -18.0056 -5.0562 0.1393 0 1
-5.4423 -16.8288 -4.6605 0.1530 0 1
-4.4183 -15.8057 -4.3245 0.1682 0 1
-3.5289 -14.9113 -4.0377 0.1802 0 1
-2.7446 -14.1045 -3.7862 0.1943 0 1
-2.0486 -13.3740 -3.5652 0.2114 0 1
-1.4280 -12.7193 -3.3726 0.2234 0 1
-0.8674 -12.0928 -3.1946 0.2239 0 1
-0.3609 -11.4837 -3.0275 0.2363 0 1
0.0959 -10.9161 -2.8765 0.2478 0 1
0.5090 -10.3841 -2.7395 0.2602 0 1
0.8840 -9.8867 -2.6156 0.2745 0 1
1.2254 -9.4194 -2.5029 0.2870 0 1
1.5364 -8.9741 -2.3991 0.2994 0 1
1.8141 -8.5214 -2.2957 0.3122 0 24
2.0822 -8.1563 -2.2181 0.3253 0 1
2.3226 -7.7791 -2.1392 0.3406 0 1
2.5450 -7.4219 -2.0675 0.3525 0 1
2.7502 -7.0795 -2.0013 0.3632 0 1
2.9394 -6.7496 -1.9399 0.3747 0 1
3.1145 -6.4323 -1.8832 0.3860 0 1
3.2767 -6.1266 -1.8307 0.3970 0 1
3.4270 -5.8314 -1.7823 0.4078 0 1
3.5637 -5.5415 -1.7361 0.4079 0 1
3.6834 -5.2511 -1.6901 0.4085 0 1
3.7929 -4.9697 -1.6473 0.4191 0 1
3.8936 -4.6976 -1.6077 0.4295 0 1
3.9862 -4.4338 -1.5711 0.4395 0 1
4.0713 -4.1779 -1.5371 0.4492 0 1
4.1494 -3.9290 -1.5057 0.4585 0 1
4.2297 -3.6943 -1.4798 0.4856 0 1
4.3055 -3.4656 -1.4564 0.4934 0 1
4.3757 -3.2412 -1.4349 0.5008 0 1
4.4405 -3.0206 -1.4151 0.5077 0 1
4.5015 -2.8044 -1.3975 0.5142 0 1
4.5577 -2.5912 -1.3815 0.5202 0 1
4.6093 -2.3807 -1.3670 0.5257 0 1
4.6565 -2.1727 -1.3540 0.5308 0 1
4.6995 -1.9668 -1.3424 0.5354 0 1
4.7385 -1.7629 -1.3322 0.5395 0 1
4.7735 -1.5606 -1.3233 0.5431 0 1
4.8046 -1.3597 -1.3157 0.5462 0 1
4.1238 -0.9899 -1.1175 0.8993 25 14
3.8522 -0.7624 -1.0347 0.6761 25 14
3.8332 -0.5997 -1.0223 0.8960 25 14
3.8241 -0.4417 -1.0143 0.9031 25 14
3.8156 -0.2860 -1.0082 0.8570 25 14
3.8098 -0.1319 -1.0045 0.8602 25 14
3.8060 0.0212 -1.0029 0.8615 25 14
3.8077 0.1744 -1.0044 0.8602 25 14
3.8135 0.3286 -1.0086 0.9083 25 14
3.8198 0.4845 -1.0146 0.9029 25 14
3.8265 0.6425 -1.0224 0.8960 25 14
3.8627 0.8094 -1.0399 0.6727 25 14
4.1097 1.0351 -1.1167 0.8999 25 14
4.9165 1.4508 -1.3507 0.5343 0 1
4.8927 1.6602 -1.3614 0.5223 0 1
4.8646 1.8719 -1.3735 0.5177 0 1
4.8323 2.0861 -1.3869 0.5127 0 1
4.7959 2.3032 -1.4019 0.5069 0 1
4.7550 2.5235 -1.4185 0.5009 0 1
4.7092 2.7473 -1.4366 0.4946 0 1
4.6585 2.9748 -1.4564 0.4879 0 1
4.6025 3.2065 -1.4781 0.4807 0 1
4.5412 3.4429 -1.5016 0.4732 0 1
4.4745 3.6846 -1.5273 0.4653 0 1
4.4016 3.9318 -1.5552 0.4569 0 1
4.3221 4.1849 -1.5853 0.4483 0 1
4.2324 4.4413 -1.6166 0.4522 0 1
4.1317 4.7000 -1.6490 0.4433 0 1
4.0230 4.9654 -1.6839 0.4341 0 1
3.9080 5.2408 -1.7226 0.4225 0 1
3.7848 5.5257 -1.7648 0.4124 0 1
3.6516 5.8199 -1.8104 0.4020 0 1
3.5076 6.1240 -1.8596 0.3914 0 1
3.3519 6.4390 -1.9128 0.3805 0 1
3.1783 6.7551 -1.9672 0.3893 0 1
2.9861 7.0713 -2.0226 0.3786 0 1
2.7795 7.3984 -2.0825 0.3677 0 1
2.5571 7.7376 -2.1473 0.3566 0 1
2.3181 8.0924 -2.2181 0.3267 0 1
-21.3608 29.2403 -9.9722 0.0710 0 2
-25.9195 32.6413 -11.4783 0.7834 0 3
-22.5381 26.1521 -9.5074 0.6789 0 5
-22.6218 24.2096 -9.1246 0.7078 0 5
-22.7387 22.4539 -8.8004 0.7696 0 5
-22.8402 20.8092 -8.5089 0.7323 0 5
-22.9524 19.2818 -8.2552 0.6849 0 5
-23.0337 17.8217 -8.0202 0.7785 0 5
-26.8205 19.0793 -9.0642 0.7838 0 3
-28.4271 18.5484 -9.3475 0.8464 0 3
-29.6108 17.6663 -9.4954 0.6286 0 3
-32.6754 17.7546 -10.2409 0.4663 0 3
-38.0792 18.7497 -11.6888 0.9016 0 3
-39.9298 17.7045 -12.0285 0.3970 0 3
-44.6078 17.6696 -13.2130 0.3613 0 3
-26.9042 9.4249 -7.8505 0.9377 0 22
-31.2522 -31.4465 -12.2092 0.6807 0 20
-28.4542 -31.0312 -11.5943 0.7058 0 20
-25.6527 -30.3382 -10.9411 0.9783 0 9
-23.4626 -30.1245 -10.5152 0.8298 0 9
-20.4135 -28.5022 -9.6546 0.0733 0 2
-16.9088 -25.7339 -8.4797 0.0835 0 2
-14.4867 -24.1056 -7.7449 0.0786 0 1
-11.9982 -21.9138 -6.8801 0.1012 0 1
-10.0414 -20.2295 -6.2195 0.1131 0 1
-8.3810 -18.7398 -5.6533 0.1255 0 1
-6.9781 -17.4530 -5.1762 0.1417 0 1
-5.7918 -16.3651 -4.7806 0.1556 0 1
-4.7691 -15.4191 -4.4447 0.1706 0 1
-3.8766 -14.5862 -4.1563 0.1827 0 1
-3.0871 -13.8329 -3.9031 0.1964 0 1
-2.3832 -13.1432 -3.6785 0.2135 0 1
-1.7545 -12.5243 -3.4827 0.2255 0 1
-1.1849 -11.9307 -3.3017 0.2263 0 1
-0.6681 -11.3509 -3.1313 0.2380 0 1
-0.2011 -10.8080 -2.9769 0.2495 0 1
0.2224 -10.2970 -2.8363 0.2618 0 1
0.6075 -9.8186 -2.7091 0.2762 0 1
0.9588 -9.3687 -2.5935 0.2884 0 1
1.2798 -8.9405 -2.4872 0.3009 0 1
1.5734 -8.5316 -2.3891 0.3133 0 1
1.8373 -8.1183 -2.2922 0.3300 0 24
2.0920 -7.7774 -2.2179 0.3424 0 1
2.3221 -7.4289 -2.1434 0.3543 0 1
2.5348 -7.0946 -2.0747 0.3660 0 1
2.7312 -6.7722 -2.0109 0.3766 0 1
2.9130 -6.4614 -1.9519 0.3880 0 1
3.0815 -6.1617 -1.8972 0.3992 0 1
3.2379 -5.8720 -1.8466 0.4101 0 1
3.3832 -5.5915 -1.7998 0.4206 0 1
3.5084 -5.3048 -1.7515 0.4108 0 1
3.6237 -5.0277 -1.7067 0.4215 0 1
3.7300 -4.7596 -1.6653 0.4320 0 1
3.8279 -4.4996 -1.6269 0.4422 0 1
3.9180 -4.2472 -1.5913 0.4521 0 1
4.0008 -4.0017 -1.5583 0.4617 0 1
4.0823 -3.7674 -1.5298 0.4894 0 1
4.1619 -3.5420 -1.5050 0.4975 0 1
4.2357 -3.3208 -1.4822 0.5051 0 1
4.3040 -3.1034 -1.4612 0.5124 0 1
4.3674 -2.8897 -1.4421 0.5192 0 1
4.4267 -2.6796 -1.4250 0.5255 0 1
4.4813 -2.4723 -1.4094 0.5313 0 1
4.5314 -2.2674 -1.3954 0.5366 0 1
4.5772 -2.0647 -1.3828 0.5416 0 1
4.6188 -1.8639 -1.3716 0.5460 0 1
4.6564 -1.6648 -1.3618 0.5499 0 1
4.6901 -1.4671 -1.3533 0.5534 0 1
4.7200 -1.2706 -1.3461 0.5564 0 1
3.9381 -0.8921 -1.1120 0.0424 25 14
3.8486 -0.7106 -1.0778 0.7513 25 14
3.8405 -0.5506 -1.0684 0.8426 25 14
3.8337 -0.3932 -1.0613 0.8483 25 14
3.8275 -0.2376 -1.0561 0.8525 25 14
3.8219 -0.0833 -1.0527 0.8552 25 14
3.8203 0.0703 -1.0522 0.8556 25 14
3.8223 0.2242 -1.0544 0.8538 25 14
3.8247 0.3790 -1.0584 0.8506 25 14
3.8295 0.5357 -1.0649 0.8964 25 14
3.8364 0.6948 -1.0737 0.8890 25 14
3.9230 0.8746 -1.1069 0.0594 25 14
4.8281 1.2821 -1.3757 0.5467 0 1
4.8094 1.4864 -1.3862 0.5345 0 1
4.7838 1.6919 -1.3974 0.5302 0 1
4.7542 1.8997 -1.4099 0.5255 0 1
4.7202 2.1098 -1.4238 0.5200 0 1
4.6821 2.3228 -1.4393 0.5144 0 1
4.6393 2.5389 -1.4564 0.5084 0 1
4.5918 2.7582 -1.4751 0.5019 0 1
4.5391 2.9811 -1.4955 0.4951 0 1
4.4812 3.2080 -1.5177 0.4879 0 1
4.4181 3.4396 -1.5419 0.4802 0 1
4.3493 3.6760 -1.5682 0.4722 0 1
4.2742 3.9176 -1.5967 0.4637 0 1
4.1925 4.1648 -1.6274 0.4550 0 1
4.1015 4.4158 -1.6597 0.4589 0 1
3.9988 4.6681 -1.6927 0.4500 0 1
3.8881 4.9266 -1.7283 0.4407 0 1
3.7717 5.1956 -1.7681 0.4289 0 1
3.6463 5.4726 -1.8110 0.4187 0 1
3.5109 5.7582 -1.8573 0.4083 0 1
3.3648 6.0531 -1.9072 0.3976 0 1
3.2069 6.3581 -1.9610 0.3867 0 1
3.0327 6.6661 -2.0168 0.3956 0 1
2.8392 6.9713 -2.0729 0.3849 0 1
2.6315 7.2866 -2.1335 0.3740 0 1
2.4082 7.6129 -2.1989 0.3629 0 1
2.1687 7.9545 -2.2705 0.3325 0 1
1.9197 8.3501 -2.3595 0.3200 0 1
1.6478 8.7671 -2.4566 0.3073 0 1
1.3473 9.1889 -2.5575 0.3184 0 1
1.0183 9.6255 -2.6655 0.3033 0 1
0.6572 10.0651 -2.7777 0.2907 0 1
0.2631 10.5179 -2.8974 0.2787 0 1
-0.1676 11.0333 -3.0388 0.2528 0 1
-0.6428 11.5940 -3.1977 0.2382 0 1
-1.1696 12.1997 -3.3750 0.2257 0 1
-1.7450 12.7731 -3.5502 0.2155 0 24
-2.4062 13.5328 -3.7852 0.2021 0 1
-3.1408 14.3030 -4.0327 0.1812 0 1
-3.9715 15.1514 -4.3134 0.1702 0 1
-4.8888 15.9995 -4.6071 0.1623 0 24
-5.9607 17.0268 -4.9680 0.1543 0 1
-7.1488 18.0585 -5.3486 0.1433 0 1
-8.5446 19.2818 -5.8080 0.1219 0 1
-10.2397 20.8070 -6.3862 0.1149 0 1
-12.2692 22.5914 -7.0797 0.1020 0 1
-14.5977 24.4791 -7.8488 0.1078 0 1
-16.7861 25.7379 -8.4621 0.5862 0 2
-20.0830 28.2438 -9.5438 0.0741 0 2
-24.4659 31.6346 -11.0131 0.0643 0 25
-27.6905 32.9757 -11.8581 0.6672 0 3
-22.6266 24.8454 -9.2542 0.6218 0 5
-22.6961 22.9936 -8.8972 0.7219 0 5
-28.2869 26.4427 -10.6634 0.7477 0 3
-22.9305 19.7701 -8.3377 0.8029 0 5
-23.0107 18.2800 -8.0930 0.8151 0 5
-23.0384 16.8376 -7.8583 0.8356 0 5
-28.2990 18.9861 -9.3846 0.9143 0 3
-28.9522 17.7803 -9.3565 0.5103 0 3
-33.1155 18.5472 -10.4525 0.8787 0 3
-38.0602 19.3501 -11.7581 0.8963 0 3
-38.3353 17.5886 -11.6152 0.5319 0 3
-43.0235 17.6831 -12.8098 0.3728 0 3
-26.8952 9.8104 -7.8839 0.9385 0 22
-26.9632 7.4442 -7.7031 0.9078 0 22
-46.2761 8.8513 -12.9748 0.9996 0 22
-46.2877 6.9386 -12.8894 0.9880 0 22
-25.8985 -25.4002 -9.9897 0.9990 0 20
-23.9652 -25.4726 -9.6314 0.6761 0 20
-27.9829 -32.2468 -11.7577 0.9725 0 9
-25.3295 -31.6757 -11.1691 0.9551 0 9
-21.7185 -29.5180 -10.0921 0.0701 0 2
-17.9396 -26.5549 -8.8252 0.0802 0 2
-15.4978 -25.0553 -8.1132 0.0750 0 1
-12.7017 -22.5091 -7.1175 0.0984 0 1
-10.6270 -20.7379 -6.4171 0.1096 0 1
-8.8765 -19.1843 -5.8212 0.1218 0 1
-7.3999 -17.8413 -5.3191 0.1316 0 1
-6.1505 -16.6951 -4.8997 0.1470 0 1
-5.0804 -15.7097 -4.5468 0.1634 0 1
-4.1493 -14.8433 -4.2444 0.1786 0 1
-3.3289 -14.0660 -3.9806 0.1926 0 1
-2.5988 -13.3548 -3.7467 0.2046 0 1
-1.9422 -12.6791 -3.5324 0.2178 0 24
-1.3608 -12.1212 -3.3590 0.2276 0 1
-0.8250 -11.5021 -3.1757 0.2337 0 24
-0.3449 -10.9775 -3.0245 0.2464 0 1
0.0918 -10.4564 -2.8797 0.2579 0 1
0.4886 -9.9675 -2.7482 0.2722 0 1
0.8470 -9.4736 -2.6193 0.2820 0 24
1.1807 -9.0755 -2.5203 0.2970 0 1
1.4826 -8.6596 -2.4194 0.3094 0 1
1.7596 -8.2656 -2.3272 0.3230 0 1
2.0092 -7.8703 -2.2369 0.3378 0 24
2.2507 -7.5384 -2.1665 0.3505 0 1
2.4688 -7.1997 -2.0960 0.3623 0 1
2.6703 -6.8737 -2.0307 0.3729 0 1
2.8565 -6.5592 -1.9702 0.3844 0 1
3.0292 -6.2561 -1.9142 0.3957 0 1
3.1893 -5.9633 -1.8623 0.4067 0 1
3.3380 -5.6800 -1.8143 0.4174 0 1
3.4696 -5.3951 -1.7665 0.4073 0 1
3.5880 -5.1151 -1.7206 0.4181 0 1
3.6971 -4.8441 -1.6781 0.4287 0 1
3.7975 -4.5817 -1.6388 0.4390 0 1
3.8901 -4.3269 -1.6023 0.4490 0 1
3.9752 -4.0792 -1.5685 0.4587 0 1
4.0556 -3.8402 -1.5381 0.4868 0 1
4.1371 -3.6134 -1.5127 0.4949 0 1
4.2128 -3.3909 -1.4893 0.5027 0 1
4.2828 -3.1724 -1.4677 0.5101 0 1
4.3475 -2.9574 -1.4480 0.5171 0 1
4.4083 -2.7463 -1.4303 0.5235 0 1
4.4644 -2.5381 -1.4142 0.5295 0 1
4.5159 -2.3324 -1.3997 0.5350 0 1
4.5631 -2.1291 -1.3867 0.5401 0 1
4.6060 -1.9277 -1.3750 0.5446 0 1
4.6449 -1.7281 -1.3648 0.5487 0 1
4.6798 -1.5300 -1.3559 0.5523 0 1
4.7109 -1.3332 -1.3483 0.5555 0 1
4.1555 -0.9975 -1.1769 0.6790 25 14
3.8695 -0.7658 -1.0863 0.7479 25 14
3.8428 -0.6012 -1.0711 0.8405 25 14
3.8358 -0.4431 -1.0634 0.8467 25 14
3.8294 -0.2870 -1.0575 0.8513 25 14
3.8236 -0.1324 -1.0536 0.8545 25 14
3.8198 0.0213 -1.0519 0.8558 25 14
3.8216 0.1750 -1.0535 0.8546 25 14
3.8239 0.3295 -1.0569 0.8518 25 14
3.8274 0.4855 -1.0625 0.8984 25 14
3.8342 0.6438 -1.0707 0.8915 25 14
3.8853 0.8141 -1.0932 0.6668 25 14
4.1163 1.0368 -1.1690 0.8958 25 14
4.8166 1.4213 -1.3830 0.5357 0 1
4.7924 1.6262 -1.3937 0.5316 0 1
4.7641 1.8332 -1.4057 0.5270 0 1
4.7315 2.0426 -1.4192 0.5220 0 1
4.6947 2.2546 -1.4342 0.5162 0 1
4.6535 2.4697 -1.4508 0.5103 0 1
4.6075 2.6879 -1.4690 0.5040 0 1
4.5565 2.9097 -1.4888 0.4973 0 1
4.5002 3.1352 -1.5104 0.4902 0 1
4.4388 3.3652 -1.5340 0.4827 0 1
4.3719 3.6001 -1.5596 0.4748 0 1
4.2989 3.8400 -1.5874 0.4665 0 1
4.2193 4.0854 -1.6174 0.4578 0 1
4.1326 4.3366 -1.6497 0.4617 0 1
4.0323 4.5871 -1.6819 0.4529 0 1
3.9243 4.8435 -1.7167 0.4437 0 1
3.8097 5.1089 -1.7550 0.4321 0 1
3.6873 5.3834 -1.7969 0.4220 0 1
3.5552 5.6662 -1.8421 0.4117 0 1
3.4126 5.9581 -1.8908 0.4011 0 1
3.2586 6.2597 -1.9434 0.3902 0 1
3.0911 6.5700 -1.9995 0.3768 0 1
2.9024 6.8730 -2.0546 0.3884 0 1
2.6993 7.1850 -2.1137 0.3775 0 1
2.4812 7.5077 -2.1775 0.3664 0 1
2.2464 7.8420 -2.2464 0.3552 0 1
-18.5094 25.3371 -9.0163 0.0816 0 2
-22.1644 27.9123 -10.2416 0.0719 0 2
-26.7952 31.0917 -11.7940 0.0624 0 25
-22.5315 24.1130 -9.4828 0.6684 0 5
-22.6471 22.3635 -9.1456 0.7273 0 5
-22.7466 20.7239 -8.8421 0.5129 0 5
-22.8112 19.1632 -8.5607 0.7879 0 5
-22.8748 17.6987 -8.3107 0.8009 0 5
-31.8462 22.6545 -11.2300 0.5627 0 3
-28.3045 18.4684 -9.7114 0.8474 0 3
-32.9333 19.6485 -11.0195 0.8670 0 3
-32.6737 17.7537 -10.6851 0.4648 0 3
-37.9250 18.6738 -12.1470 0.9024 0 3
-37.9113 16.8095 -11.9164 0.8233 0 3
-44.3368 17.5623 -13.7030 0.2704 0 3
-26.7939 8.1933 -8.0510 0.8913 0 22
-46.0617 8.2000 -13.4437 0.9099 0 6
-33.4578 -31.0632 -13.1186 0.6489 0 20
-30.8568 -31.0487 -12.5783 0.6768 0 20
-28.2001 -30.7540 -11.9897 0.9398 0 9
-23.7142 -28.0456 -10.5535 0.9002 0 9
-21.2340 -27.2630 -9.9297 0.0741 0 2
-17.7641 -24.8030 -8.7664 0.0840 0 2
-15.4601 -23.5290 -8.0898 0.0701 0 1
-12.8195 -21.3315 -7.1512 0.1015 0 1
-10.8347 -19.7887 -6.4827 0.1123 0 1
-9.1540 -18.4417 -5.9160 0.1247 0 1
-7.7092 -17.2376 -5.4259 0.1342 0 1
-6.4734 -16.1908 -5.0104 0.1495 0 1
-5.4114 -15.2900 -4.6606 0.1658 0 1
-4.4817 -14.4899 -4.3582 0.1812 0 1
-3.6588 -13.7667 -4.0931 0.1952 0 1
-2.9242 -13.1029 -3.8577 0.2067 0 1
-2.2669 -12.5016 -3.6508 0.2237 0 1
-1.6718 -11.9336 -3.4625 0.2297 0 1
-1.1302 -11.3805 -3.2862 0.2365 0 1
-0.6388 -10.8526 -3.1238 0.2482 0 1
-0.1926 -10.3544 -2.9758 0.2596 0 1
0.2135 -9.8859 -2.8413 0.2739 0 1
0.5843 -9.4449 -2.7191 0.2862 0 1
0.9238 -9.0268 -2.6073 0.2984 0 1
1.2350 -8.6278 -2.5044 0.3109 0 1
1.5205 -8.2445 -2.4090 0.3232 0 1
1.7837 -7.8816 -2.3220 0.3368 0 1
2.0218 -7.5163 -2.2365 0.3513 0 24
2.2527 -7.2069 -2.1697 0.3640 0 1
2.4614 -6.8891 -2.1021 0.3748 0 1
2.6543 -6.5816 -2.0392 0.3863 0 1
2.8333 -6.2848 -1.9809 0.3977 0 1
2.9996 -5.9978 -1.9269 0.4088 0 1
3.1540 -5.7199 -1.8769 0.4197 0 1
3.2962 -5.4477 -1.8296 0.4151 0 1
3.4177 -5.1677 -1.7803 0.4204 0 1
3.5324 -4.9010 -1.7360 0.4311 0 1
3.6382 -4.6425 -1.6948 0.4416 0 1
3.7358 -4.3914 -1.6567 0.4517 0 1
3.8257 -4.1472 -1.6213 0.4616 0 1
3.9086 -3.9094 -1.5885 0.4711 0 1
3.9933 -3.6853 -1.5614 0.4988 0 1
4.0726 -3.4661 -1.5367 0.5068 0 1
4.1462 -3.2507 -1.5139 0.5144 0 1
4.2143 -3.0388 -1.4929 0.5216 0 1
4.2775 -2.8303 -1.4738 0.5285 0 1
4.3367 -2.6252 -1.4567 0.5347 0 1
4.3912 -2.4226 -1.4411 0.5405 0 1
4.4411 -2.2222 -1.4270 0.5459 0 1
4.4868 -2.0239 -1.4144 0.5508 0 1
4.5284 -1.8274 -1.4032 0.5552 0 1
4.5659 -1.6324 -1.3933 0.5591 0 1
4.5995 -1.4387 -1.3848 0.5625 0 1
4.6292 -1.2462 -1.3775 0.5655 0 1
4.1870 -0.9485 -1.2336 0.6738 25 14
3.8731 -0.7151 -1.1317 0.7355 25 14
3.8626 -0.5537 -1.1213 0.7512 25 14
3.8535 -0.3952 -1.1131 0.7567 25 14
3.8454 -0.2387 -1.1071 0.7608 25 14
3.8383 -0.0837 -1.1032 0.7635 25 14
3.8359 0.0706 -1.1024 0.7640 25 14
3.8375 0.2251 -1.1046 0.7625 25 14
3.8400 0.3806 -1.1088 0.7596 25 14
3.8435 0.5376 -1.1152 0.7553 25 14
3.8485 0.6970 -1.1238 0.7519 25 14
4.1448 0.9241 -1.2202 0.6812 25 14
4.7337 1.2570 -1.4074 0.5558 0 1
4.7127 1.4566 -1.4174 0.5437 0 1
4.6870 1.6577 -1.4285 0.5395 0 1
4.6570 1.8609 -1.4411 0.5348 0 1
4.6228 2.0663 -1.4550 0.5297 0 1
4.5844 2.2744 -1.4705 0.5237 0 1
4.5414 2.4853 -1.4876 0.5177 0 1
4.4936 2.6993 -1.5063 0.5113 0 1
4.4408 2.9166 -1.5266 0.5045 0 1
4.3827 3.1375 -1.5488 0.4973 0 1
4.3196 3.3629 -1.5730 0.4896 0 1
4.2507 3.5927 -1.5992 0.4816 0 1
4.1756 3.8272 -1.6276 0.4732 0 1
4.0939 4.0669 -1.6582 0.4645 0 1
4.0053 4.3122 -1.6911 0.4554 0 1
3.9037 4.5572 -1.7242 0.4595 0 1
3.7938 4.8072 -1.7597 0.4503 0 1
3.6779 5.0664 -1.7990 0.4385 0 1
3.5535 5.3334 -1.8415 0.4283 0 1
3.4194 5.6081 -1.8874 0.4179 0 1
3.2747 5.8911 -1.9367 0.4073 0 1
3.1179 6.1816 -1.9894 0.3936 0 1
2.9482 6.4804 -2.0458 0.3831 0 1
2.7606 6.7784 -2.1031 0.3947 0 1
2.5566 7.0792 -2.1628 0.3838 0 1
2.3376 7.3898 -2.2271 0.3727 0 1
2.1023 7.7109 -2.2966 0.3614 0 1
1.8567 8.0757 -2.3810 0.3298 0 1
1.5915 8.4676 -2.4757 0.3172 0 1
1.3021 8.8803 -2.5790 0.3045 0 1
0.9831 9.2929 -2.6852 0.3131 0 1
0.6333 9.6995 -2.7931 0.3007 0 1
0.2531 10.1201 -2.9089 0.2887 0 1
-0.1607 10.5770 -3.0396 0.2629 0 1
-0.6148 11.0892 -3.1913 0.2504 0 1
-1.1122 11.6012 -3.3488 0.2424 0 24
-1.6610 12.1582 -3.5261 0.2271 0 24
-2.2828 12.8387 -3.7470 0.2124 0 1
-2.9661 13.5075 -3.9738 0.2002 0 1
-3.7314 14.2354 -4.2287 0.1805 0 1
-4.5955 15.0394 -4.5188 0.1689 0 1
-5.5601 15.8823 -4.8353 0.1623 0 1
-6.6398 16.7727 -5.1835 0.1532 0 1
-7.8175 17.6411 -5.5445 0.1350 0 24
-9.3160 18.9301 -6.0625 0.1190 0 1
-11.0830 20.4073 -6.6729 0.1125 0 1
-13.1283 22.0150 -7.3653 0.1057 0 1
-15.3917 23.6000 -8.0961 0.1087 0 1
-17.5025 24.6147 -8.6787 0.0848 0 2
-20.9086 27.0351 -9.8206 0.0750 0 2
-25.1912 29.9993 -11.2563 0.0654 0 25
-22.5099 24.7172 -9.6062 0.7264 0 5
-22.6008 22.8970 -9.2446 0.7507 0 5
-22.7281 21.2463 -8.9400 0.7514 0 5
-22.7876 19.6469 -8.6456 0.7050 0 5
-22.8629 18.1626 -8.3902 0.7660 0 5
-22.9437 16.7684 -8.1658 0.8468 0 5
-26.6566 17.8842 -9.2238 0.6947 0 3
-28.9508 17.7794 -9.7624 0.5088 0 3
-28.5712 16.0020 -9.4097 0.9956 0 3
-33.1095 16.8331 -10.6728 0.9661 0 3
-36.8303 16.8981 -11.6437 0.4073 0 3
-43.0147 17.6794 -13.3633 0.3716 0 3
-26.7737 8.5637 -8.0772 0.5785 0 6
-26.8337 7.4085 -7.9990 0.9612 0 22
-46.1215 8.8217 -13.4930 0.9445 0 22
-46.1132 6.9124 -13.3984 0.9867 0 22
-34.3351 -31.0682 -13.3054 0.6398 0 20
-25.8315 -25.3344 -10.3966 0.9102 0 20
-29.2027 -31.0395 -12.2459 0.6951 0 20
-24.7116 -28.4770 -10.8341 0.6761 0 9
-22.5148 -28.1558 -10.3590 0.0711 0 2
-18.7892 -25.5367 -9.1101 0.0808 0 2
-16.6452 -24.6389 -8.5440 0.1026 0 2
-13.5303 -21.8745 -7.3908 0.0986 0 1
-11.4302 -20.2559 -6.6832 0.1089 0 1
-9.6621 -18.8549 -6.0878 0.1197 0 1
-8.1466 -17.6068 -5.5745 0.1324 0 1
-6.8484 -16.5118 -5.1365 0.1459 0 1
-5.7349 -15.5670 -4.7670 0.1623 0 1
-4.7652 -14.7352 -4.4500 0.1772 0 1
-3.9103 -13.9883 -4.1736 0.1915 0 1
-3.1499 -13.3097 -3.9301 0.2029 0 1
-2.4688 -12.6871 -3.7139 0.2199 0 1
-1.8553 -12.1119 -3.5209 0.2259 0 1
-1.2926 -11.5136 -3.3292 0.2332 0 24
-0.7903 -11.0173 -3.1739 0.2443 0 1
-0.3303 -10.5102 -3.0215 0.2557 0 1
0.0881 -10.0317 -2.8827 0.2700 0 1
0.4681 -9.5506 -2.7476 0.2793 0 24
0.8188 -9.1577 -2.6419 0.2945 0 1
1.1388 -8.7539 -2.5366 0.3068 0 1
1.4321 -8.3647 -2.4385 0.3193 0 1
1.7021 -7.9955 -2.3490 0.3329 0 1
1.9463 -7.6238 -2.2609 0.3476 0 24
2.1828 -7.3108 -2.1923 0.3603 0 1
2.3966 -6.9892 -2.1231 0.3720 0 1
2.5944 -6.6784 -2.0587 0.3827 0 1
2.7777 -6.3783 -1.9990 0.3941 0 1
2.9479 -6.0882 -1.9437 0.4053 0 1
3.1060 -5.8075 -1.8924 0.4163 0 1
3.2530 -5.5353 -1.8449 0.4268 0 1
3.3800 -5.2558 -1.7956 0.4230 0 1
3.4968 -4.9851 -1.7497 0.4277 0 1
3.6054 -4.7241 -1.7076 0.4382 0 1
3.7056 -4.4707 -1.6685 0.4485 0 1
3.7979 -4.2244 -1.6323 0.4585 0 1
3.8829 -3.9845 -1.5987 0.4681 0 1
3.9668 -3.7561 -1.5697 0.4961 0 1
4.0480 -3.5356 -1.5444 0.5043 0 1
4.1234 -3.3190 -1.5210 0.5120 0 1
4.1932 -3.1060 -1.4994 0.5194 0 1
4.2578 -2.8963 -1.4797 0.5263 0 1
4.3183 -2.6903 -1.4619 0.5328 0 1
4.3743 -2.4869 -1.4459 0.5387 0 1
4.4257 -2.2858 -1.4313 0.5442 0 1
4.4727 -2.0869 -1.4182 0.5493 0 1
4.5156 -1.8899 -1.4066 0.5538 0 1
4.5543 -1.6944 -1.3963 0.5579 0 1
4.5892 -1.5003 -1.3874 0.5615 0 1
4.6201 -1.3075 -1.3797 0.5646 0 1
4.1908 -1.0060 -1.2384 0.6712 25 14
3.8800 -0.7679 -1.1365 0.7435 25 14
3.8658 -0.6048 -1.1243 0.7491 25 14
3.8563 -0.4455 -1.1155 0.7551 25 14
3.8479 -0.2884 -1.1088 0.7596 25 14
3.8405 -0.1330 -1.1042 0.7628 25 14
3.8356 0.0214 -1.1022 0.7642 25 14
3.8369 0.1757 -1.1037 0.7631 25 14
3.8391 0.3309 -1.1072 0.7607 25 14
3.8423 0.4873 -1.1129 0.7568 25 14
3.8465 0.6459 -1.1207 0.7515 25 14
3.8990 0.8170 -1.1447 0.7382 25 14
4.7378 1.1933 -1.4039 0.5572 0 1
4.7201 1.3928 -1.4141 0.5450 0 1
4.6956 1.5934 -1.4248 0.5409 0 1
4.6670 1.7959 -1.4369 0.5363 0 1
4.6342 2.0006 -1.4504 0.5313 0 1
4.5971 2.2078 -1.4654 0.5256 0 1
4.5556 2.4177 -1.4820 0.5197 0 1
4.5094 2.6307 -1.5001 0.5134 0 1
4.4582 2.8469 -1.5200 0.5067 0 1
4.4018 3.0667 -1.5415 0.4996 0 1
4.3403 3.2906 -1.5651 0.4921 0 1
4.2733 3.5189 -1.5906 0.4842 0 1
4.2002 3.7519 -1.6183 0.4759 0 1
4.1207 3.9899 -1.6482 0.4673 0 1
4.0343 4.2334 -1.6803 0.4584 0 1
3.9371 4.4787 -1.7135 0.4624 0 1
3.8297 4.7268 -1.7481 0.4532 0 1
3.7157 4.9829 -1.7861 0.4416 0 1
3.5942 5.2475 -1.8276 0.4316 0 1
3.4632 5.5196 -1.8724 0.4213 0 1
3.3220 5.7999 -1.9206 0.4107 0 1
3.1693 6.0883 -1.9723 0.3970 0 1
3.0037 6.3842 -2.0274 0.3862 0 1
2.8227 6.6844 -2.0850 0.3981 0 1
2.6232 6.9823 -2.1433 0.3873 0 1
2.4091 7.2897 -2.2061 0.3762 0 1
2.1792 7.6073 -2.2738 0.3650 0 1
-16.7517 22.9309 -8.5018 0.6303 0 2
-19.2299 24.2168 -9.2578 0.0826 0 2
-22.7903 26.4446 -10.4514 0.0731 0 25
-24.3669 26.0773 -10.6849 0.7081 0 21
-22.5272 22.2450 -9.4782 0.7179 0 5
-22.6509 20.6367 -9.1736 0.7473 0 5
-22.7308 19.0957 -8.8878 0.7141 0 5
-22.8096 17.6483 -8.6341 0.7964 0 5
-31.8448 22.6535 -11.6999 0.5609 0 3
-28.1823 18.3886 -10.0744 0.8483 0 3
-27.3528 16.3191 -9.5356 0.9481 0 3
-30.9998 16.8441 -10.5623 0.4382 0 3
-37.7711 18.5980 -12.6044 0.9032 0 3
-42.5934 18.8855 -13.9489 0.9189 0 3
-45.8876 8.1690 -13.9538 0.9943 0 6
-24.4980 -17.7763 -9.0616 0.3807 15 6
-33.4645 -31.0695 -13.6708 0.6460 0 20
-29.1427 -29.3239 -12.3771 0.5870 0 9
-24.4045 -26.6146 -10.8106 0.7893 0 9
-21.8890 -25.8871 -10.1493 0.0753 0 2
-18.4973 -23.7493 -9.0122 0.0848 0 2
-16.4541 -22.9740 -8.4600 0.0242 0 1
-13.5652 -20.6451 -7.3956 0.1010 0 1
-11.5705 -19.2532 -6.7248 0.1137 0 1
-9.8760 -18.0378 -6.1566 0.1230 0 1
-8.4069 -16.9367 -5.6608 0.1389 0 1
-7.1423 -15.9700 -5.2375 0.1486 0 1
-6.0429 -15.1140 -4.8731 0.1649 0 1
-5.0798 -14.3532 -4.5582 0.1799 0 1
-4.2260 -13.6632 -4.2817 0.1938 0 1
-3.4534 -12.9939 -4.0252 0.2033 0 24
-2.7787 -12.4509 -3.8193 0.2221 0 1
-2.1587 -11.9047 -3.6222 0.2280 0 1
-1.5942 -11.3799 -3.4402 0.2347 0 1
-1.0801 -10.8754 -3.2719 0.2461 0 1
-0.6117 -10.3928 -3.1168 0.2574 0 1
-0.1848 -9.9360 -2.9752 0.2716 0 1
0.2046 -9.4751 -2.8373 0.2806 0 24
0.5628 -9.0964 -2.7285 0.2962 0 1
0.8911 -8.7069 -2.6203 0.3084 0 1
1.1930 -8.3344 -2.5206 0.3208 0 1
1.4709 -7.9755 -2.4280 0.3345 0 1
1.7280 -7.6355 -2.3437 0.3500 0 1
1.9606 -7.2891 -2.2598 0.3612 0 24
2.1870 -6.9965 -2.1946 0.3738 0 1
2.3916 -6.6937 -2.1280 0.3845 0 1
2.5812 -6.4003 -2.0661 0.3960 0 1
2.7575 -6.1165 -2.0086 0.4073 0 1
2.9214 -5.8414 -1.9553 0.4184 0 1
3.0739 -5.5745 -1.9058 0.4290 0 1
3.2121 -5.3088 -1.8576 0.4246 0 1
3.3328 -5.0392 -1.8087 0.4361 0 1
3.4450 -4.7798 -1.7639 0.4406 0 1
3.5503 -4.5303 -1.7232 0.4510 0 1
3.6475 -4.2876 -1.6853 0.4612 0 1
3.7372 -4.0513 -1.6501 0.4710 0 1
3.8227 -3.8235 -1.6186 0.4996 0 1
3.9077 -3.6063 -1.5919 0.5080 0 1
3.9866 -3.3929 -1.5672 0.5160 0 1
4.0599 -3.1830 -1.5445 0.5236 0 1
4.1278 -2.9764 -1.5235 0.5308 0 1
4.1907 -2.7728 -1.5044 0.5377 0 1
4.2497 -2.5725 -1.4872 0.5439 0 1
4.3040 -2.3745 -1.4716 0.5496 0 1
4.3539 -2.1785 -1.4575 0.5550 0 1
4.3994 -1.9845 -1.4449 0.5599 0 1
4.4408 -1.7921 -1.4337 0.5643 0 1
4.4782 -1.6011 -1.4238 0.5682 0 1
4.5117 -1.4113 -1.4153 0.5716 0 1
4.5413 -1.2226 -1.4080 0.5746 0 1
4.2800 -0.9696 -1.3138 0.3410 25 14
3.8983 -0.7198 -1.1868 0.7283 25 14
3.8871 -0.5572 -1.1756 0.7440 25 14
3.8777 -0.3977 -1.1670 0.7495 25 14
3.8687 -0.2402 -1.1605 0.7910 25 14
3.8584 -0.0841 -1.1554 0.7945 25 14
3.8569 0.0709 -1.1549 0.7948 25 14
3.8615 0.2265 -1.1580 0.7553 25 14
3.8641 0.3829 -1.1625 0.7524 25 14
3.8677 0.5410 -1.1692 0.7481 25 14
3.8734 0.7015 -1.1785 0.7335 25 14
4.1800 0.9319 -1.2821 0.6733 25 14
4.6413 1.2325 -1.4377 0.5567 0 1
4.6193 1.4277 -1.4475 0.5529 0 1
4.5933 1.6246 -1.4586 0.5487 0 1
4.5632 1.8234 -1.4712 0.5440 0 1
4.5288 2.0243 -1.4851 0.5389 0 1
4.4901 2.2276 -1.5006 0.5330 0 1
4.4470 2.4336 -1.5177 0.5270 0 1
4.3990 2.6424 -1.5363 0.5206 0 1
4.3461 2.8544 -1.5567 0.5138 0 1
4.2879 3.0697 -1.5788 0.5066 0 1
4.2247 3.2890 -1.6029 0.4990 0 1
4.1558 3.5125 -1.6290 0.4910 0 1
4.0808 3.7404 -1.6573 0.4826 0 1
3.9993 3.9729 -1.6877 0.4739 0 1
3.9109 4.2106 -1.7204 0.4649 0 1
3.8126 4.4508 -1.7545 0.4690 0 1
3.7034 4.6926 -1.7897 0.4598 0 1
3.5882 4.9428 -1.8286 0.4480 0 1
3.4648 5.2002 -1.8708 0.4379 0 1
3.3319 5.4646 -1.9161 0.4275 0 1
3.1885 5.7360 -1.9647 0.4139 0 1
3.0331 6.0136 -2.0164 0.4033 0 1
2.8659 6.2995 -2.0719 0.3928 0 1
2.6855 6.5940 -2.1316 0.3818 0 1
2.4854 6.8821 -2.1906 0.3935 0 1
2.2706 7.1781 -2.2539 0.3824 0 1
2.0403 7.4833 -2.3221 0.3712 0 1
1.7972 7.8172 -2.4014 0.3396 0 1
1.5386 8.1861 -2.4937 0.3270 0 1
1.2571 8.5732 -2.5941 0.3144 0 1
0.9500 8.9806 -2.7036 0.3016 0 1
0.6110 9.3575 -2.8074 0.3107 0 1
0.2438 9.7490 -2.9196 0.2988 0 1
-0.1543 10.1582 -3.0415 0.2868 0 1
-0.5890 10.6249 -3.1858 0.2605 0 1
-1.0639 11.0971 -3.3375 0.2520 0 24
-1.5907 11.6440 -3.5184 0.2304 0 1
-2.1692 12.1999 -3.7097 0.2185 0 1
-2.7955 12.7303 -3.9020 0.2089 0 24
-3.5203 13.4300 -4.1565 0.1947 0 1
-4.3149 14.1213 -4.4206 0.1793 0 1
-5.2072 14.8743 -4.7181 0.1727 0 1
-6.1963 15.6525 -5.0399 0.1639 0 1
-7.2936 16.4589 -5.3896 0.1531 0 1
-8.5506 17.3747 -5.7974 0.1365 0 1
-10.0332 18.4741 -6.2938 0.1190 0 1
-11.8546 19.8792 -6.9293 0.1036 0 1
-13.9148 21.3355 -7.6258 0.1059 0 1
-16.3744 23.0282 -8.4594 0.1059 0 2
-18.2397 23.5841 -8.9258 0.0856 0 2
-21.5730 25.6906 -10.0433 0.0761 0 2
-24.3117 26.6958 -10.8098 0.5975 0 21
-22.5019 22.7968 -9.5897 0.7195 0 5
-22.6240 21.1490 -9.2718 0.7519 0 5
-22.7281 19.5956 -8.9842 0.7742 0 5
-22.7729 18.0911 -8.7073 0.8108 0 5
-22.8496 16.6996 -8.4729 0.7820 0 5
-28.1675 18.8979 -10.1549 0.0191 0 3
-26.5424 16.3004 -9.3251 0.9005 0 3
-31.9731 17.9074 -10.9712 0.8805 0 3
-33.2790 16.9193 -11.1768 0.3634 0 3
-36.9989 16.9754 -12.1870 0.1492 0 3
-43.0118 17.6783 -13.9221 0.3704 0 3
-26.6604 8.5275 -8.3800 0.9994 0 6
-45.9288 8.7849 -13.9995 0.9739 0 22
-45.9643 6.8901 -13.9146 0.9570 0 22
-34.3421 -31.0745 -13.8656 0.6369 0 20
-29.5553 -28.9866 -12.3935 0.9765 0 9
-25.0825 -26.6602 -10.9587 0.8110 0 9
-22.3576 -25.7644 -10.2126 0.9218 0 9
-19.5043 -24.3911 -9.3498 0.0818 0 2
-17.0386 -23.1574 -8.6073 0.8330 0 2
-14.1853 -20.9977 -7.5864 0.0943 0 24
-12.1706 -19.6761 -6.9265 0.1091 0 1
-10.3892 -18.4111 -6.3289 0.1208 0 1
-8.8514 -17.2728 -5.8106 0.1303 0 1
-7.5285 -16.2711 -5.3674 0.1450 0 1
-6.3767 -15.3745 -4.9830 0.1612 0 1
-5.3731 -14.5851 -4.6534 0.1763 0 1
-4.4876 -13.8768 -4.3663 0.1879 0 1
-3.6981 -13.2294 -4.1125 0.2018 0 1
-2.9887 -12.6284 -3.8851 0.2183 0 1
-2.3499 -12.0759 -3.6831 0.2243 0 1
-1.7617 -11.5008 -3.4833 0.2324 0 24
-1.2387 -11.0332 -3.3239 0.2429 0 1
-0.7563 -10.5440 -3.1648 0.2544 0 1
-0.3167 -10.0782 -3.0187 0.2677 0 1
0.0847 -9.6402 -2.8862 0.2800 0 1
0.4522 -9.2246 -2.7650 0.2923 0 1
0.7894 -8.8291 -2.6538 0.3045 0 1
1.0995 -8.4519 -2.5516 0.3167 0 1
1.3846 -8.0876 -2.4565 0.3306 0 1
1.6482 -7.7420 -2.3698 0.3461 0 1
1.8868 -7.3909 -2.2836 0.3574 0 24
2.1184 -7.0952 -2.2168 0.3700 0 1
2.3281 -6.7893 -2.1488 0.3807 0 1
2.5223 -6.4927 -2.0853 0.3923 0 1
2.7027 -6.2059 -2.0265 0.4037 0 1
2.8704 -5.9282 -1.9719 0.4149 0 1
3.0265 -5.6588 -1.9212 0.4258 0 1
3.1715 -5.3966 -1.8740 0.4209 0 1
3.2953 -5.1242 -1.8239 0.4325 0 1
3.4097 -4.8609 -1.7776 0.4372 0 1
3.5177 -4.6091 -1.7358 0.4477 0 1
3.6174 -4.3643 -1.6971 0.4580 0 1
3.7094 -4.1260 -1.6610 0.4679 0 1
3.7943 -3.8936 -1.6276 0.4775 0 1
3.8812 -3.6751 -1.6002 0.5054 0 1
3.9621 -3.4605 -1.5749 0.5135 0 1
4.0372 -3.2496 -1.5515 0.5213 0 1
4.1067 -3.0419 -1.5300 0.5286 0 1
4.1711 -2.8374 -1.5103 0.5355 0 1
4.2314 -2.6361 -1.4925 0.5419 0 1
4.2872 -2.4374 -1.4764 0.5478 0 1
4.3384 -2.2408 -1.4619 0.5533 0 1
4.3854 -2.0462 -1.4488 0.5584 0 1
4.4281 -1.8532 -1.4371 0.5629 0 1
4.4667 -1.6618 -1.4268 0.5670 0 1
4.5014 -1.4717 -1.4178 0.5706 0 1
4.5323 -1.2826 -1.4102 0.5737 0 1
4.2921 -1.0303 -1.3215 0.3390 25 14
3.9041 -0.7727 -1.1915 0.7255 25 14
3.8903 -0.6087 -1.1788 0.7420 25 14
3.8806 -0.4483 -1.1695 0.7479 25 14
3.8719 -0.2902 -1.1624 0.7524 25 14
3.8616 -0.1337 -1.1568 0.7935 25 14
3.8552 0.0215 -1.1542 0.7953 25 14
3.8606 0.1768 -1.1570 0.7934 25 14
3.8631 0.3329 -1.1608 0.7535 25 14
3.8665 0.4904 -1.1668 0.7496 25 14
3.8708 0.6499 -1.1751 0.7444 25 14
3.9109 0.8195 -1.1963 0.7336 25 14
4.6466 1.1704 -1.4346 0.5663 0 1
4.6267 1.3653 -1.4442 0.5542 0 1
4.6021 1.5616 -1.4549 0.5501 0 1
4.5733 1.7598 -1.4670 0.5456 0 1
4.5403 1.9600 -1.4805 0.5406 0 1
4.5029 2.1625 -1.4955 0.5348 0 1
4.4613 2.3676 -1.5120 0.5290 0 1
4.4149 2.5755 -1.5302 0.5227 0 1
4.3635 2.7864 -1.5500 0.5160 0 1
4.3070 3.0006 -1.5715 0.5089 0 1
4.2455 3.2187 -1.5950 0.5015 0 1
4.1784 3.4408 -1.6205 0.4936 0 1
4.1054 3.6672 -1.6480 0.4853 0 1
4.0260 3.8983 -1.6777 0.4768 0 1
3.9398 4.1343 -1.7097 0.4678 0 1
3.8457 4.3748 -1.7438 0.4718 0 1
3.7391 4.6150 -1.7782 0.4627 0 1
3.6256 4.8621 -1.8158 0.4511 0 1
3.5051 5.1174 -1.8570 0.4411 0 1
3.3753 5.3795 -1.9013 0.4308 0 1
3.2356 5.6490 -1.9490 0.4203 0 1
3.0839 5.9242 -1.9995 0.4067 0 1
2.9206 6.2074 -2.0538 0.3960 0 1
2.7445 6.4991 -2.1121 0.3853 0 1
2.5508 6.7896 -2.1714 0.3970 0 1
2.3407 7.0827 -2.2332 0.3860 0 1
2.1155 7.3849 -2.2998 0.3748 0 1
-15.2391 20.8605 -8.0472 0.1166 0 1
-16.9684 21.3689 -8.4996 0.0933 0 2
-19.8097 22.9861 -9.4522 0.0839 0 2
-23.2322 24.8629 -10.5996 0.0748 0 25
-27.4181 27.0747 -12.0028 0.0660 0 25
-22.5469 20.5420 -9.5010 0.7617 0 5
-22.6394 19.0189 -9.2103 0.7959 0 5
-22.6843 17.5514 -8.9342 0.7901 0 5
-31.8434 22.6525 -12.1728 0.5590 0 3
-28.0602 18.3090 -10.4367 0.8491 0 3
-28.2923 16.8797 -10.2623 0.4471 0 3
-32.6702 17.7518 -11.5819 0.4618 0 3
-37.6175 18.5223 -13.0611 0.9038 0 3
-31.0057 13.7476 -10.5649 0.5429 0 5
-45.7312 8.1411 -14.4690 0.7498 0 6
-24.3829 -17.6929 -9.3841 0.9233 15 6
-35.4021 -30.3128 -14.5177 0.7310 0 9
-28.8208 -26.7581 -12.2503 0.7887 0 9
-25.2484 -25.4054 -11.1571 0.6504 0 9
-22.3711 -24.3972 -10.3109 0.0769 0 2
-19.0986 -22.5869 -9.2138 0.0860 0 2
-17.2705 -22.1741 -8.7550 0.1105 0 2
-14.1992 -19.8255 -7.5961 0.1020 0 1
-12.2474 -18.6396 -6.9474 0.1159 0 1
-10.5484 -17.5524 -6.3789 0.1241 0 1
-9.0735 -16.5720 -5.8852 0.1385 0 1
-7.7896 -15.6931 -5.4574 0.1478 0 1
-6.6590 -14.8895 -5.0807 0.1640 0 1
-5.6669 -14.1736 -4.7548 0.1798 0 1
-4.7868 -13.5253 -4.4691 0.1903 0 1
-3.9986 -12.9281 -4.2153 0.2041 0 1
-3.2878 -12.3708 -3.9872 0.2148 0 1
-2.6443 -11.8488 -3.7816 0.2265 0 1
-2.0589 -11.3544 -3.5945 0.2329 0 1
-1.5227 -10.8697 -3.4189 0.2448 0 1
-1.0339 -10.4100 -3.2586 0.2562 0 1
-0.5867 -9.9678 -3.1103 0.2694 0 1
-0.1771 -9.5221 -2.9666 0.2783 0 24
0.1976 -9.1509 -2.8511 0.2939 0 1
0.5426 -8.7707 -2.7373 0.3061 0 1
0.8604 -8.4071 -2.6324 0.3183 0 1
1.1535 -8.0586 -2.5358 0.3306 0 1
1.4243 -7.7233 -2.4463 0.3477 0 1
1.6755 -7.4032 -2.3644 0.3597 0 1
1.9083 -7.0946 -2.2885 0.3717 0 1
2.1245 -6.7968 -2.2182 0.3834 0 1
2.3252 -6.5078 -2.1527 0.3941 0 1
2.5116 -6.2276 -2.0917 0.4056 0 1
2.6851 -5.9559 -2.0351 0.4169 0 1
2.8467 -5.6921 -1.9824 0.4279 0 1
2.9972 -5.4354 -1.9334 0.4385 0 1
3.1316 -5.1758 -1.8844 0.4341 0 1
3.2514 -4.9163 -1.8360 0.4455 0 1
3.3621 -4.6648 -1.7911 0.4567 0 1
3.4660 -4.4227 -1.7503 0.4604 0 1
3.5628 -4.1880 -1.7127 0.4705 0 1
3.6522 -3.9590 -1.6778 0.4803 0 1
3.7406 -3.7413 -1.6480 0.5089 0 1
3.8251 -3.5300 -1.6213 0.5172 0 1
3.9036 -3.3223 -1.5967 0.5252 0 1
3.9766 -3.1177 -1.5740 0.5328 0 1
4.0442 -2.9161 -1.5531 0.5400 0 1
4.1069 -2.7174 -1.5340 0.5468 0 1
4.1656 -2.5216 -1.5168 0.5530 0 1
4.2197 -2.3280 -1.5012 0.5587 0 1
4.2694 -2.1363 -1.4871 0.5641 0 1
4.3148 -1.9463 -1.4745 0.5689 0 1
4.3561 -1.7579 -1.4632 0.5733 0 1
4.3933 -1.5707 -1.4533 0.5772 0 1
4.4267 -1.3847 -1.4448 0.5806 0 1
4.4564 -1.1997 -1.4376 0.5866 0 1
4.4831 -1.0156 -1.4318 0.5890 0 1
3.9239 -0.7245 -1.2429 0.7211 25 14
3.9120 -0.5608 -1.2310 0.7368 25 14
3.9002 -0.4000 -1.2213 0.7794 25 14
3.8887 -0.2414 -1.2136 0.7843 25 14
3.8782 -0.0846 -1.2083 0.7877 25 14
3.8768 0.0713 -1.2078 0.7881 25 14
3.8824 0.2277 -1.2114 0.7857 25 14
3.8886 0.3854 -1.2172 0.7451 25 14
3.8924 0.5445 -1.2243 0.7408 25 14
3.8989 0.7061 -1.2342 0.7262 25 14
4.2730 0.9527 -1.3637 0.3407 25 14
4.5511 1.2085 -1.4668 0.5658 0 1
4.5289 1.3997 -1.4766 0.5620 0 1
4.5028 1.5925 -1.4877 0.5578 0 1
4.4725 1.7871 -1.5003 0.5532 0 1
4.4380 1.9837 -1.5142 0.5481 0 1
4.3991 2.1824 -1.5297 0.5422 0 1
4.3558 2.3837 -1.5467 0.5362 0 1
4.3077 2.5876 -1.5653 0.5298 0 1
4.2547 2.7944 -1.5856 0.5231 0 1
4.1965 3.0042 -1.6076 0.5159 0 1
4.1334 3.2179 -1.6317 0.5083 0 1
4.0645 3.4354 -1.6577 0.5003 0 1
3.9896 3.6568 -1.6858 0.4920 0 1
3.9083 3.8826 -1.7160 0.4833 0 1
3.8203 4.1130 -1.7486 0.4743 0 1
3.7250 4.3485 -1.7836 0.4650 0 1
3.6167 4.5827 -1.8185 0.4692 0 1
3.5021 4.8242 -1.8569 0.4574 0 1
3.3798 5.0727 -1.8987 0.4474 0 1
3.2483 5.3275 -1.9436 0.4370 0 1
3.1057 5.5870 -1.9911 0.4235 0 1
2.9524 5.8534 -2.0421 0.4129 0 1
2.7875 6.1273 -2.0969 0.4022 0 1
2.6101 6.4088 -2.1555 0.3915 0 1
2.4176 6.6945 -2.2171 0.4031 0 1
2.2070 6.9768 -2.2794 0.3921 0 1
1.9814 7.2673 -2.3464 0.3809 0 1
1.7411 7.5731 -2.4205 0.3494 0 1
1.4888 7.9210 -2.5106 0.3368 0 1
1.2148 8.2848 -2.6083 0.3242 0 1
0.9166 8.6645 -2.7140 0.3110 0 1
0.5900 9.0368 -2.8209 0.3206 0 1
0.2352 9.4020 -2.9296 0.3087 0 1
-0.1486 9.7820 -3.0474 0.2968 0 1
-0.5652 10.1951 -3.1806 0.2706 0 1
-1.0212 10.6524 -3.3334 0.2582 0 1
-1.5187 11.1171 -3.4951 0.2496 0 1
-2.0572 11.5699 -3.6605 0.2346 0 24
-2.6555 12.0930 -3.8567 0.2198 0 24
-3.3319 12.7111 -4.0932 0.2054 0 1
-4.0691 13.3168 -4.3375 0.1935 0 1
-4.8893 13.9662 -4.6093 0.1784 0 1
-5.8047 14.6632 -4.9124 0.1744 0 1
-6.8067 15.3601 -5.2333 0.1661 0 1
-7.8868 16.0259 -5.5638 0.1527 0 24
-9.2154 16.9683 -6.0147 0.1349 0 1
-10.7161 17.9700 -6.5173 0.1185 0 1
-12.5403 19.2279 -7.1507 0.1062 0 1
-14.6015 20.5349 -7.8487 0.1196 0 1
-16.7353 21.6389 -8.5210 0.6521 0 2
-18.8479 22.4453 -9.1297 0.0868 0 2
-22.0683 24.2324 -10.2094 0.0776 0 2
-25.9868 26.3275 -11.5230 0.0688 0 25
-17.6784 16.5259 -7.5381 0.8681 0 6
-22.5937 19.4797 -9.2925 0.8058 0 5
-22.6846 18.0209 -9.0245 0.7580 0 5
-31.0028 22.6583 -11.9615 0.5689 0 3
-28.0369 18.8103 -10.5168 0.8427 0 3
-28.9480 17.7777 -10.5818 0.5055 0 3
-29.2733 16.3953 -10.4513 0.3694 0 3
-33.0773 16.8168 -11.5586 0.9909 0 3
-29.9711 13.7511 -10.2716 0.2104 0 5
-33.3108 13.6911 -11.2184 0.4340 0 5
-26.5670 8.4976 -8.6885 0.9497 0 6
-45.7488 6.8578 -14.4098 0.9210 0 22
-35.3309 -24.9523 -13.4734 0.8376 0 20
-30.6466 -25.5677 -12.4322 0.1225 0 20
-30.1303 -27.2635 -12.6574 0.3953 0 9
-26.1158 -25.6132 -11.3944 0.4019 0 9
-23.3978 -24.8695 -10.6363 0.5593 0 9
-20.0754 -23.1344 -9.5413 0.0831 0 2
-17.5269 -21.9183 -8.7419 0.9279 0 2
-15.0488 -20.4531 -7.9098 0.0740 0 1
-12.8342 -18.9977 -7.1415 0.1128 0 1
-11.0637 -17.8867 -6.5513 0.1209 0 1
-9.5196 -16.8700 -6.0339 0.1351 0 1
-8.1810 -15.9646 -5.5878 0.1459 0 1
-7.0015 -15.1320 -5.1937 0.1604 0 1
-5.9683 -14.3898 -4.8526 0.1704 0 1
-5.0571 -13.7273 -4.5569 0.1866 0 1
-4.2408 -13.1134 -4.2931 0.2004 0 1
-3.5066 -12.5443 -4.0573 0.2121 0 1
-2.8428 -12.0119 -3.8450 0.2228 0 1
-2.2397 -11.5098 -3.6525 0.2345 0 1
-1.6882 -11.0212 -3.4731 0.2410 0 1
-1.1849 -10.5545 -3.3083 0.2530 0 1
-0.7249 -10.1058 -3.1560 0.2655 0 1
-0.3042 -9.6805 -3.0169 0.2778 0 1
0.0815 -9.2759 -2.8895 0.2900 0 1
0.4358 -8.8900 -2.7725 0.3022 0 1
0.7619 -8.5213 -2.6649 0.3144 0 1
1.0626 -8.1682 -2.5658 0.3266 0 1
1.3402 -7.8279 -2.4738 0.3438 0 1
1.5925 -7.4805 -2.3823 0.3554 0 24
1.8305 -7.1704 -2.3052 0.3673 0 24
2.0573 -6.8906 -2.2400 0.3797 0 1
2.2628 -6.5990 -2.1731 0.3904 0 1
2.4536 -6.3160 -2.1106 0.4019 0 1
2.6311 -6.0416 -2.0527 0.4133 0 1
2.7964 -5.7753 -1.9988 0.4244 0 1
2.9504 -5.5165 -1.9487 0.4351 0 1
3.0914 -5.2603 -1.9006 0.4304 0 1
3.2143 -4.9981 -1.8510 0.4419 0 1
3.3278 -4.7441 -1.8051 0.4531 0 1
3.4335 -4.4988 -1.7629 0.4571 0 1
3.5328 -4.2622 -1.7244 0.4673 0 1
3.6244 -4.0314 -1.6887 0.4772 0 1
3.7123 -3.8095 -1.6569 0.5062 0 1
3.7988 -3.5970 -1.6296 0.5146 0 1
3.8792 -3.3881 -1.6044 0.5227 0 1
3.9539 -3.1826 -1.5811 0.5304 0 1
4.0232 -2.9801 -1.5596 0.5377 0 1
4.0874 -2.7804 -1.5398 0.5446 0 1
4.1474 -2.5838 -1.5221 0.5510 0 1
4.2030 -2.3895 -1.5060 0.5569 0 1
4.2540 -2.1972 -1.4914 0.5625 0 1
4.3008 -2.0067 -1.4783 0.5674 0 1
4.3434 -1.8178 -1.4667 0.5720 0 1
4.3819 -1.6302 -1.4563 0.5760 0 1
4.4165 -1.4439 -1.4474 0.5796 0 1
4.4472 -1.2585 -1.4397 0.5827 0 1
4.4750 -1.0742 -1.4335 0.5883 0 1
3.9298 -0.7778 -1.2479 0.7183 25 14
3.9153 -0.6126 -1.2344 0.7347 25 14
3.9040 -0.4510 -1.2242 0.7775 25 14
3.8922 -0.2917 -1.2158 0.7829 25 14
3.8814 -0.1344 -1.2098 0.7868 25 14
3.8752 0.0216 -1.2071 0.7885 25 14
3.8805 0.1777 -1.2100 0.7866 25 14
3.8868 0.3350 -1.2152 0.7833 25 14
3.8911 0.4935 -1.2218 0.7424 25 14
3.8956 0.6541 -1.2305 0.7371 25 14
3.9230 0.8220 -1.2485 0.7289 25 14
4.5573 1.1479 -1.4639 0.5669 0 1
4.5364 1.3386 -1.4733 0.5633 0 1
4.5116 1.5309 -1.4840 0.5592 0 1
4.4826 1.7249 -1.4961 0.5547 0 1
4.4495 1.9208 -1.5096 0.5497 0 1
4.4119 2.1188 -1.5246 0.5444 0 1
4.3701 2.3193 -1.5411 0.5382 0 1
4.3236 2.5223 -1.5592 0.5319 0 1
4.2722 2.7281 -1.5790 0.5253 0 1
4.2156 2.9370 -1.6004 0.5182 0 1
4.1541 3.1494 -1.6238 0.5108 0 1
4.0871 3.3656 -1.6492 0.5029 0 1
4.0142 3.5858 -1.6766 0.4947 0 1
3.9350 3.8101 -1.7062 0.4861 0 1
3.8491 4.0390 -1.7380 0.4772 0 1
3.7561 4.2729 -1.7721 0.4680 0 1
3.6520 4.5075 -1.8071 0.4722 0 1
3.5393 4.7463 -1.8442 0.4606 0 1
3.4198 4.9928 -1.8851 0.4506 0 1
