ply
format ascii 1.0
element vertex 1368
property float32 x
property float32 y
property float32 z
property float32 CosAngle
property uint32 ObjIdx
property uint32 ObjTag
end_header
1.7320 -11.8470 -2.3170 0.2296 0 1
2.0918 -11.1513 -2.1956 0.2423 0 1
2.4150 -10.5185 -2.0885 0.2569 0 1
2.7062 -9.9346 -1.9926 0.2688 0 1
2.9691 -9.3915 -1.9061 0.2822 0 1
3.2084 -8.8869 -1.8284 0.2942 0 1
3.4264 -8.4140 -1.7581 0.3033 0 1
3.6273 -7.9725 -1.6950 0.3146 0 1
3.8110 -7.5540 -1.6373 0.3281 0 1
3.9805 -7.1581 -1.5850 0.3389 0 1
4.1363 -6.7805 -1.5370 0.3495 0 1
4.2797 -6.4193 -1.4930 0.3598 0 1
4.3985 -6.0545 -1.4482 0.3612 0 1
4.5044 -5.7026 -1.4063 0.3720 0 1
4.6023 -5.3675 -1.3683 0.3859 0 1
4.6929 -5.0470 -1.3337 0.3959 0 1
4.7757 -4.7384 -1.3019 0.4056 0 1
4.8514 -4.4406 -1.2727 0.4149 0 1
4.9167 -4.1493 -1.2450 0.4135 0 1
4.9771 -3.8683 -1.2199 0.4392 0 1
5.0444 -3.6046 -1.1998 0.4465 0 1
5.1075 -3.3476 -1.1818 0.4534 0 1
5.1660 -3.0961 -1.1655 0.4597 0 1
5.2198 -2.8493 -1.1508 0.4656 0 1
5.2691 -2.6066 -1.1376 0.4710 0 1
5.3141 -2.3676 -1.1258 0.4759 0 1
5.3550 -2.1319 -1.1154 0.4805 0 1
5.3921 -1.8990 -1.1063 0.4844 0 1
5.4254 -1.6685 -1.0984 0.4879 0 1
5.4550 -1.4401 -1.0918 0.4908 0 1
3.8850 -0.8600 -0.7700 0.6407 25 14
3.8356 -0.6884 -0.7541 0.9717 25 14
3.8339 -0.5298 -0.7490 0.9784 25 14
3.8322 -0.3731 -0.7451 0.9835 25 14
3.8304 -0.2178 -0.7425 0.9870 25 14
3.8282 -0.0633 -0.7409 0.9973 25 14
3.8286 0.0908 -0.7411 0.9888 25 14
3.8296 0.2453 -0.7426 0.9867 25 14
3.8306 0.4007 -0.7453 0.9832 25 14
3.8315 0.5575 -0.7493 0.9780 25 14
3.8324 0.7162 -0.7545 0.9712 25 14
3.9346 0.9006 -0.7811 0.5479 25 14
5.5901 1.5187 -1.1210 0.4725 0 1
5.5800 1.7600 -1.1323 0.4678 0 1
5.5662 2.0053 -1.1449 0.4626 0 1
5.5420 2.2525 -1.1577 0.4577 0 1
5.5112 2.5030 -1.1714 0.4523 0 1
5.4760 2.7580 -1.1865 0.4465 0 1
5.4362 3.0182 -1.2033 0.4403 0 1
5.3915 3.2840 -1.2217 0.4337 0 1
5.3418 3.5561 -1.2418 0.4267 0 1
5.2865 3.8352 -1.2639 0.4192 0 1
5.2258 4.1221 -1.2880 0.4114 0 1
5.1552 4.4143 -1.3134 0.4150 0 1
5.0728 4.7106 -1.3397 0.4069 0 1
4.9832 5.0157 -1.3682 0.3984 0 1
4.8859 5.3306 -1.3993 0.3895 0 1
4.7801 5.6564 -1.4331 0.3803 0 1
4.6683 5.9981 -1.4709 0.3689 0 1
4.5480 6.3555 -1.5124 0.3588 0 1
4.4019 6.7063 -1.5524 0.3866 0 1
4.2360 7.0573 -1.5928 0.3768 0 1
4.0586 7.4233 -1.6372 0.3572 0 1
3.8795 7.8288 -1.6908 0.3459 0 1
3.6847 8.2553 -1.7495 0.3343 0 1
3.4725 8.7054 -1.8137 0.3224 0 1
3.2394 9.1783 -1.8835 0.3120 0 1
2.9869 9.6890 -1.9621 0.2995 0 1
2.7090 10.2338 -2.0486 0.2845 0 1
2.4019 10.8164 -2.1442 0.2698 0 1
2.0658 11.4662 -2.2546 0.2481 0 1
1.6915 12.1795 -2.3796 0.2351 0 1
1.2712 12.9650 -2.5210 0.2204 0 1
0.7959 13.8316 -2.6811 0.2079 0 1
0.2550 14.8075 -2.8659 0.1877 0 1
-0.3679 15.9624 -3.0898 0.1717 0 1
-1.0960 17.2914 -3.3529 0.1545 0 24
-1.9535 18.7958 -3.6569 0.1458 0 1
-2.9569 20.4175 -3.9924 0.1381 0 1
-4.1434 22.2538 -4.3805 0.1243 0 1
-5.5689 24.4056 -4.8443 0.1150 0 1
-7.2699 26.8307 -5.3794 0.1104 0 1
-9.4561 30.0509 -6.0965 0.0877 0 1
-12.4278 34.5689 -7.1089 0.0754 0 1
-16.5312 40.7510 -8.5102 0.0697 0 2
-16.0231 28.9057 -6.3957 0.5330 0 15
-16.2452 26.7110 -6.0500 0.5676 0 15
-17.4116 26.1926 -6.0865 0.7499 0 15
-28.8766 36.6593 -9.0308 0.7755 0 3
-27.8903 32.6159 -8.3047 0.9661 0 3
-28.8960 31.1601 -8.2238 0.6885 0 3
-28.0671 27.9228 -7.6616 0.9824 0 3
-18.0117 16.5311 -4.7311 0.6678 0 22
-19.4984 16.5002 -4.9430 0.7148 0 22
-29.0510 22.6418 -7.1277 0.4430 0 3
-29.2438 20.9563 -6.9623 0.8132 0 3
-29.2917 19.2548 -6.7835 0.8346 0 3
-29.5799 17.7820 -6.6789 0.5116 0 3
-32.2447 17.6574 -7.1143 0.4679 0 3
-39.1659 19.4411 -8.4617 0.8912 0 3
-39.6155 17.7143 -8.3978 0.4069 0 3
-40.1008 16.0273 -8.3571 0.2218 0 3
-27.6463 9.7785 -5.6748 0.9607 0 22
-27.6012 8.5292 -5.5905 0.8863 0 6
-27.6561 7.3408 -5.5373 0.9567 0 22
-26.0717 -11.7985 -5.5379 0.5297 15 6
-31.3718 -15.7478 -6.7929 0.9089 0 22
-32.8338 -32.9589 -9.0029 0.9967 0 20
-31.5726 -34.3539 -9.0293 0.9942 0 20
-15.8467 -39.5717 -8.2490 0.0644 0 1
-11.8699 -33.4876 -6.8755 0.0741 0 1
-9.0592 -29.2466 -5.9250 0.0850 0 1
-6.8390 -25.6959 -5.1457 0.0893 0 1
-5.1112 -22.8716 -4.5352 0.1086 0 1
-3.7390 -20.5942 -4.0505 0.1230 0 24
-2.6641 -18.9950 -3.7119 0.1479 0 1
-1.7496 -17.5998 -3.4227 0.1555 0 1
-0.9633 -16.3572 -3.1709 0.1715 0 1
-0.2834 -15.2672 -2.9550 0.1826 0 1
0.3101 -14.2914 -2.7663 0.2021 0 1
0.8332 -13.4317 -2.6043 0.2140 0 1
1.2972 -12.6462 -2.4601 0.2266 0 1
1.7064 -11.8958 -2.3256 0.2287 0 1
2.0690 -11.1960 -2.2033 0.2414 0 1
2.3945 -10.5592 -2.0953 0.2560 0 1
2.6876 -9.9723 -1.9987 0.2684 0 1
2.9523 -9.4264 -1.9116 0.2814 0 1
3.1931 -8.9196 -1.8334 0.2934 0 1
3.4124 -8.4444 -1.7625 0.3026 0 1
3.6144 -8.0012 -1.6990 0.3139 0 1
3.7991 -7.5811 -1.6410 0.3274 0 1
3.9696 -7.1840 -1.5884 0.3382 0 1
4.1263 -6.8052 -1.5401 0.3488 0 1
4.2705 -6.4430 -1.4959 0.3591 0 1
4.3911 -6.0786 -1.4511 0.3605 0 1
4.4976 -5.7256 -1.4090 0.3713 0 1
4.5960 -5.3894 -1.3707 0.3852 0 1
4.6871 -5.0680 -1.3359 0.3953 0 1
4.7704 -4.7587 -1.3039 0.4049 0 1
4.8465 -4.4602 -1.2746 0.4143 0 1
4.9125 -4.1685 -1.2468 0.4129 0 1
4.9724 -3.8862 -1.2213 0.4387 0 1
5.0401 -3.6220 -1.2011 0.4461 0 1
5.1034 -3.3646 -1.1829 0.4530 0 1
5.1623 -3.1128 -1.1666 0.4593 0 1
5.2164 -2.8657 -1.1518 0.4652 0 1
5.2660 -2.6227 -1.1385 0.4707 0 1
5.3112 -2.3835 -1.1266 0.4756 0 1
5.3524 -2.1476 -1.1161 0.4802 0 1
5.3897 -1.9145 -1.1069 0.4842 0 1
5.4233 -1.6839 -1.0989 0.4877 0 1
5.4531 -1.4553 -1.0922 0.4907 0 1
3.8949 -0.8732 -0.7724 0.6386 25 14
3.8357 -0.6991 -0.7545 0.9712 25 14
3.8340 -0.5404 -0.7493 0.9780 25 14
3.8323 -0.3836 -0.7453 0.9832 25 14
3.8305 -0.2282 -0.7426 0.9868 25 14
3.8286 -0.0737 -0.7410 0.9972 25 14
3.8285 0.0805 -0.7410 0.9888 25 14
3.8295 0.2350 -0.7425 0.9869 25 14
3.8305 0.3903 -0.7451 0.9834 25 14
3.8315 0.5470 -0.7490 0.9784 25 14
3.8323 0.7055 -0.7541 0.9717 25 14
3.9212 0.8864 -0.7780 0.5501 25 14
5.5906 1.5027 -1.1203 0.4728 0 1
5.5808 1.7437 -1.1315 0.4681 0 1
5.5672 1.9888 -1.1440 0.4630 0 1
5.5439 2.2359 -1.1568 0.4580 0 1
5.5134 2.4861 -1.1704 0.4527 0 1
5.4785 2.7408 -1.1855 0.4469 0 1
5.4390 3.0006 -1.2021 0.4408 0 1
5.3947 3.2661 -1.2204 0.4342 0 1
5.3453 3.5377 -1.2404 0.4271 0 1
5.2904 3.8163 -1.2624 0.4197 0 1
5.2300 4.1026 -1.2863 0.4119 0 1
5.1605 4.3948 -1.3117 0.4155 0 1
5.0785 4.6905 -1.3378 0.4074 0 1
4.9894 4.9950 -1.3662 0.3990 0 1
4.8926 5.3093 -1.3972 0.3901 0 1
-1.0736 16.2443 -3.3380 0.1619 0 24
-1.8764 17.5929 -3.6277 0.1525 0 1
-2.8061 19.0153 -3.9411 0.1448 0 1
-3.8960 20.6167 -4.3021 0.1358 0 1
-5.1850 22.4445 -4.7232 0.1219 0 1
-6.7229 24.5499 -5.2190 0.1142 0 1
-8.5780 27.0062 -5.8100 0.1023 0 1
-11.0381 30.4459 -6.6402 0.0819 0 1
-14.2302 34.8097 -7.7107 0.0735 0 1
-17.7458 38.8649 -8.7602 0.0611 0 2
-15.7230 31.0613 -7.1383 0.4546 0 15
-15.9124 28.5245 -6.6971 0.5400 0 15
-16.1290 26.3598 -6.3363 0.5686 0 15
-17.4760 26.1365 -6.4466 0.7132 0 15
-29.8339 37.6656 -9.8521 0.7722 0 3
-28.6478 33.3197 -9.0098 0.6644 0 3
-30.4559 32.6655 -9.1573 0.7212 0 3
-27.9297 27.6370 -8.0564 0.8409 0 3
-18.1029 16.5253 -5.0258 0.6166 0 22
-19.6022 16.4977 -5.2533 0.6646 0 22
-29.0616 22.5247 -7.5390 0.7939 0 3
-28.3752 20.2184 -7.1439 0.0631 0 3
-29.1692 19.0621 -7.1447 0.8377 0 3
-29.7577 17.7799 -7.1077 0.5082 0 3
-29.4214 16.0086 -6.8677 0.9522 0 3
-34.0919 16.8082 -7.7936 0.8619 0 3
-39.8967 17.7113 -8.9502 0.4036 0 3
-43.9605 17.4328 -9.6965 0.9248 0 3
-27.5359 9.6561 -5.9830 0.9101 0 22
-27.5531 7.2341 -5.8409 0.9588 0 22
-23.9880 -4.5164 -5.0049 0.4183 16 6
-31.2401 -15.7871 -7.1769 0.9095 0 22
-32.6573 -32.9588 -9.5134 0.9976 0 20
-31.3376 -34.2830 -9.5236 0.9976 0 20
-16.6009 -37.3276 -8.3764 0.0639 0 2
-13.1502 -33.0959 -7.3020 0.0697 0 1
-10.2031 -29.0332 -6.3099 0.0865 0 1
-7.8638 -25.6313 -5.4972 0.0892 0 1
-6.0143 -22.8446 -4.8437 0.1061 0 1
-4.5467 -20.6061 -4.3267 0.1213 0 24
-3.3911 -18.9682 -3.9509 0.1454 0 1
-2.4225 -17.6173 -3.6462 0.1543 0 1
-1.5852 -16.3945 -3.3772 0.1705 0 1
-0.8612 -15.3261 -3.1474 0.1827 0 1
-0.2280 -14.3644 -2.9456 0.2007 0 1
0.3297 -13.5165 -2.7722 0.2125 0 1
0.8248 -12.7410 -2.6179 0.2250 0 1
1.2652 -12.0159 -2.4773 0.2270 0 1
1.6549 -11.3197 -2.3457 0.2397 0 1
1.9988 -10.6557 -2.2229 0.2529 0 24
2.3184 -10.0978 -2.1243 0.2670 0 1
2.6025 -9.5542 -2.0304 0.2789 0 1
2.8606 -9.0482 -1.9458 0.2923 0 1
3.0958 -8.5749 -1.8693 0.3043 0 1
3.3103 -8.1287 -1.7996 0.3160 0 1
3.5075 -7.7092 -1.7366 0.3270 0 1
3.6903 -7.3147 -1.6799 0.3381 0 1
3.8583 -6.9384 -1.6278 0.3489 0 1
4.0131 -6.5785 -1.5800 0.3595 0 1
4.1558 -6.2334 -1.5361 0.3697 0 1
4.2724 -5.8809 -1.4904 0.3711 0 1
4.3789 -5.5438 -1.4485 0.3854 0 1
4.4785 -5.2231 -1.4107 0.3957 0 1
4.5698 -4.9145 -1.3760 0.4057 0 1
4.6533 -4.6169 -1.3441 0.4153 0 1
4.7264 -4.3262 -1.3138 0.4143 0 1
4.7927 -4.0447 -1.2859 0.4233 0 1
4.8588 -3.7764 -1.2618 0.4489 0 1
4.9265 -3.5203 -1.2415 0.4562 0 1
4.9897 -3.2704 -1.2233 0.4631 0 1
5.0485 -3.0257 -1.2068 0.4694 0 1
5.1026 -2.7853 -1.1919 0.4753 0 1
5.1521 -2.5487 -1.1786 0.4806 0 1
5.1972 -2.3156 -1.1666 0.4856 0 1
5.2384 -2.0855 -1.1561 0.4901 0 1
5.2756 -1.8580 -1.1468 0.4940 0 1
5.3089 -1.6327 -1.1389 0.4975 0 1
5.3386 -1.4093 -1.1321 0.5004 0 1
3.8823 -0.8594 -0.8153 0.6397 25 14
3.8336 -0.6880 -0.7986 0.9701 25 14
3.8319 -0.5295 -0.7932 0.9767 25 14
3.8302 -0.3729 -0.7891 0.9818 25 14
3.8277 -0.2177 -0.7861 0.9938 25 14
3.8221 -0.0632 -0.7838 0.9967 25 14
3.8236 0.0907 -0.7842 0.9962 25 14
3.8277 0.2452 -0.7864 0.9851 25 14
3.8286 0.4005 -0.7893 0.9815 25 14
3.8296 0.5572 -0.7935 0.9763 25 14
3.8304 0.7159 -0.7990 0.9696 25 14
3.9226 0.8979 -0.8251 0.5483 25 14
5.4680 1.4855 -1.1618 0.4897 0 1
5.4571 1.7212 -1.1732 0.4849 0 1
5.4423 1.9607 -1.1861 0.4726 0 1
5.4148 2.2008 -1.1985 0.4674 0 1
5.3832 2.4449 -1.2123 0.4621 0 1
5.3472 2.6932 -1.2276 0.4563 0 1
5.3066 2.9463 -1.2445 0.4501 0 1
5.2611 3.2046 -1.2631 0.4435 0 1
5.2104 3.4687 -1.2834 0.4364 0 1
5.1543 3.7393 -1.3057 0.4290 0 1
5.0928 4.0171 -1.3300 0.4212 0 1
5.0251 4.3029 -1.3565 0.4248 0 1
4.9423 4.5893 -1.3829 0.4167 0 1
4.8523 4.8839 -1.4116 0.4082 0 1
4.7547 5.1875 -1.4428 0.3994 0 1
4.6488 5.5010 -1.4767 0.3902 0 1
4.5364 5.8286 -1.5144 0.3788 0 1
4.4159 6.1711 -1.5559 0.3687 0 1
4.2833 6.5256 -1.6005 0.3965 0 1
4.1190 6.8623 -1.6410 0.3867 0 1
3.9426 7.2112 -1.6851 0.3765 0 1
3.7636 7.5949 -1.7380 0.3557 0 1
3.5709 8.0003 -1.7964 0.3442 0 1
3.3615 8.4269 -1.8602 0.3324 0 1
3.1327 8.8759 -1.9299 0.3263 0 1
2.8842 9.3558 -2.0074 0.3069 0 1
2.6112 9.8643 -2.0922 0.2945 0 1
2.3111 10.4073 -2.1859 0.2819 0 1
1.9813 10.9970 -2.2911 0.2669 0 1
1.6181 11.6514 -2.4119 0.2452 0 1
1.2056 12.2955 -2.5332 0.2321 0 24
0.7570 13.1559 -2.7019 0.2181 0 1
0.2412 14.0105 -2.8731 0.1979 0 1
-0.3458 15.0030 -3.0770 0.1760 0 1
-1.0261 16.1882 -3.3259 0.1686 0 1
-1.8191 17.5025 -3.6080 0.1533 0 1
-2.7392 18.9145 -3.9187 0.1439 0 1
-3.8178 20.5052 -4.2766 0.1366 0 1
-5.0910 22.3113 -4.6923 0.1227 0 1
-6.6112 24.3999 -5.1833 0.1150 0 1
-8.4382 26.8161 -5.7641 0.1031 0 1
-10.8501 30.1806 -6.5760 0.0827 0 1
-13.9889 34.4841 -7.6302 0.0723 0 1
-17.4235 38.4326 -8.6522 0.0619 0 2
-15.7203 31.2646 -7.1752 0.4395 0 15
-15.8978 28.6796 -6.7235 0.5379 0 15
-16.1183 26.5023 -6.3601 0.5757 0 15
-17.3677 26.1265 -6.4326 0.7731 0 15
-27.4848 37.9398 -9.6059 0.4362 0 3
-29.6701 37.6667 -9.8314 0.7738 0 3
-28.6403 33.4930 -9.0358 0.6625 0 3
-30.2930 32.6666 -9.1347 0.7230 0 3
-28.8391 28.6910 -8.3410 0.7176 0 3
-18.0056 16.5255 -5.0111 0.6620 0 22
-19.5030 16.5041 -5.2386 0.6665 0 22
-29.0575 22.6469 -7.5538 0.7924 0 3
-28.5410 20.4526 -7.1995 0.0627 0 3
-29.1660 19.1722 -7.1565 0.8363 0 3
-29.5785 17.7811 -7.0763 0.5105 0 3
-32.4353 17.7618 -7.5824 0.4764 0 3
-32.4536 16.1093 -7.4290 0.4957 0 3
-39.2678 17.5588 -8.8197 0.9814 0 3
-43.6172 17.4327 -9.6311 0.3819 0 3
-27.5404 9.7410 -5.9897 0.9091 0 22
-27.5099 8.5010 -5.9038 0.9192 0 6
-27.5566 7.3144 -5.8459 0.9418 0 22
-31.2471 -15.6852 -7.1688 0.9106 0 22
-32.7407 -32.8655 -9.5119 0.9977 0 20
-31.4356 -34.2048 -9.5253 0.9975 0 20
-16.9038 -37.7347 -8.4779 0.0631 0 2
-13.3952 -33.4498 -7.3880 0.0662 0 1
-10.3750 -29.2701 -6.3674 0.0857 0 1
-8.0054 -25.8444 -5.5475 0.0884 0 1
-6.1236 -23.0080 -4.8818 0.1052 0 1
-4.6340 -20.7361 -4.3566 0.1205 0 24
-3.4619 -19.0677 -3.9736 0.1446 0 1
-2.4832 -17.7054 -3.6658 0.1535 0 1
-1.6373 -16.4707 -3.3938 0.1689 0 1
-0.9066 -15.3941 -3.1619 0.1818 0 1
-0.2678 -14.4240 -2.9580 0.1998 0 1
0.2945 -13.5709 -2.7832 0.2116 0 1
0.7935 -12.7908 -2.6277 0.2242 0 1
1.2375 -12.0647 -2.4867 0.2261 0 1
1.6302 -11.3644 -2.3540 0.2389 0 1
1.9766 -10.6963 -2.2303 0.2519 0 24
2.2984 -10.1355 -2.1309 0.2661 0 1
2.5844 -9.5894 -2.0364 0.2781 0 1
2.8441 -9.0809 -1.9511 0.2915 0 1
3.0807 -8.6056 -1.8742 0.3035 0 1
3.2965 -8.1577 -1.8041 0.3152 0 1
3.4948 -7.7364 -1.7406 0.3233 0 1
3.6785 -7.3404 -1.6835 0.3374 0 1
3.8475 -6.9630 -1.6312 0.3482 0 1
4.0031 -6.6021 -1.5831 0.3588 0 1
4.1466 -6.2560 -1.5389 0.3691 0 1
4.2649 -5.9039 -1.4934 0.3703 0 1
4.3720 -5.5657 -1.4512 0.3811 0 1
4.4722 -5.2442 -1.4132 0.3950 0 1
4.5639 -4.9348 -1.3782 0.4050 0 1
4.6479 -4.6365 -1.3461 0.4147 0 1
4.7218 -4.3454 -1.3157 0.4137 0 1
4.7885 -4.0633 -1.2877 0.4227 0 1
4.8541 -3.7937 -1.2632 0.4484 0 1
4.9221 -3.5372 -1.2428 0.4557 0 1
4.9856 -3.2869 -1.2244 0.4626 0 1
5.0448 -3.0419 -1.2079 0.4690 0 1
5.0991 -2.8012 -1.1929 0.4749 0 1
5.1489 -2.5644 -1.1794 0.4803 0 1
5.1944 -2.3311 -1.1674 0.4853 0 1
5.2358 -2.1008 -1.1567 0.4898 0 1
5.2732 -1.8731 -1.1474 0.4938 0 1
5.3068 -1.6477 -1.1393 0.4973 0 1
5.3367 -1.4242 -1.1325 0.5003 0 1
3.8922 -0.8726 -0.8179 0.6377 25 14
3.8337 -0.6987 -0.7990 0.9696 25 14
3.8320 -0.5401 -0.7935 0.9763 25 14
3.8303 -0.3834 -0.7893 0.9815 25 14
3.8280 -0.2280 -0.7863 0.9935 25 14
3.8225 -0.0735 -0.7839 0.9966 25 14
3.8232 0.0804 -0.7841 0.9963 25 14
3.8276 0.2349 -0.7863 0.9853 25 14
3.8286 0.3901 -0.7891 0.9818 25 14
3.8295 0.5467 -0.7932 0.9767 25 14
3.8304 0.7052 -0.7986 0.9701 25 14
3.9093 0.8837 -0.8218 0.5505 25 14
5.4686 1.4699 -1.1611 0.4900 0 1
5.4579 1.7053 -1.1724 0.4853 0 1
5.4435 1.9446 -1.1852 0.4800 0 1
5.4168 2.1847 -1.1976 0.4677 0 1
5.3855 2.4284 -1.2113 0.4624 0 1
5.3498 2.6764 -1.2265 0.4567 0 1
5.3095 2.9292 -1.2433 0.4505 0 1
5.2643 3.1871 -1.2618 0.4439 0 1
5.2140 3.4509 -1.2820 0.4369 0 1
5.1583 3.7210 -1.3041 0.4295 0 1
5.0970 3.9983 -1.3283 0.4217 0 1
5.0302 4.2838 -1.3547 0.4135 0 1
4.9480 4.5699 -1.3810 0.4173 0 1
4.8586 4.8640 -1.4096 0.4088 0 1
4.7615 5.1669 -1.4407 0.4000 0 1
-1.0097 15.2781 -3.3167 0.1721 0 1
-1.7528 16.4342 -3.5801 0.1629 0 1
-2.6096 17.6837 -3.8720 0.1527 0 1
-3.6055 19.0790 -4.2059 0.1430 0 1
-4.7663 20.6322 -4.5869 0.1342 0 1
-6.1398 22.4208 -5.0355 0.1223 0 1
-7.7656 24.4486 -5.5566 0.1123 0 1
-9.7868 26.9945 -6.2198 0.1007 0 1
-12.4238 30.3907 -7.1119 0.0853 0 1
-15.6962 34.3762 -8.1859 0.0754 0 1
-15.6096 30.8371 -7.4868 0.4296 0 15
-15.7948 28.3137 -7.0229 0.5413 0 15
-16.0219 26.1847 -6.6495 0.6649 0 15
-17.4586 26.1105 -6.8037 0.7316 0 15
-28.2259 38.7427 -10.3832 0.6076 0 3
-29.8329 37.6645 -10.4079 0.7704 0 3
-28.4932 33.1399 -9.4671 0.6664 0 3
-30.4549 32.6644 -9.6739 0.7195 0 3
-28.7012 28.4004 -8.7463 0.7213 0 3
-30.3110 27.6694 -8.8900 0.6640 0 3
-19.6303 16.5213 -5.5577 0.6271 0 22
-28.9303 22.4229 -7.9286 0.7957 0 3
-28.9907 20.6570 -7.7109 0.8181 0 3
-29.0443 18.9804 -7.5157 0.8394 0 3
-27.3395 16.3351 -6.8987 0.7440 0 3
-32.6394 17.7595 -8.0490 0.4730 0 3
-33.1100 16.3241 -7.9964 0.4656 0 3
-39.8943 17.7102 -9.4549 0.4027 0 3
-44.5734 17.6759 -10.3867 0.3665 0 3
-27.4123 9.6128 -6.2924 0.9049 0 22
-27.4535 7.2079 -6.1483 0.9438 0 22
-25.6700 -9.2871 -5.9132 0.7481 15 6
-31.1158 -15.7243 -7.5519 0.9110 0 22
-32.7375 -33.0398 -10.0751 0.9930 0 20
-31.1753 -34.1054 -10.0091 0.9685 0 20
-22.9887 -42.1822 -10.4061 0.5644 0 9
-18.2608 -36.9755 -8.9329 0.0632 0 2
-14.7590 -33.1860 -7.8674 0.0663 0 1
-11.4757 -28.8817 -6.7319 0.0855 0 1
-9.0198 -25.6661 -5.8929 0.0877 0 1
-7.0343 -22.9277 -5.1949 0.1046 0 1
-5.4472 -20.6905 -4.6346 0.1199 0 24
-4.2029 -19.0479 -4.2253 0.1380 0 1
-3.1590 -17.6702 -3.8883 0.1573 0 1
-2.2657 -16.4766 -3.6026 0.1677 0 1
-1.4911 -15.4210 -3.3560 0.1808 0 1
-0.8133 -14.4740 -3.1402 0.1984 0 1
-0.2164 -13.6340 -2.9537 0.2109 0 1
0.3138 -12.8658 -2.7877 0.2227 0 1
0.7870 -12.1563 -2.6387 0.2252 0 1
1.2082 -11.4741 -2.4992 0.2371 0 1
1.5841 -10.8353 -2.3720 0.2499 0 1
1.9174 -10.2217 -2.2528 0.2628 0 24
2.2288 -9.7074 -2.1575 0.2766 0 1
2.5062 -9.2003 -2.0655 0.2889 0 1
2.7593 -8.7278 -1.9828 0.3023 0 1
2.9903 -8.2827 -1.9075 0.3142 0 1
3.2015 -7.8617 -1.8387 0.3260 0 1
3.3959 -7.4639 -1.7763 0.3400 0 1
3.5765 -7.0891 -1.7199 0.3480 0 1
3.7429 -6.7308 -1.6683 0.3588 0 1
3.8965 -6.3873 -1.6207 0.3693 0 1
4.0360 -6.0537 -1.5760 0.3699 0 1
4.1527 -5.7161 -1.5305 0.3809 0 1
4.2607 -5.3941 -1.4890 0.3951 0 1
4.3607 -5.0857 -1.4512 0.4054 0 1
4.4524 -4.7883 -1.4163 0.4154 0 1
4.5336 -4.4981 -1.3834 0.4147 0 1
4.6073 -4.2171 -1.3529 0.4240 0 1
4.6744 -3.9448 -1.3249 0.4330 0 1
4.7455 -3.6883 -1.3019 0.4585 0 1
4.8134 -3.4395 -1.2815 0.4659 0 1
4.8768 -3.1964 -1.2631 0.4727 0 1
4.9358 -2.9581 -1.2465 0.4790 0 1
4.9900 -2.7238 -1.2314 0.4848 0 1
5.0396 -2.4931 -1.2179 0.4902 0 1
5.0849 -2.2655 -1.2058 0.4952 0 1
5.1262 -2.0408 -1.1952 0.4996 0 1
5.1635 -1.8185 -1.1858 0.5036 0 1
5.1969 -1.5983 -1.1777 0.5070 0 1
5.2266 -1.3798 -1.1709 0.5100 0 1
3.8795 -0.8588 -0.8607 0.6386 25 14
3.8316 -0.6877 -0.8432 0.9683 25 14
3.8299 -0.5293 -0.8375 0.9749 25 14
3.8269 -0.3726 -0.8329 0.9886 25 14
3.8215 -0.2173 -0.8291 0.9931 25 14
3.8160 -0.0631 -0.8267 0.9960 25 14
3.8175 0.0905 -0.8272 0.9954 25 14
3.8230 0.2449 -0.8298 0.9922 25 14
3.8267 0.4003 -0.8334 0.9797 25 14
3.8276 0.5569 -0.8378 0.9745 25 14
3.8285 0.7155 -0.8437 0.9678 25 14
3.9150 0.8961 -0.8700 0.6319 25 14
5.3509 1.4537 -1.2011 0.4993 0 1
5.3391 1.6840 -1.2127 0.4945 0 1
5.3210 1.9170 -1.2251 0.4822 0 1
5.2928 2.1512 -1.2376 0.4770 0 1
5.2605 2.3891 -1.2515 0.4717 0 1
5.2238 2.6310 -1.2670 0.4660 0 1
5.1825 2.8774 -1.2840 0.4598 0 1
5.1363 3.1285 -1.3027 0.4532 0 1
5.0849 3.3851 -1.3232 0.4462 0 1
5.0280 3.6476 -1.3456 0.4388 0 1
4.9658 3.9169 -1.3700 0.4310 0 1
4.8977 4.1938 -1.3967 0.4227 0 1
4.8177 4.4737 -1.4241 0.4265 0 1
4.7276 4.7584 -1.4530 0.4180 0 1
4.6298 5.0513 -1.4843 0.4092 0 1
4.5239 5.3532 -1.5182 0.4001 0 1
4.4112 5.6677 -1.5557 0.3887 0 1
4.2908 5.9962 -1.5972 0.3786 0 1
4.1599 6.3376 -1.6421 0.3682 0 1
4.0077 6.6770 -1.6869 0.3965 0 1
3.8333 7.0114 -1.7309 0.3864 0 1
3.6539 7.3735 -1.7826 0.3656 0 1
3.4635 7.7596 -1.8407 0.3540 0 1
3.2568 8.1646 -1.9041 0.3422 0 1
3.0310 8.5879 -1.9727 0.3225 0 1
2.7872 9.0411 -2.0494 0.3169 0 1
2.5198 9.5191 -2.1330 0.3045 0 1
2.2267 10.0273 -2.2250 0.2919 0 1
1.9051 10.5742 -2.3274 0.2769 0 1
1.5507 11.1659 -2.4419 0.2639 0 1
1.1529 11.7588 -2.5593 0.2488 0 24
0.7216 12.5405 -2.7209 0.2283 0 1
0.2293 13.3155 -2.8847 0.2153 0 1
-0.3267 14.1746 -3.0712 0.1952 0 1
-0.9636 15.2026 -3.2997 0.1730 0 1
-1.6999 16.3556 -3.5619 0.1637 0 1
-2.5483 17.5961 -3.8513 0.1535 0 1
-3.5340 18.9808 -4.1822 0.1438 0 1
-4.6829 20.5228 -4.5598 0.1350 0 1
-6.0410 22.2952 -5.0036 0.1231 0 1
-7.6150 24.2001 -5.4955 0.1081 0 24
-9.6375 26.8075 -6.1707 0.1015 0 1
-12.2268 30.1403 -7.0456 0.0820 0 1
-15.4533 34.0868 -8.1070 0.0761 0 1
-15.5926 31.0106 -7.5187 0.6233 0 15
-15.7816 28.4700 -7.0511 0.5099 0 15
-16.0016 26.3104 -6.6705 0.5524 0 15
-17.3465 26.0946 -6.7874 0.7594 0 15
-29.6692 37.6655 -10.3861 0.7720 0 3
-28.4853 33.3118 -9.4942 0.6645 0 3
-30.2920 32.6655 -9.6500 0.7213 0 3
-27.7846 27.6418 -8.4896 0.5703 0 3
-30.1488 27.6705 -8.8643 0.6659 0 3
-19.5243 16.5221 -5.5403 0.6290 0 22
-28.9260 22.5444 -7.9440 0.7941 0 3
-28.9869 20.7722 -7.7247 0.8167 0 3
-29.0409 19.0900 -7.5281 0.8380 0 3
-28.8296 17.3309 -7.2864 0.0734 0 3
-32.4337 17.7609 -8.0100 0.4753 0 3
-33.1249 16.4425 -8.0106 0.4648 0 3
-39.6108 17.7122 -9.3990 0.4051 0 3
-44.2315 17.6782 -10.3180 0.3690 0 3
-27.4187 9.6980 -6.2998 0.8878 0 22
-27.4582 7.2882 -6.1538 0.9430 0 22
-25.6759 -9.2112 -5.9088 0.7487 15 6
-31.1229 -15.6229 -7.5434 0.9121 0 22
-25.3671 -16.8383 -6.5952 0.5848 15 6
-32.8367 -32.9619 -10.0783 0.9927 0 20
-31.2880 -34.0443 -10.0158 0.9678 0 20
-23.3839 -42.6339 -10.5330 0.6248 0 9
-18.5807 -37.3695 -9.0401 0.0624 0 2
-15.0265 -33.5440 -7.9618 0.0658 0 1
-11.6582 -29.1123 -6.7930 0.0847 0 1
-9.1720 -25.8764 -5.9469 0.0870 0 1
-7.1518 -23.0887 -5.2358 0.1038 0 1
-5.5409 -20.8186 -4.6666 0.1191 0 24
-4.2799 -19.1516 -4.2508 0.1372 0 1
-3.2232 -17.7532 -3.9085 0.1565 0 1
-2.3214 -16.5519 -3.6205 0.1669 0 1
-1.5396 -15.4878 -3.3714 0.1800 0 1
-0.8559 -14.5331 -3.1535 0.1975 0 1
-0.2541 -13.6878 -2.9655 0.2101 0 1
0.2799 -12.8984 -2.7946 0.2210 0 24
0.7571 -12.2037 -2.6486 0.2244 0 1
1.1775 -11.4799 -2.4997 0.2361 0 24
1.5602 -10.8764 -2.3801 0.2490 0 1
1.8959 -10.2592 -2.2599 0.2619 0 24
2.2093 -9.7425 -2.1639 0.2758 0 1
2.4884 -9.2332 -2.0714 0.2881 0 1
2.7431 -8.7585 -1.9881 0.3015 0 1
2.9755 -8.3117 -1.9123 0.3135 0 1
3.1880 -7.8892 -1.8432 0.3252 0 1
3.3834 -7.4898 -1.7803 0.3392 0 1
3.5648 -7.1136 -1.7236 0.3473 0 1
3.7322 -6.7543 -1.6716 0.3581 0 1
3.8866 -6.4098 -1.6238 0.3687 0 1
4.0278 -6.0768 -1.5792 0.3691 0 1
4.1452 -5.7383 -1.5334 0.3802 0 1
4.2537 -5.4152 -1.4916 0.3944 0 1
4.3543 -5.1060 -1.4536 0.4048 0 1
4.4465 -4.8079 -1.4186 0.4148 0 1
4.5284 -4.5173 -1.3855 0.4140 0 1
4.6025 -4.2356 -1.3549 0.4234 0 1
4.6701 -3.9628 -1.3267 0.4324 0 1
4.7408 -3.7051 -1.3033 0.4580 0 1
4.8090 -3.4560 -1.2828 0.4654 0 1
4.8727 -3.2124 -1.2642 0.4723 0 1
4.9320 -2.9739 -1.2475 0.4786 0 1
4.9865 -2.7394 -1.2324 0.4845 0 1
5.0364 -2.5084 -1.2188 0.4899 0 1
5.0820 -2.2807 -1.2066 0.4949 0 1
5.1236 -2.0558 -1.1958 0.4994 0 1
5.1611 -1.8333 -1.1864 0.5033 0 1
5.1948 -1.6129 -1.1782 0.5068 0 1
5.2247 -1.3943 -1.1714 0.5098 0 1
3.8895 -0.8719 -0.8634 0.6366 25 14
3.8317 -0.6983 -0.8437 0.9678 25 14
3.8300 -0.5398 -0.8378 0.9745 25 14
3.8273 -0.3831 -0.8332 0.9882 25 14
3.8219 -0.2277 -0.8293 0.9928 25 14
3.8164 -0.0734 -0.8268 0.9958 25 14
3.8172 0.0803 -0.8270 0.9956 25 14
3.8227 0.2346 -0.8296 0.9925 25 14
3.8266 0.3899 -0.8332 0.9800 25 14
3.8275 0.5464 -0.8375 0.9749 25 14
3.8284 0.7048 -0.8432 0.9683 25 14
3.9050 0.8828 -0.8672 0.6339 25 14
5.3516 1.4384 -1.2004 0.4996 0 1
5.3400 1.6685 -1.2119 0.4948 0 1
5.3227 1.9014 -1.2243 0.4825 0 1
5.2948 2.1354 -1.2367 0.4774 0 1
5.2628 2.3731 -1.2505 0.4721 0 1
5.2264 2.6147 -1.2659 0.4664 0 1
5.1854 2.8607 -1.2828 0.4602 0 1
5.1395 3.1116 -1.3014 0.4536 0 1
5.0885 3.3678 -1.3218 0.4467 0 1
5.0320 3.6299 -1.3440 0.4393 0 1
4.9701 3.8987 -1.3683 0.4315 0 1
4.9025 4.1751 -1.3949 0.4233 0 1
4.8235 4.4549 -1.4223 0.4270 0 1
4.7338 4.7391 -1.4510 0.4186 0 1
4.6366 5.0314 -1.4821 0.4098 0 1
-0.9506 14.3839 -3.2902 0.1824 0 1
-1.6437 15.4111 -3.5374 0.1707 0 1
-2.4365 16.5106 -3.8093 0.1609 0 1
-3.3509 17.7320 -4.1188 0.1509 0 1
-4.4041 19.0640 -4.4658 0.1428 0 1
-5.6383 20.5894 -4.8724 0.1328 0 1
-7.0813 22.2942 -5.3390 0.1212 0 1
-8.8224 24.3343 -5.9079 0.1066 0 1
-10.9905 26.8846 -6.6292 0.0961 0 1
-13.7350 30.0809 -7.5476 0.0856 0 1
-15.5818 30.7823 -7.8747 0.4895 0 15
-15.7016 28.1466 -7.3563 0.5392 0 15
-15.9668 26.0947 -6.9824 0.9579 0 15
-17.4460 26.0918 -7.1639 0.7370 0 15
-28.0590 38.5138 -10.8760 0.6097 0 3
-29.8320 37.6633 -10.9663 0.7686 0 3
-28.3396 32.9612 -9.9216 0.6684 0 3
-30.4539 32.6633 -10.1929 0.7178 0 3
-28.5582 28.2588 -9.1700 0.7232 0 3
-30.3099 27.6684 -9.3670 0.6623 0 3
-32.8546 27.6512 -9.8012 0.6330 0 3
-28.7995 22.3215 -8.3165 0.7973 0 3
-28.8633 20.5662 -8.0892 0.8197 0 3
-28.9198 18.8991 -7.8852 0.8409 0 3
-29.7548 17.7782 -7.9113 0.5059 0 3
-31.0025 16.8689 -8.0558 0.4670 0 3
-33.6941 16.6121 -8.5743 0.4564 0 3
-39.8919 17.7092 -9.9619 0.4017 0 3
-44.5705 17.6747 -10.9436 0.3656 0 3
-27.2936 9.5711 -6.6015 0.9183 0 22
-27.3514 7.1811 -6.4544 0.9495 0 22
-30.9917 -15.6616 -7.9256 0.8841 0 22
-32.8119 -33.1148 -10.6402 0.9576 0 20
-31.1198 -34.0447 -10.5276 0.9692 0 20
-31.1169 -36.9221 -11.0209 0.3766 0 20
-17.9673 -27.4536 -7.4888 0.6587 0 6
-24.2491 -40.5230 -10.7786 0.6585 0 9
-19.8356 -36.3964 -9.4608 0.0627 0 2
-16.4515 -33.3118 -8.4799 0.0819 0 2
-12.7475 -28.6632 -7.1600 0.0797 0 1
-10.1683 -25.5912 -6.2852 0.0925 0 1
-8.0586 -22.9309 -5.5476 0.1026 0 1
-6.3543 -20.7110 -4.9446 0.1186 0 24
-5.0243 -19.0842 -4.5043 0.1361 0 1
-3.9051 -17.6981 -4.1366 0.1538 0 1
-2.9539 -16.5229 -3.8310 0.1658 0 1
-2.1289 -15.4823 -3.5670 0.1788 0 1
-1.4071 -14.5528 -3.3371 0.1925 0 1
-0.7714 -13.7284 -3.1384 0.2086 0 1
-0.2057 -12.9601 -2.9584 0.2209 0 24
0.2994 -12.2722 -2.8019 0.2329 0 1
0.7489 -11.5687 -2.6460 0.2333 0 24
1.1558 -10.9767 -2.5192 0.2473 0 1
1.5188 -10.3886 -2.3963 0.2622 0 1
1.8420 -9.8195 -2.2803 0.2728 0 24
2.1454 -9.3441 -2.1882 0.2867 0 1
2.4165 -8.8711 -2.0986 0.3002 0 1
2.6645 -8.4279 -2.0175 0.3123 0 1
2.8913 -8.0086 -1.9434 0.3242 0 1
3.0998 -7.6120 -1.8759 0.3392 0 1
3.2918 -7.2350 -1.8142 0.3499 0 1
3.4689 -6.8760 -1.7578 0.3579 0 1
3.6337 -6.5344 -1.7065 0.3687 0 1
3.7859 -6.2061 -1.6593 0.3792 0 1
3.9223 -5.8832 -1.6139 0.3796 0 1
4.0391 -5.5598 -1.5685 0.3943 0 1
4.1482 -5.2517 -1.5275 0.4049 0 1
4.2484 -4.9547 -1.4897 0.4151 0 1
4.3377 -4.6650 -1.4539 0.4147 0 1
4.4191 -4.3845 -1.4208 0.4244 0 1
4.4934 -4.1129 -1.3904 0.4337 0 1
4.5632 -3.8510 -1.3628 0.4604 0 1
4.6369 -3.6039 -1.3404 0.4681 0 1
4.7049 -3.3620 -1.3198 0.4754 0 1
4.7683 -3.1253 -1.3013 0.4823 0 1
4.8274 -2.8931 -1.2845 0.4885 0 1
4.8817 -2.6647 -1.2694 0.4944 0 1
4.9314 -2.4396 -1.2558 0.4997 0 1
4.9769 -2.2174 -1.2436 0.5047 0 1
5.0182 -1.9978 -1.2328 0.5091 0 1
5.0555 -1.7805 -1.2234 0.5131 0 1
5.0890 -1.5651 -1.2152 0.5165 0 1
5.1187 -1.3513 -1.2083 0.5194 0 1
3.8771 -0.8582 -0.9063 0.6013 25 14
3.8296 -0.6873 -0.8880 0.9664 25 14
3.8259 -0.5287 -0.8815 0.9818 25 14
3.8207 -0.3720 -0.8762 0.9878 25 14
3.8154 -0.2170 -0.8722 0.9922 25 14
3.8098 -0.0630 -0.8697 0.9951 25 14
3.8115 0.0904 -0.8702 0.9946 25 14
3.8170 0.2445 -0.8730 0.9914 25 14
3.8223 0.3999 -0.8772 0.9866 25 14
3.8256 0.5567 -0.8824 0.9726 25 14
3.8265 0.7151 -0.8885 0.9659 25 14
3.9145 0.8960 -0.9166 0.6304 25 14
5.2382 1.4231 -1.2389 0.5087 0 1
5.2256 1.6482 -1.2506 0.5040 0 1
5.2044 1.8750 -1.2626 0.4918 0 1
5.1755 2.1036 -1.2751 0.4867 0 1
5.1427 2.3356 -1.2892 0.4813 0 1
5.1055 2.5714 -1.3047 0.4756 0 1
5.0635 2.8113 -1.3219 0.4694 0 1
5.0167 3.0557 -1.3407 0.4628 0 1
4.9647 3.3051 -1.3613 0.4559 0 1
4.9072 3.5600 -1.3837 0.4485 0 1
4.8444 3.8212 -1.4083 0.4407 0 1
4.7757 4.0893 -1.4350 0.4325 0 1
4.6988 4.3632 -1.4635 0.4362 0 1
4.6085 4.6386 -1.4924 0.4278 0 1
4.5108 4.9214 -1.5237 0.4190 0 1
4.4050 5.2125 -1.5577 0.4098 0 1
4.2922 5.5148 -1.5950 0.3985 0 1
4.1720 5.8302 -1.6363 0.3884 0 1
4.0416 6.1574 -1.6811 0.3781 0 1
3.9000 6.4975 -1.7296 0.3675 0 1
3.7295 6.8214 -1.7745 0.3962 0 1
3.5499 7.1638 -1.8248 0.3753 0 1
3.3618 7.5319 -1.8826 0.3638 0 1
3.1580 7.9170 -1.9455 0.3521 0 1
2.9328 8.3096 -2.0113 0.3325 0 1
2.6938 8.7383 -2.0871 0.3032 0 1
2.4342 9.1957 -2.1711 0.3144 0 1
2.1479 9.6725 -2.2615 0.3018 0 1
1.8343 10.1809 -2.3611 0.2869 0 1
1.4903 10.7310 -2.4728 0.2740 0 1
1.1059 11.2794 -2.5868 0.2641 0 24
0.6892 11.9776 -2.7383 0.2384 0 1
0.2173 12.6224 -2.8814 0.2293 0 24
-0.3101 13.4550 -3.0718 0.2125 0 1
-0.9075 14.3170 -3.2743 0.1832 0 1
-1.5944 15.3408 -3.5203 0.1715 0 1
-2.3799 16.4331 -3.7899 0.1617 0 1
-3.2855 17.6459 -4.0968 0.1517 0 1
-4.3288 18.9707 -4.4412 0.1436 0 1
-5.5499 20.4828 -4.8436 0.1336 0 1
-6.9771 22.1727 -5.3054 0.1220 0 1
-8.6926 24.1792 -5.8646 0.1074 0 1
-10.8290 26.6945 -6.5751 0.0969 0 1
-13.5342 29.8536 -7.4814 0.0863 0 1
-15.5148 30.8559 -7.8828 0.4570 0 15
-15.6891 28.3030 -7.3861 0.5370 0 15
-15.9023 26.1471 -6.9850 0.7745 0 15
-17.3347 26.0769 -7.1470 0.7334 0 15
-28.0483 38.7177 -10.9123 0.6077 0 3
-29.6683 37.6644 -10.9433 0.7702 0 3
-28.1682 32.9410 -9.8926 0.1400 0 3
-30.2910 32.6644 -10.1677 0.7196 0 3
-28.5517 28.4050 -9.1924 0.7214 0 3
-30.1477 27.6695 -9.3398 0.6643 0 3
-32.6771 27.6524 -9.7704 0.6350 0 3
-28.7950 22.4423 -8.3326 0.7958 0 3
-28.8592 20.6807 -8.1036 0.8183 0 3
-28.9162 19.0080 -7.8982 0.8395 0 3
-29.5757 17.7795 -7.8763 0.5081 0 3
-29.1946 15.9872 -7.5972 0.8822 0 3
-33.7103 16.7330 -8.5899 0.4556 0 3
-39.6084 17.7111 -9.9030 0.4041 0 3
-43.8461 17.5242 -10.7773 0.9749 0 3
-27.2982 9.6553 -6.6089 0.9172 0 22
-27.3543 7.2606 -6.4596 0.9488 0 22
-32.9267 -33.0522 -10.6485 0.9568 0 20
-31.2313 -33.9826 -10.5344 0.9686 0 20
-31.0221 -36.6091 -10.9524 0.3789 0 20
-18.0333 -27.3932 -7.4855 0.8714 0 6
-23.1054 -38.3769 -10.2243 0.6012 0 9
-20.1690 -36.7723 -9.5726 0.0620 0 2
-16.5235 -33.2320 -8.4708 0.4891 0 2
-12.9503 -28.9092 -7.2301 0.0789 0 1
-10.3223 -25.7764 -6.3375 0.0918 0 1
-8.1409 -22.9674 -5.5617 0.1038 0 24
-6.4541 -20.8364 -4.9787 0.1178 0 24
-5.1064 -19.1863 -4.5316 0.1353 0 1
-3.9739 -17.7822 -4.1588 0.1530 0 1
-3.0133 -16.5969 -3.8501 0.1649 0 1
-2.1806 -15.5480 -3.5835 0.1780 0 1
-1.4525 -14.6119 -3.3515 0.1903 0 1
-0.8116 -13.7815 -3.1510 0.2078 0 1
-0.2415 -13.0082 -2.9696 0.2199 0 24
0.2673 -12.3172 -2.8120 0.2321 0 1
0.7223 -11.6438 -2.6627 0.2338 0 1
1.1301 -11.0176 -2.5279 0.2462 0 1
1.4957 -10.4265 -2.4041 0.2591 0 1
1.8210 -9.8543 -2.2873 0.2720 0 24
2.1264 -9.3769 -2.1946 0.2858 0 1
2.3991 -8.9017 -2.1043 0.2994 0 1
2.6486 -8.4568 -2.0227 0.3115 0 1
2.8768 -8.0359 -1.9481 0.3234 0 1
3.0864 -7.6377 -1.8802 0.3385 0 1
3.2794 -7.2597 -1.8182 0.3491 0 1
3.4575 -6.8993 -1.7614 0.3572 0 1
3.6231 -6.5568 -1.7098 0.3680 0 1
3.7761 -6.2276 -1.6623 0.3785 0 1
3.9141 -5.9053 -1.6170 0.3789 0 1
4.0316 -5.5809 -1.5714 0.3899 0 1
4.1412 -5.2719 -1.5301 0.4042 0 1
4.2420 -4.9742 -1.4921 0.4145 0 1
4.3320 -4.6841 -1.4562 0.4141 0 1
4.4139 -4.4030 -1.4230 0.4237 0 1
4.4886 -4.1308 -1.3923 0.4331 0 1
4.5581 -3.8677 -1.3644 0.4599 0 1
4.6321 -3.6202 -1.3418 0.4676 0 1
4.7005 -3.3780 -1.3212 0.4749 0 1
4.7642 -3.1409 -1.3024 0.4818 0 1
4.8236 -2.9086 -1.2856 0.4881 0 1
4.8782 -2.6799 -1.2704 0.4940 0 1
4.9283 -2.4545 -1.2566 0.4994 0 1
4.9740 -2.2322 -1.2444 0.5044 0 1
5.0156 -2.0124 -1.2335 0.5089 0 1
5.0531 -1.7950 -1.2239 0.5128 0 1
5.0868 -1.5794 -1.2157 0.5163 0 1
5.1168 -1.3655 -1.2087 0.5193 0 1
3.8880 -0.8716 -0.9094 0.5992 25 14
3.8297 -0.6980 -0.8885 0.9659 25 14
3.8263 -0.5393 -0.8819 0.9813 25 14
3.8211 -0.3824 -0.8765 0.9874 25 14
3.8157 -0.2273 -0.8725 0.9920 25 14
3.8102 -0.0733 -0.8698 0.9950 25 14
3.8111 0.0801 -0.8701 0.9947 25 14
3.8166 0.2342 -0.8728 0.9916 25 14
3.8219 0.3894 -0.8768 0.9870 25 14
3.8256 0.5461 -0.8820 0.9730 25 14
3.8264 0.7044 -0.8880 0.9664 25 14
3.9045 0.8826 -0.9137 0.6324 25 14
5.2390 1.4082 -1.2382 0.5090 0 1
5.2265 1.6330 -1.2498 0.5043 0 1
5.2061 1.8598 -1.2618 0.4921 0 1
5.1776 2.0882 -1.2742 0.4873 0 1
5.1451 2.3200 -1.2882 0.4817 0 1
5.1081 2.5555 -1.3037 0.4760 0 1
5.0665 2.7951 -1.3207 0.4699 0 1
5.0200 3.0392 -1.3394 0.4633 0 1
4.9683 3.2882 -1.3599 0.4563 0 1
4.9112 3.5427 -1.3822 0.4490 0 1
4.8487 3.8035 -1.4066 0.4412 0 1
4.7805 4.0712 -1.4332 0.4330 0 1
4.7045 4.3451 -1.4617 0.4367 0 1
4.6148 4.6199 -1.4904 0.4283 0 1
4.5176 4.9023 -1.5216 0.4196 0 1
-0.9005 13.6257 -3.2764 0.2043 0 1
-1.5459 14.4941 -3.4973 0.1810 0 1
-2.2831 15.4710 -3.7522 0.1711 0 1
-3.1269 16.5464 -4.0403 0.1613 0 1
-4.0925 17.7155 -4.3625 0.1519 0 1
-5.2022 18.9967 -4.7257 0.1392 0 1
-6.4980 20.4577 -5.1501 0.1310 0 1
-8.0078 22.0874 -5.6370 0.1197 0 1
-9.8774 24.1619 -6.2629 0.1056 0 1
-12.1813 26.6782 -7.0367 0.0947 0 1
-14.9730 29.5795 -7.9545 0.0909 0 1
-15.6357 28.0286 -7.7006 0.5165 0 15
-15.9542 26.0741 -7.3342 0.8984 0 15
-17.4541 26.1038 -7.5342 0.7282 0 15
-27.8933 38.2863 -11.3655 0.6118 0 3
-29.8311 37.6621 -11.5275 0.7666 0 3
-28.0349 32.6069 -10.3175 0.9892 0 3
-23.0130 24.6826 -8.0969 0.6896 0 5
-23.1047 22.8625 -7.7988 0.6991 0 5
-30.3087 27.6674 -9.8463 0.6607 0 3
-32.8534 27.6502 -10.3028 0.6314 0 3
-28.6693 22.2206 -8.7029 0.7988 0 3
-28.6305 20.4003 -8.4348 0.7455 0 3
-28.7958 18.8180 -8.2535 0.8423 0 3
-29.7534 17.7774 -8.3160 0.5046 0 3
-32.6360 17.7577 -8.9145 0.4707 0 3
-35.9715 17.7349 -9.6227 0.4361 0 3
-39.8895 17.7081 -10.4715 0.4007 0 3
-44.5675 17.6735 -11.5033 0.3647 0 3
-27.2029 9.5393 -6.9165 0.9761 0 22
-27.2448 7.1531 -6.7585 0.9621 0 22
-32.7466 -33.0490 -11.1628 0.9570 0 20
-30.9501 -33.8591 -11.0064 0.9107 0 20
-30.8350 -36.5876 -11.4803 0.3816 0 20
-28.5749 -36.8165 -11.1819 0.6451 0 20
-27.9999 -39.2401 -11.5661 0.6144 0 20
-17.9290 -27.3950 -7.8555 0.6669 0 6
-21.2936 -35.5839 -9.9496 0.0625 0 2
-16.9194 -31.0455 -8.4832 0.0733 0 2
-14.0105 -28.3693 -7.5915 0.0789 0 1
-11.2535 -25.3039 -6.6446 0.0928 0 1
-9.0787 -22.8490 -5.8991 0.1004 0 1
-7.2765 -20.7053 -5.2657 0.1175 0 24
-5.8494 -19.0655 -4.7849 0.1285 0 1
-4.6568 -17.6885 -4.3887 0.1520 0 1
-3.6472 -16.5296 -4.0614 0.1640 0 1
-2.7731 -15.5111 -3.7806 0.1761 0 1
-2.0075 -14.5992 -3.5358 0.1891 0 1
-1.3334 -13.7902 -3.3241 0.2076 0 1
-0.7334 -13.0526 -3.1367 0.2189 0 1
-0.1963 -12.3648 -2.9671 0.2306 0 1
0.2855 -11.7053 -2.8093 0.2331 0 1
0.7179 -11.0898 -2.6664 0.2448 0 1
1.1074 -10.5177 -2.5375 0.2572 0 1
1.4588 -9.9783 -2.4196 0.2718 0 1
1.7776 -9.4766 -2.3134 0.2843 0 1
2.0676 -9.0055 -2.2169 0.2967 0 1
2.3327 -8.5635 -2.1295 0.3102 0 1
2.5755 -8.1466 -2.0500 0.3222 0 1
2.7983 -7.7509 -1.9772 0.3375 0 1
3.0043 -7.3774 -1.9112 0.3482 0 1
3.1934 -7.0188 -1.8501 0.3597 0 1
3.3678 -6.6754 -1.7939 0.3710 0 1
3.5301 -6.3482 -1.7428 0.3785 0 1
3.6809 -6.0340 -1.6959 0.3890 0 1
3.8143 -5.7213 -1.6498 0.3894 0 1
3.9320 -5.4123 -1.6051 0.4040 0 1
4.0409 -5.1159 -1.5642 0.4145 0 1
4.1386 -4.8267 -1.5255 0.4144 0 1
4.2279 -4.5469 -1.4897 0.4244 0 1
4.3097 -4.2760 -1.4566 0.4340 0 1
4.3845 -4.0132 -1.4261 0.4433 0 1
4.4589 -3.7630 -1.3999 0.4700 0 1
4.5326 -3.5228 -1.3774 0.4777 0 1
4.6006 -3.2875 -1.3567 0.4849 0 1
4.6641 -3.0569 -1.3380 0.4918 0 1
4.7232 -2.8307 -1.3212 0.4980 0 1
4.7775 -2.6079 -1.3059 0.5038 0 1
4.8273 -2.3881 -1.2922 0.5092 0 1
4.8728 -2.1710 -1.2799 0.5142 0 1
4.9142 -1.9564 -1.2691 0.5186 0 1
4.9515 -1.7438 -1.2595 0.5225 0 1
4.9849 -1.5331 -1.2513 0.5259 0 1
5.0146 -1.3238 -1.2444 0.5289 0 1
3.8796 -0.8588 -0.9534 0.5993 25 14
3.8247 -0.6864 -0.9323 0.9733 25 14
3.8197 -0.5278 -0.9252 0.9808 25 14
3.8145 -0.3714 -0.9195 0.9868 25 14
3.8092 -0.2166 -0.9154 0.9913 25 14
3.8037 -0.0629 -0.9128 0.9942 25 14
3.8054 0.0903 -0.9133 0.9936 25 14
3.8109 0.2441 -0.9162 0.9904 25 14
3.8162 0.3992 -0.9206 0.9857 25 14
3.8213 0.5560 -0.9265 0.9794 25 14
3.8245 0.7147 -0.9335 0.9639 25 14
3.9185 0.8969 -0.9645 0.5925 25 14
5.1297 1.3936 -1.2754 0.5182 0 1
5.1163 1.6137 -1.2872 0.5134 0 1
5.0922 1.8346 -1.2987 0.5013 0 1
5.0629 2.0578 -1.3113 0.4965 0 1
5.0295 2.2842 -1.3254 0.4909 0 1
4.9918 2.5142 -1.3410 0.4852 0 1
4.9493 2.7479 -1.3582 0.4790 0 1
4.9019 2.9858 -1.3771 0.4725 0 1
4.8494 3.2284 -1.3978 0.4655 0 1
4.7914 3.4760 -1.4203 0.4581 0 1
4.7282 3.7296 -1.4449 0.4503 0 1
4.6591 3.9895 -1.4717 0.4421 0 1
4.5834 4.2561 -1.5007 0.4336 0 1
4.4948 4.5241 -1.5301 0.4374 0 1
4.3972 4.7975 -1.5614 0.4287 0 1
4.2916 5.0784 -1.5953 0.4196 0 1
4.1788 5.3692 -1.6324 0.4082 0 1
4.0591 5.6724 -1.6736 0.3982 0 1
3.9293 5.9863 -1.7181 0.3879 0 1
3.7886 6.3118 -1.7663 0.3773 0 1
3.6306 6.6406 -1.8159 0.4059 0 1
3.4512 6.9646 -1.8650 0.3851 0 1
3.2655 7.3160 -1.9223 0.3736 0 1
3.0628 7.6783 -1.9834 0.3535 0 1
2.8403 8.0475 -2.0476 0.3424 0 1
2.6016 8.4392 -2.1189 0.3131 0 1
2.3538 8.8920 -2.2070 0.3243 0 1
2.0741 9.3403 -2.2956 0.3118 0 1
1.7684 9.8152 -2.3929 0.2991 0 1
1.4342 10.3267 -2.5015 0.2840 0 1
1.0632 10.8431 -2.6141 0.2796 0 24
0.6592 11.4562 -2.7533 0.2431 0 1
0.2077 12.0643 -2.8950 0.2432 0 24
-0.2951 12.8054 -3.0732 0.2178 0 1
-0.8603 13.5719 -3.2629 0.2051 0 1
-1.5000 14.4321 -3.4814 0.1819 0 1
-2.2307 15.4033 -3.7343 0.1719 0 1
-3.0668 16.4715 -4.0200 0.1598 0 1
-4.0238 17.6342 -4.3398 0.1516 0 1
-5.1222 18.9046 -4.6994 0.1423 0 1
-6.4054 20.3559 -5.1201 0.1303 0 1
-7.8643 21.8751 -5.5774 0.1152 0 24
-9.7408 24.0121 -6.2173 0.1064 0 1
-12.0113 26.4944 -6.9796 0.0955 0 1
-14.7765 29.3876 -7.8922 0.0916 0 1
-15.6280 28.1930 -7.7342 0.5143 0 15
-15.8670 26.0890 -7.3264 0.9519 0 15
-17.3412 26.0867 -7.5158 0.7299 0 15
-27.8821 38.4883 -11.4031 0.6097 0 3
-29.6673 37.6632 -11.5034 0.7682 0 3
-28.1782 32.9526 -10.4029 0.6684 0 3
-23.0091 24.8120 -8.1190 0.6978 0 5
-23.0947 22.9760 -7.8163 0.6976 0 5
-30.1466 27.6685 -9.8178 0.6626 0 3
-28.4554 24.0799 -8.9439 0.6826 0 3
-28.6645 22.3406 -8.7197 0.7973 0 3
-28.5954 20.4917 -8.4407 0.5583 0 3
-28.7920 18.9264 -8.2670 0.8410 0 3
-27.1195 16.3029 -7.5921 0.8997 0 3
-32.4304 17.7591 -8.8714 0.4730 0 3
-33.9029 16.8287 -9.0814 0.9654 0 3
-39.6060 17.7100 -10.4095 0.4031 0 3
-44.2256 17.6759 -11.4273 0.3671 0 3
-27.2022 9.6214 -6.9229 0.9304 0 22
-27.2445 7.2315 -6.7632 0.9614 0 22
-30.7731 -17.0313 -8.4388 0.9917 0 6
-32.8612 -32.9865 -11.1716 0.9563 0 20
-31.0765 -33.8141 -11.0190 0.9097 0 20
-30.7436 -36.2804 -11.4099 0.3839 0 20
-28.5889 -36.6306 -11.1488 0.6479 0 20
-28.0136 -39.0366 -11.5283 0.6164 0 20
-25.2611 -38.3725 -11.0227 0.9423 0 9
-21.6362 -35.9367 -10.0645 0.0618 0 2
-17.1739 -31.3117 -8.5685 0.0726 0 2
-14.2234 -28.6060 -7.6651 0.0781 0 1
-11.4146 -25.4811 -6.6991 0.0920 0 1
-9.1668 -22.8910 -5.9163 0.1011 0 24
-7.3826 -20.8280 -5.3019 0.1164 0 24
-5.9383 -19.1712 -4.8154 0.1277 0 1
-4.7297 -17.7706 -4.4122 0.1512 0 1
-3.7102 -16.6026 -4.0818 0.1599 0 1
-2.8279 -15.5758 -3.7982 0.1753 0 1
-2.0557 -14.6573 -3.5512 0.1883 0 1
-1.3759 -13.8409 -3.3372 0.2068 0 1
-0.7715 -13.1004 -3.1487 0.2180 0 1
-0.2304 -12.4091 -2.9779 0.2298 0 1
0.2549 -11.7480 -2.8194 0.2323 0 1
0.6904 -11.1296 -2.6755 0.2439 0 1
1.0826 -10.5547 -2.5457 0.2564 0 1
1.4363 -10.0130 -2.4270 0.2710 0 1
1.7515 -9.4780 -2.3126 0.2818 0 24
2.0491 -9.0361 -2.2231 0.2959 0 1
2.3157 -8.5922 -2.1351 0.3094 0 1
2.5599 -8.1737 -2.0551 0.3214 0 1
2.7839 -7.7766 -1.9818 0.3333 0 1
2.9911 -7.4019 -1.9155 0.3483 0 1
3.1812 -7.0423 -1.8541 0.3590 0 1
3.3565 -6.6979 -1.7975 0.3702 0 1
3.5196 -6.3696 -1.7461 0.3778 0 1
3.6712 -6.0546 -1.6989 0.3883 0 1
3.8062 -5.7425 -1.6530 0.3886 0 1
3.9243 -5.4325 -1.6080 0.4032 0 1
4.0339 -5.1354 -1.5668 0.4138 0 1
4.1324 -4.8457 -1.5280 0.4138 0 1
4.2222 -4.5653 -1.4920 0.4237 0 1
4.3044 -4.2939 -1.4588 0.4334 0 1
4.3797 -4.0306 -1.4281 0.4427 0 1
4.4538 -3.7792 -1.4015 0.4694 0 1
4.5278 -3.5387 -1.3788 0.4772 0 1
4.5962 -3.3031 -1.3580 0.4845 0 1
4.6599 -3.0722 -1.3392 0.4913 0 1
4.7194 -2.8457 -1.3223 0.4976 0 1
4.7740 -2.6227 -1.3069 0.5035 0 1
4.8241 -2.4027 -1.2931 0.5089 0 1
4.8699 -2.1855 -1.2807 0.5138 0 1
4.9115 -1.9707 -1.2698 0.5183 0 1
4.9491 -1.7580 -1.2601 0.5222 0 1
4.9828 -1.5471 -1.2518 0.5257 0 1
5.0127 -1.3378 -1.2448 0.5287 0 1
3.8905 -0.8722 -0.9566 0.5973 25 14
3.8250 -0.6971 -0.9329 0.9727 25 14
3.8200 -0.5384 -0.9256 0.9804 25 14
3.8148 -0.3818 -0.9199 0.9865 25 14
3.8095 -0.2269 -0.9157 0.9910 25 14
3.8041 -0.0732 -0.9129 0.9940 25 14
3.8051 0.0800 -0.9132 0.9937 25 14
3.8105 0.2338 -0.9160 0.9907 25 14
3.8158 0.3888 -0.9203 0.9860 25 14
3.8210 0.5455 -0.9261 0.9799 25 14
3.8244 0.7041 -0.9330 0.9644 25 14
3.9074 0.8833 -0.9612 0.5945 25 14
5.1304 1.3790 -1.2746 0.5185 0 1
5.1173 1.5989 -1.2863 0.5138 0 1
5.0940 1.8197 -1.2979 0.5016 0 1
5.0650 2.0428 -1.3104 0.4969 0 1
5.0319 2.2690 -1.3244 0.4913 0 1
4.9944 2.4987 -1.3399 0.4856 0 1
4.9523 2.7321 -1.3570 0.4794 0 1
4.9053 2.9698 -1.3758 0.4729 0 1
4.8531 3.2120 -1.3963 0.4660 0 1
4.7955 3.4593 -1.4187 0.4586 0 1
4.7326 3.7124 -1.4432 0.4509 0 1
4.6639 3.9719 -1.4698 0.4427 0 1
4.5887 4.2381 -1.4987 0.4342 0 1
4.5010 4.5060 -1.5281 0.4380 0 1
4.4039 4.7789 -1.5592 0.4293 0 1
-0.8514 12.8824 -3.2493 0.2229 0 24
-1.4605 13.6940 -3.4661 0.2029 0 1
-2.1461 14.5426 -3.6998 0.1790 0 1
-2.9275 15.4914 -3.9679 0.1693 0 1
-3.8176 16.5254 -4.2687 0.1613 0 1
-4.8295 17.6357 -4.6020 0.1507 0 1
-5.9947 18.8732 -4.9839 0.1401 0 1
-7.3398 20.2449 -5.4198 0.1288 0 1
-8.9501 21.8935 -5.9529 0.1131 0 1
-10.9211 23.9183 -6.6177 0.1028 0 1
-13.3123 26.2988 -7.4187 0.0962 0 1
-16.3767 29.3569 -8.4605 0.0901 0 2
-15.9493 26.0660 -7.6910 0.8397 0 15
-17.4610 26.1142 -7.9064 0.7228 0 15
-27.6046 37.8900 -11.7987 0.6531 0 3
-27.8915 35.2133 -11.3059 0.6433 0 3
-28.0349 32.6069 -10.8229 0.6721 0 3
-22.8670 24.5260 -8.4396 0.7378 0 5
-22.9864 22.7455 -8.1389 0.7210 0 5
-23.0720 21.0613 -7.8624 0.7405 0 5
-32.8521 27.6491 -10.8070 0.6297 0 3
-28.5395 22.1200 -9.0878 0.8003 0 3
-28.4733 20.2883 -8.7994 0.7832 0 3
-28.6721 18.7372 -8.6206 0.8437 0 3
-29.7520 17.7765 -8.7229 0.5032 0 3
-32.6343 17.7568 -9.3506 0.4694 0 3
-35.9695 17.7339 -10.0934 0.4349 0 3
-39.3711 17.4780 -10.8416 0.3996 0 3
-44.5645 17.6723 -12.0659 0.3637 0 3
-27.1346 9.5154 -7.2371 0.9244 0 22
-27.1479 7.1277 -7.0643 0.9752 0 22
-30.6317 -17.0608 -8.8246 0.9156 0 6
-32.8379 -33.1411 -11.7422 0.8911 0 20
-30.9132 -33.8187 -11.5317 0.9093 0 20
-28.6036 -33.9399 -11.1711 0.6765 0 20
-28.0394 -36.1265 -11.5098 0.6459 0 20
-26.6217 -37.3086 -11.5354 0.3861 0 9
-17.8736 -27.3104 -8.2148 0.9096 0 6
-18.1476 -30.3267 -8.8949 0.0731 0 2
-15.3038 -28.0810 -8.0489 0.0713 0 1
-12.3172 -24.9405 -7.0009 0.0888 0 1
-10.0732 -22.6499 -6.2389 0.1027 0 1
-8.1777 -20.5814 -5.5739 0.1151 0 24
-6.6794 -19.0065 -5.0704 0.1269 0 1
-5.4134 -17.6444 -4.6451 0.1448 0 1
-4.3447 -16.5027 -4.2950 0.1590 0 1
-3.4211 -15.5046 -3.9961 0.1744 0 1
-2.6127 -14.6140 -3.7364 0.1872 0 1
-1.8994 -13.8129 -3.5092 0.2008 0 1
-1.2671 -13.1047 -3.3136 0.2178 0 1
-0.6988 -12.4362 -3.1349 0.2283 0 1
-0.1871 -11.7896 -2.9676 0.2309 0 1
0.2728 -11.1847 -2.8159 0.2425 0 1
0.6875 -10.6199 -2.6785 0.2549 0 1
1.0627 -10.0927 -2.5542 0.2673 0 1
1.3979 -9.5618 -2.4321 0.2799 0 24
1.7125 -9.1295 -2.3378 0.2943 0 1
1.9882 -8.6594 -2.2361 0.3056 0 24
2.2541 -8.2750 -2.1586 0.3202 0 1
2.4919 -7.8820 -2.0806 0.3322 0 1
2.7114 -7.5103 -2.0096 0.3473 0 1
2.9138 -7.1552 -1.9445 0.3581 0 1
3.1002 -6.8140 -1.8841 0.3695 0 1
3.2724 -6.4864 -1.8285 0.3808 0 1
3.4318 -6.1714 -1.7772 0.3883 0 1
3.5811 -5.8704 -1.7307 0.3988 0 1
3.7117 -5.5674 -1.6841 0.4028 0 1
3.8298 -5.2717 -1.6400 0.4136 0 1
3.9360 -4.9830 -1.5982 0.4138 0 1
4.0335 -4.7041 -1.5596 0.4241 0 1
4.1230 -4.4341 -1.5239 0.4340 0 1
4.2050 -4.1722 -1.4909 0.4436 0 1
4.2802 -3.9178 -1.4604 0.4529 0 1
4.3587 -3.6784 -1.4355 0.4795 0 1
4.4323 -3.4449 -1.4129 0.4871 0 1
4.5004 -3.2158 -1.3921 0.4944 0 1
4.5637 -2.9912 -1.3733 0.5012 0 1
4.6228 -2.7706 -1.3564 0.5075 0 1
4.6772 -2.5531 -1.3411 0.5133 0 1
4.7270 -2.3384 -1.3273 0.5186 0 1
4.7725 -2.1263 -1.3150 0.5235 0 1
4.8138 -1.9164 -1.3040 0.5279 0 1
4.8511 -1.7085 -1.2945 0.5318 0 1
4.8845 -1.5022 -1.2862 0.5353 0 1
4.9141 -1.2973 -1.2792 0.5382 0 1
3.8821 -0.8593 -1.0007 0.5973 25 14
3.8309 -0.6875 -0.9796 0.8957 25 14
3.8216 -0.5281 -0.9710 0.9037 25 14
3.8127 -0.3712 -0.9641 0.9101 25 14
3.8041 -0.2163 -0.9590 0.9150 25 14
3.7976 -0.0628 -0.9559 0.9931 25 14
3.7993 0.0901 -0.9565 0.9924 25 14
3.8048 0.2437 -0.9596 0.9893 25 14
3.8100 0.3986 -0.9642 0.9846 25 14
3.8152 0.5551 -0.9703 0.9043 25 14
3.8220 0.7143 -0.9786 0.8967 25 14
3.9235 0.8980 -1.0130 0.5901 25 14
5.0249 1.3652 -1.3105 0.5275 0 1
5.0098 1.5801 -1.3221 0.5152 0 1
4.9842 1.7957 -1.3334 0.5108 0 1
4.9545 2.0137 -1.3460 0.5060 0 1
4.9207 2.2348 -1.3602 0.5004 0 1
4.8825 2.4591 -1.3759 0.4947 0 1
4.8396 2.6870 -1.3932 0.4886 0 1
4.7918 2.9187 -1.4121 0.4820 0 1
4.7388 3.1548 -1.4328 0.4750 0 1
4.6805 3.3955 -1.4553 0.4677 0 1
4.6169 3.6418 -1.4800 0.4599 0 1
4.5474 3.8938 -1.5068 0.4518 0 1
4.4714 4.1521 -1.5358 0.4432 0 1
4.3859 4.4145 -1.5662 0.4471 0 1
4.2886 4.6790 -1.5974 0.4383 0 1
4.1834 4.9503 -1.6312 0.4293 0 1
4.0708 5.2303 -1.6681 0.4179 0 1
3.9515 5.5221 -1.7090 0.4079 0 1
3.8225 5.8236 -1.7532 0.3976 0 1
3.6828 6.1356 -1.8010 0.3871 0 1
3.5315 6.4592 -1.8528 0.3762 0 1
3.3574 6.7753 -1.9031 0.3948 0 1
3.1741 7.1112 -1.9600 0.3833 0 1
2.9716 7.4495 -2.0186 0.3634 0 1
2.7530 7.8001 -2.0819 0.3523 0 1
2.5171 8.1651 -2.1505 0.3411 0 1
2.2728 8.5860 -2.2354 0.3105 0 1
2.0049 9.0286 -2.3277 0.3216 0 1
1.7070 9.4743 -2.4229 0.3090 0 1
1.3818 9.9499 -2.5283 0.2939 0 1
1.0256 10.4597 -2.6452 0.2809 0 1
0.6316 10.9767 -2.7672 0.2682 0 1
0.1989 11.5541 -2.9084 0.2555 0 24
-0.2812 12.1997 -3.0713 0.2280 0 1
-0.8137 12.8363 -3.2372 0.2237 0 24
-1.4179 13.6422 -3.4520 0.2037 0 1
-2.0973 14.4819 -3.6829 0.1798 0 1
-2.8720 15.4253 -3.9490 0.1701 0 1
-3.7548 16.4553 -4.2480 0.1621 0 1
-4.7574 17.5580 -4.5784 0.1515 0 1
-5.9118 18.7875 -4.9571 0.1408 0 1
-7.2432 20.1475 -5.3885 0.1295 0 1
-8.8310 21.7694 -5.9126 0.1139 0 1
-10.7761 23.7698 -6.5685 0.1036 0 1
-13.1395 26.1319 -7.3616 0.0970 0 1
-15.8904 28.6663 -8.2492 0.0911 0 1
-15.8549 26.0692 -7.6794 0.9214 0 15
-17.3508 26.1010 -7.8882 0.7244 0 15
-27.7170 38.2604 -11.8908 0.6117 0 3
-27.8812 35.3957 -11.3403 0.6414 0 3
-27.8799 32.6038 -10.7969 0.8580 0 3
-22.8608 24.6520 -8.4617 0.6853 0 5
-22.9826 22.8645 -8.1593 0.7192 0 5
-23.0691 21.1728 -7.8808 0.7388 0 5
-26.7685 22.6524 -8.8258 0.4683 0 3
-28.5345 22.2393 -9.1053 0.7988 0 3
-31.6199 22.6590 -9.7906 0.5704 0 3
-28.6682 18.8450 -8.6346 0.8423 0 3
-29.5729 17.7777 -8.6844 0.5055 0 3
-32.4287 17.7582 -9.3054 0.4717 0 3
-35.7299 17.7355 -10.0395 0.4372 0 3
-39.1572 17.5093 -10.7956 0.0500 0 3
-44.2227 17.6747 -11.9862 0.3662 0 3
-27.1367 9.5982 -7.2445 0.9206 0 22
-27.1443 7.2049 -7.0683 0.9747 0 22
-32.9699 -33.0955 -11.7575 0.8899 0 20
-31.0394 -33.7738 -11.5449 0.9083 0 20
-28.6183 -33.7723 -11.1413 0.6783 0 20
-23.6872 -30.3501 -9.6897 0.3148 0 20
-26.5856 -37.0468 -11.4765 0.6093 0 9
-22.7172 -34.5082 -10.3982 0.6561 0 9
-18.4083 -30.5752 -8.9823 0.0724 0 2
-15.5468 -28.3451 -8.1366 0.0705 0 1
-12.4236 -24.9863 -7.0231 0.0950 0 24
-10.1750 -22.7138 -6.2641 0.0982 0 24
-8.2896 -20.7004 -5.6122 0.1139 0 24
-6.7734 -19.1091 -5.1026 0.1261 0 1
-5.4915 -17.7286 -4.6711 0.1440 0 1
-4.4114 -16.5749 -4.3169 0.1582 0 1
-3.4789 -15.5675 -4.0147 0.1736 0 1
-2.6636 -14.6707 -3.7527 0.1864 0 1
-1.9445 -13.8642 -3.5235 0.2000 0 1
-1.3072 -13.1502 -3.3260 0.2170 0 1
-0.7349 -12.4798 -3.1464 0.2275 0 1
-0.2197 -11.8317 -2.9783 0.2301 0 1
0.2436 -11.2240 -2.8256 0.2416 0 1
0.6611 -10.6565 -2.6872 0.2541 0 1
1.0387 -10.1269 -2.5621 0.2665 0 1
1.3812 -9.6289 -2.4482 0.2810 0 1
1.6927 -9.1598 -2.3444 0.2935 0 1
1.9701 -8.6878 -2.2421 0.3048 0 24
2.2375 -8.3020 -2.1640 0.3193 0 1
2.4766 -7.9077 -2.0856 0.3314 0 1
2.6973 -7.5346 -2.0142 0.3466 0 1
2.9008 -7.1786 -1.9487 0.3573 0 1
3.0882 -6.8364 -1.8880 0.3688 0 1
3.2613 -6.5079 -1.8321 0.3800 0 1
3.4215 -6.1919 -1.7805 0.3910 0 1
3.5715 -5.8902 -1.7337 0.3981 0 1
3.7035 -5.5875 -1.6872 0.3983 0 1
3.8222 -5.2911 -1.6428 0.4129 0 1
3.9292 -5.0020 -1.6009 0.4131 0 1
4.0272 -4.7224 -1.5621 0.4234 0 1
4.1172 -4.4518 -1.5262 0.4334 0 1
4.1998 -4.1895 -1.4930 0.4430 0 1
4.2754 -3.9346 -1.4624 0.4523 0 1
4.3536 -3.6942 -1.4370 0.4789 0 1
4.4276 -3.4604 -1.4143 0.4866 0 1
4.4960 -3.2310 -1.3935 0.4939 0 1
4.5596 -3.0061 -1.3745 0.5008 0 1
4.6190 -2.7852 -1.3575 0.5071 0 1
4.6737 -2.5675 -1.3421 0.5129 0 1
4.7238 -2.3527 -1.3282 0.5183 0 1
4.7696 -2.1404 -1.3158 0.5232 0 1
4.8112 -1.9304 -1.3047 0.5277 0 1
4.8487 -1.7223 -1.2951 0.5316 0 1
4.8824 -1.5159 -1.2867 0.5351 0 1
4.9123 -1.3109 -1.2796 0.5380 0 1
3.8931 -0.8728 -1.0041 0.5953 25 14
3.8316 -0.6983 -0.9802 0.8952 25 14
3.8222 -0.5387 -0.9715 0.9032 25 14
3.8133 -0.3817 -0.9645 0.9097 25 14
3.8047 -0.2266 -0.9593 0.9147 25 14
3.7979 -0.0731 -0.9561 0.9929 25 14
3.7990 0.0799 -0.9564 0.9926 25 14
3.8044 0.2334 -0.9593 0.9895 25 14
3.8097 0.3882 -0.9638 0.9849 25 14
3.8148 0.5446 -0.9699 0.9788 25 14
3.8215 0.7035 -0.9780 0.8972 25 14
3.9124 0.8844 -1.0095 0.5921 25 14
5.0257 1.3509 -1.3098 0.5278 0 1
5.0113 1.5658 -1.3214 0.5154 0 1
4.9861 1.7812 -1.3326 0.5111 0 1
4.9566 1.9991 -1.3451 0.5063 0 1
4.9231 2.2199 -1.3592 0.5008 0 1
4.8852 2.4440 -1.3748 0.4951 0 1
4.8426 2.6716 -1.3920 0.4890 0 1
4.7951 2.9031 -1.4108 0.4825 0 1
4.7425 3.1388 -1.4314 0.4755 0 1
4.6845 3.3792 -1.4538 0.4682 0 1
4.6213 3.6251 -1.4783 0.4605 0 1
4.5522 3.8768 -1.5049 0.4523 0 1
4.4767 4.1347 -1.5338 0.4438 0 1
4.3922 4.3971 -1.5642 0.4477 0 1
4.2953 4.6611 -1.5953 0.4389 0 1
-0.8115 12.2793 -3.2426 0.2304 0 24
-1.3863 12.9983 -3.4445 0.2131 0 1
