ply
format ascii 1.0
element vertex 1397
property float32 x
property float32 y
property float32 z
property float32 CosAngle
property uint32 ObjIdx
property uint32 ObjTag
end_header
10.6425 5.0778 0.4903 0.2416 0 1
10.6604 5.6230 0.5011 0.2405 0 1
10.6586 6.1820 0.5123 0.2639 0 1
10.5607 6.7065 0.5202 0.2599 0 1
10.4622 7.2499 0.5293 0.2554 0 1
10.4877 7.9099 0.5462 0.2242 0 2
10.1016 8.2761 0.5430 0.6532 0 2
10.0532 8.9352 0.5592 0.1980 0 2
10.1296 9.7595 0.5849 0.1893 0 2
10.2171 10.6682 0.6142 0.1803 0 2
10.3178 11.6789 0.6480 0.1709 0 2
10.4346 12.8142 0.6871 0.1611 0 2
10.5710 14.1037 0.7329 0.1511 0 2
6.3227 9.1828 0.4636 0.6770 22 7
8.6568 13.7225 0.6746 0.8515 0 21
8.4544 14.6776 0.7043 0.8625 0 3
8.0621 15.3959 0.7226 0.4586 0 3
8.0316 16.9638 0.7804 0.4246 0 3
7.9952 18.8064 0.8497 0.3900 0 3
8.5717 22.6502 1.0070 0.9100 0 3
8.0300 24.1038 1.0564 0.9458 0 3
7.8344 27.1043 1.1731 0.2827 0 3
1.6677 13.7649 0.5765 0.4962 0 9
1.1119 13.8049 0.5759 0.0423 0 9
0.9046 22.5097 0.9367 0.9626 0 6
-0.0006 17.6627 0.7344 0.1354 0 9
-32.3734 36.6389 2.0329 0.6090 0 3
-32.3227 33.7452 1.9429 0.6372 0 3
-32.2772 31.0937 1.8635 0.6644 0 3
-32.2363 28.6475 1.7932 0.6904 0 3
-32.1992 26.3766 1.7307 0.7153 0 3
-31.2185 23.5417 1.6258 0.8554 0 3
-32.1321 22.2629 1.6254 0.7616 0 3
-32.1039 20.3840 1.5812 0.7829 0 3
-32.0781 18.6022 1.5418 0.8029 0 3
-33.7012 17.7734 1.5842 0.4716 0 3
-33.7844 16.1164 1.5564 0.3260 0 3
-35.0438 -33.3708 2.0121 0.6805 0 20
10.2132 -13.1378 0.5073 0.1655 0 24
10.1947 -12.0790 0.4818 0.1724 0 1
10.1012 -11.0359 0.4561 0.1727 0 1
10.0156 -10.0958 0.4335 0.1891 0 1
9.9196 -9.2260 0.4130 0.1911 0 1
9.8244 -8.4270 0.3946 0.2001 0 1
9.7502 -7.7053 0.3788 0.2230 0 1
9.7133 -7.0610 0.3661 0.2340 0 1
6.2708 -4.1839 0.2298 0.7044 14 6
9.6570 -5.8966 0.3449 0.2527 0 1
9.3857 -5.2251 0.3275 0.2487 0 25
9.0910 -4.5925 0.3105 0.4078 0 9
8.8984 -4.0549 0.2981 0.8484 0 9
9.0301 -3.6841 0.2973 0.3781 0 9
9.3091 -3.3682 0.3018 0.2699 0 25
9.2957 -2.9466 0.2973 0.2740 0 25
9.2841 -2.5371 0.2934 0.2776 0 25
9.5921 -2.2112 0.3001 0.2936 0 2
9.6184 -1.8135 0.2984 0.2833 0 1
4.4717 -0.6583 0.1378 0.0894 25 14
3.9800 -0.4233 0.1220 0.3192 25 14
3.9726 -0.2616 0.1214 0.3209 25 14
3.9659 -0.1014 0.1209 0.3221 25 14
3.9686 0.0581 0.1210 0.3219 25 14
3.9982 0.2195 0.1221 0.3191 25 14
4.0302 0.3842 0.1234 0.2664 25 14
4.0786 0.5550 0.1255 0.2620 25 14
9.8610 1.7482 0.3053 0.2766 0 1
9.9109 2.1711 0.3093 0.2723 0 1
9.9681 2.6076 0.3141 0.2681 0 1
10.0294 3.0592 0.3196 0.2580 0 1
10.0959 3.5289 0.3260 0.2529 0 1
10.1672 4.0193 0.3333 0.2452 0 1
10.1925 4.5110 0.3398 0.2557 0 1
10.1996 5.0137 0.3465 0.2508 0 1
10.2090 5.5385 0.3541 0.2454 0 1
10.2185 6.0875 0.3626 0.2438 0 1
10.1208 6.5944 0.3682 0.2693 0 1
10.0188 7.1175 0.3746 0.2647 0 1
10.0375 7.7561 0.3867 0.0532 0 1
9.8470 8.2618 0.3918 0.6639 0 2
9.5603 8.6994 0.3940 0.2061 0 2
9.6126 9.4807 0.4116 0.1973 0 2
9.6723 10.3387 0.4316 0.1882 0 2
9.7408 11.2891 0.4545 0.1787 0 2
9.8198 12.3514 0.4810 0.1688 0 2
9.9116 13.5512 0.5118 0.1587 0 2
9.1903 13.6874 0.5026 0.8393 0 21
9.0232 14.6809 0.5253 0.8481 0 3
8.2263 14.6758 0.5129 0.8687 0 3
8.1174 15.9528 0.5456 0.4455 0 3
8.0904 17.6178 0.5910 0.4113 0 3
7.8999 19.2026 0.6330 0.3765 0 3
8.8026 24.1081 0.7824 0.9366 0 3
7.8134 24.4011 0.7810 0.3051 0 3
7.9134 28.6280 0.9054 0.2687 0 3
3.4351 14.7050 0.4603 0.1424 0 9
1.5134 13.8451 0.4246 0.2786 0 9
0.9207 13.3855 0.4090 0.2991 0 9
-32.1744 35.5668 1.4620 0.6211 0 3
-31.9683 32.6034 1.3919 0.8309 0 3
-32.0966 30.2042 1.3435 0.6758 0 3
-32.0632 27.8297 1.2942 0.7016 0 3
-32.0328 25.6203 1.2504 0.7262 0 3
-32.0051 23.5530 1.2113 0.7496 0 3
-31.9769 21.6065 1.1764 0.7718 0 3
-31.9534 19.7681 1.1454 0.7927 0 3
-31.9318 18.0218 1.1177 0.8123 0 3
-34.6643 17.7664 1.1874 0.4615 0 3
-35.1254 16.2547 1.1798 0.3172 0 3
-37.1124 -33.3758 1.5215 0.6584 0 20
-34.8790 -34.0002 1.4848 0.2564 0 20
6.0451 -47.5376 1.4608 0.9922 0 3
5.1768 -24.6641 0.7682 0.9474 0 6
9.0512 -35.8822 1.1281 0.9987 0 3
8.3056 -28.1099 0.8935 0.9225 0 3
9.9482 -29.2828 0.9427 0.2190 0 3
10.4878 -27.2256 0.8894 0.3441 0 3
10.8786 -25.1741 0.8360 0.0971 0 2
10.6122 -22.0759 0.7467 0.1088 0 2
10.0359 -18.8924 0.6521 0.2204 0 9
10.2297 -17.5192 0.6184 0.1313 0 2
10.3273 -16.1579 0.5846 0.8588 0 2
10.4044 -14.9211 0.5545 0.1434 0 1
10.2834 -13.5521 0.5186 0.1602 0 1
10.2132 -12.3919 0.4895 0.1697 0 1
10.1291 -11.3295 0.4633 0.1700 0 1
10.0391 -10.3590 0.4397 0.1864 0 1
9.9495 -9.4732 0.4188 0.1885 0 1
9.8509 -8.6517 0.3997 0.1975 0 1
9.7652 -7.9044 0.3830 0.2206 0 1
9.7236 -7.2437 0.3696 0.2317 0 1
6.2104 -4.2494 0.2294 0.8841 14 6
9.6746 -6.0637 0.3481 0.2684 0 1
9.3930 -5.3739 0.3299 0.2469 0 25
9.3692 -4.8713 0.3219 0.2530 0 25
8.9106 -4.1869 0.3001 0.4793 0 9
8.9806 -3.7870 0.2971 0.3362 0 9
9.2032 -3.4521 0.2996 0.4466 0 9
9.2994 -3.0679 0.2985 0.2728 0 25
9.2873 -2.6551 0.2944 0.2766 0 25
9.2762 -2.2529 0.2910 0.2804 0 2
9.6156 -1.9297 0.2990 0.2827 0 1
9.6253 -1.5321 0.2971 0.2849 0 1
3.9822 -0.4707 0.1222 0.3186 25 14
3.9747 -0.3084 0.1215 0.3205 25 14
3.9678 -0.1478 0.1210 0.3218 25 14
3.9615 0.0117 0.1208 0.3225 25 14
3.9894 0.1723 0.1217 0.3200 25 14
4.0198 0.3359 0.1230 0.3167 25 14
4.0643 0.5048 0.1248 0.2633 25 14
9.8474 1.6272 0.3043 0.2776 0 1
9.8952 2.0468 0.3080 0.2742 0 1
9.9511 2.4792 0.3126 0.2694 0 1
10.0109 2.9261 0.3179 0.2649 0 1
10.0761 3.3903 0.3241 0.2544 0 1
10.1459 3.8744 0.3311 0.2490 0 1
10.1908 4.3685 0.3380 0.2570 0 1
10.1973 4.8654 0.3444 0.2522 0 1
10.2061 5.3834 0.3517 0.2470 0 1
10.2169 5.9258 0.3600 0.2455 0 1
10.1501 6.4457 0.3665 0.2705 0 1
10.0487 6.9633 0.3727 0.2660 0 1
9.9454 7.5008 0.3797 0.2618 0 1
10.0201 8.2093 0.3949 0.2275 0 2
9.5463 8.4848 0.3893 0.2086 0 2
9.5967 9.2461 0.4062 0.1999 0 2
9.6541 10.0804 0.4255 0.1909 0 2
9.7199 11.0021 0.4475 0.1815 0 2
9.7956 12.0295 0.4729 0.1717 0 2
9.8834 13.1863 0.5023 0.1617 0 2
9.4062 13.6611 0.5056 0.8333 0 21
8.8287 13.9950 0.5044 0.8077 0 21
8.4542 14.6772 0.5163 0.8629 0 3
8.1245 15.5151 0.5339 0.4553 0 3
8.0988 17.1057 0.5769 0.4213 0 3
8.0681 18.9779 0.6286 0.3866 0 3
8.6027 22.7321 0.7409 0.4109 0 3
8.0298 24.1032 0.7744 0.9462 0 3
7.9333 27.4464 0.8709 0.2793 0 3
2.9372 14.4177 0.4485 0.7194 0 9
2.3220 14.3182 0.4422 0.8816 0 9
1.6503 13.6208 0.4182 0.0672 0 9
1.1110 13.7940 0.4218 0.8589 0 9
0.7083 17.6250 0.5377 0.5875 0 9
-0.0006 16.5426 0.5043 0.8826 0 9
-32.1871 36.4281 1.4818 0.6128 0 3
-32.1449 33.5596 1.4166 0.6410 0 3
-32.1069 30.9296 1.3590 0.6682 0 3
-31.0720 27.6129 1.2672 0.9417 0 3
-32.0414 26.2473 1.2626 0.7192 0 3
-30.0810 22.6840 1.1485 0.6103 0 3
-31.9841 22.1604 1.1861 0.7655 0 3
-31.9601 20.2927 1.1540 0.7867 0 3
-31.9379 18.5209 1.1254 0.8067 0 3
-30.9137 16.3033 1.0654 0.9484 0 3
-35.0967 16.7424 1.1854 0.4360 0 3
-35.0405 -33.3676 1.4750 0.6894 0 20
-34.7390 -35.8510 1.5218 0.7663 0 20
9.6417 -12.4027 0.3047 0.1749 0 1
9.6035 -11.3784 0.2888 0.1806 0 1
9.5420 -10.4249 0.2741 0.1903 0 1
9.4789 -9.5548 0.2610 0.1924 0 1
9.4023 -8.7449 0.2490 0.2017 0 1
9.3473 -8.0178 0.2388 0.2251 0 1
9.3182 -7.3639 0.2303 0.2366 0 1
9.2968 -6.7583 0.2229 0.2445 0 1
6.2834 -4.1923 0.1465 0.9053 14 6
9.0204 -5.5079 0.2050 0.2528 0 25
9.0052 -5.0132 0.1999 0.2593 0 25
8.6687 -4.3791 0.1884 0.2713 0 9
8.6637 -3.9479 0.1847 0.2795 0 9
8.8038 -3.5918 0.1844 0.7882 0 9
8.9602 -3.2420 0.1848 0.2805 0 25
8.9523 -2.8377 0.1821 0.2846 0 25
8.9455 -2.4446 0.1799 0.2882 0 25
9.2643 -2.1356 0.1844 0.2907 0 1
9.2434 -1.7428 0.1824 0.2945 0 24
4.2299 -0.6227 0.0829 0.0946 25 14
3.9632 -0.4215 0.0773 0.9594 25 14
3.9368 -0.2592 0.0765 0.9692 25 14
3.9109 -0.1000 0.0759 0.9775 25 14
3.8985 0.0571 0.0756 0.9808 25 14
3.9238 0.2154 0.0762 0.9731 25 14
3.9495 0.3765 0.0769 0.9639 25 14
3.9738 0.5408 0.0778 0.9606 25 14
9.4999 1.6842 0.1871 0.2872 0 1
9.5425 2.0904 0.1895 0.2829 0 1
9.5920 2.5092 0.1923 0.2787 0 1
9.6442 2.9418 0.1956 0.2741 0 1
9.6994 3.3903 0.1993 0.2690 0 1
9.7579 3.8575 0.2035 0.2634 0 1
9.7919 4.3337 0.2077 0.2697 0 1
9.7911 4.8129 0.2116 0.2647 0 1
9.7913 5.3119 0.2160 0.2593 0 1
9.7927 5.8338 0.2211 0.2534 0 1
9.7412 6.3471 0.2255 0.2805 0 1
9.6370 6.8462 0.2293 0.2759 0 1
9.5303 7.3642 0.2336 0.2690 0 1
9.5744 8.0331 0.2424 0.2358 0 2
9.0971 8.2779 0.2385 0.6242 0 2
9.1266 9.0013 0.2486 0.2079 0 2
9.1607 9.7919 0.2601 0.1987 0 2
9.1997 10.6620 0.2731 0.1892 0 2
9.2444 11.6277 0.2881 0.1794 0 2
9.2960 12.7095 0.3054 0.1692 0 2
9.3560 13.9342 0.3255 0.1588 0 2
9.0229 14.6805 0.3342 0.8484 0 3
8.2261 14.6754 0.3263 0.8690 0 3
8.1821 16.0799 0.3499 0.4421 0 3
8.1603 17.7700 0.3793 0.4079 0 3
7.9745 19.3840 0.4065 0.3730 0 3
8.8024 24.1075 0.4978 0.9369 0 3
7.9021 24.6783 0.5026 0.3016 0 3
8.0185 29.0084 0.5837 0.2652 0 3
1.5526 14.2037 0.2771 0.4440 0 9
1.7415 25.3181 0.4922 0.9852 0 9
0.7540 26.4738 0.5137 0.2660 0 9
-31.9600 32.5949 0.8854 0.6527 0 3
-34.7063 32.6600 0.9243 0.6898 0 3
-31.9030 27.6906 0.8193 0.7053 0 3
-34.5867 27.6630 0.8590 0.6294 0 3
-31.8553 23.4429 0.7671 0.7533 0 3
-33.5498 22.6693 0.7853 0.5650 0 3
-35.9536 22.2428 0.8200 0.2886 0 3
-31.7939 17.9440 0.7081 0.8161 0 3
-34.6625 17.7655 0.7554 0.4617 0 3
-36.1626 16.7347 0.7728 0.4256 0 3
-37.1110 -33.3745 0.9680 0.6685 0 20
-34.8989 -34.0195 0.9452 0.7908 0 20
1.7922 -38.8643 0.7546 0.7783 0 6
6.0452 -47.5385 0.9294 0.9925 0 3
5.2009 -24.7789 0.4911 0.9502 0 6
9.1236 -36.1693 0.7235 0.0593 0 3
8.6387 -29.2373 0.5913 0.9606 0 20
9.4981 -27.9579 0.5727 0.2295 0 3
9.9933 -25.9421 0.5392 0.0959 0 2
9.8167 -22.7166 0.4800 0.1077 0 2
9.6772 -20.1308 0.4332 0.1193 0 2
9.5645 -18.0051 0.3954 0.1307 0 2
9.4764 -16.2292 0.3645 0.1110 0 2
9.8029 -15.3374 0.3530 0.1369 0 1
9.6929 -13.9007 0.3287 0.1612 0 1
9.6517 -12.7196 0.3097 0.1721 0 1
9.6170 -11.6686 0.2933 0.1797 0 1
9.5591 -10.6919 0.2782 0.1875 0 1
9.4605 -9.7620 0.2637 0.1892 0 24
9.4237 -8.9725 0.2524 0.1991 0 1
9.3582 -8.2190 0.2416 0.2226 0 1
9.3249 -7.5480 0.2327 0.2343 0 1
9.3028 -6.9303 0.2250 0.2423 0 1
6.2348 -4.2661 0.1465 0.8809 14 6
9.0250 -5.6566 0.2066 0.2507 0 2
9.0095 -5.1545 0.2013 0.2575 0 25
8.9955 -4.6770 0.1966 0.2636 0 25
8.6682 -4.0730 0.1858 0.0406 0 9
8.7076 -3.6719 0.1833 0.9369 0 9
8.9628 -3.3619 0.1857 0.2792 0 25
8.9545 -2.9541 0.1829 0.2834 0 25
8.9473 -2.5579 0.1805 0.2872 0 25
9.1428 -2.2205 0.1825 0.2935 0 2
9.2708 -1.8605 0.1834 0.2933 0 1
9.2826 -1.4775 0.1823 0.2951 0 1
3.9703 -0.4693 0.0775 0.9636 25 14
3.9444 -0.3061 0.0767 0.9665 25 14
3.9184 -0.1460 0.0760 0.9752 25 14
3.8927 0.0115 0.0755 0.9823 25 14
3.9164 0.1691 0.0760 0.9755 25 14
3.9419 0.3294 0.0767 0.9667 25 14
3.9680 0.4928 0.0776 0.9564 25 14
9.4880 1.5679 0.1865 0.2881 0 1
9.5297 1.9712 0.1887 0.2848 0 1
9.5774 2.3861 0.1914 0.2800 0 1
9.6288 2.8144 0.1946 0.2755 0 1
9.6830 3.2581 0.1981 0.2705 0 1
9.7405 3.7195 0.2022 0.2650 0 1
9.7924 4.1977 0.2066 0.2711 0 1
9.7912 4.6716 0.2104 0.2662 0 1
9.7911 5.1645 0.2147 0.2609 0 1
9.7922 5.6795 0.2196 0.2551 0 1
9.7711 6.2050 0.2245 0.2818 0 1
9.6676 6.6993 0.2281 0.2773 0 1
9.5616 7.2114 0.2323 0.2723 0 1
9.5776 7.8468 0.2401 0.2380 0 2
9.2961 8.2623 0.2412 0.6863 0 2
9.1174 8.7844 0.2456 0.2105 0 2
9.1503 9.5544 0.2566 0.2014 0 2
9.1878 10.3999 0.2691 0.1920 0 2
9.2307 11.3359 0.2835 0.1823 0 2
9.2802 12.3814 0.3001 0.1722 0 2
9.3375 13.5614 0.3193 0.1618 0 2
8.8472 14.0243 0.3216 0.8063 0 21
8.4539 14.6768 0.3285 0.8631 0 3
8.1878 15.6361 0.3423 0.4519 0 3
8.1670 17.2499 0.3702 0.4179 0 3
8.1223 19.1054 0.4026 0.9176 0 3
9.1240 24.1096 0.5000 0.9328 0 3
8.0296 24.1026 0.4927 0.9465 0 3
8.0347 27.7970 0.5612 0.2759 0 3
11.6612 47.4102 0.9469 0.0686 0 1
1.8957 15.6462 0.3057 0.8984 0 9
1.0717 26.6668 0.5176 0.5044 0 9
-0.0005 14.6876 0.2849 0.0805 0 9
-31.9692 33.3762 0.8964 0.6447 0 3
-33.9084 32.6651 0.9132 0.6982 0 3
-31.9106 28.3582 0.8280 0.6979 0 3
-33.7759 27.6681 0.8468 0.6385 0 3
-31.7197 23.9198 0.7705 0.7912 0 3
-31.8376 22.0589 0.7512 0.7692 0 3
-35.6819 22.6558 0.8198 0.5413 0 3
-31.7990 18.4404 0.7129 0.8105 0 3
-31.9658 16.8581 0.7009 0.9053 0 3
-36.3062 17.3194 0.7802 0.3052 0 3
-35.0262 -33.3540 0.9381 0.7968 0 20
-34.5801 -35.6869 0.9638 0.7755 0 20
9.0917 -11.6951 0.1231 0.1834 0 1
9.0751 -10.7524 0.1169 0.1912 0 1
9.0423 -9.8791 0.1113 0.2009 0 1
8.9878 -9.0598 0.1061 0.2030 0 1
8.9524 -8.3265 0.1016 0.2268 0 1
8.9323 -7.6618 0.0978 0.2389 0 1
8.9230 -7.0516 0.0945 0.2472 0 1
8.9373 -6.4969 0.0918 0.2775 0 1
6.2575 -4.1751 0.0625 0.3653 14 6
8.6605 -5.2881 0.0843 0.2634 0 25
8.6545 -4.8180 0.0823 0.2698 0 25
8.6492 -4.3693 0.0805 0.2758 0 25
8.6445 -3.9392 0.0790 0.2814 0 25
8.6403 -3.5251 0.0776 0.2864 0 25
8.6367 -3.1249 0.0763 0.2910 0 25
8.6335 -2.7367 0.0753 0.2951 0 25
8.6370 -2.3603 0.0744 0.2990 0 2
8.9411 -2.0611 0.0763 0.3021 0 1
8.9246 -1.6827 0.0755 0.3046 0 24
4.0711 -0.5993 0.0342 0.2650 25 14
3.9591 -0.4211 0.0331 0.9677 25 14
3.9331 -0.2590 0.0328 0.9703 25 14
3.9072 -0.0999 0.0325 0.9785 25 14
3.8952 0.0571 0.0324 0.9818 25 14
3.9204 0.2153 0.0326 0.9741 25 14
3.9461 0.3762 0.0329 0.9648 25 14
3.9653 0.5396 0.0333 0.9628 25 14
9.1645 1.6247 0.0774 0.2978 0 1
9.2012 2.0157 0.0783 0.2942 0 1
9.2435 2.4180 0.0794 0.2893 0 1
9.2880 2.8331 0.0807 0.2846 0 1
9.3346 3.2628 0.0822 0.2795 0 1
9.3809 3.7085 0.0838 0.2719 0 1
9.4240 4.1709 0.0857 0.2803 0 1
9.4165 4.6288 0.0872 0.2753 0 1
9.4092 5.1046 0.0890 0.2698 0 1
9.4019 5.6010 0.0910 0.2635 0 1
9.3896 6.1180 0.0931 0.2911 0 1
9.2836 6.5951 0.0946 0.2865 0 1
9.1743 7.0891 0.0964 0.2814 0 1
9.0820 7.6200 0.0985 0.2734 0 1
9.0653 8.2490 0.1019 0.6965 0 2
8.6875 8.5682 0.1014 0.2184 0 2
8.7007 9.3002 0.1058 0.2093 0 2
8.7157 10.1011 0.1109 0.1998 0 2
8.7329 10.9843 0.1166 0.1899 0 2
6.6120 9.0400 0.0931 0.8199 22 6
8.7753 13.0693 0.1308 0.1693 0 2
8.8017 14.3206 0.1397 0.1586 0 2
8.2501 14.7181 0.1402 0.4721 0 3
8.2479 16.2091 0.1512 0.4386 0 3
8.2314 17.9248 0.1639 0.4044 0 3
8.0505 19.5688 0.1759 0.3696 0 3
8.8022 24.1069 0.2133 0.9371 0 3
8.1645 25.4979 0.2225 0.2982 0 3
9.2453 33.4464 0.2884 0.0768 0 2
3.5132 15.0394 0.1284 0.8923 0 9
1.6679 24.2477 0.2020 0.2098 0 9
-0.2862 24.4044 0.2028 0.3334 0 9
-31.8413 38.1769 0.4132 0.5994 0 3
-30.0757 30.6732 0.3570 0.2279 0 3
-30.1603 28.3820 0.3442 0.2468 0 3
-31.7445 27.5530 0.3494 0.7089 0 3
-34.5854 27.6620 0.3681 0.6295 0 3
-30.0195 22.0918 0.3098 0.2639 0 3
-30.2348 20.4294 0.3033 0.2712 0 3
-29.8526 18.4684 0.2918 0.5107 0 3
-29.8315 16.8365 0.2847 0.7484 0 3
-34.6607 17.7645 0.3237 0.4617 0 3
-34.8830 -34.0040 0.4049 0.8762 0 20
-34.0956 -36.0203 0.4122 0.8606 0 20
6.0454 -47.5395 0.3983 0.9926 0 3
3.9041 -18.6003 0.1580 0.9646 0 6
8.3155 -32.9656 0.2826 0.2338 0 3
8.6389 -29.2380 0.2534 0.9608 0 20
9.0852 -26.7425 0.2347 0.0944 0 2
9.0061 -23.3793 0.2082 0.1064 0 2
8.9440 -20.6971 0.1874 0.1182 0 2
8.8939 -18.5014 0.1706 0.1298 0 2
8.8528 -16.6654 0.1568 0.1412 0 2
9.3088 -15.9422 0.1534 0.1671 0 2
9.1246 -14.2762 0.1408 0.1536 0 1
9.0983 -13.0480 0.1322 0.1728 0 1
9.0946 -11.9854 0.1250 0.1827 0 1
9.0841 -11.0219 0.1187 0.1903 0 1
9.0515 -10.1242 0.1129 0.1981 0 1
9.0037 -9.2907 0.1075 0.2002 0 1
8.9589 -8.5300 0.1028 0.2242 0 1
8.9374 -7.8494 0.0989 0.2331 0 1
8.9256 -7.2248 0.0954 0.2448 0 1
8.9303 -6.6528 0.0926 0.2754 0 1
6.2295 -4.2625 0.0627 0.9111 14 6
8.6624 -5.4293 0.0850 0.2614 0 25
8.6562 -4.9524 0.0829 0.2680 0 25
8.6507 -4.4978 0.0810 0.2741 0 25
8.6458 -4.0625 0.0794 0.2798 0 25
8.6415 -3.6440 0.0779 0.2850 0 25
8.6377 -3.2400 0.0767 0.2897 0 25
8.6344 -2.8485 0.0756 0.2940 0 25
8.6315 -2.4676 0.0746 0.2977 0 25
8.9383 -2.1708 0.0764 0.3005 0 1
8.9499 -1.7961 0.0759 0.3039 0 1
4.4678 -0.7112 0.0376 0.0894 25 14
3.9617 -0.4682 0.0332 0.9658 25 14
3.9407 -0.3058 0.0329 0.9676 25 14
3.9147 -0.1459 0.0326 0.9763 25 14
3.8891 0.0115 0.0323 0.9834 25 14
3.9131 0.1690 0.0326 0.9765 25 14
3.9386 0.3291 0.0328 0.9677 25 14
3.9625 0.4921 0.0332 0.9649 25 14
5.1597 0.8526 0.0435 0.0102 25 14
9.1904 1.9010 0.0780 0.2953 0 1
9.2308 2.2998 0.0791 0.2905 0 1
9.2749 2.7110 0.0803 0.2860 0 1
9.3208 3.1362 0.0817 0.2811 0 1
9.3685 3.5775 0.0833 0.2735 0 1
9.4120 4.0347 0.0851 0.2678 0 1
9.4187 4.4939 0.0867 0.2768 0 1
9.4113 4.9642 0.0884 0.2715 0 1
9.4041 5.4543 0.0904 0.2657 0 1
9.3938 5.9654 0.0925 0.2592 0 1
9.3147 6.4547 0.0942 0.2879 0 1
9.2064 6.9435 0.0958 0.2829 0 1
9.1088 7.4627 0.0979 0.2752 0 1
9.1493 8.1319 0.1017 0.2408 0 2
8.6856 8.3683 0.1002 0.2173 0 2
8.6967 9.0807 0.1045 0.2120 0 2
8.7112 9.8603 0.1094 0.2026 0 2
8.7277 10.7181 0.1149 0.1928 0 2
8.7465 11.6695 0.1212 0.1828 0 2
6.4189 9.3225 0.0941 0.9805 22 6
8.7936 13.9394 0.1370 0.1617 0 2
8.4537 14.6764 0.1408 0.8633 0 3
8.2522 15.7589 0.1478 0.4484 0 3
8.2365 17.3966 0.1600 0.4144 0 3
8.1221 19.1049 0.1725 0.9177 0 3
9.0163 23.8249 0.2117 0.1046 0 2
8.0294 24.1020 0.2111 0.9466 0 3
8.1386 28.1566 0.2436 0.2724 0 3
8.8779 36.0945 0.3089 0.9756 0 6
2.9296 14.3803 0.1220 0.9886 0 9
1.8398 15.1846 0.1271 0.7700 0 9
1.8927 23.4995 0.1959 0.5757 0 9
0.9496 23.6294 0.1965 0.4826 0 9
-0.0009 24.2618 0.2016 0.2205 0 9
-30.8670 37.9010 0.4063 0.8796 0 3
-30.0779 31.4016 0.3614 0.2209 0 3
-30.1270 29.0223 0.3477 0.2452 0 3
-31.7504 28.2158 0.3530 0.7016 0 3
-33.7746 27.6671 0.3629 0.6386 0 3
-30.0116 22.6317 0.3124 0.2617 0 3
-30.2319 20.9464 0.3057 0.2671 0 3
-29.8662 18.9632 0.2940 0.2115 0 3
-29.8362 17.3021 0.2867 0.7433 0 3
-36.7413 19.3766 0.3452 0.8328 0 3
-36.8459 17.5769 0.3393 0.2621 0 3
-37.4980 16.0712 0.3391 0.3998 0 3
-35.1068 -33.4308 0.4029 0.8805 0 20
-34.3275 -35.4263 0.4100 0.8653 0 20
8.5976 -11.0596 -0.0388 0.1940 0 1
8.6020 -10.1918 -0.0369 0.2017 0 1
8.5783 -9.3721 -0.0352 0.2039 0 1
8.5631 -8.6317 -0.0337 0.2281 0 1
8.5571 -7.9587 -0.0324 0.2373 0 1
8.5568 -7.3397 -0.0312 0.2494 0 1
8.5813 -6.7816 -0.0303 0.2804 0 1
8.5323 -6.2025 -0.0292 0.2734 0 24
6.2192 -4.1495 -0.0207 0.9322 14 6
8.3283 -5.0853 -0.0270 0.2739 0 25
8.3302 -4.6374 -0.0264 0.2803 0 25
8.3318 -4.2090 -0.0259 0.2863 0 25
8.3333 -3.7973 -0.0254 0.2919 0 25
8.3346 -3.4004 -0.0249 0.2969 0 25
8.3357 -3.0160 -0.0246 0.3015 0 25
8.3367 -2.6426 -0.0242 0.3056 0 25
8.3378 -2.2785 -0.0239 0.3016 0 2
8.6404 -1.9918 -0.0246 0.3126 0 1
8.6548 -1.6318 -0.0244 0.3150 0 1
4.0042 -0.5894 -0.0112 0.3078 25 14
3.9505 -0.4202 -0.0110 0.9699 25 14
3.9294 -0.2587 -0.0109 0.9712 25 14
3.9035 -0.0998 -0.0108 0.9795 25 14
3.8919 0.0570 -0.0108 0.9826 25 14
3.9171 0.2151 -0.0109 0.9749 25 14
3.9427 0.3759 -0.0110 0.9657 25 14
3.9568 0.5385 -0.0111 0.9649 25 14
8.8520 1.5693 -0.0249 0.3083 0 1
8.8839 1.9461 -0.0252 0.3048 0 1
8.9194 2.3333 -0.0255 0.2998 0 1
8.9573 2.7322 -0.0259 0.2952 0 1
8.9963 3.1446 -0.0264 0.2900 0 1
9.0312 3.5702 -0.0269 0.2824 0 1
9.0664 4.0126 -0.0275 0.2766 0 1
9.0696 4.4582 -0.0280 0.2858 0 1
9.0558 4.9129 -0.0285 0.2804 0 1
9.0405 5.3857 -0.0292 0.2741 0 1
9.0211 5.8778 -0.0298 0.2679 0 1
8.9552 6.3618 -0.0304 0.2970 0 1
8.8441 6.8339 -0.0310 0.2919 0 1
8.7466 7.3385 -0.0316 0.2839 0 1
8.7568 7.9682 -0.0328 0.2494 0 2
8.3889 8.2737 -0.0326 0.7477 0 2
8.2848 8.8556 -0.0336 0.2198 0 2
8.2802 9.5964 -0.0351 0.2103 0 2
8.2751 10.4085 -0.0368 0.2004 0 2
6.6008 9.0246 -0.0310 0.8213 22 6
8.2625 12.3056 -0.0411 0.1798 0 2
8.2547 13.4306 -0.0437 0.1691 0 2
8.2456 14.7102 -0.0467 0.1580 0 2
8.2349 16.1837 -0.0503 0.1468 0 2
8.2222 17.9047 -0.0546 0.1353 0 2
8.1280 19.7571 -0.0592 0.3661 0 3
8.1875 22.4233 -0.0661 0.1116 0 2
8.1635 25.4946 -0.0742 0.0996 0 2
8.1325 29.4206 -0.0846 0.0873 0 2
8.0911 34.6364 -0.0985 0.0749 0 2
2.8383 14.8158 -0.0418 0.7486 0 9
1.6477 15.0736 -0.0420 0.1727 0 9
1.7285 25.1294 -0.0698 0.4103 0 9
0.7267 25.5122 -0.0707 0.8982 0 9
-31.5367 37.8117 -0.1364 0.5065 0 3
-29.7711 32.9101 -0.1229 0.6082 0 3
-31.4107 32.0347 -0.1243 0.6599 0 3
-29.6971 27.9462 -0.1130 0.5389 0 3
-31.5875 27.4168 -0.1159 0.7125 0 3
-34.5841 27.6609 -0.1227 0.6296 0 3
-31.5602 23.2257 -0.1086 0.7605 0 3
-31.3169 21.1606 -0.1047 0.7827 0 3
-31.3051 19.3670 -0.1020 0.8036 0 3
-31.2938 17.6618 -0.0996 0.8233 0 3
-31.5144 16.1520 -0.0981 0.4618 0 3
-38.3353 17.7401 -0.1170 0.4258 0 3
-38.7624 16.0793 -0.1163 0.2910 0 3
-34.7558 -33.8801 -0.1345 0.8836 0 20
-33.7784 -35.6852 -0.1361 0.9296 0 20
7.9872 -47.4722 -0.1334 0.0554 0 2
3.9115 -18.6358 -0.0528 0.6026 0 6
8.1109 -32.1548 -0.0919 0.0804 0 2
8.1474 -27.5745 -0.0797 0.0927 0 2
8.1750 -24.0632 -0.0704 0.1049 0 2
8.1966 -21.2778 -0.0632 0.1169 0 2
8.2139 -19.0076 -0.0574 0.1287 0 2
8.2281 -17.1163 -0.0526 0.1403 0 2
8.5970 -16.1838 -0.0508 0.9164 0 2
8.5663 -14.6706 -0.0471 0.1467 0 1
8.5564 -13.3872 -0.0440 0.1719 0 1
8.5752 -12.2977 -0.0415 0.1833 0 1
8.5935 -11.3251 -0.0394 0.1912 0 1
8.6049 -10.4405 -0.0375 0.1988 0 1
8.5885 -9.6064 -0.0357 0.2010 0 1
8.5650 -8.8379 -0.0341 0.2253 0 1
8.5588 -8.1490 -0.0327 0.2347 0 1
8.5558 -7.5143 -0.0315 0.2469 0 1
8.5716 -6.9382 -0.0306 0.2781 0 1
8.6045 -6.4101 -0.0297 0.2858 0 1
6.2173 -4.2541 -0.0209 0.8057 14 6
6.5397 -4.0989 -0.0214 0.3484 14 6
8.3297 -4.7656 -0.0266 0.2785 0 25
8.3314 -4.3317 -0.0260 0.2846 0 25
8.3329 -3.9155 -0.0255 0.2903 0 25
8.3342 -3.5144 -0.0251 0.2955 0 25
8.3354 -3.1266 -0.0247 0.3002 0 25
8.3364 -2.7502 -0.0243 0.3045 0 25
8.3472 -2.3863 -0.0241 0.4269 0 2
8.6364 -2.0975 -0.0246 0.3119 0 1
8.6220 -1.7303 -0.0244 0.3141 0 24
4.1411 -0.6592 -0.0116 0.2601 25 14
3.9531 -0.4672 -0.0110 0.9679 25 14
3.9370 -0.3055 -0.0109 0.9686 25 14
3.9110 -0.1457 -0.0108 0.9772 25 14
3.8854 0.0115 -0.0108 0.9843 25 14
3.9097 0.1689 -0.0108 0.9773 25 14
3.9352 0.3288 -0.0109 0.9685 25 14
3.9541 0.4911 -0.0110 0.9670 25 14
4.3397 0.7171 -0.0122 0.0920 25 14
8.8418 1.8289 -0.0250 0.3053 0 24
8.9086 2.2195 -0.0254 0.3011 0 1
8.9461 2.6149 -0.0258 0.2966 0 1
8.9848 3.0231 -0.0263 0.2916 0 1
9.0212 3.4449 -0.0268 0.2840 0 1
9.0561 3.8821 -0.0273 0.2783 0 1
9.0735 4.3292 -0.0279 0.2873 0 1
9.0599 4.7788 -0.0284 0.2820 0 1
9.0456 5.2464 -0.0290 0.2762 0 1
9.0268 5.7324 -0.0296 0.2697 0 1
8.9868 6.2275 -0.0303 0.2984 0 1
8.8768 6.6949 -0.0308 0.2934 0 1
8.7745 7.1888 -0.0314 0.2857 0 1
8.5720 8.2588 -0.0330 0.7401 0 2
8.2860 8.6519 -0.0332 0.2225 0 2
8.2816 9.3741 -0.0347 0.2131 0 2
8.2767 10.1642 -0.0363 0.2033 0 2
6.7619 9.0217 -0.0312 0.6428 22 6
6.4256 9.3322 -0.0314 0.3354 22 6
8.2571 13.0889 -0.0429 0.1722 0 2
8.2484 14.3201 -0.0458 0.1613 0 2
8.2382 15.7323 -0.0492 0.1501 0 2
8.2261 17.3747 -0.0533 0.1386 0 2
8.1319 19.1279 -0.0576 0.3763 0 3
8.1934 21.6506 -0.0641 0.1151 0 2
8.0996 24.3127 -0.0710 0.3052 0 3
8.1424 28.1697 -0.0812 0.0909 0 2
8.1046 32.9504 -0.0940 0.0785 0 2
2.9617 14.5375 -0.0411 0.6265 0 9
1.8983 15.6678 -0.0437 0.7382 0 9
2.0427 25.3614 -0.0705 0.4180 0 9
1.0268 25.5494 -0.0708 0.3988 0 9
-30.6583 37.6447 -0.1345 0.4309 0 3
-31.6237 33.0154 -0.1267 0.6518 0 3
-31.3992 30.2478 -0.1208 0.6790 0 3
-31.3299 27.8420 -0.1161 0.3610 0 3
-33.7734 27.6661 -0.1210 0.6386 0 3
-31.5640 23.8023 -0.1095 0.7538 0 3
-31.3205 21.7006 -0.1056 0.7764 0 3
-31.3085 19.8790 -0.1027 0.7977 0 3
-31.2970 18.1493 -0.1002 0.8177 0 3
-31.2861 16.4997 -0.0980 0.8364 0 3
-36.9146 17.6096 -0.1133 0.7522 0 3
-38.9839 16.7081 -0.1175 0.2895 0 3
-34.9802 -33.3102 -0.1338 0.8878 0 20
-34.0900 -35.1812 -0.1357 0.9324 0 20
8.1545 -10.4895 -0.1841 0.2045 0 1
8.1716 -9.6819 -0.1755 0.2045 0 1
8.1773 -8.9340 -0.1678 0.2289 0 1
8.1869 -8.2525 -0.1610 0.2385 0 1
8.1963 -7.6232 -0.1551 0.2511 0 1
8.2318 -7.0609 -0.1502 0.2827 0 1
8.2737 -6.5385 -0.1461 0.2908 0 1
8.3088 -6.0400 -0.1423 0.2501 0 1
6.2328 -4.1586 -0.1038 0.8100 14 6
8.0206 -4.8974 -0.1302 0.2844 0 25
8.0292 -4.4699 -0.1273 0.2908 0 25
8.0369 -4.0600 -0.1247 0.2968 0 25
8.0437 -3.6654 -0.1225 0.3023 0 25
8.0497 -3.2841 -0.1204 0.3074 0 25
8.0550 -2.9145 -0.1187 0.3120 0 25
8.0596 -2.5548 -0.1171 0.3161 0 25
8.1759 -2.2343 -0.1174 0.3258 0 2
8.3592 -1.9270 -0.1188 0.3231 0 1
8.3752 -1.5791 -0.1181 0.3254 0 1
3.9509 -0.5816 -0.0553 0.9648 25 14
3.9420 -0.4193 -0.0549 0.9719 25 14
3.9256 -0.2585 -0.0545 0.9721 25 14
3.8999 -0.0997 -0.0540 0.9803 25 14
3.8887 0.0570 -0.0539 0.9834 25 14
3.9138 0.2149 -0.0543 0.9757 25 14
3.9392 0.3756 -0.0548 0.9736 25 14
3.9484 0.5373 -0.0552 0.9669 25 14
8.5601 1.5175 -0.1204 0.3188 0 1
8.5876 1.8813 -0.1218 0.3152 0 1
8.6172 2.2542 -0.1234 0.3103 0 1
8.6492 2.6383 -0.1253 0.3056 0 1
8.6797 3.0339 -0.1274 0.2982 0 1
8.7066 3.4419 -0.1297 0.2929 0 1
8.7340 3.8655 -0.1323 0.2871 0 1
8.7474 4.2998 -0.1350 0.2963 0 1
8.7280 4.7350 -0.1376 0.2909 0 1
8.7058 5.1863 -0.1404 0.2846 0 1
8.6796 5.6554 -0.1435 0.2784 0 1
8.6492 6.1445 -0.1470 0.3075 0 1
8.5368 6.5965 -0.1494 0.3024 0 1
8.4350 7.0771 -0.1525 0.2943 0 1
8.3322 7.5819 -0.1561 0.2877 0 1
8.3557 8.2409 -0.1626 0.2523 0 2
7.9078 8.4526 -0.1603 0.2296 0 2
7.8862 9.1397 -0.1672 0.2208 0 2
7.8629 9.8900 -0.1750 0.2109 0 2
6.5896 9.0094 -0.1546 0.8226 22 6
7.8063 11.6262 -0.1940 0.1903 0 2
7.7717 12.6447 -0.2056 0.1796 0 2
7.7316 13.7932 -0.2190 0.1685 0 2
7.6848 15.1025 -0.2347 0.1573 0 2
7.6295 16.6142 -0.2533 0.1458 0 2
7.5635 18.3850 -0.2754 0.1341 0 2
7.4832 20.4945 -0.3022 0.1221 0 2
7.3842 23.0608 -0.3354 0.1101 0 2
7.2589 26.2604 -0.3774 0.0978 0 2
7.0960 30.3767 -0.4321 0.0854 0 2
2.6844 14.0124 -0.1976 0.4070 0 9
6.8519 45.6200 -0.6390 0.0693 0 24
1.7664 25.6801 -0.3566 0.1963 0 9
0.4194 14.7247 -0.2041 0.1560 0 9
-31.4714 37.7335 -0.6807 0.6065 0 3
-31.4508 32.0757 -0.6223 0.6633 0 3
-34.7027 32.6566 -0.6601 0.6899 0 3
-31.4321 27.2819 -0.5766 0.7159 0 3
-34.5828 27.6599 -0.6134 0.6295 0 3
-31.4147 23.1186 -0.5403 0.7640 0 3
-33.5456 22.6665 -0.5608 0.5651 0 3
-36.4490 22.5493 -0.5937 0.8071 0 3
-31.5084 17.7829 -0.5012 0.4970 0 3
-32.5646 16.6902 -0.5069 0.2799 0 3
-38.3332 17.7392 -0.5851 0.4257 0 3
-40.3081 16.7205 -0.6045 0.3890 0 3
-34.7295 -33.8544 -0.6719 0.9447 0 20
-33.6673 -35.5678 -0.6784 0.9325 0 20
-16.9478 -27.2166 -0.4441 0.8250 0 6
6.7131 -39.8998 -0.5605 0.0659 0 2
6.9808 -33.2586 -0.4708 0.0784 0 2
7.1731 -28.4370 -0.4063 0.0909 0 2
7.3179 -24.7670 -0.3578 0.1032 0 2
7.4305 -21.8718 -0.3200 0.1154 0 2
7.5205 -19.5228 -0.2898 0.1274 0 2
7.5940 -17.5731 -0.2652 0.1392 0 2
7.8263 -16.2805 -0.2502 0.9573 0 2
8.0221 -15.1015 -0.2369 0.1458 0 1
8.0147 -13.7260 -0.2202 0.1718 0 1
8.0624 -12.6143 -0.2074 0.1824 0 1
8.1064 -11.6255 -0.1963 0.1917 0 1
8.1443 -10.7331 -0.1866 0.2017 0 1
8.1726 -9.9160 -0.1780 0.2093 0 1
8.1742 -9.1430 -0.1699 0.2261 0 1
8.1843 -8.4451 -0.1629 0.2358 0 1
8.1929 -7.8006 -0.1567 0.2451 0 1
8.2190 -7.2185 -0.1515 0.2803 0 1
8.2618 -6.6875 -0.1472 0.2885 0 1
8.3017 -6.1845 -0.1434 0.2962 0 1
6.2337 -4.2654 -0.1046 0.8035 14 6
6.5176 -4.0850 -0.1066 0.5686 14 6
8.0268 -4.5923 -0.1281 0.2890 0 25
8.0348 -4.1775 -0.1254 0.2951 0 25
8.0418 -3.7787 -0.1231 0.3008 0 25
8.0481 -3.3938 -0.1210 0.3060 0 25
8.0535 -3.0209 -0.1192 0.3107 0 25
8.0583 -2.6584 -0.1175 0.3150 0 25
8.0624 -2.3049 -0.1162 0.3188 0 2
8.3547 -2.0291 -0.1191 0.3224 0 1
8.3427 -1.6742 -0.1179 0.3247 0 24
4.0666 -0.6473 -0.0570 0.3025 25 14
3.9446 -0.4662 -0.0550 0.9700 25 14
3.9332 -0.3052 -0.0546 0.9694 25 14
3.9073 -0.1456 -0.0542 0.9781 25 14
3.8818 0.0115 -0.0538 0.9852 25 14
3.9064 0.1687 -0.0542 0.9781 25 14
3.9318 0.3285 -0.0547 0.9693 25 14
3.9457 0.4900 -0.0551 0.9690 25 14
4.1054 0.6784 -0.0576 0.2621 25 14
8.5475 1.7680 -0.1209 0.3158 0 24
8.6080 2.1446 -0.1229 0.3115 0 1
8.6399 2.5254 -0.1247 0.3070 0 1
8.6719 2.9179 -0.1267 0.2997 0 1
8.6988 3.3217 -0.1290 0.2945 0 1
8.7260 3.7406 -0.1315 0.2888 0 1
8.7527 4.1761 -0.1343 0.2978 0 1
8.7338 4.6068 -0.1368 0.2925 0 1
8.7130 5.0535 -0.1395 0.2863 0 1
8.6874 5.5168 -0.1426 0.2802 0 1
8.6599 6.0010 -0.1460 0.2737 0 1
8.5699 6.4635 -0.1487 0.3039 0 1
8.4639 6.9343 -0.1516 0.2962 0 1
8.3626 7.4327 -0.1550 0.2896 0 1
8.3698 8.0640 -0.1610 0.2540 0 2
7.9617 8.3133 -0.1595 0.8085 0 2
7.8924 8.9336 -0.1651 0.2236 0 2
7.8700 9.6648 -0.1727 0.2138 0 2
6.7484 9.0036 -0.1559 0.8160 22 6
7.8155 11.3509 -0.1909 0.1934 0 2
7.7823 12.3363 -0.2021 0.1827 0 2
7.7439 13.4442 -0.2149 0.1718 0 2
7.6992 14.7029 -0.2299 0.1606 0 2
7.6466 16.1507 -0.2475 0.1491 0 2
7.5840 17.8391 -0.2685 0.1375 0 2
7.5084 19.8405 -0.2939 0.1256 0 2
7.4153 22.2585 -0.3250 0.1136 0 2
7.2986 25.2506 -0.3641 0.1014 0 2
7.1483 29.0625 -0.4146 0.0890 0 2
6.9470 34.0999 -0.4821 0.0766 0 2
7.0220 43.2992 -0.6076 0.0733 0 24
2.0369 25.2895 -0.3515 0.9833 0 9
-31.4746 38.6471 -0.6905 0.5978 0 3
-31.4537 32.8380 -0.6299 0.6553 0 3
-33.9049 32.6617 -0.6522 0.6983 0 3
-31.4348 27.9352 -0.5826 0.7086 0 3
-33.7721 27.6651 -0.6048 0.6386 0 3
-30.4201 22.9397 -0.5278 0.6243 0 3
-31.4062 21.7600 -0.5293 0.7798 0 3
-35.6772 22.6528 -0.5854 0.5414 0 3
-31.3898 18.2031 -0.5027 0.8211 0 3
-32.6883 17.2392 -0.5119 0.2680 0 3
-37.2013 17.7464 -0.5710 0.4363 0 3
-35.0347 -33.3621 -0.6702 0.9471 0 20
-33.9784 -35.0660 -0.6764 0.9384 0 20
7.7302 -9.9438 -0.3141 0.2149 0 24
7.7637 -9.1986 -0.3002 0.2257 0 24
7.7881 -8.5088 -0.2877 0.2385 0 24
7.8131 -7.8757 -0.2767 0.2534 0 24
7.8403 -7.2920 -0.2670 0.2662 0 24
7.9390 -6.8098 -0.2608 0.2931 0 1
7.9008 -6.2438 -0.2511 0.2874 0 24
7.7009 -5.5982 -0.2374 0.2818 0 2
6.2492 -4.1695 -0.1874 0.8077 14 6
7.7348 -4.7229 -0.2260 0.2948 0 25
7.7492 -4.3140 -0.2212 0.3013 0 25
7.7621 -3.9211 -0.2169 0.3073 0 25
7.7735 -3.5423 -0.2130 0.3128 0 25
7.7836 -3.1756 -0.2096 0.3179 0 25
7.7925 -2.8195 -0.2067 0.3224 0 25
7.8003 -2.4726 -0.2041 0.3265 0 25
8.0784 -2.2076 -0.2088 0.3309 0 1
8.0958 -1.8662 -0.2072 0.3338 0 1
8.1130 -1.5297 -0.2059 0.3359 0 1
3.9423 -0.5803 -0.0994 0.9666 25 14
3.9336 -0.4184 -0.0987 0.9737 25 14
3.9219 -0.2583 -0.0980 0.9728 25 14
3.8962 -0.0996 -0.0972 0.9810 25 14
3.8854 0.0569 -0.0969 0.9840 25 14
3.9105 0.2147 -0.0977 0.9763 25 14
3.9308 0.3748 -0.0985 0.9755 25 14
3.9400 0.5362 -0.0992 0.9687 25 14
4.3558 0.7722 -0.1103 0.0268 25 14
8.2795 1.8138 -0.2114 0.3251 0 24
8.3348 2.1803 -0.2149 0.3207 0 1
8.3616 2.5505 -0.2180 0.3161 0 1
8.3837 2.9304 -0.2215 0.3087 0 1
8.4045 3.3225 -0.2254 0.3034 0 1
8.4250 3.7288 -0.2298 0.2976 0 1
8.4452 4.1513 -0.2347 0.2913 0 1
8.4230 4.5696 -0.2390 0.3014 0 1
8.3949 5.0011 -0.2437 0.2951 0 1
8.3630 5.4490 -0.2489 0.2889 0 1
8.3285 5.9167 -0.2548 0.2822 0 1
8.2501 6.3749 -0.2600 0.3128 0 1
8.1447 6.8335 -0.2651 0.3047 0 1
8.0391 7.3151 -0.2711 0.2981 0 1
8.0217 7.9116 -0.2810 0.2627 0 2
7.7880 8.3246 -0.2843 0.8513 0 2
7.5278 8.7243 -0.2874 0.2312 0 2
7.4897 9.4206 -0.3001 0.2214 0 2
6.5785 8.9942 -0.2779 0.8238 22 6
7.3978 11.0177 -0.3310 0.2008 0 2
7.3420 11.9455 -0.3497 0.1900 0 2
7.2778 12.9836 -0.3712 0.1790 0 2
7.2034 14.1565 -0.3961 0.1677 0 2
7.1165 15.4969 -0.4253 0.1562 0 2
7.0137 17.0484 -0.4597 0.1445 0 2
6.8905 18.8714 -0.5010 0.1326 0 2
6.7407 21.0512 -0.5512 0.1205 0 2
6.5548 23.7133 -0.6135 0.1083 0 2
6.3187 27.0491 -0.6927 0.0959 0 2
6.0092 31.3672 -0.7965 0.0834 0 2
5.9141 39.3759 -0.9930 0.0689 0 1
1.7213 15.7471 -0.3950 0.7777 0 9
1.0610 15.4255 -0.3856 0.3982 0 9
0.4654 16.3401 -0.4077 0.3269 0 9
-0.1722 14.6816 -0.3662 0.6523 0 9
-31.2897 37.5155 -1.2183 0.6098 0 3
-31.5286 34.8529 -1.1720 0.6388 0 3
-31.2847 31.9062 -1.1144 0.6667 0 3
-17.5611 16.5257 -0.6014 0.7339 0 6
-31.2782 27.1483 -1.0329 0.7193 0 3
-34.5815 27.6588 -1.1043 0.6294 0 3
-31.1217 22.9029 -0.9636 0.4365 0 3
-33.5442 22.6655 -1.0096 0.5650 0 3
-36.2906 22.4513 -1.0642 0.8104 0 3
-31.5069 17.7820 -0.9022 0.4970 0 3
-34.0037 17.4278 -0.9529 0.2591 0 3
-36.3545 16.8235 -0.9990 0.9317 0 3
-41.4171 17.1806 -1.1182 0.8865 0 3
-34.6874 -33.8134 -1.2081 0.9742 0 20
-33.3832 -35.2677 -1.2111 0.9718 0 20
5.2746 -41.4785 -1.0427 0.0637 0 2
5.7894 -34.4093 -0.8702 0.0764 0 2
6.1558 -29.3281 -0.7473 0.0889 0 2
6.4295 -25.4890 -0.6556 0.1014 0 2
6.6414 -22.4777 -0.5845 0.1137 0 2
6.8101 -20.0457 -0.5280 0.1259 0 2
6.9473 -18.0348 -0.4820 0.1379 0 2
7.1071 -16.4464 -0.4468 0.9950 0 2
7.4643 -15.5276 -0.4297 0.1360 0 1
7.4722 -14.0664 -0.3972 0.1512 0 1
7.5083 -12.8587 -0.3713 0.1861 0 24
7.5927 -11.8795 -0.3516 0.1935 0 24
7.6605 -10.9860 -0.3340 0.2040 0 24
7.7174 -10.1704 -0.3184 0.2119 0 24
7.7553 -9.4097 -0.3041 0.2224 0 24
7.7813 -8.7035 -0.2911 0.2340 0 24
7.8056 -8.0543 -0.2797 0.2491 0 24
7.8320 -7.4570 -0.2697 0.2635 0 24
7.9242 -6.9596 -0.2630 0.2907 0 1
7.9735 -6.4542 -0.2558 0.2988 0 1
7.9979 -5.9582 -0.2487 0.2576 0 1
6.2503 -4.2767 -0.1889 0.8012 14 6
6.5022 -4.0753 -0.1914 0.5698 14 6
7.7452 -4.4312 -0.2225 0.2994 0 25
7.7585 -4.0339 -0.2181 0.3056 0 25
7.7703 -3.6511 -0.2141 0.3112 0 25
7.7808 -3.2811 -0.2106 0.3164 0 25
7.7900 -2.9221 -0.2075 0.3212 0 25
7.7981 -2.5726 -0.2048 0.3254 0 25
7.8427 -2.2421 -0.2034 0.3384 0 2
8.0908 -1.9650 -0.2076 0.3329 0 1
8.1081 -1.6272 -0.2062 0.3353 0 1
4.0042 -0.6374 -0.1011 0.3071 25 14
3.9361 -0.4652 -0.0988 0.9718 25 14
3.9274 -0.3048 -0.0982 0.9778 25 14
3.9037 -0.1455 -0.0974 0.9788 25 14
3.8782 0.0115 -0.0967 0.9859 25 14
3.9031 0.1686 -0.0974 0.9787 25 14
3.9282 0.3282 -0.0983 0.9772 25 14
3.9373 0.4890 -0.0989 0.9708 25 14
4.0429 0.6681 -0.1022 0.3040 25 14
8.3036 1.7175 -0.2115 0.3268 0 1
8.3270 2.0746 -0.2140 0.3220 0 1
8.3538 2.4418 -0.2170 0.3175 0 1
8.3775 2.8188 -0.2204 0.3102 0 1
8.3985 3.2071 -0.2242 0.3050 0 1
8.4191 3.6090 -0.2284 0.2993 0 1
8.4394 4.0266 -0.2332 0.2932 0 1
8.4302 4.4467 -0.2377 0.3030 0 1
8.4037 4.8741 -0.2423 0.2968 0 1
8.3725 5.3169 -0.2473 0.2907 0 1
8.3388 5.7785 -0.2530 0.2842 0 1
8.2835 6.2475 -0.2587 0.3143 0 1
8.1744 6.6972 -0.2635 0.3066 0 1
8.0704 7.1730 -0.2693 0.3001 0 1
7.9459 8.2967 -0.2865 0.8093 0 2
7.5013 9.2120 -0.2963 0.2243 0 2
6.7369 8.9883 -0.2801 0.8172 22 6
7.4127 10.7658 -0.3260 0.2038 0 2
7.3590 11.6653 -0.3440 0.1932 0 2
7.2974 12.6690 -0.3646 0.1822 0 2
7.2262 13.7997 -0.3885 0.1710 0 2
7.1432 15.0875 -0.4163 0.1596 0 2
7.0454 16.5723 -0.4491 0.1480 0 2
6.9288 18.3088 -0.4882 0.1361 0 2
6.7875 20.3741 -0.5356 0.1241 0 2
6.6133 22.8797 -0.5939 0.1119 0 2
6.3937 25.9944 -0.6676 0.0995 0 2
6.1087 29.9848 -0.7631 0.0871 0 2
5.7247 35.3003 -0.8918 0.0745 0 2
1.9167 15.8194 -0.3974 0.9415 0 9
2.0377 25.3001 -0.6330 0.7034 0 9
0.6843 17.0276 -0.4250 0.1477 0 9
-31.2902 38.4206 -1.2357 0.6012 0 3
-31.5293 35.6836 -1.1875 0.6305 0 3
-31.2855 32.6624 -1.1279 0.6587 0 3
-33.9038 32.6606 -1.1740 0.6982 0 3
-31.0956 27.6338 -1.0374 0.8287 0 3
-33.7709 27.6640 -1.0887 0.6385 0 3
-31.2717 23.5819 -0.9768 0.7606 0 3
-31.2743 21.6687 -0.9488 0.9129 0 3
-35.6757 22.6518 -1.0539 0.5413 0 3
-31.2557 18.1253 -0.9011 0.8245 0 3
-36.2809 19.1338 -1.0229 0.8432 0 3
-33.8244 16.1355 -0.9346 0.4792 0 3
-41.3422 17.7188 -1.1217 0.3997 0 3
-41.8149 15.9643 -1.1162 0.2732 0 3
-34.9261 -33.2587 -1.2027 0.9498 0 20
-33.7632 -34.8440 -1.2100 0.9727 0 20
7.3930 -9.5100 -0.4340 0.2227 0 1
7.4382 -8.8130 -0.4155 0.2326 0 1
7.4782 -8.1701 -0.3991 0.2422 0 1
7.5305 -7.5908 -0.3853 0.2754 0 1
7.5449 -7.0173 -0.3712 0.2792 0 24
7.5856 -6.5066 -0.3601 0.2886 0 24
7.7137 -6.0959 -0.3542 0.2576 0 1
7.4227 -5.3959 -0.3306 0.2911 0 25
6.2657 -4.1806 -0.2714 0.8053 14 6
6.6492 -4.0600 -0.2807 0.3676 14 6
7.4879 -4.1685 -0.3088 0.3117 0 25
7.5053 -3.7914 -0.3030 0.3177 0 25
7.5207 -3.4271 -0.2978 0.3232 0 25
7.5344 -3.0739 -0.2932 0.3283 0 25
7.5465 -2.7305 -0.2892 0.3328 0 25
7.5580 -2.3958 -0.2857 0.3384 0 2
7.8295 -2.1396 -0.2924 0.3413 0 1
7.8485 -1.8092 -0.2902 0.3442 0 1
7.8666 -1.4832 -0.2884 0.3463 0 1
3.9338 -0.5791 -0.1433 0.9684 25 14
3.9251 -0.4175 -0.1422 0.9755 25 14
3.9165 -0.2579 -0.1414 0.9810 25 14
3.8926 -0.0995 -0.1403 0.9816 25 14
3.8821 0.0569 -0.1399 0.9845 25 14
3.9071 0.2145 -0.1410 0.9768 25 14
3.9226 0.3740 -0.1420 0.9772 25 14
3.9316 0.5350 -0.1430 0.9704 25 14
4.1161 0.7297 -0.1506 0.2979 25 14
8.0200 1.7569 -0.2958 0.3355 0 24
8.0702 2.1111 -0.3006 0.3311 0 1
8.0907 2.4679 -0.3048 0.3240 0 1
8.1070 2.8337 -0.3094 0.3191 0 1
8.1224 3.2110 -0.3147 0.3138 0 1
8.1369 3.6013 -0.3206 0.3080 0 1
8.1505 4.0065 -0.3272 0.3018 0 1
8.1385 4.4152 -0.3336 0.3118 0 1
8.1052 4.8285 -0.3399 0.3055 0 1
8.0685 5.2572 -0.3470 0.2993 0 1
8.0286 5.7036 -0.3548 0.2927 0 1
7.9818 6.1677 -0.3634 0.3232 0 1
7.8736 6.6061 -0.3703 0.3151 0 1
7.7658 7.0664 -0.3783 0.3085 0 1
7.6515 7.5465 -0.3872 0.3014 0 1
7.6459 8.1726 -0.4032 0.2650 0 2
7.2689 8.4243 -0.4009 0.9025 0 2
7.1502 8.9935 -0.4140 0.2318 0 2
6.5674 8.9790 -0.4008 0.8250 22 6
7.0297 10.4695 -0.4544 0.2112 0 2
6.9571 11.3193 -0.4787 0.2005 0 2
6.8741 12.2633 -0.5065 0.1895 0 2
6.7786 13.3216 -0.5385 0.1782 0 2
6.6678 14.5199 -0.5757 0.1667 0 2
6.5381 15.8924 -0.6192 0.1550 0 2
6.3844 17.4853 -0.6707 0.1431 0 2
6.1999 19.3625 -0.7325 0.1310 0 2
5.9748 21.6150 -0.8080 0.1188 0 2
5.6945 24.3773 -0.9020 0.1064 0 2
5.3367 27.8567 -1.0219 0.0939 0 2
4.8648 32.3901 -1.1801 0.0813 0 2
3.3124 30.3026 -1.0983 0.5661 0 20
1.1699 17.0086 -0.6143 0.2962 0 9
0.4707 16.5253 -0.5957 0.1600 0 9
-31.1099 37.2999 -1.7500 0.6132 0 3
-31.1157 34.3965 -1.6712 0.6421 0 3
-31.1202 31.7384 -1.6015 0.6700 0 3
-34.7003 32.6544 -1.7168 0.6896 0 3
-31.1257 27.0159 -1.4850 0.7226 0 3
-34.5802 27.6578 -1.5954 0.6292 0 3
-31.1275 22.9073 -1.3925 0.7706 0 3
-33.5428 22.6646 -1.4586 0.5649 0 3
-36.1335 22.3541 -1.5309 0.8137 0 3
-31.5054 17.7812 -1.3035 0.4968 0 3
-36.1291 18.5171 -1.4628 0.8516 0 3
-34.6895 16.0530 -1.3772 0.4477 0 3
-40.7115 16.8879 -1.5880 0.2880 0 3
-43.6200 16.0717 -1.6749 0.4407 0 3
-34.5919 -33.7203 -1.7406 0.9782 0 20
-33.0964 -34.9647 -1.7347 0.9811 0 20
1.8819 -40.8092 -1.4719 0.7968 0 20
3.7314 -43.1383 -1.5601 0.0615 0 2
4.5276 -35.6043 -1.2932 0.0742 0 2
5.0887 -30.2451 -1.1051 0.0868 0 2
5.5049 -26.2269 -0.9656 0.0994 0 2
5.8253 -23.0936 -0.8581 0.1118 0 2
6.0792 -20.5749 -0.7730 0.1241 0 2
6.2851 -18.5003 -0.7040 0.1363 0 2
6.4550 -16.7569 -0.6470 0.1483 0 2
6.9695 -16.1280 -0.6330 0.1768 0 2
6.9382 -14.4330 -0.5770 0.1503 0 1
7.0396 -13.2519 -0.5407 0.1823 0 1
7.1403 -12.2285 -0.5102 0.1931 0 1
7.2333 -11.3171 -0.4839 0.2053 0 1
7.3114 -10.4854 -0.4606 0.2157 0 1
7.3787 -9.7241 -0.4398 0.2198 0 1
7.4257 -9.0097 -0.4207 0.2298 0 1
7.4671 -8.3520 -0.4037 0.2395 0 1
7.5125 -7.7519 -0.3889 0.2635 0 1
7.5330 -7.1724 -0.3748 0.2754 0 24
7.5741 -6.6520 -0.3632 0.2861 0 24
7.6125 -6.1619 -0.3529 0.2947 0 24
7.6777 -5.7196 -0.3450 0.2521 0 1
6.2669 -4.2881 -0.2736 0.7987 14 6
6.4869 -4.0657 -0.2758 0.5710 14 6
7.4825 -4.2809 -0.3106 0.3099 0 25
7.5004 -3.8997 -0.3046 0.3160 0 25
7.5164 -3.5318 -0.2992 0.3216 0 25
7.5306 -3.1756 -0.2945 0.3268 0 25
7.5431 -2.8294 -0.2903 0.3316 0 25
7.5541 -2.4921 -0.2866 0.3358 0 25
7.7995 -2.2297 -0.2923 0.3403 0 2
7.8429 -1.9048 -0.2908 0.3433 0 1
7.8615 -1.5777 -0.2889 0.3457 0 1
3.9436 -0.6277 -0.1439 0.3117 25 14
3.9276 -0.4642 -0.1425 0.9736 25 14
3.9190 -0.3041 -0.1416 0.9796 25 14
3.9000 -0.1453 -0.1406 0.9794 25 14
3.8749 0.0115 -0.1396 0.9864 25 14
3.8998 0.1684 -0.1406 0.9792 25 14
3.9199 0.3275 -0.1417 0.9789 25 14
3.9290 0.4880 -0.1426 0.9726 25 14
3.9871 0.6589 -0.1456 0.3081 25 14
8.0450 1.6641 -0.2960 0.3382 0 1
8.0642 2.0091 -0.2994 0.3333 0 1
8.0858 2.3634 -0.3035 0.3253 0 1
8.1024 2.7262 -0.3080 0.3206 0 1
8.1180 3.1000 -0.3131 0.3154 0 1
8.1328 3.4863 -0.3188 0.3097 0 1
8.1467 3.8870 -0.3252 0.3036 0 1
8.1469 4.2973 -0.3319 0.3134 0 1
8.1154 4.7069 -0.3380 0.3072 0 1
8.0795 5.1308 -0.3448 0.3012 0 1
8.0405 5.5718 -0.3525 0.2946 0 1
7.9982 6.0323 -0.3610 0.2877 0 1
7.9039 6.4756 -0.3682 0.3170 0 1
7.7978 6.9306 -0.3759 0.3105 0 1
7.6854 7.4047 -0.3845 0.3035 0 1
7.6661 8.0046 -0.3993 0.2676 0 2
7.4109 8.3885 -0.4033 0.8660 0 2
7.1654 8.7995 -0.4089 0.2347 0 2
6.6945 8.9316 -0.4022 0.7884 22 6
6.5020 9.4432 -0.4131 0.2143 22 6
6.9792 11.0632 -0.4713 0.2036 0 2
6.8994 11.9780 -0.4980 0.1927 0 2
6.8078 13.0006 -0.5288 0.1815 0 2
6.7018 14.1551 -0.5643 0.1701 0 2
6.5780 15.4728 -0.6058 0.1584 0 2
6.4319 16.9960 -0.6548 0.1466 0 2
6.2573 18.7825 -0.7133 0.1345 0 2
6.0452 20.9143 -0.7844 0.1223 0 2
5.7828 23.5110 -0.8724 0.1100 0 2
5.4505 26.7543 -0.9838 0.0976 0 2
2.2396 13.8102 -0.5041 0.3547 0 9
1.7298 14.2775 -0.5182 0.7928 0 9
1.3526 16.7934 -0.6070 0.5085 0 9
1.0768 26.7937 -0.9662 0.9984 0 20
-0.0005 15.0425 -0.5420 0.6138 0 9
-31.1079 38.1967 -1.7749 0.6046 0 3
-31.1141 35.2138 -1.6931 0.6338 0 3
-31.1190 32.4885 -1.6209 0.6620 0 3
-31.1250 29.9837 -1.5572 0.4649 0 3
-31.1252 27.6601 -1.5003 0.7152 0 3
-33.7696 27.6630 -1.5729 0.6383 0 3
-31.1275 23.4731 -1.4047 0.7639 0 3
-31.2692 21.6651 -1.3706 0.5745 0 3
-35.6741 22.6508 -1.5226 0.5411 0 3
-31.1227 18.0482 -1.2963 0.8277 0 3
-30.9396 16.3169 -1.2603 0.7381 0 3
-35.2903 16.8348 -1.4088 0.4361 0 3
-41.3397 17.7178 -1.6205 0.3996 0 3
-41.6961 15.9189 -1.6081 0.5300 0 3
-34.9692 -33.2997 -1.7398 0.9786 0 20
-33.5413 -34.6150 -1.7367 0.9799 0 20
7.0591 -9.0805 -0.5421 0.2331 0 1
7.1160 -8.4312 -0.5200 0.2430 0 1
7.1816 -7.8462 -0.5013 0.2673 0 1
7.2539 -7.3120 -0.4854 0.2857 0 1
7.3263 -6.8140 -0.4716 0.2942 0 1
7.3929 -6.3414 -0.4591 0.2599 0 1
7.1311 -5.6355 -0.4284 0.2914 0 2
7.1638 -5.2077 -0.4174 0.3015 0 25
6.2823 -4.1916 -0.3559 0.8027 14 6
6.6293 -4.0479 -0.3661 0.5625 14 6
7.2435 -4.0325 -0.3907 0.3221 0 25
7.2647 -3.6699 -0.3836 0.3280 0 25
7.2837 -3.3191 -0.3772 0.3336 0 25
7.3005 -2.9785 -0.3716 0.3386 0 25
7.3153 -2.6468 -0.3667 0.3432 0 25
7.3320 -2.3241 -0.3625 0.3554 0 2
7.5941 -2.0753 -0.3710 0.3493 0 1
7.5889 -1.7494 -0.3671 0.3546 0 24
4.1910 -0.7902 -0.2010 0.2554 25 14
3.9253 -0.5778 -0.1870 0.9701 25 14
3.9167 -0.4166 -0.1856 0.9771 25 14
3.9082 -0.2573 -0.1846 0.9827 25 14
3.8889 -0.0994 -0.1833 0.9821 25 14
3.8789 0.0568 -0.1828 0.9848 25 14
3.9038 0.2143 -0.1843 0.9772 25 14
3.9143 0.3732 -0.1853 0.9788 25 14
3.9233 0.5339 -0.1866 0.9721 25 14
4.0581 0.7194 -0.1942 0.3020 25 14
7.8069 1.7102 -0.3767 0.3475 0 1
7.8218 2.0461 -0.3811 0.3424 0 1
7.8358 2.3901 -0.3861 0.3344 0 1
7.8479 2.7431 -0.3918 0.3295 0 1
7.8585 3.1066 -0.3983 0.3242 0 1
7.8677 3.4821 -0.4055 0.3184 0 1
7.8755 3.8713 -0.4136 0.3122 0 1
7.8723 4.2708 -0.4221 0.3222 0 1
7.8347 4.6674 -0.4298 0.3159 0 1
7.7938 5.0782 -0.4384 0.3097 0 1
7.7493 5.5052 -0.4480 0.3031 0 1
7.7008 5.9505 -0.4587 0.2960 0 1
7.6205 6.3937 -0.4688 0.3298 0 1
7.5116 6.8352 -0.4787 0.3231 0 1
7.3963 7.2948 -0.4896 0.3158 0 1
7.2600 8.4140 -0.5238 0.9026 0 2
6.8406 8.6042 -0.5181 0.2427 0 2
6.5317 8.9302 -0.5215 0.9175 22 6
6.6962 9.9729 -0.5662 0.2216 0 2
6.6102 10.7550 -0.5950 0.2109 0 2
6.5125 11.6183 -0.6277 0.1999 0 2
6.4008 12.5791 -0.6652 0.1886 0 2
6.2721 13.6581 -0.7084 0.1771 0 2
6.1226 14.8824 -0.7585 0.1654 0 2
5.9472 16.2880 -0.8172 0.1535 0 2
5.7392 17.9235 -0.8870 0.1415 0 2
5.4887 19.8565 -0.9710 0.1292 0 2
5.1822 22.1842 -1.0737 0.1169 0 2
4.7991 25.0508 -1.2021 0.1044 0 2
2.3501 15.6467 -0.7457 0.9023 0 9
2.3171 21.1970 -1.0050 0.9769 0 20
1.5474 22.4960 -1.0628 0.9965 0 6
0.4914 17.2540 -0.8135 0.5125 0 9
-0.1695 14.4559 -0.6814 0.1080 0 9
-29.7753 38.7672 -2.3039 0.1488 0 3
-29.3178 35.1513 -2.1573 0.1587 0 3
-30.9457 34.2086 -2.1741 0.6453 0 3
-30.9572 31.5723 -2.0840 0.6732 0 3
-30.9668 29.1409 -2.0041 0.7001 0 3
-30.9746 26.8848 -1.9331 0.7258 0 3
-29.1918 23.3480 -1.7618 0.7756 0 3
-30.8035 22.6688 -1.8026 0.8754 0 3
-30.9869 20.9376 -1.7626 0.7959 0 3
-30.9894 19.1717 -1.7175 0.8168 0 3
-31.1977 17.6075 -1.6884 0.6502 0 3
-31.1911 15.9863 -1.6519 0.6192 0 3
-36.3259 16.8103 -1.8865 0.8380 0 3
-42.6885 17.7080 -2.1782 0.3887 0 3
-34.5498 -33.6792 -2.2740 0.9785 0 20
-33.0193 -34.8833 -2.2638 0.9829 0 20
1.8816 -40.8014 -1.9251 0.8193 0 20
3.1866 -36.8392 -1.7428 0.0720 0 2
3.9656 -31.1844 -1.4816 0.0847 0 2
4.5390 -26.9777 -1.2894 0.0973 0 2
4.9780 -23.7170 -1.1422 0.1099 0 2
5.3245 -21.1083 -1.0260 0.1223 0 2
5.6044 -18.9679 -0.9322 0.1346 0 2
5.8349 -17.1751 -0.8549 0.1468 0 2
6.3609 -16.5126 -0.8340 0.1755 0 2
6.3960 -14.8009 -0.7599 0.1452 0 1
6.4757 -13.4710 -0.7045 0.1793 0 24
6.6546 -12.5273 -0.6686 0.1927 0 1
6.7736 -11.6004 -0.6331 0.2062 0 1
6.8803 -10.7648 -0.6021 0.2157 0 1
6.9710 -9.9972 -0.5744 0.2262 0 1
7.0412 -9.2793 -0.5490 0.2302 0 1
7.1001 -8.6148 -0.5262 0.2402 0 1
7.1631 -8.0120 -0.5065 0.2646 0 1
7.2317 -7.4622 -0.4898 0.2832 0 1
7.3059 -6.9561 -0.4754 0.2918 0 1
7.3741 -6.4764 -0.4626 0.2999 0 1
7.4048 -5.9937 -0.4490 0.2657 0 1
7.1547 -5.3300 -0.4205 0.2993 0 25
6.2836 -4.2995 -0.3588 0.7962 14 6
6.4716 -4.0562 -0.3600 0.5721 14 6
7.2368 -4.1403 -0.3930 0.3202 0 25
7.2588 -3.7741 -0.3856 0.3263 0 25
7.2784 -3.4200 -0.3790 0.3320 0 25
7.2958 -3.0765 -0.3732 0.3372 0 25
7.3112 -2.7424 -0.3680 0.3419 0 25
7.3266 -2.4171 -0.3636 0.3458 0 2
7.5878 -2.1692 -0.3719 0.3484 0 1
7.6098 -1.8482 -0.3691 0.3531 0 1
7.6294 -1.5311 -0.3668 0.3569 0 1
3.9278 -0.6252 -0.1875 0.9677 25 14
3.9192 -0.4632 -0.1860 0.9752 25 14
3.9106 -0.3035 -0.1849 0.9812 25 14
3.8963 -0.1452 -0.1838 0.9798 25 14
3.8717 0.0114 -0.1825 0.9868 25 14
3.8965 0.1683 -0.1838 0.9796 25 14
3.9117 0.3268 -0.1850 0.9805 25 14
3.9207 0.4869 -0.1862 0.9742 25 14
3.9328 0.6499 -0.1879 0.3122 25 14
7.8023 1.6139 -0.3755 0.3486 0 1
7.8176 1.9477 -0.3797 0.3447 0 1
7.8321 2.2893 -0.3846 0.3357 0 1
7.8445 2.6395 -0.3901 0.3310 0 1
7.8556 2.9997 -0.3963 0.3258 0 1
7.8652 3.3716 -0.4033 0.3201 0 1
7.8734 3.7566 -0.4112 0.3140 0 1
7.8801 4.1565 -0.4199 0.3075 0 1
7.8460 4.5507 -0.4275 0.3176 0 1
7.8061 4.9571 -0.4358 0.3116 0 1
7.7626 5.3792 -0.4451 0.3051 0 1
7.7154 5.8190 -0.4555 0.2981 0 1
7.6510 6.2683 -0.4662 0.3317 0 1
7.5439 6.7050 -0.4757 0.3251 0 1
7.4306 7.1591 -0.4863 0.3180 0 1
7.3134 7.6363 -0.4983 0.3048 0 1
7.2977 8.2605 -0.5195 0.2695 0 2
6.9270 8.5067 -0.5170 0.9149 0 2
6.6904 8.9263 -0.5258 0.7956 22 6
6.4830 9.4156 -0.5388 0.5277 22 6
6.6364 10.5198 -0.5862 0.2140 0 2
6.5423 11.3580 -0.6178 0.2031 0 2
6.4349 12.2885 -0.6538 0.1919 0 2
6.3114 13.3306 -0.6951 0.1805 0 2
6.1685 14.5095 -0.7431 0.1689 0 2
6.0013 15.8580 -0.7991 0.1570 0 2
5.8036 17.4206 -0.8654 0.1450 0 2
5.5667 19.2586 -0.9448 0.1328 0 2
5.2782 21.4593 -1.0415 0.1205 0 2
4.9200 24.1504 -1.1616 0.1080 0 2
2.2616 13.9457 -0.6659 0.2718 0 9
2.5195 20.7951 -0.9873 0.5142 0 20
2.4768 30.7518 -1.4541 0.2766 0 20
1.1326 28.1831 -1.3294 0.0298 0 20
-0.0005 14.4361 -0.6804 0.9288 0 9
-29.8668 39.8420 -2.3468 0.5776 0 3
-29.4499 36.1609 -2.1980 0.1486 0 3
-29.0732 32.9039 -2.0694 0.9579 0 3
-30.9541 32.3164 -2.1091 0.6652 0 3
-30.9642 29.8288 -2.0264 0.6924 0 3
-18.5810 16.5125 -1.1716 0.7517 0 6
-29.1963 23.9167 -1.7788 0.7297 0 3
-30.0309 22.6462 -1.7727 0.7446 0 3
-30.9859 21.4688 -1.7767 0.7896 0 3
-30.9888 19.6760 -1.7301 0.8109 0 3
-30.9907 17.9716 -1.6884 0.8309 0 3
-35.9800 18.9751 -1.9171 0.8495 0 3
-37.1953 17.7435 -1.9423 0.4359 0 3
-40.2684 17.2586 -2.0649 0.7890 0 3
-45.3858 17.3276 -2.2897 0.2381 0 3
-34.9976 -33.3267 -2.2777 0.9769 0 20
-33.4631 -34.5342 -2.2664 0.9818 0 20
6.7555 -8.6899 -0.6411 0.2582 0 1
6.8367 -8.1003 -0.6174 0.2681 0 1
6.9130 -7.5527 -0.5963 0.2873 0 1
6.9967 -7.0528 -0.5786 0.2961 0 1
7.0737 -6.5790 -0.5626 0.3045 0 1
7.1034 -6.0930 -0.5451 0.2703 0 1
6.8852 -5.4412 -0.5111 0.3057 0 2
6.9222 -5.0320 -0.4984 0.3118 0 25
6.2990 -4.2028 -0.4410 0.8001 14 6
6.5517 -4.0005 -0.4471 0.6182 14 6
7.0142 -3.9049 -0.4676 0.3324 0 25
7.0389 -3.5558 -0.4593 0.3384 0 25
7.0609 -3.2175 -0.4519 0.3439 0 25
7.0804 -2.8887 -0.4454 0.3489 0 25
7.0976 -2.5681 -0.4396 0.3535 0 25
7.2064 -2.2843 -0.4403 0.5033 0 2
7.3719 -2.0146 -0.4451 0.3604 0 1
7.3962 -1.7050 -0.4421 0.3641 0 1
4.1231 -0.7774 -0.2444 0.2964 25 14
3.9169 -0.5766 -0.2306 0.9716 25 14
3.9083 -0.4157 -0.2289 0.9787 25 14
3.8998 -0.2568 -0.2276 0.9842 25 14
3.8853 -0.0993 -0.2264 0.9824 25 14
3.8756 0.0568 -0.2258 0.9851 25 14
3.8972 0.2140 -0.2273 0.9855 25 14
3.9061 0.3724 -0.2285 0.9803 25 14
3.9150 0.5328 -0.2301 0.9736 25 14
4.0017 0.7094 -0.2367 0.3060 25 14
7.5804 1.6606 -0.4520 0.3628 0 1
7.5921 1.9861 -0.4571 0.3587 0 1
7.6018 2.3187 -0.4629 0.3543 0 1
7.6096 2.6599 -0.4695 0.3494 0 1
7.6158 3.0107 -0.4770 0.3439 0 1
7.6201 3.3725 -0.4853 0.3380 0 1
7.6226 3.7469 -0.4947 0.3316 0 1
7.6201 4.1340 -0.5049 0.3216 0 1
7.5826 4.5172 -0.5141 0.3283 0 1
7.5383 4.9117 -0.5240 0.3221 0 1
7.4901 5.3210 -0.5351 0.3154 0 1
7.4376 5.7471 -0.5474 0.3083 0 1
7.3857 6.1967 -0.5615 0.3401 0 1
7.2756 6.6204 -0.5729 0.3333 0 1
7.1587 7.0604 -0.5856 0.3261 0 1
7.0393 7.5243 -0.6001 0.3126 0 1
6.9979 8.1102 -0.6239 0.2771 0 2
6.7890 8.5393 -0.6354 0.9419 0 2
6.4785 8.8574 -0.6392 0.2425 0 2
6.3926 9.5208 -0.6679 0.2320 0 2
6.2960 10.2438 -0.7003 0.2213 0 2
6.1868 11.0372 -0.7369 0.2103 0 2
