ply
format ascii 1.0
element vertex 1388
property float32 x
property float32 y
property float32 z
property float32 CosAngle
property uint32 ObjIdx
property uint32 ObjTag
end_header
3.8586 0.9629 -1.6894 0.6458 0 1
3.8373 1.1232 -1.6985 0.6424 0 1
3.8123 1.2844 -1.7089 0.6385 0 1
3.7832 1.4464 -1.7206 0.6341 0 1
3.7502 1.6093 -1.7336 0.6294 0 1
3.7130 1.7733 -1.7479 0.6242 0 1
3.6715 1.9384 -1.7637 0.6186 0 1
3.6257 2.1048 -1.7809 0.6126 0 1
3.5755 2.2725 -1.7997 0.6058 0 1
3.5208 2.4418 -1.8201 0.5991 0 1
3.4614 2.6127 -1.8423 0.5919 0 1
3.3970 2.7854 -1.8661 0.5843 0 1
3.3274 2.9597 -1.8917 0.5764 0 1
3.2527 3.1363 -1.9194 0.5724 0 1
3.1725 3.3152 -1.9492 0.5636 0 1
3.0863 3.4962 -1.9811 0.5546 0 1
2.9939 3.6796 -2.0151 0.5452 0 1
2.8948 3.8653 -2.0514 0.5356 0 1
2.7871 4.0512 -2.0889 0.5301 0 1
2.6707 4.2372 -2.1277 0.5205 0 1
2.5467 4.4253 -2.1689 0.5111 0 1
2.4145 4.6154 -2.2127 0.5010 0 1
2.2739 4.8077 -2.2592 0.4907 0 1
2.1244 5.0024 -2.3087 0.4802 0 1
1.9538 5.1690 -2.3474 0.4703 0 24
1.7867 5.3701 -2.4042 0.4592 0 24
1.6164 5.6004 -2.4762 0.4481 0 1
1.4253 5.8045 -2.5390 0.4370 0 1
1.2181 5.9910 -2.5971 0.4249 0 24
1.0062 6.2202 -2.6767 0.4145 0 1
0.7770 6.4340 -2.7530 0.4032 0 1
0.5330 6.6498 -2.8339 0.3924 0 1
0.2733 6.8684 -2.9200 0.3800 0 1
-0.0030 7.0897 -3.0117 0.3684 0 1
-0.2973 7.3134 -3.1093 0.3569 0 1
-0.6107 7.5385 -3.2128 0.3482 0 1
-0.9442 7.7625 -3.3218 0.3367 0 1
-1.2991 7.9872 -3.4376 0.3263 0 1
-1.6765 8.2096 -3.5594 0.3151 0 1
-2.0781 8.4319 -3.6891 0.3041 0 1
-2.5057 8.6536 -3.8271 0.2931 0 1
-2.9609 8.8740 -3.9740 0.2823 0 1
-3.4457 9.0921 -4.1304 0.2716 0 1
-3.9629 9.3095 -4.2981 0.2612 0 1
-4.5140 9.5227 -4.4767 0.2508 0 1
-5.1011 9.7304 -4.6671 0.2406 0 1
-5.7309 9.9386 -4.8735 0.2313 0 1
-6.3895 10.1181 -5.0835 0.2218 0 1
-7.0891 10.2855 -5.3066 0.2113 0 1
-7.8325 10.4398 -5.5443 0.2022 0 1
-8.6335 10.5923 -5.8049 0.1894 0 1
-9.4612 10.6991 -6.0672 0.1816 0 24
-10.4032 10.8524 -6.3862 0.1729 0 1
-11.3729 10.9471 -6.7057 0.1646 0 1
-12.3624 10.9773 -7.0231 0.1572 0 24
-13.4550 11.0129 -7.3862 0.1505 0 24
-14.6110 11.0089 -7.7714 0.1377 0 24
-16.0107 11.0837 -8.2721 0.1221 0 1
-17.3751 11.0224 -8.7409 0.1199 0 1
-18.5855 10.7678 -9.1245 0.9767 0 2
-19.3985 10.2204 -9.3143 0.1119 0 2
-20.7724 9.8989 -9.7749 0.1066 0 2
-22.1605 9.4872 -10.2403 0.1018 0 2
-23.5443 8.9780 -10.7042 0.0974 0 2
-24.9013 8.3655 -11.1591 0.0934 0 2
-27.0513 7.8930 -11.9706 0.2788 0 2
-28.5595 7.1010 -12.5015 0.0917 0 1
-16.6259 3.4307 -7.2115 0.8081 26 14
-16.6818 2.7485 -7.1820 0.9028 26 14
-18.8494 2.3320 -8.0683 0.8685 26 14
-32.9078 2.7339 -14.0274 0.0873 0 1
-33.2888 1.4218 -14.1540 0.0865 0 1
-33.3922 0.0829 -14.1851 0.0817 0 1
-33.2187 -1.2536 -14.1214 0.0789 0 1
-32.7224 -2.5549 -13.9428 0.0793 0 1
-30.4642 -3.6154 -13.0320 0.0802 0 25
-29.6942 -4.7410 -12.7739 0.0818 0 25
-22.2794 -4.4821 -9.6540 0.9836 16 6
-28.5724 -6.9537 -12.4919 0.0791 0 1
-27.2458 -7.8031 -12.0394 0.0841 0 1
-25.8009 -8.5253 -11.5431 0.0864 0 1
-24.3440 -9.1447 -11.0470 0.0964 0 1
-22.8656 -9.6550 -10.5438 0.1046 0 1
-21.4208 -10.0777 -10.0563 0.1096 0 1
-20.0366 -10.4298 -9.5957 0.1220 0 1
-18.6878 -10.7035 -9.1486 0.1213 0 1
-17.2892 -10.8478 -8.6705 0.1236 0 24
-16.0164 -10.9703 -8.2467 0.1304 0 1
-14.7475 -10.9974 -7.8148 0.1376 0 1
-13.5408 -10.9713 -7.4033 0.1441 0 1
-12.4024 -10.9032 -7.0150 0.1521 0 1
-11.3564 -10.8231 -6.6642 0.1647 0 1
-10.3747 -10.7156 -6.3359 0.1732 0 1
-9.4713 -10.6040 -6.0398 0.1889 0 1
-8.6298 -10.4810 -5.7674 0.1978 0 1
-7.8369 -10.3383 -5.5109 0.2071 0 1
-7.0828 -10.1679 -5.2640 0.2140 0 1
-6.3749 -9.9846 -5.0323 0.2239 0 1
-5.6920 -9.7588 -4.7992 0.2336 0 24
-5.0701 -9.5555 -4.5952 0.2437 0 24
-4.5023 -9.3774 -4.4189 0.2539 0 1
-3.9540 -9.1620 -4.2390 0.2637 0 1
-3.4400 -8.9430 -4.0704 0.2746 0 1
-2.9585 -8.7223 -3.9126 0.2858 0 1
-2.5062 -8.4974 -3.7634 0.2930 0 1
-2.0817 -8.2695 -3.6225 0.3044 0 1
-1.6840 -8.0425 -3.4906 0.3159 0 1
-1.3115 -7.8183 -3.3676 0.3301 0 1
-0.9592 -7.5722 -3.2424 0.3443 0 24
-0.6345 -7.3772 -3.1454 0.3555 0 1
-0.3266 -7.1588 -3.0442 0.3673 0 1
-0.0374 -6.9244 -2.9415 0.3795 0 24
0.2343 -6.7288 -2.8602 0.3908 0 1
0.4898 -6.5175 -2.7765 0.4026 0 1
0.7301 -6.3088 -2.6979 0.4143 0 1
0.9562 -6.1027 -2.6241 0.4260 0 1
1.1689 -5.8991 -2.5547 0.4377 0 1
1.3686 -5.6957 -2.4884 0.4479 0 1
1.5509 -5.4755 -2.4175 0.4579 0 24
1.7332 -5.2970 -2.3676 0.4708 0 1
1.8995 -5.1017 -2.3125 0.4820 0 1
2.0560 -4.9090 -2.2609 0.4930 0 1
2.2033 -4.7189 -2.2123 0.5038 0 1
2.3361 -4.5200 -2.1614 0.4975 0 1
2.4595 -4.3232 -2.1129 0.5089 0 1
2.5746 -4.1301 -2.0675 0.5201 0 1
2.6821 -3.9404 -2.0249 0.5311 0 1
2.7864 -3.7593 -1.9878 0.5633 0 1
2.8853 -3.5823 -1.9540 0.5730 0 1
2.9781 -3.4075 -1.9224 0.5824 0 1
3.0649 -3.2348 -1.8930 0.5915 0 1
3.1462 -3.0639 -1.8656 0.6002 0 1
3.2221 -2.8948 -1.8400 0.6085 0 1
3.2929 -2.7274 -1.8164 0.6164 0 1
3.3589 -2.5616 -1.7944 0.6240 0 1
3.4205 -2.3975 -1.7744 0.6213 0 1
3.4784 -2.2352 -1.7564 0.6277 0 1
3.5327 -2.0743 -1.7403 0.6337 0 1
3.5832 -1.9146 -1.7258 0.6424 0 1
3.6296 -1.7557 -1.7128 0.6473 0 1
3.6721 -1.5974 -1.7011 0.6517 0 1
3.7106 -1.4398 -1.6908 0.6557 0 1
3.7454 -1.2826 -1.6817 0.6592 0 1
3.7764 -1.1258 -1.6740 0.6623 0 1
3.8038 -0.9693 -1.6675 0.6649 0 1
3.8276 -0.8131 -1.6622 0.6670 0 1
3.8478 -0.6570 -1.6582 0.6686 0 1
3.8645 -0.5010 -1.6554 0.6697 0 1
3.8777 -0.3449 -1.6538 0.6704 0 1
3.8875 -0.1887 -1.6534 0.6705 0 1
3.8946 -0.0324 -1.6545 0.6694 0 1
3.9002 0.1244 -1.6576 0.6681 0 1
3.9023 0.2818 -1.6620 0.6663 0 1
3.9010 0.4399 -1.6676 0.6641 0 1
3.8931 0.5983 -1.6732 0.6521 0 1
3.8804 0.7572 -1.6795 0.6496 0 1
3.8640 0.9166 -1.6870 0.6467 0 1
3.8439 1.0767 -1.6957 0.6434 0 1
3.8199 1.2376 -1.7058 0.6396 0 1
3.7921 1.3993 -1.7170 0.6354 0 1
3.7602 1.5620 -1.7297 0.6308 0 1
3.7242 1.7257 -1.7436 0.6257 0 1
3.6840 1.8905 -1.7590 0.6203 0 1
3.6395 2.0565 -1.7758 0.6144 0 1
3.5905 2.2238 -1.7941 0.6077 0 1
3.5370 2.3925 -1.8140 0.6011 0 1
3.4791 2.5630 -1.8357 0.5940 0 1
3.4162 2.7352 -1.8590 0.5865 0 1
3.3481 2.9090 -1.8841 0.5787 0 1
3.2748 3.0848 -1.9112 0.5749 0 1
3.1963 3.2631 -1.9404 0.5662 0 1
3.1120 3.4435 -1.9717 0.5572 0 1
3.0213 3.6262 -2.0050 0.5480 0 1
2.9242 3.8112 -2.0407 0.5384 0 1
2.8195 3.9978 -2.0781 0.5329 0 1
2.7052 4.1831 -2.1162 0.5233 0 1
2.5834 4.3706 -2.1567 0.5135 0 1
2.4537 4.5600 -2.1997 0.5040 0 1
2.3156 4.7517 -2.2455 0.4937 0 1
2.1687 4.9458 -2.2941 0.4832 0 1
2.0004 5.1112 -2.3316 0.4735 0 24
1.8362 5.3115 -2.3874 0.4624 0 24
1.6697 5.5418 -2.4587 0.4513 0 1
1.4819 5.7451 -2.5204 0.4402 0 1
1.2777 5.9299 -2.5768 0.4277 0 24
1.0702 6.1593 -2.6557 0.4178 0 1
0.8449 6.3717 -2.7304 0.4065 0 1
0.6052 6.5870 -2.8099 0.3958 0 1
0.3502 6.8047 -2.8945 0.3834 0 1
0.0788 7.0253 -2.9846 0.3718 0 1
-0.2101 7.2484 -3.0804 0.3602 0 1
-0.5179 7.4737 -3.1825 0.3487 0 1
-0.8454 7.6975 -3.2896 0.3400 0 1
-1.1940 7.9225 -3.4035 0.3287 0 1
-1.5647 8.1451 -3.5233 0.3183 0 1
-1.9591 8.3675 -3.6507 0.3073 0 1
-2.3790 8.5894 -3.7862 0.2963 0 1
-2.8260 8.8103 -3.9305 0.2854 0 1
-3.3021 9.0292 -4.0841 0.2747 0 1
-3.8097 9.2469 -4.2484 0.2643 0 1
-4.3507 9.4614 -4.4238 0.2538 0 1
-4.9271 9.6708 -4.6107 0.2435 0 1
-5.5446 9.8798 -4.8127 0.2293 0 1
-6.1946 10.0673 -5.0213 0.2245 0 1
-6.8818 10.2379 -5.2403 0.2151 0 1
-7.6126 10.3969 -5.4740 0.2048 0 1
-8.3958 10.5493 -5.7274 0.1919 0 1
-9.2337 10.6903 -6.0008 0.1832 0 1
-10.1324 10.8194 -6.2969 0.1746 0 1
-11.0862 10.9228 -6.6112 0.1670 0 1
-12.0973 10.9966 -6.9448 0.1586 0 1
-13.1784 11.0454 -7.3045 0.1510 0 1
-14.3192 11.0529 -7.6842 0.1431 0 1
-15.5547 11.0382 -8.1024 0.1204 0 24
-16.9845 11.0541 -8.6086 0.1219 0 1
-18.4214 10.9614 -9.1060 0.9892 0 2
-19.0131 10.3021 -9.1862 0.7490 0 2
-20.3721 10.0010 -9.6407 0.1081 0 2
-21.7578 9.6163 -10.1053 0.1031 0 2
-23.1451 9.1360 -10.5703 0.0986 0 2
-24.5123 8.5538 -11.0287 0.0945 0 2
-26.0014 7.9165 -11.5460 0.2891 0 2
-28.2070 7.3633 -12.3839 0.0926 0 1
-16.6233 3.6326 -7.2283 0.8062 26 14
-16.6616 2.9449 -7.1876 0.9021 26 14
-17.7393 2.4047 -7.6046 0.1543 26 14
-32.7551 3.1058 -13.9769 0.0876 0 1
-33.2049 1.8059 -14.1263 0.0867 0 1
-33.3956 0.4720 -14.1879 0.0816 0 1
-33.2974 -0.8683 -14.1496 0.0819 0 1
-32.7947 -2.1766 -13.9619 0.0804 0 24
-30.6502 -3.2758 -13.0944 0.0798 0 25
-29.9369 -4.4228 -12.8553 0.0813 0 25
-29.0376 -5.4906 -12.5538 0.0832 0 25
-28.9359 -6.6861 -12.6159 0.0787 0 1
-27.6384 -7.5684 -12.1731 0.0840 0 1
-26.2369 -8.3317 -11.6939 0.0872 0 1
-24.7706 -8.9771 -11.1923 0.0963 0 1
-23.2858 -9.5143 -10.6857 0.1032 0 1
-21.8380 -9.9650 -10.1970 0.1081 0 1
-20.4327 -10.3353 -9.7270 0.1204 0 1
-19.0818 -10.6359 -9.2801 0.1271 0 1
-17.7190 -10.8319 -8.8221 0.1258 0 1
-16.3968 -10.9524 -8.3763 0.1284 0 1
-15.1079 -10.9947 -7.9375 0.1355 0 1
-13.8837 -10.9837 -7.5203 0.1419 0 1
-12.7252 -10.9267 -7.1251 0.1497 0 1
-11.6522 -10.8488 -6.7631 0.1623 0 1
-10.6531 -10.7497 -6.4290 0.1708 0 1
-9.7244 -10.6355 -6.1218 0.1864 0 1
-8.8685 -10.5188 -5.8447 0.1952 0 1
-8.0618 -10.3816 -5.5837 0.2044 0 1
-7.2965 -10.2188 -5.3340 0.2112 0 1
-6.5754 -10.0389 -5.0979 0.2210 0 1
-5.8989 -9.8482 -4.8766 0.2306 0 1
-5.2461 -9.6151 -4.6529 0.2408 0 24
-4.6678 -9.4387 -4.4731 0.2508 0 1
-4.1093 -9.2249 -4.2900 0.2606 0 1
-3.5855 -9.0067 -4.1181 0.2714 0 1
2.1923 -4.5562 -2.2143 0.4983 0 1
2.3201 -4.3635 -2.1643 0.5098 0 1
2.4395 -4.1743 -2.1174 0.5211 0 1
2.5511 -3.9882 -2.0734 0.5321 0 1
2.6578 -3.8085 -2.0339 0.5648 0 1
2.7603 -3.6348 -1.9988 0.5747 0 1
2.8564 -3.4631 -1.9660 0.5843 0 1
2.9466 -3.2933 -1.9353 0.5936 0 1
3.0310 -3.1253 -1.9067 0.6025 0 1
3.1101 -2.9589 -1.8800 0.6111 0 1
3.1839 -2.7942 -1.8552 0.6192 0 1
3.2528 -2.6309 -1.8322 0.6270 0 1
3.3169 -2.4690 -1.8109 0.6344 0 1
3.3764 -2.3084 -1.7912 0.6413 0 1
3.4322 -2.1494 -1.7735 0.6414 0 1
3.4853 -1.9923 -1.7582 0.6470 0 1
3.5343 -1.8359 -1.7442 0.6522 0 1
3.5792 -1.6802 -1.7316 0.6569 0 1
3.6202 -1.5250 -1.7204 0.6612 0 1
3.6574 -1.3703 -1.7105 0.6650 0 1
3.6908 -1.2160 -1.7019 0.6684 0 1
3.7206 -1.0621 -1.6945 0.6713 0 1
3.7467 -0.9084 -1.6884 0.6737 0 1
3.7692 -0.7549 -1.6835 0.6757 0 1
3.7883 -0.6015 -1.6798 0.6772 0 1
3.8038 -0.4481 -1.6774 0.6781 0 1
3.8159 -0.2946 -1.6761 0.6787 0 1
3.8245 -0.1410 -1.6761 0.6787 0 1
3.8311 0.0128 -1.6778 0.6773 0 1
3.8355 0.1671 -1.6813 0.6758 0 1
3.8364 0.3220 -1.6860 0.6739 0 1
3.8324 0.4775 -1.6914 0.6619 0 1
3.8223 0.6331 -1.6968 0.6598 0 1
3.8085 0.7893 -1.7034 0.6572 0 1
3.7911 0.9461 -1.7112 0.6542 0 1
3.7699 1.1035 -1.7203 0.6507 0 1
3.7448 1.2616 -1.7306 0.6469 0 1
3.7158 1.4206 -1.7422 0.6425 0 1
3.6829 1.5804 -1.7551 0.6378 0 1
3.6458 1.7412 -1.7694 0.6327 0 1
3.6045 1.9031 -1.7851 0.6271 0 1
3.5589 2.0660 -1.8022 0.6212 0 1
3.5089 2.2302 -1.8208 0.6144 0 1
3.4545 2.3958 -1.8411 0.6077 0 1
3.3955 2.5630 -1.8631 0.6005 0 1
3.3315 2.7316 -1.8868 0.5930 0 1
3.2627 2.9022 -1.9124 0.5895 0 1
3.1888 3.0747 -1.9400 0.5811 0 1
3.1093 3.2491 -1.9695 0.5724 0 1
3.0238 3.4254 -2.0010 0.5633 0 1
2.9322 3.6038 -2.0347 0.5540 0 1
2.8341 3.7843 -2.0706 0.5444 0 1
2.7279 3.9652 -2.1078 0.5391 0 1
2.6130 4.1456 -2.1461 0.5294 0 1
2.4906 4.3278 -2.1868 0.5196 0 1
2.3603 4.5118 -2.2300 0.5101 0 1
2.2218 4.6976 -2.2758 0.4998 0 1
2.0747 4.8854 -2.3245 0.4893 0 1
1.9073 5.0459 -2.3624 0.4795 0 24
1.7431 5.2392 -2.4181 0.4684 0 24
1.5760 5.4603 -2.4889 0.4574 0 1
1.3887 5.6556 -2.5504 0.4464 0 1
1.1900 5.8530 -2.6157 0.4352 0 1
0.9791 6.0524 -2.6851 0.4241 0 1
0.7554 6.2557 -2.7596 0.4127 0 1
0.5178 6.4606 -2.8385 0.4020 0 1
0.2653 6.6669 -2.9221 0.3905 0 1
-0.0030 6.8753 -3.0110 0.3781 0 1
-0.2880 7.0853 -3.1055 0.3666 0 1
-0.5911 7.2966 -3.2060 0.3551 0 1
-0.9130 7.5062 -3.3115 0.3466 0 1
-1.2548 7.7150 -3.4231 0.3362 0 1
-1.6174 7.9202 -3.5402 0.3251 0 1
-2.0023 8.1242 -3.6644 0.3140 0 1
-2.4110 8.3265 -3.7963 0.3032 0 1
-2.8449 8.5262 -3.9364 0.2924 0 1
-3.3055 8.7224 -4.0850 0.2817 0 1
-3.7947 8.9145 -4.2430 0.2686 0 1
-4.3158 9.1046 -4.4126 0.2583 0 1
-4.8683 9.2862 -4.5918 0.2509 0 1
-5.4546 9.4596 -4.7822 0.2367 0 1
-6.0738 9.6181 -4.9818 0.2322 0 1
-6.7237 9.7554 -5.1888 0.2229 0 1
-7.4102 9.8769 -5.4076 0.2127 0 1
-8.1391 9.9857 -5.6418 0.1999 0 1
-8.9192 10.0863 -5.8966 0.1913 0 1
-9.7533 10.1744 -6.1724 0.1827 0 1
-10.6311 10.2331 -6.4623 0.1753 0 1
-11.5559 10.2611 -6.7681 0.1669 0 1
-12.5357 10.2605 -7.0945 0.1595 0 1
-13.5605 10.2174 -7.4358 0.1518 0 1
-14.6421 10.1362 -7.7991 0.1329 0 1
-15.8503 10.0551 -8.2205 0.1290 0 1
-17.0441 9.8748 -8.6267 0.1249 0 1
-18.2588 9.6200 -9.0383 0.1189 0 1
-19.7784 9.4253 -9.5951 0.1321 0 2
-20.7013 8.8625 -9.8619 0.7974 0 2
-21.8496 8.3317 -10.2410 0.6394 0 2
-23.3937 7.8590 -10.8078 0.1102 0 2
-24.1567 7.0484 -11.0205 0.0995 0 1
-16.4835 4.0984 -7.4387 0.5073 26 14
-16.4416 3.3927 -7.3522 0.9623 26 14
-16.4945 2.7176 -7.3211 0.8559 26 14
-18.2763 2.2611 -8.0650 0.1354 26 14
-28.3302 2.3536 -12.4498 0.0794 0 1
-28.6596 1.2241 -12.5628 0.0787 0 1
-28.7717 0.0714 -12.6005 0.0800 0 1
-28.6288 -1.0804 -12.5468 0.0804 0 1
-28.2505 -2.2058 -12.4098 0.0831 0 1
-26.6520 -3.1630 -11.7540 0.0912 0 25
-26.0430 -4.1581 -11.5499 0.0928 0 25
-22.1599 -4.4581 -9.8993 0.9842 16 6
-24.4135 -5.9415 -11.0039 0.0967 0 2
-24.0571 -6.8899 -10.9593 0.0994 0 1
-22.9644 -7.5881 -10.5920 0.1053 0 1
-21.8139 -8.1943 -10.2051 0.1113 0 1
-20.6268 -8.7097 -9.8057 0.1197 0 1
-19.4546 -9.1527 -9.4159 0.1252 0 1
-18.2628 -9.5065 -9.0168 0.1249 0 1
-17.0662 -9.7748 -8.6132 0.1308 0 1
-15.8789 -9.9630 -8.2096 0.1339 0 1
-14.7223 -10.0839 -7.8150 0.1406 0 1
-13.6081 -10.1477 -7.4342 0.1472 0 1
-12.5443 -10.1639 -7.0707 0.1548 0 1
-11.4927 -10.1034 -6.7016 0.1630 0 24
-10.6174 -10.1188 -6.4233 0.1756 0 1
-9.7417 -10.0618 -6.1334 0.1910 0 1
-8.9279 -9.9956 -5.8694 0.1996 0 1
-8.1559 -9.9054 -5.6193 0.2085 0 1
-7.4202 -9.7886 -5.3794 0.2149 0 1
-6.7035 -9.6234 -5.1362 0.2243 0 24
-6.0635 -9.4970 -4.9346 0.2338 0 1
-5.4428 -9.3316 -4.7311 0.2433 0 1
-4.8578 -9.1553 -4.5390 0.2536 0 1
-4.3071 -8.9709 -4.3581 0.2632 0 1
-3.7890 -8.7798 -4.1878 0.2739 0 1
-3.3020 -8.5842 -4.0279 0.2848 0 1
-2.8438 -8.3842 -3.8773 0.2918 0 1
-2.4118 -8.1773 -3.7337 0.3031 0 1
-1.9993 -7.9420 -3.5867 0.3182 0 24
-1.6254 -7.7627 -3.4734 0.3284 0 1
-1.2635 -7.5320 -3.3447 0.3420 0 24
-0.9314 -7.3526 -3.2458 0.3534 0 1
-0.6147 -7.1467 -3.1414 0.3652 0 1
-0.3168 -6.9421 -3.0434 0.3769 0 1
-0.0363 -6.7215 -2.9437 0.3891 0 24
0.2276 -6.5371 -2.8646 0.4004 0 1
0.4762 -6.3371 -2.7831 0.4121 0 1
0.7104 -6.1390 -2.7065 0.4237 0 1
0.9311 -5.9428 -2.6344 0.4353 0 1
1.1390 -5.7483 -2.5664 0.4455 0 1
1.3301 -5.5354 -2.4932 0.4570 0 24
1.5186 -5.3614 -2.4404 0.4686 0 1
1.6920 -5.1713 -2.3829 0.4799 0 1
1.8465 -4.9594 -2.3176 0.4901 0 24
1.9977 -4.7698 -2.2647 0.4996 0 24
2.1537 -4.6126 -2.2294 0.4949 0 1
2.2839 -4.4190 -2.1785 0.5065 0 1
2.4057 -4.2288 -2.1307 0.5178 0 1
2.5196 -4.0418 -2.0858 0.5290 0 1
2.6269 -3.8593 -2.0445 0.5619 0 1
2.7312 -3.6849 -2.0087 0.5719 0 1
2.8292 -3.5126 -1.9753 0.5816 0 1
2.9210 -3.3423 -1.9440 0.5909 0 1
3.0071 -3.1738 -1.9148 0.6000 0 1
3.0877 -3.0070 -1.8875 0.6086 0 1
3.1630 -2.8418 -1.8622 0.6169 0 1
3.2333 -2.6781 -1.8387 0.6248 0 1
3.2988 -2.5158 -1.8169 0.6323 0 1
3.3596 -2.3548 -1.7967 0.6394 0 1
3.4162 -2.1952 -1.7784 0.6361 0 1
3.4704 -2.0377 -1.7625 0.6454 0 1
3.5205 -1.8811 -1.7481 0.6507 0 1
3.5666 -1.7252 -1.7351 0.6556 0 1
3.6088 -1.5699 -1.7235 0.6600 0 1
3.6470 -1.4151 -1.7132 0.6640 0 1
3.6815 -1.2607 -1.7042 0.6675 0 1
3.7123 -1.1067 -1.6965 0.6705 0 1
3.7395 -0.9529 -1.6900 0.6731 0 1
3.7631 -0.7994 -1.6848 0.6752 0 1
3.7831 -0.6460 -1.6808 0.6768 0 1
3.7997 -0.4926 -1.6780 0.6779 0 1
3.8127 -0.3391 -1.6764 0.6786 0 1
3.8223 -0.1856 -1.6759 0.6787 0 1
3.8292 -0.0318 -1.6770 0.6776 0 1
3.8346 0.1223 -1.6802 0.6763 0 1
3.8365 0.2771 -1.6846 0.6745 0 1
3.8346 0.4324 -1.6900 0.6624 0 1
3.8256 0.5880 -1.6951 0.6604 0 1
3.8129 0.7440 -1.7013 0.6580 0 1
3.7965 0.9006 -1.7088 0.6551 0 1
3.7764 1.0578 -1.7175 0.6518 0 1
3.7525 1.2157 -1.7275 0.6480 0 1
3.7246 1.3744 -1.7387 0.6438 0 1
3.6929 1.5340 -1.7513 0.6392 0 1
3.6570 1.6945 -1.7651 0.6342 0 1
3.6169 1.8561 -1.7804 0.6288 0 1
3.5726 2.0187 -1.7971 0.6229 0 1
3.5238 2.1825 -1.8153 0.6163 0 1
3.4707 2.3476 -1.8350 0.6097 0 1
3.4131 2.5144 -1.8566 0.6026 0 1
3.3506 2.6826 -1.8797 0.5952 0 1
3.2831 2.8525 -1.9047 0.5918 0 1
3.2108 3.0245 -1.9318 0.5835 0 1
3.1329 3.1984 -1.9607 0.5749 0 1
3.0492 3.3741 -1.9917 0.5660 0 1
2.9594 3.5519 -2.0247 0.5568 0 1
2.8632 3.7318 -2.0599 0.5472 0 1
2.7599 3.9133 -2.0972 0.5418 0 1
2.6470 4.0931 -2.1348 0.5323 0 1
2.5268 4.2748 -2.1747 0.5225 0 1
2.3989 4.4583 -2.2172 0.5130 0 1
2.2629 4.6436 -2.2622 0.5028 0 1
2.1183 4.8308 -2.3101 0.4924 0 1
1.9530 4.9903 -2.3469 0.4826 0 24
1.7917 5.1829 -2.4016 0.4716 0 24
1.6281 5.4040 -2.4717 0.4606 0 1
1.4441 5.5988 -2.5322 0.4496 0 1
1.2488 5.7956 -2.5964 0.4385 0 1
1.0386 5.9774 -2.6570 0.4261 0 24
0.8216 6.1966 -2.7375 0.4160 0 1
0.5881 6.4011 -2.8152 0.4053 0 1
0.3400 6.6070 -2.8973 0.3938 0 1
0.0765 6.8147 -2.9847 0.3815 0 1
-0.2036 7.0243 -3.0776 0.3699 0 1
-0.5014 7.2353 -3.1763 0.3584 0 1
-0.8177 7.4456 -3.2804 0.3499 0 1
-1.1537 7.6547 -3.3902 0.3385 0 1
-1.5101 7.8608 -3.5055 0.3283 0 1
-1.8884 8.0653 -3.6277 0.3172 0 1
-2.2900 8.2681 -3.7573 0.3063 0 1
-2.7165 8.4686 -3.8949 0.2955 0 1
-3.1692 8.6659 -4.0410 0.2848 0 1
-3.6497 8.8588 -4.1960 0.2745 0 1
-4.1616 9.0502 -4.3624 0.2613 0 1
-4.7048 9.2345 -4.5388 0.2538 0 1
-5.2809 9.4098 -4.7256 0.2438 0 1
-5.8921 9.5756 -4.9239 0.2349 0 1
-6.5318 9.7172 -5.1277 0.2256 0 1
-7.2072 9.8431 -5.3428 0.2165 0 1
-7.9214 9.9531 -5.5709 0.2065 0 1
-8.6881 10.0587 -5.8209 0.1937 0 1
-9.5069 10.1515 -6.0910 0.1852 0 1
-10.3726 10.2197 -6.3771 0.1776 0 1
-11.2807 10.2543 -6.6764 0.1692 0 1
-12.2471 10.2648 -6.9983 0.1614 0 1
-13.2587 10.2343 -7.3352 0.1543 0 1
-14.3213 10.1629 -7.6907 0.1467 0 1
-15.5037 10.0903 -8.1011 0.1280 0 1
-16.6982 9.9360 -8.5096 0.1266 0 1
-17.9038 9.7010 -8.9179 0.1205 0 1
-19.1181 9.3854 -9.3272 0.1194 0 1
-20.4329 9.0307 -9.7835 0.8038 0 2
-21.4769 8.4775 -10.1119 0.6476 0 2
-22.9864 8.0214 -10.6621 0.4574 0 2
-23.8276 7.2547 -10.9082 0.1006 0 1
-24.9236 6.5061 -11.2810 0.0985 0 1
-16.4489 3.5945 -7.3737 0.9595 26 14
-16.4701 2.9111 -7.3248 0.8555 26 14
-17.0728 2.3144 -7.5453 0.1060 26 14
-28.1971 2.6736 -12.4042 0.0797 0 1
-28.5842 1.5546 -12.5368 0.0789 0 1
-28.7658 0.4065 -12.5991 0.0785 0 1
-28.6963 -0.7483 -12.5717 0.0802 0 1
-28.3867 -1.8840 -12.4592 0.0826 0 1
-26.7987 -2.8642 -11.8032 0.0908 0 25
-26.2353 -3.8759 -11.6143 0.0923 0 25
-25.5212 -4.8257 -11.3749 0.0943 0 25
-24.6769 -5.7020 -11.0919 0.0967 0 25
-24.3618 -6.6711 -11.0619 0.0987 0 1
-23.2840 -7.3940 -10.6989 0.1042 0 1
-22.1586 -8.0305 -10.3219 0.1100 0 1
-20.9665 -8.5667 -9.9191 0.1183 0 1
-19.7924 -9.0316 -9.5278 0.1238 0 1
-18.6137 -9.4152 -9.1353 0.1233 0 1
-17.4103 -9.7043 -8.7292 0.1291 0 1
-16.2223 -9.9169 -8.3268 0.1320 0 1
-15.0527 -10.0547 -7.9277 0.1386 0 1
-13.9263 -10.1347 -7.5430 0.1451 0 1
-12.8470 -10.1636 -7.1741 0.1525 0 1
-11.8332 -10.1609 -6.8307 0.1651 0 1
-10.8834 -10.1330 -6.5124 0.1732 0 1
-9.9853 -10.0758 -6.2125 0.1886 0 1
-9.1594 -10.0174 -5.9445 0.1971 0 1
-8.3753 -9.9338 -5.6904 0.2059 0 1
-7.6080 -9.7971 -5.4324 0.2163 0 24
-6.9201 -9.6916 -5.2153 0.2216 0 1
-6.2504 -9.5427 -4.9959 0.2309 0 1
-5.6190 -9.3809 -4.7890 0.2409 0 1
-5.0236 -9.2073 -4.5934 0.2506 0 1
-4.4633 -9.0253 -4.4095 0.2601 0 1
-3.9359 -8.8357 -4.2361 0.2708 0 1
-3.4400 -8.6412 -4.0732 0.2816 0 1
2.1432 -4.4540 -2.2303 0.5072 0 1
2.2692 -4.2679 -2.1810 0.5186 0 1
2.3872 -4.0847 -2.1348 0.5299 0 1
2.4975 -3.9043 -2.0913 0.5409 0 1
2.6051 -3.7330 -2.0540 0.5734 0 1
2.7065 -3.5640 -2.0192 0.5833 0 1
2.8016 -3.3967 -1.9867 0.5928 0 1
2.8909 -3.2311 -1.9563 0.6021 0 1
2.9746 -3.0671 -1.9279 0.6109 0 1
3.0530 -2.9046 -1.9014 0.6194 0 1
3.1262 -2.7436 -1.8768 0.6276 0 1
3.1946 -2.5838 -1.8539 0.6353 0 1
3.2582 -2.4253 -1.8327 0.6426 0 1
3.3173 -2.2680 -1.8132 0.6496 0 1
3.3723 -2.1119 -1.7954 0.6567 0 1
3.4245 -1.9575 -1.7798 0.6552 0 1
3.4731 -1.8041 -1.7659 0.6604 0 1
3.5177 -1.6513 -1.7534 0.6651 0 1
3.5584 -1.4989 -1.7423 0.6694 0 1
3.5953 -1.3470 -1.7324 0.6732 0 1
3.6285 -1.1955 -1.7238 0.6765 0 1
3.6580 -1.0442 -1.7165 0.6794 0 1
3.6839 -0.8932 -1.7104 0.6818 0 1
3.7062 -0.7423 -1.7055 0.6838 0 1
3.7251 -0.5915 -1.7019 0.6853 0 1
3.7404 -0.4406 -1.6994 0.6862 0 1
3.7523 -0.2897 -1.6982 0.6868 0 1
3.7608 -0.1387 -1.6981 0.6868 0 1
3.7672 0.0126 -1.6998 0.6854 0 1
3.7714 0.1643 -1.7033 0.6839 0 1
3.7721 0.3166 -1.7080 0.6821 0 1
3.7666 0.4693 -1.7127 0.6701 0 1
3.7565 0.6222 -1.7181 0.6680 0 1
3.7427 0.7757 -1.7247 0.6655 0 1
3.7253 0.9296 -1.7325 0.6625 0 1
3.7041 1.0842 -1.7415 0.6590 0 1
3.6791 1.2395 -1.7517 0.6552 0 1
3.6502 1.3955 -1.7633 0.6509 0 1
3.6173 1.5523 -1.7761 0.6462 0 1
3.5804 1.7100 -1.7903 0.6411 0 1
3.5393 1.8686 -1.8059 0.6355 0 1
3.4939 2.0283 -1.8229 0.6296 0 1
3.4441 2.1890 -1.8414 0.6229 0 1
3.3900 2.3511 -1.8615 0.6162 0 1
3.3314 2.5146 -1.8833 0.6090 0 1
3.2682 2.6797 -1.9070 0.6060 0 1
3.2002 2.8465 -1.9326 0.5980 0 1
3.1268 3.0149 -1.9599 0.5897 0 1
3.0479 3.1850 -1.9891 0.5810 0 1
2.9632 3.3568 -2.0204 0.5720 0 1
2.8725 3.5304 -2.0537 0.5628 0 1
2.7754 3.7059 -2.0891 0.5532 0 1
2.6707 3.8820 -2.1261 0.5479 0 1
2.5571 4.0570 -2.1639 0.5383 0 1
2.4364 4.2336 -2.2040 0.5285 0 1
2.3080 4.4118 -2.2466 0.5191 0 1
2.1716 4.5914 -2.2918 0.5089 0 1
2.0144 4.7434 -2.3253 0.4994 0 24
1.8731 4.9555 -2.3904 0.4879 0 1
1.7101 5.1400 -2.4442 0.4775 0 1
1.5371 5.3257 -2.5011 0.4666 0 1
1.3537 5.5129 -2.5614 0.4557 0 1
1.1592 5.7015 -2.6253 0.4446 0 1
0.9532 5.8921 -2.6932 0.4335 0 1
0.7349 6.0855 -2.7658 0.4222 0 1
0.5033 6.2802 -2.8428 0.4115 0 1
0.2577 6.4754 -2.9241 0.4001 0 1
-0.0029 6.6717 -3.0104 0.3886 0 1
-0.2792 6.8690 -3.1020 0.3763 0 1
-0.5725 7.0669 -3.1991 0.3649 0 1
-0.8835 7.2640 -3.3018 0.3564 0 1
-1.2131 7.4582 -3.4095 0.3451 0 1
-1.5618 7.6479 -3.5221 0.3350 0 1
-1.9311 7.8356 -3.6413 0.3240 0 1
-2.3223 8.0204 -3.7676 0.3132 0 1
-2.7366 8.2016 -3.9013 0.3025 0 1
-3.1751 8.3783 -4.0428 0.2919 0 1
-3.6392 8.5491 -4.1925 0.2816 0 1
-4.1309 8.7145 -4.3515 0.2685 0 1
-4.6523 8.8743 -4.5211 0.2585 0 1
-5.2037 9.0244 -4.7004 0.2486 0 1
-5.7851 9.1610 -4.8888 0.2426 0 1
-6.3916 9.2735 -5.0819 0.2334 0 1
-7.0291 9.3689 -5.2849 0.2244 0 1
-7.6983 9.4448 -5.4980 0.2145 0 1
-8.4116 9.5123 -5.7296 0.2018 0 1
-9.1738 9.5698 -5.9816 0.1933 0 1
-9.9734 9.6000 -6.2462 0.1851 0 1
-10.8090 9.5980 -6.5225 0.1776 0 1
-11.6893 9.5677 -6.8159 0.1699 0 1
-12.6047 9.4972 -7.1212 0.1629 0 1
-13.5580 9.3857 -7.4405 0.1555 0 1
-14.5427 9.2256 -7.7709 0.1489 0 1
-15.5901 9.0324 -8.1299 0.1338 0 1
-16.6482 8.7714 -8.4908 0.1309 0 1
-17.7082 8.4387 -8.8511 0.1264 0 1
-18.7670 8.0344 -9.2114 0.1213 0 1
-19.7850 7.5445 -9.5544 0.1207 0 1
-20.7757 6.9795 -9.8892 0.1160 0 1
-21.7141 6.3357 -10.2063 0.1146 0 1
-16.3094 4.0551 -7.5831 0.6157 26 14
-16.3322 3.3701 -7.5246 0.9101 26 14
-16.3716 2.6974 -7.4868 0.9539 26 14
-18.0381 2.2316 -8.2011 0.1169 26 14
-24.8504 2.0645 -11.2516 0.0986 0 1
-25.0967 1.0719 -11.3344 0.0965 0 1
-25.2113 0.0626 -11.3758 0.0962 0 1
-25.1358 -0.9485 -11.3498 0.0964 0 1
-24.8786 -1.9425 -11.2598 0.0974 0 1
-23.6622 -2.8081 -10.7517 0.1022 0 25
-23.1666 -3.6988 -10.5856 0.1039 0 25
-22.0092 -4.4278 -10.1299 0.9792 16 6
-21.8292 -5.3126 -10.1372 0.1084 0 25
-21.6008 -6.1864 -10.1385 0.1130 0 1
-20.7090 -6.8429 -9.8412 0.1195 0 1
-19.7782 -7.4296 -9.5332 0.1233 0 1
-18.8058 -7.9407 -9.2109 0.1232 0 1
-17.7655 -8.3580 -8.8589 0.1304 0 1
-16.7205 -8.7037 -8.5055 0.1358 0 1
-15.6629 -8.9710 -8.1445 0.1386 0 1
-14.6217 -9.1742 -7.7887 0.1446 0 1
-13.6062 -9.3195 -7.4414 0.1510 0 1
-12.6217 -9.4122 -7.1043 0.1579 0 1
-11.6927 -9.4739 -6.7904 0.1704 0 1
-10.8088 -9.5022 -6.4938 0.1781 0 1
-9.9665 -9.4985 -6.2123 0.1934 0 1
-9.1859 -9.4877 -5.9587 0.2016 0 1
-8.4392 -9.4485 -5.7163 0.2102 0 1
-7.7264 -9.3838 -5.4847 0.2161 0 1
-7.0419 -9.2895 -5.2598 0.2253 0 1
-6.3929 -9.1775 -5.0467 0.2344 0 1
-5.7608 -9.0229 -4.8303 0.2441 0 24
-5.1963 -8.9091 -4.6537 0.2536 0 1
-4.6461 -8.7564 -4.4728 0.2629 0 1
-4.1262 -8.5942 -4.3016 0.2734 0 1
-3.6359 -8.4249 -4.1403 0.2840 0 1
-3.1735 -8.2500 -3.9884 0.2949 0 1
-2.7358 -8.0656 -3.8430 0.3019 0 1
-2.3238 -7.8788 -3.7065 0.3155 0 1
-1.9294 -7.6645 -3.5662 0.3282 0 24
-1.5704 -7.4999 -3.4575 0.3411 0 1
-1.2265 -7.3115 -3.3452 0.3525 0 1
-0.9020 -7.1205 -3.2386 0.3632 0 1
-0.5959 -6.9282 -3.1377 0.3748 0 1
-0.3074 -6.7362 -3.0427 0.3865 0 1
-0.0352 -6.5284 -2.9458 0.3987 0 24
0.2213 -6.3543 -2.8689 0.4099 0 1
0.4633 -6.1648 -2.7895 0.4215 0 1
0.6916 -5.9765 -2.7147 0.4331 0 1
0.9071 -5.7894 -2.6442 0.4431 0 1
1.1067 -5.5850 -2.5690 0.4564 0 24
1.3018 -5.4175 -2.5141 0.4664 0 1
1.4822 -5.2330 -2.4541 0.4778 0 1
1.6524 -5.0502 -2.3976 0.4890 0 1
1.8042 -4.8458 -2.3331 0.4980 0 24
1.9529 -4.6629 -2.2811 0.5083 0 24
2.1051 -4.5085 -2.2452 0.5038 0 1
2.2335 -4.3215 -2.1950 0.5153 0 1
2.3538 -4.1375 -2.1479 0.5266 0 1
2.4663 -3.9563 -2.1036 0.5377 0 1
2.5745 -3.7824 -2.0645 0.5705 0 1
2.6777 -3.6128 -2.0291 0.5805 0 1
2.7747 -3.4450 -1.9959 0.5901 0 1
2.8656 -3.2789 -1.9649 0.5994 0 1
2.9509 -3.1145 -1.9359 0.6084 0 1
3.0308 -2.9515 -1.9089 0.6170 0 1
3.1055 -2.7901 -1.8837 0.6252 0 1
3.1752 -2.6300 -1.8604 0.6331 0 1
3.2402 -2.4711 -1.8387 0.6406 0 1
3.3006 -2.3134 -1.8187 0.6476 0 1
3.3565 -2.1568 -1.8002 0.6549 0 1
3.4097 -2.0021 -1.7841 0.6537 0 1
3.4595 -1.8485 -1.7698 0.6589 0 1
3.5052 -1.6955 -1.7569 0.6638 0 1
3.5470 -1.5430 -1.7454 0.6682 0 1
3.5850 -1.3910 -1.7351 0.6721 0 1
3.6192 -1.2394 -1.7262 0.6756 0 1
3.6498 -1.0880 -1.7185 0.6786 0 1
3.6767 -0.9369 -1.7120 0.6812 0 1
3.7001 -0.7860 -1.7068 0.6833 0 1
3.7200 -0.6352 -1.7028 0.6849 0 1
3.7363 -0.4844 -1.7000 0.6860 0 1
3.7492 -0.3335 -1.6984 0.6867 0 1
3.7587 -0.1825 -1.6980 0.6868 0 1
3.7653 -0.0313 -1.6990 0.6857 0 1
3.7705 0.1203 -1.7022 0.6844 0 1
3.7722 0.2724 -1.7065 0.6827 0 1
3.7689 0.4250 -1.7114 0.6706 0 1
3.7598 0.5779 -1.7164 0.6687 0 1
3.7471 0.7311 -1.7226 0.6662 0 1
3.7307 0.8850 -1.7301 0.6634 0 1
3.7106 1.0394 -1.7387 0.6601 0 1
3.6867 1.1944 -1.7486 0.6563 0 1
3.6590 1.3502 -1.7598 0.6522 0 1
3.6273 1.5068 -1.7723 0.6476 0 1
3.5915 1.6642 -1.7861 0.6426 0 1
3.5517 1.8226 -1.8013 0.6372 0 1
3.5075 1.9819 -1.8178 0.6314 0 1
3.4590 2.1423 -1.8359 0.6252 0 1
3.4061 2.3040 -1.8555 0.6182 0 1
3.3489 2.4671 -1.8769 0.6111 0 1
3.2870 2.6317 -1.8999 0.6083 0 1
3.2204 2.7981 -1.9250 0.6004 0 1
3.1486 2.9660 -1.9518 0.5921 0 1
3.0714 3.1355 -1.9805 0.5836 0 1
2.9884 3.3068 -2.0111 0.5747 0 1
2.8994 3.4799 -2.0438 0.5655 0 1
2.8042 3.6548 -2.0786 0.5560 0 1
2.7023 3.8315 -2.1156 0.5506 0 1
2.5908 4.0061 -2.1527 0.5411 0 1
2.4721 4.1823 -2.1921 0.5314 0 1
2.3460 4.3600 -2.2340 0.5214 0 1
2.2120 4.5392 -2.2784 0.5118 0 1
2.0697 4.7200 -2.3255 0.5015 0 1
1.9075 4.8739 -2.3616 0.4917 0 24
1.7490 5.0592 -2.4154 0.4808 0 24
1.5883 5.2717 -2.4843 0.4698 0 1
1.4079 5.4585 -2.5436 0.4589 0 1
1.2167 5.6467 -2.6064 0.4478 0 1
1.0140 5.8364 -2.6729 0.4367 0 1
0.7975 6.0148 -2.7377 0.4242 0 24
0.5718 6.2237 -2.8201 0.4140 0 1
0.3304 6.4187 -2.9001 0.4034 0 1
0.0742 6.6147 -2.9849 0.3919 0 1
-0.1975 6.8117 -3.0748 0.3796 0 1
-0.4857 7.0095 -3.1704 0.3682 0 1
-0.7916 7.2075 -3.2717 0.3568 0 1
-1.1156 7.4020 -3.3776 0.3484 0 1
-1.4587 7.5932 -3.4888 0.3382 0 1
-1.8219 7.7814 -3.6061 0.3272 0 1
-2.2067 7.9672 -3.7303 0.3163 0 1
-2.6141 8.1495 -3.8618 0.3056 0 1
-3.0455 8.3276 -4.0010 0.2949 0 1
-3.5021 8.5004 -4.1483 0.2846 0 1
-3.9852 8.6666 -4.3041 0.2715 0 1
-4.4982 8.8289 -4.4710 0.2614 0 1
-5.0408 8.9820 -4.6475 0.2514 0 1
-5.6143 9.1241 -4.8339 0.2417 0 1
-6.2127 9.2425 -5.0250 0.2360 0 1
-6.8411 9.3432 -5.2251 0.2270 0 1
-7.5010 9.4249 -5.4351 0.2182 0 1
-8.1990 9.4924 -5.6596 0.2043 0 1
-8.9491 9.5558 -5.9073 0.1957 0 1
-9.7378 9.5943 -6.1683 0.1875 0 1
-10.5620 9.6010 -6.4405 0.1803 0 1
-11.4305 9.5803 -6.7296 0.1721 0 1
-12.3362 9.5222 -7.0317 0.1647 0 1
-13.2781 9.4226 -7.3466 0.1575 0 1
-14.2546 9.2774 -7.6742 0.1508 0 1
-15.2872 9.0964 -8.0266 0.1355 0 1
-16.3386 8.8530 -8.3849 0.1297 0 1
-17.4007 8.5423 -8.7466 0.1279 0 1
-18.4605 8.1589 -9.1070 0.1227 0 1
-19.4936 7.6946 -9.4563 0.1219 0 1
-20.4916 7.1508 -9.7929 0.1172 0 1
-21.4500 6.5307 -10.1173 0.1156 0 1
-22.3249 5.8278 -10.4109 0.1105 0 1
-16.3281 3.5681 -7.5414 0.9080 26 14
-16.3623 2.8920 -7.4974 0.9526 26 14
-16.6802 2.2612 -7.5952 0.2564 26 14
-24.7572 2.3474 -11.2210 0.0989 0 1
-25.0381 1.3618 -11.3143 0.0983 0 1
-25.1950 0.3561 -11.3695 0.0962 0 1
-25.1808 -0.6566 -11.3659 0.0963 0 1
-24.9688 -1.6572 -11.2912 0.0971 0 1
-23.9523 -2.5600 -10.8692 0.1027 0 2
-23.3233 -3.4457 -10.6381 0.1033 0 25
-22.7405 -4.2999 -10.4427 0.1053 0 25
-22.0480 -5.0945 -10.2105 0.1077 0 25
-21.8493 -5.9831 -10.2217 0.1121 0 1
-20.9693 -6.6590 -9.9273 0.1184 0 1
-20.0526 -7.2673 -9.6239 0.1222 0 1
-19.0930 -7.8012 -9.3065 0.1263 0 1
-18.0684 -8.2449 -8.9615 0.1289 0 1
-17.0228 -8.6105 -8.6077 0.1342 0 1
-15.9677 -8.9002 -8.2485 0.1369 0 1
-14.9210 -9.1215 -7.8910 0.1428 0 1
-13.8971 -9.2828 -7.5409 0.1490 0 1
-12.9031 -9.3901 -7.2006 0.1558 0 1
-11.9554 -9.4582 -6.8785 0.1682 0 1
-11.0612 -9.4979 -6.5785 0.1758 0 1
-10.2043 -9.5007 -6.2911 0.1838 0 1
-9.4086 -9.4939 -6.0311 0.1992 0 1
-8.6519 -9.4625 -5.7853 0.2077 0 1
-7.9301 -9.4058 -5.5512 0.2164 0 1
-7.2365 -9.3188 -5.3237 0.2226 0 1
-6.5774 -9.2117 -5.1073 0.2316 0 1
-5.9529 -9.0885 -4.9022 0.2413 0 1
-5.3617 -8.9513 -4.7081 0.2506 0 1
-4.8024 -8.8019 -4.5243 0.2599 0 1
-4.2738 -8.6420 -4.3502 0.2703 0 1
-3.7750 -8.4746 -4.1861 0.2809 0 1
-3.3046 -8.3011 -4.0315 0.2917 0 1
2.0957 -4.3554 -2.2457 0.5160 0 1
2.2201 -4.1755 -2.1972 0.5274 0 1
2.3365 -3.9981 -2.1516 0.5386 0 1
2.4474 -3.8260 -2.1102 0.5718 0 1
2.5540 -3.6597 -2.0735 0.5819 0 1
2.6542 -3.4951 -2.0391 0.5918 0 1
2.7484 -3.3321 -2.0069 0.6013 0 1
2.8368 -3.1706 -1.9767 0.6104 0 1
2.9198 -3.0105 -1.9485 0.6193 0 1
2.9974 -2.8518 -1.9223 0.6277 0 1
3.0700 -2.6943 -1.8978 0.6358 0 1
3.1378 -2.5379 -1.8751 0.6435 0 1
3.2010 -2.3827 -1.8541 0.6508 0 1
3.2594 -2.2284 -1.8345 0.6540 0 1
3.3143 -2.0755 -1.8169 0.6648 0 1
3.3657 -1.9239 -1.8013 0.6706 0 1
3.4134 -1.7731 -1.7872 0.6685 0 1
3.4577 -1.6231 -1.7747 0.6732 0 1
3.4981 -1.4735 -1.7636 0.6775 0 1
3.5347 -1.3243 -1.7538 0.6813 0 1
3.5676 -1.1754 -1.7452 0.6846 0 1
3.5968 -1.0268 -1.7379 0.6875 0 1
3.6225 -0.8783 -1.7319 0.6899 0 1
3.6447 -0.7300 -1.7270 0.6918 0 1
3.6633 -0.5817 -1.7234 0.6933 0 1
3.6785 -0.4334 -1.7209 0.6943 0 1
3.6903 -0.2850 -1.7197 0.6948 0 1
3.6986 -0.1364 -1.7196 0.6948 0 1
3.7048 0.0124 -1.7213 0.6934 0 1
3.7088 0.1616 -1.7248 0.6920 0 1
3.7090 0.3113 -1.7294 0.6799 0 1
3.7024 0.4613 -1.7335 0.6783 0 1
3.6923 0.6116 -1.7389 0.6762 0 1
3.6785 0.7624 -1.7454 0.6737 0 1
3.6611 0.9136 -1.7532 0.6707 0 1
3.6399 1.0654 -1.7622 0.6673 0 1
3.6150 1.2179 -1.7724 0.6634 0 1
3.5862 1.3710 -1.7838 0.6591 0 1
3.5535 1.5249 -1.7966 0.6545 0 1
3.5167 1.6796 -1.8107 0.6494 0 1
3.4758 1.8351 -1.8262 0.6439 0 1
3.4306 1.9915 -1.8431 0.6380 0 1
3.3811 2.1489 -1.8614 0.6317 0 1
3.3274 2.3076 -1.8814 0.6246 0 1
3.2695 2.4679 -1.9033 0.6221 0 1
3.2070 2.6295 -1.9269 0.6145 0 1
3.1394 2.7925 -1.9522 0.6065 0 1
3.0666 2.9569 -1.9793 0.5982 0 1
2.9884 3.1228 -2.0082 0.5896 0 1
2.9045 3.2902 -2.0391 0.5807 0 1
2.8146 3.4592 -2.0720 0.5714 0 1
2.7185 3.6299 -2.1071 0.5619 0 1
2.6152 3.8014 -2.1438 0.5567 0 1
2.5031 3.9713 -2.1811 0.5472 0 1
2.3840 4.1426 -2.2207 0.5374 0 1
2.2575 4.3151 -2.2627 0.5275 0 1
2.1232 4.4889 -2.3072 0.5178 0 1
1.9687 4.6358 -2.3401 0.5084 0 24
1.8194 4.8132 -2.3908 0.4976 0 24
1.6695 5.0178 -2.4570 0.4863 0 1
1.4998 5.1963 -2.5128 0.4758 0 1
1.3200 5.3758 -2.5719 0.4649 0 1
1.1297 5.5563 -2.6344 0.4539 0 1
0.9283 5.7385 -2.7009 0.4429 0 1
0.7135 5.9088 -2.7653 0.4296 0 24
0.4895 6.1078 -2.8469 0.4202 0 1
0.2504 6.2929 -2.9261 0.4096 0 1
-0.0028 6.4782 -3.0099 0.3982 0 1
-0.2709 6.6636 -3.0986 0.3868 0 1
-0.5548 6.8490 -3.1926 0.3746 0 1
-0.8555 7.0340 -3.2922 0.3632 0 1
-1.1736 7.2153 -3.3965 0.3549 0 1
-1.5094 7.3913 -3.5051 0.3448 0 1
-1.8642 7.5641 -3.6196 0.3339 0 1
-2.2392 7.7332 -3.7406 0.3231 0 1
-2.6353 7.8980 -3.8684 0.3125 0 1
-3.0535 8.0573 -4.0034 0.3020 0 1
-3.4949 8.2100 -4.1458 0.2918 0 1
-3.9603 8.3546 -4.2958 0.2816 0 1
-4.4521 8.4924 -4.4551 0.2687 0 1
-4.9713 8.6214 -4.6239 0.2589 0 1
-5.5180 8.7379 -4.8016 0.2493 0 1
-6.0891 8.8346 -4.9853 0.2452 0 1
-6.6834 8.9081 -5.1743 0.2363 0 1
-7.3047 8.9620 -5.3719 0.2276 0 1
-7.9536 8.9944 -5.5786 0.2110 0 1
-8.6539 9.0275 -5.8103 0.2026 0 1
-9.3847 9.0334 -6.0521 0.1945 0 1
-10.1453 9.0086 -6.3039 0.1867 0 1
-10.9406 8.9549 -6.5689 0.1779 0 1
-11.7626 8.8628 -6.8429 0.1708 0 1
-12.6114 8.7304 -7.1266 0.1637 0 1
-13.4827 8.5531 -7.4185 0.1573 0 1
-14.3737 8.3276 -7.7182 0.1503 0 1
-15.2963 8.0591 -8.0331 0.1417 0 1
-16.2217 7.7304 -8.3490 0.1370 0 1
-17.1334 7.3350 -8.6594 0.1324 0 1
-18.0264 6.8739 -8.9637 0.1277 0 1
-18.8868 6.3449 -9.2572 0.1225 0 1
-19.6659 5.7381 -9.5182 0.1214 0 1
-16.2168 4.0321 -7.7641 0.8182 26 14
-16.2032 3.3435 -7.6870 0.9760 26 14
-16.2369 2.6752 -7.6457 0.9920 26 14
-18.0497 2.2330 -8.4502 0.1218 26 14
-22.2710 1.8502 -10.3832 0.1124 0 1
-22.4541 0.9590 -10.4422 0.1119 0 1
-22.5274 0.0559 -10.4668 0.1090 0 1
-22.4618 -0.8476 -10.4437 0.1093 0 1
-22.2543 -1.7376 -10.3713 0.1099 0 1
-21.9167 -2.6010 -10.2545 0.1122 0 1
-21.2190 -3.3879 -9.9837 0.9581 0 2
-21.0257 -4.2299 -9.9648 0.9887 0 2
-20.3054 -4.9417 -9.7097 0.1233 0 1
-19.6156 -5.6179 -9.4802 0.1263 0 1
-18.8650 -6.2335 -9.2312 0.1293 0 1
-18.0495 -6.7802 -8.9584 0.1304 0 1
-17.1332 -7.2345 -8.6410 0.1319 0 24
-16.2344 -7.6377 -8.3359 0.1366 0 24
-15.3788 -8.0052 -8.0554 0.1426 0 1
-14.4551 -8.2792 -7.7398 0.1487 0 1
-13.5366 -8.4933 -7.4249 0.1550 0 1
-12.6373 -8.6559 -7.1169 0.1615 0 1
-11.7749 -8.7806 -6.8245 0.1737 0 1
-10.9482 -8.8707 -6.5469 0.1811 0 1
-10.1486 -8.9218 -6.2783 0.1887 0 1
-9.4016 -8.9601 -6.0342 0.2040 0 1
-8.6853 -8.9707 -5.8014 0.2121 0 1
-7.9971 -8.9535 -5.5777 0.2207 0 1
-7.3326 -8.9056 -5.3598 0.2265 0 1
-6.6967 -8.8342 -5.1506 0.2353 0 1
-6.0914 -8.7447 -4.9515 0.2447 0 1
-5.5160 -8.6395 -4.7625 0.2539 0 1
-4.9689 -8.5191 -4.5822 0.2629 0 1
-4.4498 -8.3865 -4.4111 0.2731 0 1
-3.9583 -8.2444 -4.2492 0.2835 0 1
-3.4932 -8.0944 -4.0961 0.2941 0 1
-3.0524 -7.9352 -3.9502 0.3033 0 1
-2.6354 -7.7696 -3.8119 0.3143 0 1
-2.2341 -7.5746 -3.6692 0.3267 0 24
-1.8695 -7.4267 -3.5583 0.3367 0 1
-1.5188 -7.2534 -3.4432 0.3509 0 1
-1.1875 -7.0787 -3.3349 0.3623 0 1
-0.8741 -6.9005 -3.2317 0.3728 0 1
-0.5780 -6.7206 -3.1341 0.3845 0 1
-0.2984 -6.5403 -3.0419 0.3960 0 1
-0.0342 -6.3443 -2.9477 0.4082 0 24
0.2152 -6.1797 -2.8730 0.4193 0 1
0.4509 -6.0000 -2.7956 0.4309 0 1
0.6736 -5.8208 -2.7225 0.4409 0 1
0.8840 -5.6420 -2.6534 0.4524 0 1
1.0827 -5.4643 -2.5882 0.4639 0 1
1.2703 -5.2865 -2.5261 0.4755 0 1
1.4472 -5.1094 -2.4673 0.4869 0 1
1.6143 -4.9336 -2.4119 0.4981 0 1
1.7720 -4.7593 -2.3596 0.5091 0 1
1.9097 -4.5596 -2.2968 0.5172 0 24
2.0582 -4.4081 -2.2603 0.5127 0 1
2.1849 -4.2273 -2.2109 0.5242 0 1
2.3036 -4.0492 -2.1645 0.5354 0 1
2.4153 -3.8744 -2.1213 0.5688 0 1
2.5237 -3.7077 -2.0839 0.5790 0 1
2.6258 -3.5427 -2.0488 0.5889 0 1
2.7217 -3.3792 -2.0160 0.5985 0 1
2.8118 -3.2173 -1.9852 0.6078 0 1
2.8963 -3.0568 -1.9565 0.6167 0 1
2.9754 -2.8976 -1.9297 0.6253 0 1
3.0495 -2.7398 -1.9047 0.6335 0 1
3.1187 -2.5831 -1.8815 0.6413 0 1
3.1832 -2.4276 -1.8600 0.6487 0 1
3.2430 -2.2731 -1.8400 0.6520 0 1
3.2986 -2.1196 -1.8217 0.6630 0 1
3.3512 -1.9678 -1.8056 0.6689 0 1
3.3999 -1.8167 -1.7910 0.6671 0 1
3.4453 -1.6665 -1.7782 0.6719 0 1
3.4868 -1.5168 -1.7667 0.6763 0 1
3.5245 -1.3675 -1.7565 0.6802 0 1
3.5584 -1.2185 -1.7476 0.6837 0 1
3.5887 -1.0698 -1.7399 0.6867 0 1
3.6154 -0.9213 -1.7335 0.6892 0 1
3.6386 -0.7729 -1.7283 0.6913 0 1
3.6583 -0.6246 -1.7243 0.6929 0 1
3.6745 -0.4763 -1.7215 0.6940 0 1
3.6872 -0.3280 -1.7199 0.6947 0 1
3.6966 -0.1795 -1.7195 0.6948 0 1
3.7030 -0.0308 -1.7205 0.6937 0 1
3.7079 0.1183 -1.7237 0.6924 0 1
3.7095 0.2679 -1.7280 0.6907 0 1
3.7047 0.4178 -1.7322 0.6788 0 1
3.6956 0.5680 -1.7372 0.6768 0 1
3.6829 0.7186 -1.7434 0.6744 0 1
3.6665 0.8697 -1.7508 0.6716 0 1
3.6464 1.0214 -1.7594 0.6683 0 1
3.6226 1.1737 -1.7693 0.6646 0 1
3.5949 1.3266 -1.7804 0.6604 0 1
3.5634 1.4802 -1.7928 0.6559 0 1
3.5278 1.6347 -1.8065 0.6509 0 1
3.4881 1.7899 -1.8216 0.6455 0 1
3.4442 1.9461 -1.8380 0.6397 0 1
3.3959 2.1032 -1.8559 0.6336 0 1
3.3434 2.2615 -1.8754 0.6266 0 1
3.2867 2.4213 -1.8967 0.6242 0 1
3.2256 2.5825 -1.9199 0.6167 0 1
3.1595 2.7451 -1.9447 0.6089 0 1
3.0883 2.9091 -1.9712 0.6007 0 1
3.0116 3.0745 -1.9996 0.5921 0 1
2.9294 3.2415 -2.0300 0.5833 0 1
2.8413 3.4101 -2.0623 0.5741 0 1
2.7470 3.5803 -2.0967 0.5647 0 1
2.6463 3.7522 -2.1333 0.5550 0 1
2.5363 3.9219 -2.1701 0.5500 0 1
2.4192 4.0928 -2.2090 0.5403 0 1
2.2949 4.2650 -2.2503 0.5304 0 1
2.1629 4.4385 -2.2940 0.5208 0 1
2.0103 4.5847 -2.3259 0.5115 0 24
1.8743 4.7890 -2.3894 0.5000 0 1
1.7168 4.9662 -2.4414 0.4894 0 1
1.5499 5.1445 -2.4964 0.4790 0 1
1.3732 5.3237 -2.5544 0.4681 0 1
1.1860 5.5039 -2.6159 0.4571 0 1
0.9878 5.6853 -2.6811 0.4462 0 1
0.7782 5.8692 -2.7508 0.4349 0 1
0.5563 6.0541 -2.8247 0.4235 0 1
0.3211 6.2392 -2.9027 0.4129 0 1
0.0721 6.4245 -2.9851 0.4015 0 1
-0.1916 6.6099 -3.0724 0.3901 0 1
-0.4709 6.7953 -3.1648 0.3779 0 1
-0.7666 6.9805 -3.2628 0.3665 0 1
-1.0796 7.1631 -3.3657 0.3582 0 1
-1.4102 7.3407 -3.4730 0.3480 0 1
-1.7594 7.5143 -3.5858 0.3371 0 1
-2.1284 7.6846 -3.7049 0.3262 0 1
-2.5183 7.8508 -3.8307 0.3156 0 1
-2.9300 8.0117 -3.9635 0.3050 0 1
-3.3646 8.1666 -4.1038 0.2946 0 1
-3.8229 8.3136 -4.2515 0.2845 0 1
-4.3067 8.4530 -4.4078 0.2716 0 1
-4.8181 8.5852 -4.5741 0.2617 0 1
-5.3567 8.7055 -4.7492 0.2521 0 1
-5.9215 8.8093 -4.9318 0.2449 0 1
-6.5084 8.8887 -5.1186 0.2388 0 1
-7.1219 8.9485 -5.3137 0.2301 0 1
-7.7623 8.9868 -5.5174 0.2216 0 1
-8.4478 9.0205 -5.7421 0.2050 0 1
-9.1698 9.0347 -5.9810 0.1968 0 1
-9.9219 9.0191 -6.2299 0.1890 0 1
-10.7073 8.9742 -6.4911 0.1801 0 1
-11.5219 8.8937 -6.7626 0.1728 0 1
-12.3625 8.7729 -7.0432 0.1656 0 1
-13.2285 8.6095 -7.3333 0.1591 0 1
-14.1118 8.3970 -7.6296 0.1521 0 1
-15.0271 8.1423 -7.9410 0.1433 0 1
-15.9554 7.8328 -8.2583 0.1385 0 1
-16.8710 7.4564 -8.5701 0.1337 0 1
-17.7701 7.0143 -8.8763 0.1290 0 1
-18.6424 6.5055 -9.1739 0.1248 0 1
-19.4466 5.9208 -9.4448 0.1223 0 1
-16.4282 4.2885 -7.8887 0.9687 26 14
-16.2014 3.5404 -7.7052 0.9736 26 14
-16.2244 2.8676 -7.6551 0.9908 26 14
-16.5441 2.2427 -7.7571 0.8790 26 14
-22.1972 2.1047 -10.3596 0.1127 0 1
-22.4141 1.2190 -10.4295 0.1120 0 1
-22.5185 0.3182 -10.4636 0.1091 0 1
-22.4973 -0.5866 -10.4563 0.1092 0 1
-22.3279 -1.4819 -10.3969 0.1097 0 1
-22.0298 -2.3545 -10.2938 0.1108 0 1
-21.3557 -3.1550 -10.0300 0.8614 0 2
-21.0508 -3.9804 -9.9540 0.9974 0 2
-20.4914 -4.7349 -9.7716 0.1225 0 1
-19.8226 -5.4281 -9.5491 0.1254 0 1
-19.0878 -6.0615 -9.3050 0.1282 0 1
-18.2903 -6.6286 -9.0389 0.1293 0 1
-17.4428 -7.1270 -8.7547 0.1328 0 1
-16.5606 -7.5568 -8.4576 0.1372 0 1
-15.6464 -7.9143 -8.1468 0.1410 0 1
-14.7229 -8.2064 -7.8315 0.1477 0 1
-13.8010 -8.4368 -7.5155 0.1531 0 1
-12.8960 -8.6141 -7.2055 0.1597 0 1
-12.0193 -8.7469 -6.9067 0.1716 0 1
-11.1849 -8.8486 -6.6264 0.1789 0 1
-10.3773 -8.9107 -6.3551 0.1864 0 1
-9.5853 -8.9244 -6.0850 0.2025 0 24
-8.8900 -8.9706 -5.8679 0.2098 0 1
-8.1935 -8.9611 -5.6416 0.2182 0 1
-7.5226 -8.9224 -5.4223 0.2239 0 1
-6.8779 -8.8569 -5.2102 0.2326 0 1
-6.2636 -8.7723 -5.0082 0.2420 0 1
-5.6798 -8.6715 -4.8163 0.2516 0 1
-5.1246 -8.5554 -4.6336 0.2609 0 1
-4.5973 -8.4260 -4.4597 0.2701 0 1
-4.0980 -8.2865 -4.2952 0.2805 0 1
-3.6254 -8.1386 -4.1396 0.2910 0 1
-3.1777 -7.9823 -3.9918 0.3001 0 1
2.0499 -4.2601 -2.2606 0.5248 0 1
2.1725 -4.0860 -2.2128 0.5362 0 1
2.2875 -3.9142 -2.1678 0.5473 0 1
2.3989 -3.7503 -2.1287 0.5803 0 1
2.5043 -3.5885 -2.0924 0.5904 0 1
2.6034 -3.4283 -2.0584 0.6002 0 1
2.6966 -3.2694 -2.0265 0.6096 0 1
2.7842 -3.1118 -1.9966 0.6187 0 1
2.8663 -2.9554 -1.9686 0.6275 0 1
2.9433 -2.8003 -1.9426 0.6359 0 1
3.0153 -2.6462 -1.9183 0.6440 0 1
3.0825 -2.4932 -1.8957 0.6516 0 1
3.1451 -2.3411 -1.8748 0.6551 0 1
3.2028 -2.1897 -1.8552 0.6621 0 1
3.2576 -2.0400 -1.8379 0.6728 0 1
3.3087 -1.8913 -1.8223 0.6786 0 1
3.3558 -1.7432 -1.8082 0.6839 0 1
3.3991 -1.5956 -1.7955 0.6813 0 1
3.4391 -1.4487 -1.7844 0.6855 0 1
3.4755 -1.3021 -1.7747 0.6893 0 1
3.5081 -1.1558 -1.7662 0.6926 0 1
3.5371 -1.0097 -1.7589 0.6954 0 1
3.5626 -0.8638 -1.7529 0.6978 0 1
3.5845 -0.7179 -1.7480 0.6998 0 1
3.6030 -0.5721 -1.7444 0.7012 0 1
3.6180 -0.4262 -1.7420 0.7022 0 1
3.6297 -0.2803 -1.7407 0.7027 0 1
3.6379 -0.1342 -1.7407 0.7027 0 1
3.6438 0.0122 -1.7423 0.7013 0 1
3.6476 0.1589 -1.7458 0.6999 0 1
3.6464 0.3061 -1.7497 0.6880 0 1
3.6398 0.4535 -1.7539 0.6864 0 1
3.6296 0.6012 -1.7592 0.6843 0 1
3.6158 0.7494 -1.7657 0.6818 0 1
3.5984 0.8980 -1.7734 0.6788 0 1
3.5773 1.0471 -1.7823 0.6754 0 1
3.5525 1.1968 -1.7925 0.6716 0 1
3.5238 1.3472 -1.8039 0.6673 0 1
3.4912 1.4982 -1.8166 0.6627 0 1
3.4546 1.6499 -1.8306 0.6576 0 1
3.4139 1.8024 -1.8460 0.6521 0 1
3.3690 1.9557 -1.8627 0.6463 0 1
3.3197 2.1099 -1.8809 0.6400 0 1
3.2668 2.2656 -1.9010 0.6377 0 1
3.2095 2.4226 -1.9228 0.6304 0 1
3.1474 2.5806 -1.9462 0.6229 0 1
3.0803 2.7399 -1.9713 0.6149 0 1
3.0081 2.9004 -1.9981 0.6067 0 1
2.9305 3.0623 -2.0268 0.5981 0 1
2.8474 3.2255 -2.0573 0.5892 0 1
2.7584 3.3902 -2.0899 0.5800 0 1
2.6633 3.5562 -2.1245 0.5706 0 1
2.5615 3.7233 -2.1610 0.5654 0 1
2.4508 3.8883 -2.1978 0.5560 0 1
2.3333 4.0545 -2.2368 0.5462 0 1
2.2086 4.2217 -2.2782 0.5363 0 1
2.0763 4.3899 -2.3221 0.5262 0 1
1.9246 4.5319 -2.3543 0.5174 0 24
1.7777 4.7031 -2.4042 0.5066 0 24
1.6303 4.9001 -2.4693 0.4953 0 1
1.4638 5.0718 -2.5241 0.4850 0 1
1.2877 5.2440 -2.5820 0.4741 0 1
1.1013 5.4169 -2.6432 0.4631 0 1
0.9045 5.5913 -2.7083 0.4522 0 1
0.6964 5.7669 -2.7775 0.4409 0 1
0.4753 5.9310 -2.8451 0.4275 0 24
0.2435 6.1186 -2.9280 0.4191 0 1
-0.0027 6.2938 -3.0095 0.4077 0 1
-0.2630 6.4685 -3.0956 0.3964 0 1
-0.5381 6.6424 -3.1866 0.3851 0 1
-0.8289 6.8151 -3.2828 0.3730 0 1
-1.1362 6.9855 -3.3841 0.3647 0 1
-1.4599 7.1490 -3.4890 0.3547 0 1
-1.8012 7.3082 -3.5991 0.3438 0 1
-2.1610 7.4632 -3.7153 0.3331 0 1
-2.5402 7.6132 -3.8376 0.3224 0 1
-2.9397 7.7570 -3.9665 0.3120 0 1
-3.3602 7.8936 -4.1022 0.3017 0 1
-3.8024 8.0215 -4.2447 0.2918 0 1
-4.2671 8.1395 -4.3944 0.2818 0 1
-4.7567 8.2491 -4.5532 0.2692 0 1
-5.2710 8.3468 -4.7204 0.2597 0 1
-5.8090 8.4283 -4.8946 0.2526 0 1
-6.3679 8.4876 -5.0737 0.2467 0 1
-6.9474 8.5236 -5.2580 0.2380 0 1
-7.5497 8.5375 -5.4496 0.2297 0 1
-8.1829 8.5362 -5.6542 0.2131 0 1
-8.8539 8.5225 -5.8763 0.2051 0 1
-9.5489 8.4791 -6.1063 0.1974 0 1
-10.2682 8.4045 -6.3449 0.1886 0 1
-11.0115 8.2968 -6.5926 0.1815 0 1
-11.7735 8.1504 -6.8470 0.1744 0 1
-12.5531 7.9634 -7.1084 0.1681 0 1
-13.3409 7.7293 -7.3725 0.1621 0 1
-14.1440 7.4520 -7.6445 0.1554 0 1
-14.9511 7.1249 -7.9194 0.1472 0 1
-15.7471 6.7416 -8.1908 0.1429 0 1
-16.5191 6.2991 -8.4537 0.1380 0 1
-17.1958 5.7769 -8.6740 0.1332 0 24
-17.9348 5.2330 -8.9334 0.1310 0 1
-16.1488 4.0152 -7.9569 0.9366 26 14
-16.1401 3.3305 -7.8803 0.9614 26 14
-16.1641 2.6632 -7.8333 0.9670 26 14
-18.0613 2.2345 -8.7021 0.1165 26 14
-20.1691 1.6756 -9.6774 0.1220 0 1
-20.3298 0.8683 -9.7299 0.1219 0 1
-20.3768 0.0506 -9.7435 0.1217 0 1
-20.3176 -0.7667 -9.7221 0.1221 0 1
-20.1502 -1.5733 -9.6645 0.1239 0 1
-19.8750 -2.3587 -9.5703 0.1252 0 1
-19.5074 -3.1146 -9.4459 0.1284 0 1
-19.0629 -3.8350 -9.2979 0.1305 0 1
-18.5361 -4.5111 -9.1220 0.1316 0 1
-17.9370 -5.1371 -8.9217 0.1343 0 1
-17.2200 -5.6900 -8.6719 0.1369 0 24
-16.5667 -6.2232 -8.4621 0.1404 0 1
-15.8147 -6.6778 -8.2086 0.1447 0 1
-15.0283 -7.0703 -7.9416 0.1481 0 1
-14.2189 -7.4015 -7.6650 0.1534 0 1
-13.3524 -7.6477 -7.3578 0.1586 0 24
-12.5903 -7.8996 -7.1072 0.1649 0 1
-11.8019 -8.0837 -6.8401 0.1762 0 1
-11.0349 -8.2288 -6.5821 0.1844 0 1
-10.2865 -8.3345 -6.3305 0.1917 0 1
-9.5452 -8.3913 -6.0771 0.2049 0 24
-8.8923 -8.4747 -5.8738 0.2145 0 1
-8.2321 -8.5026 -5.6590 0.2227 0 1
-7.5924 -8.5004 -5.4499 0.2281 0 1
-6.9732 -8.4690 -5.2457 0.2365 0 1
-6.3805 -8.4170 -5.0504 0.2457 0 1
-5.7963 -8.3211 -4.8490 0.2520 0 24
-5.2736 -8.2599 -4.6859 0.2632 0 1
-4.7579 -8.1574 -4.5156 0.2731 0 1
-4.2676 -8.0430 -4.3538 0.2814 0 1
-3.7899 -7.8937 -4.1870 0.2931 0 24
-3.3599 -7.7854 -4.0546 0.3047 0 1
-2.9294 -7.6156 -3.9016 0.3137 0 24
-2.5412 -7.4920 -3.7829 0.3242 0 1
-2.1641 -7.3372 -3.6578 0.3353 0 1
-1.8073 -7.1795 -3.5401 0.3494 0 1
-1.4700 -7.0202 -3.4296 0.3607 0 1
-1.1505 -6.8582 -3.3252 0.3720 0 1
-0.8476 -6.6916 -3.2253 0.3825 0 1
-0.5611 -6.5231 -3.1307 0.3940 0 1
-0.2899 -6.3536 -3.0412 0.4055 0 1
-0.0333 -6.1685 -2.9496 0.4176 0 24
0.2094 -6.0128 -2.8769 0.4287 0 1
0.4390 -5.8421 -2.8014 0.4387 0 1
0.6563 -5.6711 -2.7298 0.4502 0 1
0.8593 -5.4843 -2.6544 0.4633 0 24
1.0562 -5.3305 -2.5984 0.4731 0 1
1.2400 -5.1604 -2.5378 0.4846 0 1
1.4135 -4.9902 -2.4800 0.4959 0 1
1.5775 -4.8211 -2.4256 0.5070 0 1
1.7325 -4.6531 -2.3742 0.5180 0 1
1.8679 -4.4599 -2.3121 0.5269 0 24
2.0034 -4.2907 -2.2643 0.5379 0 24
2.1378 -4.1363 -2.2264 0.5329 0 1
2.2550 -3.9638 -2.1806 0.5441 0 1
2.3672 -3.7974 -2.1397 0.5773 0 1
2.4744 -3.6353 -2.1027 0.5875 0 1
2.5753 -3.4746 -2.0680 0.5974 0 1
2.6702 -3.3153 -2.0355 0.6069 0 1
2.7594 -3.1573 -2.0050 0.6161 0 1
2.8431 -3.0006 -1.9765 0.6250 0 1
2.9215 -2.8451 -1.9499 0.6335 0 1
2.9949 -2.6907 -1.9252 0.6417 0 1
3.0635 -2.5374 -1.9021 0.6495 0 1
3.1275 -2.3852 -1.8807 0.6531 0 1
3.1865 -2.2335 -1.8607 0.6601 0 1
3.2421 -2.0833 -1.8427 0.6711 0 1
3.2943 -1.9343 -1.8267 0.6769 0 1
3.3426 -1.7860 -1.8122 0.6824 0 1
3.3869 -1.6383 -1.7990 0.6874 0 1
3.4279 -1.4912 -1.7875 0.6843 0 1
3.4653 -1.3446 -1.7774 0.6882 0 1
3.4990 -1.1982 -1.7685 0.6917 0 1
3.5291 -1.0521 -1.7609 0.6947 0 1
3.5556 -0.9061 -1.7545 0.6972 0 1
3.5785 -0.7602 -1.7493 0.6993 0 1
3.5980 -0.6144 -1.7453 0.7008 0 1
3.6140 -0.4685 -1.7426 0.7020 0 1
3.6266 -0.3226 -1.7410 0.7026 0 1
3.6358 -0.1765 -1.7406 0.7028 0 1
3.6420 -0.0303 -1.7415 0.7016 0 1
3.6468 0.1164 -1.7447 0.7004 0 1
3.6477 0.2634 -1.7487 0.6884 0 1
3.6421 0.4107 -1.7526 0.6869 0 1
3.6329 0.5584 -1.7575 0.6849 0 1
3.6202 0.7064 -1.7637 0.6825 0 1
3.6039 0.8549 -1.7711 0.6797 0 1
3.5838 1.0039 -1.7796 0.6764 0 1
3.5601 1.1534 -1.7894 0.6727 0 1
3.5325 1.3035 -1.8005 0.6686 0 1
3.5010 1.4543 -1.8128 0.6641 0 1
3.4656 1.6059 -1.8264 0.6591 0 1
3.4261 1.7581 -1.8414 0.6537 0 1
3.3824 1.9112 -1.8577 0.6480 0 1
3.3344 2.0652 -1.8755 0.6419 0 1
3.2826 2.2204 -1.8950 0.6397 0 1
3.2266 2.3770 -1.9163 0.6326 0 1
3.1659 2.5347 -1.9392 0.6251 0 1
3.1002 2.6936 -1.9638 0.6173 0 1
3.0295 2.8538 -1.9901 0.6091 0 1
2.9536 3.0153 -2.0183 0.6006 0 1
2.8721 3.1781 -2.0483 0.5918 0 1
2.7848 3.3423 -2.0802 0.5827 0 1
2.6915 3.5080 -2.1142 0.5733 0 1
2.5919 3.6751 -2.1504 0.5637 0 1
2.4836 3.8404 -2.1869 0.5587 0 1
2.3681 4.0062 -2.2253 0.5491 0 1
2.2455 4.1731 -2.2660 0.5392 0 1
2.1154 4.3410 -2.3091 0.5291 0 1
1.9656 4.4826 -2.3404 0.5204 0 24
1.8212 4.6534 -2.3894 0.5098 0 24
1.6768 4.8505 -2.4540 0.4984 0 1
1.5131 5.0220 -2.5080 0.4881 0 1
1.3397 5.1940 -2.5649 0.4773 0 1
1.1564 5.3668 -2.6251 0.4663 0 1
0.9626 5.5405 -2.6890 0.4554 0 1
0.7579 5.7159 -2.7571 0.4442 0 1
0.5413 5.8918 -2.8291 0.4329 0 1
0.3123 6.0678 -2.9052 0.4223 0 1
0.0700 6.2431 -2.9854 0.4110 0 1
-0.1861 6.4179 -3.0701 0.3997 0 1
-0.4568 6.5921 -3.1597 0.3883 0 1
-0.7430 6.7651 -3.2543 0.3762 0 1
-1.0455 6.9369 -3.3545 0.3650 0 1
-1.3643 7.1022 -3.4581 0.3578 0 1
-1.7004 7.2625 -3.5666 0.3470 0 1
-2.0548 7.4188 -3.6810 0.3362 0 1
-2.4283 7.5703 -3.8015 0.3255 0 1
-2.8218 7.7160 -3.9285 0.3150 0 1
-3.2361 7.8548 -4.0622 0.3047 0 1
-3.6720 7.9854 -4.2027 0.2947 0 1
-4.1301 8.1064 -4.3503 0.2847 0 1
-4.6122 8.2183 -4.5063 0.2720 0 1
-5.1194 8.3199 -4.6711 0.2624 0 1
-5.6513 8.4073 -4.8439 0.2530 0 1
-6.2037 8.4726 -5.0212 0.2462 0 1
-6.7771 8.5153 -5.2039 0.2405 0 1
-7.3728 8.5359 -5.3933 0.2321 0 1
-7.9931 8.5351 -5.5914 0.2155 0 1
-8.6569 8.5293 -5.8111 0.2074 0 1
-9.3452 8.4949 -6.0388 0.1996 0 1
-10.0571 8.4293 -6.2747 0.1920 0 1
-10.7942 8.3320 -6.5202 0.1835 0 1
-11.5500 8.1963 -6.7721 0.1763 0 1
-12.3262 8.0223 -7.0323 0.1698 0 1
-13.1121 7.8022 -7.2958 0.1638 0 1
