ply
format ascii 1.0
element vertex 1569
property float32 x
property float32 y
property float32 z
property float32 I
end_header
5.2628 -8.5788 -1.1481 0.9603
5.3995 -8.0554 -1.1063 0.9617
5.5234 -7.5636 -1.0684 0.9630
5.9008 -5.3753 -0.9106 0.9684
5.9610 -5.0065 -0.8880 0.9691
5.9332 -4.2188 -0.8305 0.9711
5.9805 -3.9000 -0.8145 0.9717
6.0235 -3.5912 -0.8000 0.9722
6.0627 -3.2914 -0.7870 0.9726
6.0970 -2.9990 -0.7751 0.9730
6.3427 -2.5087 -0.7781 0.9729
6.4093 -1.9557 -0.7644 0.9734
6.4386 -1.6847 -0.7592 0.9736
3.8714 -0.6862 -0.4485 0.9843
3.8473 -0.2107 -0.4395 0.9846
3.8397 -0.0555 -0.4381 0.9847
3.8426 0.0991 -0.4385 0.9846
3.8609 0.4118 -0.4429 0.9845
3.8698 0.5710 -0.4462 0.9844
3.8800 0.7331 -0.4504 0.9842
6.6186 1.5287 -0.7749 0.9730
6.6185 1.8121 -0.7828 0.9728
6.6093 2.3955 -0.8020 0.9721
6.5873 3.0068 -0.8260 0.9713
6.3948 4.6569 -0.9024 0.9687
6.3277 5.0097 -0.9207 0.9680
6.1887 5.7671 -0.9650 0.9665
6.1090 6.1704 -0.9905 0.9656
5.7331 7.3920 -1.0671 0.9630
5.3230 8.9013 -1.1831 0.9591
5.0690 9.3075 -1.2090 0.9582
4.3627 10.9873 -1.3486 0.9535
4.1369 11.7798 -1.4243 0.9510
3.8805 12.6571 -1.5102 0.9481
2.4351 13.6325 -1.5798 0.9458
1.1918 21.2476 -2.4277 0.9179
0.3898 24.6862 -2.8164 0.9054
-3.8799 36.8371 -4.2255 0.8615
-6.4292 43.9722 -5.0695 0.8362
-30.1380 23.4386 -4.3554 0.8575
-32.5226 17.7684 -4.2276 0.8614
-35.8384 17.7466 -4.5621 0.8513
-36.5037 16.2816 -4.5596 0.8514
-44.3813 17.6905 -5.4502 0.8250
-35.7758 -33.1618 -5.5648 0.8217
-33.2165 -33.3725 -5.3713 0.8273
-32.5061 -35.3996 -5.4825 0.8241
-19.6956 -27.4672 -3.8556 0.8728
-7.0663 -41.4638 -5.2710 0.8440
-4.5022 -34.8281 -4.4008 0.8680
1.4112 -19.3880 -2.4361 0.9246
1.9991 -17.6318 -2.2237 0.9310
3.6026 -12.8237 -1.6692 0.9477
3.8935 -11.9849 -1.5792 0.9505
4.1509 -11.2194 -1.4991 0.9529
4.3799 -10.5174 -1.4277 0.9551
4.5843 -9.8695 -1.3637 0.9571
5.0877 -8.1954 -1.2088 0.9619
5.2245 -7.7057 -1.1667 0.9632
5.6019 -5.9320 -1.0225 0.9676
5.7938 -4.8139 -0.9440 0.9701
5.9829 -3.2071 -0.8507 0.9730
6.2195 -2.1380 -0.8242 0.9738
6.2813 -1.6080 -0.8125 0.9742
4.0255 -0.8596 -0.5158 0.9835
3.8478 -0.5026 -0.4863 0.9845
3.8390 -0.3451 -0.4830 0.9846
3.8241 -0.0350 -0.4792 0.9847
3.8293 0.1191 -0.4801 0.9847
3.8384 0.2743 -0.4822 0.9846
6.4531 1.5266 -0.8310 0.9736
6.4510 1.8031 -0.8394 0.9734
6.4459 2.0846 -0.8490 0.9731
6.3796 3.2709 -0.8984 0.9715
6.3474 3.5839 -0.9135 0.9710
6.3109 3.9062 -0.9301 0.9705
6.2695 4.2387 -0.9484 0.9700
6.0676 5.2705 -1.0072 0.9681
5.9088 6.0318 -1.0581 0.9665
5.6797 6.8174 -1.1120 0.9649
5.2363 8.1000 -1.2087 0.9619
5.0687 8.5792 -1.2487 0.9606
4.6618 9.5734 -1.3344 0.9580
4.1375 10.5836 -1.4240 0.9552
3.9084 11.3209 -1.5009 0.9529
1.0569 20.8183 -2.6122 0.9194
0.2402 22.9144 -2.8717 0.9118
-0.7672 25.7716 -3.2310 0.9013
-2.0342 29.0104 -3.6444 0.8894
-3.6415 32.8968 -4.1477 0.8751
-17.0893 46.5699 -6.2165 0.8187
-18.6512 36.4973 -5.1363 0.8477
-27.8407 37.9126 -5.8945 0.8273
-29.6960 37.2035 -5.9653 0.8254
-19.7938 16.5351 -3.2321 0.9012
-28.2717 21.7474 -4.4698 0.8661
-30.0870 17.8297 -4.3827 0.8685
-36.3134 17.7425 -5.0648 0.8497
-40.2933 17.7161 -5.5159 0.8374
-32.8626 -33.3692 -5.8691 0.8279
-19.4728 -27.4630 -4.2189 0.8731
-2.8731 -30.5985 -3.8514 0.8835
-1.4220 -26.6151 -3.3401 0.8981
-0.3135 -23.8613 -2.9905 0.9083
0.5869 -21.6442 -2.7134 0.9164
3.2245 -13.8765 -1.7853 0.9442
3.5610 -12.9392 -1.6818 0.9473
5.3349 -7.3055 -1.1336 0.9642
5.6613 -5.5901 -0.9970 0.9684
5.7860 -4.8596 -0.9469 0.9700
5.8672 -3.8261 -0.8778 0.9722
5.9001 -3.5176 -0.8608 0.9727
5.9703 -3.2413 -0.8513 0.9730
6.2479 -1.9065 -0.8186 0.9740
6.2776 -1.6426 -0.8132 0.9742
3.8579 -0.6838 -0.4910 0.9843
3.8490 -0.5235 -0.4868 0.9845
3.8400 -0.3657 -0.4834 0.9846
3.8372 0.2537 -0.4819 0.9846
4.2321 0.9775 -0.5443 0.9826
6.4467 2.0472 -0.8476 0.9731
6.4386 2.3337 -0.8582 0.9728
6.4111 2.9264 -0.8832 0.9720
6.3836 3.2302 -0.8966 0.9716
6.3519 3.5421 -0.9114 0.9711
6.2139 4.5252 -0.9633 0.9695
6.1455 4.8654 -0.9823 0.9689
6.0771 5.2225 -1.0041 0.9682
5.8299 6.3827 -1.0833 0.9658
5.5623 7.1718 -1.1374 0.9641
5.2583 8.0401 -1.2039 0.9620
5.0900 8.5118 -1.2428 0.9608
4.9684 9.1228 -1.3018 0.9590
4.3664 9.8246 -1.3473 0.9576
4.1657 10.4913 -1.4146 0.9555
3.0646 13.9001 -1.7837 0.9442
2.4156 13.5234 -1.7215 0.9461
1.8865 13.7328 -1.7371 0.9457
1.7152 17.7611 -2.2361 0.9306
0.3565 22.5755 -2.8294 0.9130
-1.8511 28.5715 -3.5880 0.8910
-3.4016 32.2955 -4.0695 0.8773
-8.4223 44.8998 -5.7248 0.8318
-29.6861 37.5986 -6.0033 0.8244
-27.9656 32.6294 -5.3853 0.8409
-29.8193 32.0844 -5.4891 0.8381
-32.8976 32.6571 -5.8090 0.8296
-19.5794 16.5332 -3.2114 0.9019
-28.2710 21.9866 -4.4881 0.8656
-28.3999 20.3075 -4.3752 0.8687
-30.0834 18.0440 -4.3961 0.8681
-40.1006 15.9842 -5.4098 0.8403
-24.5800 -4.5770 -3.1332 0.9041
-36.0210 -33.3891 -6.1550 0.8204
-33.2155 -33.3714 -5.9004 0.8271
-32.3325 -35.2105 -5.9906 0.8247
-6.0456 -35.4742 -4.9152 0.8648
-2.3513 -26.5553 -3.6413 0.8980
-1.1352 -23.5969 -3.2268 0.9090
0.6327 -19.5139 -2.6668 0.9242
1.2969 -17.8189 -2.4403 0.9304
2.7425 -14.0045 -1.9492 0.9440
3.1072 -13.0569 -1.8332 0.9473
3.4285 -12.2040 -1.7314 0.9501
3.7142 -11.4329 -1.6419 0.9526
4.1964 -10.0767 -1.4909 0.9569
4.4018 -9.4764 -1.4272 0.9587
4.5877 -8.9188 -1.3699 0.9603
4.7551 -8.3957 -1.3179 0.9618
4.9070 -7.9043 -1.2708 0.9631
5.2659 -6.5614 -1.1491 0.9666
5.3525 -6.1455 -1.1131 0.9676
5.5699 -5.0201 -1.0242 0.9702
5.7967 -3.7364 -0.9420 0.9725
5.9491 -2.8872 -0.9032 0.9737
5.9909 -2.6151 -0.8929 0.9740
6.0292 -2.3478 -0.8838 0.9742
6.0653 -2.0850 -0.8760 0.9744
6.1277 -1.5687 -0.8640 0.9748
3.9704 -0.8478 -0.5545 0.9837
3.8171 -0.1887 -0.5220 0.9847
3.8149 0.1186 -0.5213 0.9847
3.8239 0.2732 -0.5236 0.9846
3.8341 0.4296 -0.5270 0.9845
3.8443 0.5882 -0.5312 0.9844
3.8544 0.7495 -0.5363 0.9843
6.2916 1.7585 -0.8923 0.9740
6.2606 2.5974 -0.9258 0.9730
6.2388 2.8878 -0.9390 0.9726
6.1362 3.7980 -0.9857 0.9713
6.0336 4.4430 -1.0235 0.9702
5.8155 5.4772 -1.0912 0.9683
5.7306 5.8499 -1.1185 0.9675
5.6377 6.2385 -1.1485 0.9666
5.2323 7.4209 -1.2402 0.9640
4.9003 8.2942 -1.3158 0.9619
4.5839 9.4135 -1.4301 0.9586
3.9617 10.1340 -1.4862 0.9570
3.7293 10.8022 -1.5609 0.9549
3.4729 11.5460 -1.6468 0.9525
2.8531 13.2753 -1.8546 0.9467
2.3320 13.4676 -1.8669 0.9463
-1.8433 26.2885 -3.5995 0.8991
-11.0710 47.0763 -6.6055 0.8226
-15.1152 46.9505 -6.7370 0.8194
-29.7422 31.6628 -5.9335 0.8391
-29.8693 22.9763 -5.1472 0.8589
-28.2393 16.7348 -4.4836 0.8759
-34.8102 18.7790 -5.4024 0.8524
-36.3115 17.7415 -5.5200 0.8495
-39.9218 17.5527 -5.9566 0.8386
-40.8610 16.0365 -5.9956 0.8376
-32.1268 -35.3614 -6.5256 0.8246
-2.5370 -27.0198 -3.7068 0.8962
-0.2855 -21.7312 -2.9685 0.9160
1.7830 -16.5080 -2.2679 0.9352
2.6899 -14.1328 -1.9650 0.9436
3.3877 -12.3095 -1.7438 0.9498
3.6784 -11.5306 -1.6531 0.9523
4.5642 -8.9902 -1.3771 0.9601
4.7339 -8.4628 -1.3245 0.9616
5.0283 -7.5017 -1.2335 0.9642
5.2538 -6.6179 -1.1541 0.9665
5.5614 -5.0662 -1.0276 0.9701
5.6230 -4.7227 -1.0030 0.9708
5.7340 -4.0772 -0.9610 0.9720
5.8968 -3.2014 -0.9165 0.9733
5.9856 -2.6507 -0.8941 0.9739
6.0607 -2.1194 -0.8770 0.9744
6.0941 -1.8595 -0.8703 0.9746
6.1240 -1.6024 -0.8646 0.9748
3.8328 0.4088 -0.5265 0.9846
4.1714 0.9635 -0.5848 0.9829
6.2922 1.7227 -0.8911 0.9740
6.2424 2.8494 -0.9373 0.9727
6.2131 3.1439 -0.9511 0.9723
6.1795 3.4460 -0.9664 0.9718
6.0987 4.0762 -1.0019 0.9708
5.6504 6.1863 -1.1444 0.9667
5.2526 7.3664 -1.2358 0.9641
4.7522 8.7257 -1.3571 0.9607
4.6091 9.3390 -1.4225 0.9588
4.0066 10.0906 -1.4829 0.9571
3.7609 10.7091 -1.5503 0.9552
2.0996 15.2842 -2.1072 0.9396
1.6007 16.5752 -2.2745 0.9350
1.0693 19.0637 -2.6080 0.9258
0.3285 20.8025 -2.8417 0.9194
-1.6796 25.9242 -3.5484 0.9004
-4.8004 32.8320 -4.5321 0.8746
-16.7712 46.4642 -6.7472 0.8192
-29.5161 37.3833 -6.5058 0.8251
-29.4855 34.4028 -6.1887 0.8328
-29.6631 21.2107 -4.9809 0.8631
-29.0047 17.3970 -4.6197 0.8724
-29.8202 16.2920 -4.6413 0.8718
-39.9474 15.9231 -5.8738 0.8406
-24.4923 -4.5606 -3.4029 0.9043
-36.0242 -33.3921 -6.7092 0.8201
-7.6575 -36.0961 -5.4572 0.8614
-3.4799 -26.9197 -4.0144 0.8961
1.2023 -16.5179 -2.4494 0.9352
1.7441 -15.3826 -2.2896 0.9393
2.6047 -13.3008 -2.0045 0.9467
2.9587 -12.4331 -1.8901 0.9496
3.5502 -10.9280 -1.6993 0.9546
4.0278 -9.6719 -1.5495 0.9585
4.4181 -8.5892 -1.4285 0.9617
4.5857 -8.0965 -1.3761 0.9631
4.7382 -7.6324 -1.3286 0.9643
4.8796 -7.1970 -1.2860 0.9655
5.0013 -6.7729 -1.2452 0.9665
5.0998 -6.3544 -1.2050 0.9676
5.3451 -5.2222 -1.1052 0.9702
5.4142 -4.8797 -1.0780 0.9710
5.7025 -3.3589 -0.9788 0.9736
5.8000 -2.8148 -0.9535 0.9743
5.8425 -2.5503 -0.9428 0.9746
5.8814 -2.2903 -0.9334 0.9748
5.9182 -2.0344 -0.9255 0.9750
5.9513 -1.7815 -0.9188 0.9752
5.9810 -1.5311 -0.9131 0.9753
3.8298 -0.6579 -0.5747 0.9844
3.8212 -0.4991 -0.5699 0.9845
3.8005 0.1182 -0.5623 0.9847
3.8311 0.5861 -0.5732 0.9845
3.8410 0.7469 -0.5787 0.9843
4.1526 0.9824 -0.6311 0.9829
6.1311 1.9828 -0.9530 0.9743
6.1192 2.2547 -0.9645 0.9740
5.9704 3.6954 -1.0384 0.9720
5.9250 4.0058 -1.0577 0.9715
5.8004 4.6425 -1.0988 0.9704
5.7279 4.9755 -1.1221 0.9698
5.6487 5.3202 -1.1476 0.9691
5.2253 6.8115 -1.2697 0.9659
4.9156 7.6038 -1.3391 0.9641
4.7423 8.0268 -1.3788 0.9630
4.5718 8.5015 -1.4276 0.9617
4.3823 8.9994 -1.4804 0.9603
4.2166 9.6249 -1.5541 0.9584
3.9616 10.1336 -1.6091 0.9570
3.6134 10.4666 -1.6376 0.9562
2.7053 12.5879 -1.9042 0.9493
2.3386 13.5058 -2.0271 0.9461
1.9180 14.5340 -2.1681 0.9424
1.4319 15.6969 -2.3311 0.9383
0.9131 17.9855 -2.6634 0.9298
0.2046 19.5162 -2.8865 0.9241
-0.6434 21.6143 -3.1980 0.9163
-1.6841 24.0179 -3.5608 0.9072
-4.4917 29.6214 -4.4309 0.8859
-6.5526 33.9375 -5.1118 0.8696
-9.3557 39.7826 -6.0441 0.8477
-28.5151 32.9155 -6.4407 0.8385
-33.2441 32.6526 -6.8915 0.8283
-18.2587 16.5443 -3.6440 0.9052
-19.8128 16.5509 -3.8181 0.9009
-29.7342 22.8724 -5.5480 0.8593
-39.8061 19.4490 -6.5522 0.8360
-11.6008 -44.5774 -6.8123 0.8301
-1.1629 -21.7647 -3.2235 0.9156
-0.2613 -19.8893 -2.9418 0.9227
1.1250 -16.6779 -2.4722 0.9346
1.6768 -15.5249 -2.3094 0.9388
2.1393 -14.3651 -2.1479 0.9430
3.2313 -11.7410 -1.8010 0.9520
3.7702 -10.3590 -1.6303 0.9564
3.9992 -9.7487 -1.5584 0.9583
4.2068 -9.1840 -1.4940 0.9600
4.3948 -8.6564 -1.4358 0.9615
4.8617 -7.2531 -1.2914 0.9653
4.9876 -6.8299 -1.2508 0.9664
5.0873 -6.4083 -1.2101 0.9675
5.1776 -6.0087 -1.1730 0.9684
5.2592 -5.6287 -1.1393 0.9693
5.3355 -5.2684 -1.1089 0.9701
5.4054 -4.9241 -1.0814 0.9709
5.4690 -4.5933 -1.0562 0.9715
5.5265 -4.2746 -1.0333 0.9721
5.6391 -3.6774 -0.9957 0.9731
5.6954 -3.3956 -0.9807 0.9735
5.7470 -3.1200 -0.9671 0.9739
5.8763 -2.3243 -0.9346 0.9748
5.9135 -2.0680 -0.9265 0.9750
5.9472 -1.8147 -0.9196 0.9752
5.9773 -1.5640 -0.9138 0.9753
3.9474 -0.8648 -0.5976 0.9838
3.8224 -0.5199 -0.5705 0.9845
3.8136 -0.3632 -0.5666 0.9846
3.7962 -0.0549 -0.5615 0.9848
3.8197 0.4074 -0.5681 0.9846
3.8397 0.7255 -0.5779 0.9843
6.1402 1.6811 -0.9415 0.9746
6.1324 1.9473 -0.9516 0.9743
6.1210 2.2185 -0.9629 0.9740
6.1059 2.4954 -0.9755 0.9737
6.0818 2.7761 -0.9887 0.9733
6.0158 3.3547 -1.0187 0.9725
5.9313 3.9643 -1.0551 0.9716
5.6596 5.2740 -1.1441 0.9692
5.5741 5.6301 -1.1717 0.9685
5.4808 6.0005 -1.2019 0.9677
5.2441 6.7615 -1.2655 0.9660
5.0964 7.1474 -1.2983 0.9651
4.9374 7.5495 -1.3341 0.9642
4.7660 7.9699 -1.3734 0.9631
4.4084 8.9324 -1.4732 0.9605
4.2444 9.5500 -1.5456 0.9586
3.6595 10.4205 -1.6334 0.9563
3.3474 10.9183 -1.6889 0.9549
2.7502 12.4740 -1.8891 0.9497
1.5002 15.5348 -2.3082 0.9388
0.9973 17.7793 -2.6336 0.9305
0.3043 19.2678 -2.8499 0.9250
-0.5214 21.3186 -3.1538 0.9174
-2.7623 26.2258 -3.9001 0.8989
-4.2813 29.2815 -4.3766 0.8872
-12.7355 46.7599 -7.1674 0.8220
-14.8955 47.1239 -7.3092 0.8189
-16.7719 46.4661 -7.3060 0.8189
-18.3966 36.4755 -6.0418 0.8477
-29.4331 34.3417 -6.6891 0.8329
-29.5081 31.7495 -6.4104 0.8392
-27.8188 27.6155 -5.7972 0.8534
-19.5570 16.5143 -3.7856 0.9017
-29.7286 23.1203 -5.5698 0.8587
-29.8314 17.8929 -5.1446 0.8688
-30.2355 16.5189 -5.0955 0.8700
-35.8327 17.7437 -5.9136 0.8507
-45.0797 15.8986 -7.0695 0.8242
-27.9635 5.0333 -4.2021 0.8915
-4.6610 -27.3500 -4.4179 0.8937
-3.1126 -24.0784 -3.8661 0.9063
-0.9516 -19.7807 -3.1535 0.9229
-0.1430 -18.2714 -2.9096 0.9287
2.0872 -13.5225 -2.1788 0.9461
2.4787 -12.6574 -2.0538 0.9491
2.8220 -11.8583 -1.9410 0.9518
3.1266 -11.1295 -1.8408 0.9543
3.3996 -10.4644 -1.7520 0.9564
4.2600 -8.2818 -1.4830 0.9630
4.7233 -6.9664 -1.3402 0.9665
4.8429 -6.5584 -1.2982 0.9675
5.0343 -5.7801 -1.2206 0.9694
5.1179 -5.4194 -1.1870 0.9703
5.2664 -4.7466 -1.1290 0.9717
5.3892 -4.1228 -1.0805 0.9729
5.5609 -3.2755 -1.0277 0.9742
5.6126 -3.0086 -1.0140 0.9745
5.7031 -2.4895 -0.9909 0.9751
5.7424 -2.2361 -0.9813 0.9753
5.8109 -1.7395 -0.9659 0.9757
3.8772 -0.8279 -0.6313 0.9841
3.8365 -0.6591 -0.6199 0.9844
3.8294 -0.5002 -0.6150 0.9845
3.8023 -0.1880 -0.6062 0.9847
3.7895 -0.0347 -0.6035 0.9848
3.7934 0.1180 -0.6043 0.9847
3.8213 0.5846 -0.6156 0.9845
3.8314 0.7450 -0.6215 0.9843
4.0863 0.9667 -0.6687 0.9831
5.9939 1.6753 -0.9910 0.9751
5.9843 1.9353 -1.0015 0.9748
5.9710 2.2001 -1.0133 0.9746
5.9534 2.4700 -1.0263 0.9742
5.7659 3.8982 -1.1083 0.9722
5.7135 4.2073 -1.1299 0.9717
5.4021 5.5146 -1.2293 0.9692
5.3054 5.8708 -1.2600 0.9685
5.2005 6.2423 -1.2938 0.9676
4.9286 6.9902 -1.3619 0.9660
4.7688 7.3768 -1.3987 0.9650
4.5967 7.7803 -1.4390 0.9641
4.4236 8.2260 -1.4873 0.9629
4.2378 8.7027 -1.5414 0.9616
3.8433 9.8309 -1.6808 0.9581
3.6010 10.4305 -1.7571 0.9563
3.2651 10.8550 -1.8050 0.9551
2.9056 11.2880 -1.8561 0.9539
2.5717 11.9662 -1.9490 0.9516
2.2160 12.7979 -2.0682 0.9488
1.3559 14.8645 -2.3768 0.9413
0.1903 18.1546 -2.8910 0.9291
-0.5944 19.9664 -3.1808 0.9223
-2.6899 24.2997 -3.8930 0.9057
-5.8072 30.0766 -4.8778 0.8833
-8.0639 34.2894 -5.6091 0.8670
-29.0894 39.6130 -7.8259 0.8195
-29.1933 36.5736 -7.4517 0.8273
-29.3641 31.2603 -6.8295 0.8405
-29.4345 28.9108 -6.5698 0.8461
-19.7918 16.5334 -4.1065 0.9008
-29.4402 22.6462 -5.9145 0.8603
-30.0058 17.7817 -5.5540 0.8683
-30.7049 16.5644 -5.5554 0.8682
-39.9080 17.5467 -6.9419 0.8381
-32.6120 -33.1148 -7.4009 0.8284
-9.7713 -37.5472 -6.1780 0.8546
-6.9924 -32.1204 -5.2345 0.8753
-4.8992 -27.8539 -4.5034 0.8918
-3.2916 -24.4420 -3.9272 0.9049
-2.0659 -22.0015 -3.5189 0.9144
-0.2424 -18.4550 -2.9390 0.9280
2.4301 -12.7678 -2.0696 0.9487
2.7793 -11.9606 -1.9553 0.9515
3.0883 -11.2217 -1.8533 0.9540
3.3649 -10.5479 -1.7630 0.9561
3.6163 -9.9361 -1.6837 0.9581
4.0499 -8.8414 -1.5485 0.9614
4.2367 -8.3452 -1.4903 0.9628
4.4062 -7.8768 -1.4372 0.9641
4.5618 -7.4361 -1.3892 0.9653
4.8290 -6.6126 -1.3039 0.9674
5.2575 -4.7893 -1.1325 0.9716
5.3226 -4.4704 -1.1068 0.9722
5.3818 -4.1626 -1.0834 0.9728
5.4352 -3.8647 -1.0620 0.9733
5.5538 -3.3111 -1.0296 0.9742
5.6539 -2.7811 -1.0033 0.9748
5.6976 -2.5232 -0.9922 0.9751
5.7374 -2.2693 -0.9825 0.9753
5.8068 -1.7719 -0.9667 0.9757
5.8371 -1.5273 -0.9608 0.9759
3.8368 -0.6801 -0.6205 0.9843
3.7912 -0.0548 -0.6038 0.9848
3.8200 0.5637 -0.6149 0.9845
3.8303 0.7237 -0.6207 0.9843
4.0401 0.9332 -0.6603 0.9833
5.9948 1.6413 -0.9897 0.9751
5.9564 2.4342 -1.0246 0.9743
5.9288 2.7062 -1.0378 0.9739
5.8966 2.9838 -1.0523 0.9736
5.7724 3.8581 -1.1056 0.9723
5.7207 4.1660 -1.1269 0.9717
5.5018 5.1270 -1.1975 0.9700
5.4143 5.4687 -1.2254 0.9693
5.3187 5.8231 -1.2558 0.9686
5.2144 6.1919 -1.2890 0.9677
4.9488 6.9403 -1.3573 0.9661
4.6202 7.7260 -1.4335 0.9642
3.3110 10.7997 -1.7987 0.9553
2.9542 11.2295 -1.8490 0.9541
2.6154 11.8626 -1.9343 0.9520
2.2656 12.6833 -2.0516 0.9492
1.4125 14.6261 -2.3398 0.9422
0.9341 16.6536 -2.6560 0.9347
0.2833 17.9381 -2.8568 0.9299
-0.4820 19.7054 -3.1388 0.9233
-1.4120 21.7946 -3.4778 0.9153
-2.5260 23.9822 -3.8400 0.9069
-7.6774 33.4415 -5.4636 0.8702
-29.1804 36.9581 -7.4983 0.8264
-29.3542 31.5839 -6.8660 0.8398
-29.4257 29.2106 -6.6023 0.8454
-19.5413 16.5010 -4.0727 0.9016
-34.4491 22.5953 -6.5603 0.8463
-30.7074 16.7767 -5.5719 0.8679
-39.9379 15.9193 -6.8462 0.8402
-46.1661 16.2817 -7.7951 0.8201
-31.7433 -15.9570 -5.6574 0.8660
-32.7151 -32.8688 -7.3846 0.8287
-31.8896 -34.7283 -7.5078 0.8262
-8.1203 -31.8967 -5.6158 0.8750
-5.8812 -27.7230 -4.8353 0.8914
-4.1531 -24.3695 -4.2179 0.9046
-0.1327 -16.9489 -2.8919 0.9335
0.5100 -15.7286 -2.6850 0.9381
1.5556 -13.7196 -2.3558 0.9455
2.6961 -11.3294 -1.9870 0.9538
2.9946 -10.6596 -1.8891 0.9561
3.5057 -9.4755 -1.7238 0.9598
4.2797 -7.5563 -1.4817 0.9654
4.7956 -5.9755 -1.3073 0.9694
4.8882 -5.6124 -1.2699 0.9703
4.9746 -5.2678 -1.2362 0.9710
5.1261 -4.6201 -1.1774 0.9724
5.3086 -3.7325 -1.1072 0.9740
5.3703 -3.4616 -1.0901 0.9744
5.4272 -3.1968 -1.0747 0.9748
5.4793 -2.9372 -1.0607 0.9751
5.5271 -2.6824 -1.0482 0.9754
3.8376 -0.6593 -0.6644 0.9843
3.8186 -0.1888 -0.6523 0.9846
5.8531 1.6359 -1.0369 0.9756
5.8438 1.8899 -1.0479 0.9754
5.8084 2.4098 -1.0729 0.9748
5.7787 2.6748 -1.0865 0.9745
5.7062 3.2218 -1.1181 0.9738
5.6145 3.7958 -1.1563 0.9729
5.5607 4.0948 -1.1782 0.9724
5.2494 5.3587 -1.2799 0.9700
4.9348 6.4329 -1.3833 0.9676
4.7889 6.7920 -1.4179 0.9668
4.6301 7.1623 -1.4551 0.9660
3.8968 8.8948 -1.6569 0.9614
3.6728 9.3948 -1.7211 0.9599
3.4321 9.9413 -1.7944 0.9582
2.1649 12.5026 -2.1649 0.9498
1.7690 13.4043 -2.3069 0.9466
-1.4293 20.3845 -3.4865 0.9204
-3.7200 24.5328 -4.2336 0.9042
-9.6879 34.8397 -6.1699 0.8635
-13.1933 40.9807 -7.3455 0.8397
-29.2878 28.7667 -7.0043 0.8466
-18.2522 16.5384 -4.2024 0.9049
-19.7792 16.5229 -4.3973 0.9007
-29.3987 20.7868 -6.1432 0.8641
-34.3072 22.2428 -6.9761 0.8471
-38.2787 16.8303 -7.1345 0.8439
-44.7115 17.5477 -8.1951 0.8229
-32.6923 -33.1963 -7.9494 0.8277
-16.1654 -46.4246 -8.3874 0.8192
-8.4546 -32.4877 -5.7277 0.8727
-6.1475 -28.2392 -4.9310 0.8893
-4.3344 -24.6432 -4.2692 0.9035
-2.9875 -22.1842 -3.8192 0.9132
-0.2253 -17.1497 -2.9263 0.9328
0.9979 -14.7935 -2.5298 0.9416
1.9266 -12.9369 -2.2316 0.9483
2.6542 -11.4221 -2.0007 0.9535
2.9571 -10.7447 -1.9014 0.9558
3.2286 -10.1206 -1.8125 0.9578
3.6996 -9.0183 -1.6631 0.9612
4.7828 -6.0246 -1.3124 0.9693
4.8765 -5.6593 -1.2746 0.9701
4.9636 -5.3123 -1.2405 0.9709
5.1169 -4.6613 -1.1810 0.9723
5.2429 -4.0552 -1.1309 0.9735
5.4200 -3.2314 -1.0766 0.9747
5.4727 -2.9711 -1.0625 0.9750
5.5211 -2.7157 -1.0498 0.9753
5.5652 -2.4645 -1.0385 0.9756
5.6745 -1.7315 -1.0123 0.9762
5.7037 -1.4924 -1.0059 0.9764
3.8972 -0.8538 -0.6807 0.9839
3.8380 -0.6803 -0.6650 0.9843
3.8353 -0.5217 -0.6604 0.9844
3.8328 -0.3650 -0.6569 0.9845
3.8203 -0.2092 -0.6528 0.9846
3.8074 -0.0551 -0.6497 0.9847
3.8176 0.2524 -0.6528 0.9846
3.8269 0.4082 -0.6567 0.9845
3.8312 0.5654 -0.6608 0.9844
3.8324 0.7242 -0.6655 0.9843
5.8540 1.6027 -1.0356 0.9757
5.8315 2.1136 -1.0583 0.9751
5.7828 2.6396 -1.0846 0.9745
5.7494 2.9093 -1.0994 0.9742
5.7115 3.1850 -1.1158 0.9738
5.6689 3.4673 -1.1338 0.9734
5.6212 3.7570 -1.1536 0.9729
5.5681 4.0549 -1.1752 0.9724
5.5063 4.3594 -1.1983 0.9719
5.4317 4.6678 -1.2219 0.9714
5.3503 4.9858 -1.2478 0.9708
5.2617 5.3145 -1.2760 0.9701
4.9500 6.3823 -1.3781 0.9678
4.6517 7.1126 -1.4500 0.9661
4.4825 7.4959 -1.4902 0.9652
3.9249 8.8312 -1.6489 0.9615
3.7033 9.3267 -1.7122 0.9601
3.2351 10.5521 -1.8831 0.9562
2.9469 11.2017 -1.9763 0.9541
1.8222 13.2645 -2.2844 0.9471
0.2649 16.7748 -2.8625 0.9342
-0.4477 18.3055 -3.1242 0.9284
-2.3194 22.0210 -3.7780 0.9141
-5.0154 26.7375 -4.6415 0.8955
-6.8443 29.8124 -5.2189 0.8833
-9.2975 34.1367 -6.0365 0.8663
-28.9010 39.7974 -8.3918 0.8191
-28.2041 32.9078 -7.3947 0.8387
-27.5655 29.6594 -6.9086 0.8485
-18.0832 16.5610 -4.1837 0.9053
-19.5293 16.4909 -4.3611 0.9015
-29.4597 22.9111 -6.3675 0.8595
-34.3013 22.4984 -6.9991 0.8467
-29.6486 17.7832 -5.8988 0.8691
-39.4833 19.5514 -7.5173 0.8363
-44.3661 17.6845 -8.1489 0.8238
-27.8489 8.5785 -4.9719 0.8885
-16.6395 -4.5082 -2.9414 0.9324
-16.7171 -43.0987 -8.4155 0.8287
-12.8377 -37.5076 -7.2170 0.8511
-5.2242 -24.6257 -4.5828 0.9027
-3.7392 -21.9407 -4.0518 0.9135
0.4811 -14.8380 -2.7026 0.9414
1.8879 -12.2314 -2.2530 0.9509
2.5810 -10.8459 -2.0296 0.9557
2.8728 -10.2261 -1.9337 0.9577
3.1355 -9.6516 -1.8474 0.9596
3.3741 -9.1199 -1.7702 0.9612
3.5930 -8.6279 -1.7014 0.9627
3.7926 -8.1649 -1.6389 0.9641
4.2958 -6.9199 -1.4827 0.9674
4.6560 -5.8015 -1.3542 0.9702
4.9191 -4.8060 -1.2520 0.9724
4.9925 -4.4997 -1.2235 0.9730
5.1799 -3.6419 -1.1527 0.9746
5.2993 -3.1214 -1.1196 0.9753
5.4000 -2.6207 -1.0927 0.9759
5.4839 -2.1355 -1.0713 0.9764
5.5525 -1.6621 -1.0551 0.9767
3.8373 -0.6592 -0.7088 0.9843
3.8356 -0.5010 -0.7042 0.9844
3.8336 -0.3446 -0.7007 0.9845
3.8311 -0.1894 -0.6983 0.9845
3.8264 0.1190 -0.6969 0.9846
3.8302 0.2737 -0.6990 0.9845
3.8313 0.4293 -0.7018 0.9844
5.7085 1.8461 -1.0922 0.9759
5.6937 2.0979 -1.1046 0.9756
5.6390 2.6102 -1.1312 0.9751
5.6040 2.8732 -1.1465 0.9747
5.5644 3.1418 -1.1633 0.9744
5.4151 3.9876 -1.2242 0.9730
5.2779 4.5846 -1.2727 0.9720
5.1045 5.2108 -1.3279 0.9708
4.8994 5.8808 -1.3934 0.9694
4.6564 6.6041 -1.4710 0.9677
4.1529 7.7226 -1.5963 0.9650
3.3112 9.5911 -1.8471 0.9596
3.0502 10.1406 -1.9278 0.9579
2.1160 12.2201 -2.2577 0.9508
1.2695 13.9172 -2.5441 0.9448
-0.5139 17.2643 -3.1443 0.9322
-1.3241 18.8845 -3.4463 0.9259
-2.2765 20.5658 -3.7668 0.9193
-3.4083 22.4768 -4.1386 0.9117
-11.3345 35.2071 -6.7333 0.8604
-15.1310 41.2335 -7.9958 0.8365
-16.1955 28.7727 -6.0107 0.8744
-17.0127 27.5676 -5.8973 0.8766
-27.8400 37.9117 -8.5627 0.8259
-28.9318 36.2461 -8.4427 0.8282
-29.0609 30.9375 -7.7271 0.8415
-29.1420 28.6235 -7.4362 0.8470
-18.2550 16.5410 -4.4846 0.9047
-19.7407 16.4907 -4.6826 0.9007
-29.3309 22.5621 -6.7366 0.8603
-29.3806 20.7739 -6.5505 0.8639
-30.0030 17.7800 -6.3490 0.8678
-29.6673 16.0046 -6.1366 0.8719
-39.3296 19.2161 -7.9687 0.8370
-45.0390 17.6763 -8.8080 0.8214
-26.1977 -13.3439 -5.3522 0.8873
-31.4222 -17.6319 -6.5593 0.8637
-31.4757 -34.6448 -8.5212 0.8267
-17.4202 -44.2141 -8.6512 0.8243
-9.9415 -32.7362 -6.2282 0.8701
-3.9350 -22.3720 -4.1352 0.9118
-2.7383 -20.3335 -3.7350 0.9200
2.2110 -11.6167 -2.1527 0.9531
2.5401 -10.9313 -2.0430 0.9554
3.1023 -9.7247 -1.8582 0.9593
3.3440 -9.1879 -1.7800 0.9610
3.5653 -8.6910 -1.7101 0.9625
3.9511 -7.7825 -1.5889 0.9651
4.1205 -7.3661 -1.5365 0.9663
4.4194 -6.5933 -1.4450 0.9682
4.5387 -6.2151 -1.4010 0.9692
4.8275 -5.1667 -1.2873 0.9717
4.9089 -4.8472 -1.2559 0.9723
5.0503 -4.2417 -1.2006 0.9735
5.3452 -2.9019 -1.1072 0.9756
5.4788 -2.1670 -1.0726 0.9763
5.5155 -1.9287 -1.0637 0.9765
5.5484 -1.6930 -1.0560 0.9767
3.8839 -0.8509 -0.7238 0.9840
3.8375 -0.6802 -0.7095 0.9843
3.8253 0.0986 -0.6966 0.9846
3.8312 0.4087 -0.7014 0.9845
3.8324 0.5655 -0.7052 0.9844
5.7191 1.5658 -1.0795 0.9762
5.7100 1.8132 -1.0906 0.9759
5.6089 2.8382 -1.1444 0.9748
5.5261 3.3800 -1.1793 0.9740
5.4771 3.6607 -1.1993 0.9736
5.3628 4.2458 -1.2452 0.9726
5.2884 4.5447 -1.2694 0.9720
5.1169 5.1683 -1.3240 0.9709
4.8028 6.1925 -1.4266 0.9686
4.3524 7.2783 -1.5438 0.9661
4.1759 7.6676 -1.5894 0.9651
3.9948 8.0943 -1.6432 0.9640
3.5800 9.0162 -1.7660 0.9613
3.3438 9.5213 -1.8371 0.9598
2.8018 10.6503 -2.0048 0.9562
1.7737 12.9117 -2.3726 0.9484
0.8209 14.6361 -2.6686 0.9421
-1.2086 18.6551 -3.4032 0.9268
-2.1419 20.3358 -3.7225 0.9202
-3.2467 22.2055 -4.0854 0.9128
-4.5738 24.3832 -4.5163 0.9041
-8.1545 29.9400 -5.6490 0.8815
-10.9117 34.5207 -6.5908 0.8631
-14.5262 40.2443 -7.7889 0.8403
-28.9560 33.7851 -8.1003 0.8345
-29.1319 28.9189 -7.4727 0.8463
-18.0730 16.5516 -4.4614 0.9052
-19.5388 16.4989 -4.6555 0.9012
-29.4189 19.2960 -6.4048 0.8667
-34.2396 18.7065 -7.1028 0.8533
-39.3248 19.4729 -7.9885 0.8366
-38.0475 16.9701 -7.5841 0.8442
-44.3633 17.6833 -8.6941 0.8235
-27.7448 9.7849 -5.3557 0.8873
-27.6462 8.5161 -5.2662 0.8890
-31.4415 -17.4240 -6.5439 0.8640
-32.7203 -32.8740 -8.4437 0.8281
-18.1623 -45.3898 -8.9000 0.8197
-14.6634 -37.8040 -7.8468 0.8477
-11.0347 -32.2397 -6.5943 0.8704
-6.3253 -24.8460 -4.9615 0.9008
-3.4429 -20.2024 -3.9659 0.9199
-2.4057 -18.6100 -3.6313 0.9264
-1.5273 -17.2494 -3.3511 0.9319
-0.7723 -16.0542 -3.1104 0.9366
0.4557 -14.0553 -2.7214 0.9443
0.9620 -13.2167 -2.5644 0.9474
1.4113 -12.4473 -2.4242 0.9502
1.8017 -11.6726 -2.2856 0.9530
2.1583 -11.0211 -2.1733 0.9553
2.4750 -10.4002 -2.0688 0.9574
3.0181 -9.2901 -1.8903 0.9610
3.4673 -8.3260 -1.7454 0.9639
3.6644 -7.8891 -1.6833 0.9652
4.0120 -7.0836 -1.5754 0.9674
4.1652 -6.7095 -1.5283 0.9683
4.5238 -5.6368 -1.3987 0.9710
4.6205 -5.3051 -1.3614 0.9717
4.8645 -4.3843 -1.2673 0.9737
4.9905 -3.8178 -1.2159 0.9747
5.0567 -3.5554 -1.1962 0.9751
5.1191 -3.2997 -1.1786 0.9755
5.2781 -2.5615 -1.1353 0.9764
5.3625 -2.0882 -1.1136 0.9768
5.4313 -1.6258 -1.0971 0.9772
5.4603 -1.3978 -1.0907 0.9773
3.8353 -0.6589 -0.7531 0.9843
3.8298 0.2736 -0.7430 0.9845
3.8308 0.4292 -0.7460 0.9844
3.8326 0.7453 -0.7556 0.9842
3.9713 0.9395 -0.7897 0.9835
5.5887 1.5620 -1.1230 0.9766
5.5635 2.0500 -1.1474 0.9761
5.5370 2.2972 -1.1601 0.9759
5.3326 3.6052 -1.2457 0.9741
4.6483 6.0594 -1.4779 0.9694
4.0289 7.4920 -1.6462 0.9659
3.4343 8.7849 -1.8253 0.9623
2.9416 9.7796 -1.9763 0.9592
2.6590 10.3299 -2.0642 0.9575
2.3471 10.9210 -2.1617 0.9555
1.6241 12.3066 -2.4022 0.9507
1.1895 13.0401 -2.5340 0.9480
-0.4814 16.1698 -3.1305 0.9362
-2.1090 19.0519 -3.7094 0.9249
-5.8316 24.7973 -4.9296 0.9014
-7.5821 27.2669 -5.4768 0.8911
-9.8913 30.7242 -6.2462 0.8768
-16.8194 40.6922 -8.5208 0.8358
-28.1099 27.6097 -7.6249 0.8517
-27.5752 16.3412 -6.2029 0.8776
-32.6623 17.6203 -7.1818 0.8597
-34.4590 16.8364 -7.4218 0.8553
-45.0361 17.6751 -9.3625 0.8211
-24.0405 -4.6086 -4.7370 0.9051
-31.3210 -17.5751 -6.9502 0.8639
-32.6534 -33.1568 -9.0056 0.8273
-15.2335 -38.6640 -8.0420 0.8442
-11.4344 -32.8377 -6.7289 0.8679
-8.7262 -28.7342 -5.8113 0.8848
-6.5725 -25.2557 -5.0502 0.8991
-4.9088 -22.5493 -4.4659 0.9103
-1.6357 -17.4208 -3.3861 0.9312
-0.8657 -16.2028 -3.1400 0.9360
-0.1987 -15.1287 -2.9279 0.9402
0.8987 -13.3229 -2.5841 0.9470
1.3552 -12.5466 -2.4421 0.9499
2.1141 -11.1079 -2.1882 0.9550
2.7241 -9.8983 -1.9867 0.9590
3.6395 -7.9455 -1.6912 0.9650
4.1457 -6.7579 -1.5342 0.9682
4.4055 -6.0327 -1.4456 0.9700
4.5107 -5.6819 -1.4039 0.9709
4.6082 -5.3479 -1.3661 0.9716
4.8556 -4.4232 -1.2711 0.9736
5.0483 -3.5896 -1.1987 0.9751
5.3167 -2.3545 -1.1252 0.9766
5.4273 -1.6561 -1.0981 0.9771
3.8279 -0.0554 -0.7408 0.9845
3.8286 0.0987 -0.7412 0.9845
3.8297 0.2532 -0.7427 0.9845
3.8306 0.4086 -0.7455 0.9844
3.8316 0.5654 -0.7495 0.9843
3.9445 0.9111 -0.7834 0.9836
5.5898 1.5304 -1.1215 0.9767
5.5796 1.7718 -1.1329 0.9764
5.5656 2.0173 -1.1456 0.9762
5.5408 2.2644 -1.1583 0.9759
5.5098 2.5150 -1.1721 0.9756
5.4344 3.0305 -1.2041 0.9750
5.3396 3.5688 -1.2428 0.9742
5.2841 3.8480 -1.2650 0.9737
5.2232 4.1352 -1.2892 0.9732
5.1519 4.4274 -1.3146 0.9727
5.0692 4.7239 -1.3409 0.9722
4.9793 5.0293 -1.3696 0.9716
4.8817 5.3446 -1.4008 0.9709
4.7756 5.6708 -1.4347 0.9702
4.6636 6.0130 -1.4726 0.9695
4.3954 6.7207 -1.5540 0.9678
4.0517 7.4396 -1.6394 0.9661
3.6768 8.2729 -1.7520 0.9638
3.4639 8.7238 -1.8164 0.9625
2.9768 9.7096 -1.9653 0.9595
2.6979 10.2554 -2.0521 0.9577
2.0527 11.4920 -2.2591 0.9536
1.2488 12.9310 -2.5140 0.9484
0.7777 13.8643 -2.6872 0.9450
0.2344 14.8449 -2.8731 0.9413
-1.1235 17.3413 -3.3629 0.9316
-2.9938 20.4758 -4.0046 0.9191
-9.5384 30.1759 -6.1244 0.8790
-12.5341 34.7252 -7.1443 0.8604
-16.2526 26.6514 -6.0409 0.8806
-28.7992 33.6021 -8.5641 0.8350
-28.8986 31.0937 -8.2147 0.8412
-18.0508 16.5312 -4.7367 0.9051
-19.5364 16.4969 -4.9482 0.9011
-29.1912 22.7023 -7.1563 0.8601
-29.2451 20.9119 -6.9575 0.8637
-32.3122 17.6535 -7.1254 0.8607
-27.6495 9.7513 -5.6737 0.8874
-27.6120 8.5056 -5.5912 0.8890
-27.6562 7.3149 -5.5360 0.8900
-32.8200 -32.9741 -9.0031 0.8273
-31.5594 -34.3686 -9.0296 0.8269
-16.5030 -37.9434 -8.4839 0.8446
-9.6891 -28.3083 -6.1349 0.8850
-7.4481 -25.0020 -5.3490 0.8990
-3.1838 -18.6817 -3.8857 0.9255
-1.4319 -16.1713 -3.3287 0.9359
-0.1111 -14.1889 -2.9094 0.9437
1.3462 -11.8732 -2.4501 0.9524
1.7271 -11.1892 -2.3214 0.9548
2.3769 -9.9880 -2.1051 0.9589
2.6553 -9.4518 -2.0130 0.9607
4.2938 -5.8148 -1.4821 0.9709
4.3990 -5.4812 -1.4410 0.9717
4.4969 -5.1631 -1.4039 0.9724
4.6682 -4.5609 -1.3382 0.9737
4.8723 -3.7273 -1.2578 0.9753
4.9388 -3.4725 -1.2379 0.9756
5.0014 -3.2238 -1.2201 0.9760
5.0593 -2.9800 -1.2039 0.9763
5.1611 -2.5047 -1.1763 0.9768
5.2054 -2.2723 -1.1646 0.9771
5.2458 -2.0428 -1.1543 0.9773
4.1347 -1.0585 -0.8751 0.9827
3.8333 -0.6585 -0.7975 0.9842
3.8316 -0.5005 -0.7923 0.9843
3.8266 -0.1892 -0.7856 0.9845
3.8246 0.1189 -0.7846 0.9845
3.8278 0.2735 -0.7869 0.9845
3.8306 0.7449 -0.8001 0.9842
3.9591 0.9366 -0.8342 0.9835
5.4665 1.5279 -1.1638 0.9771
5.4378 2.0037 -1.1883 0.9766
5.3773 2.4891 -1.2149 0.9761
5.3405 2.7381 -1.2305 0.9758
5.2527 3.2512 -1.2666 0.9751
5.2011 3.5163 -1.2873 0.9747
5.0815 4.0672 -1.3346 0.9738
5.0112 4.3529 -1.3610 0.9733
4.9272 4.6406 -1.3878 0.9727
4.8359 4.9366 -1.4169 0.9722
4.5163 5.8874 -1.5214 0.9702
4.2558 6.5832 -1.6073 0.9685
3.9116 7.2739 -1.6934 0.9668
3.7317 7.6634 -1.7477 0.9658
3.5364 8.0722 -1.8070 0.9647
3.3239 8.5025 -1.8718 0.9634
3.0920 8.9562 -1.9427 0.9621
2.8396 9.4404 -2.0213 0.9605
2.2573 10.5034 -2.2028 0.9571
1.5530 11.7681 -2.4339 0.9527
1.1332 12.4225 -2.5577 0.9503
-1.1480 16.3729 -3.3653 0.9352
-4.0128 20.7834 -4.3401 0.9172
-6.8885 24.7725 -5.2721 0.9003
-8.7851 27.2881 -5.8779 0.8895
-11.3166 30.8388 -6.7355 0.8745
-14.5798 35.2738 -7.8260 0.8557
-18.2217 39.5032 -8.9199 0.8372
-15.9328 28.3061 -6.6601 0.8758
-28.5036 32.9022 -8.9257 0.8372
-28.8530 28.3396 -8.2924 0.8478
-19.7497 16.4982 -5.2765 0.9003
-29.0671 22.3592 -7.5192 0.8609
-28.2700 19.9887 -7.0990 0.8682
-29.1735 18.9144 -7.1289 0.8676
-43.9711 19.3331 -9.8488 0.8219
-23.9433 -4.5900 -4.9987 0.9052
-31.1897 -17.5015 -7.3331 0.8641
-32.7045 -33.2087 -9.5567 0.8267
-31.2272 -34.3712 -9.5217 0.8273
-21.5320 -43.9218 -10.0297 0.8189
-13.0081 -33.0156 -7.2760 0.8651
-10.0235 -28.7858 -6.2498 0.8830
-4.4567 -20.4722 -4.2959 0.9180
-3.3185 -18.8674 -3.9279 0.9248
0.3650 -13.4623 -2.7613 0.9465
0.8561 -12.6919 -2.6082 0.9494
1.2927 -11.9679 -2.4682 0.9520
1.6793 -11.2761 -2.3375 0.9545
2.8766 -9.0171 -1.9407 0.9621
3.1102 -8.5457 -1.8647 0.9635
3.5197 -7.6839 -1.7329 0.9661
3.7014 -7.2907 -1.6765 0.9672
4.0224 -6.5569 -1.5772 0.9691
4.1635 -6.2115 -1.5332 0.9699
4.3854 -5.5241 -1.4462 0.9716
4.4844 -5.2043 -1.4086 0.9723
4.5751 -4.8965 -1.3740 0.9730
4.6582 -4.5997 -1.3423 0.9736
4.7966 -4.0286 -1.2844 0.9747
4.8631 -3.7614 -1.2606 0.9752
4.9304 -3.5057 -1.2404 0.9756
4.9934 -3.2563 -1.2223 0.9760
5.0519 -3.0119 -1.2060 0.9763
5.1998 -2.3027 -1.1660 0.9770
5.2407 -2.0729 -1.1556 0.9773
5.2777 -1.8456 -1.1464 0.9774
5.3108 -1.6205 -1.1385 0.9776
5.3403 -1.3973 -1.1318 0.9777
3.8743 -0.8488 -0.8132 0.9839
3.8335 -0.6795 -0.7983 0.9842
3.8239 0.0986 -0.7843 0.9845
3.8277 0.2531 -0.7865 0.9845
3.8296 0.5651 -0.7937 0.9843
3.8305 0.7238 -0.7993 0.9842
3.9325 0.9083 -0.8275 0.9837
5.4677 1.4970 -1.1624 0.9771
5.4566 1.7328 -1.1739 0.9769
5.4413 1.9722 -1.1867 0.9766
5.3818 2.4566 -1.2130 0.9761
5.3456 2.7050 -1.2284 0.9758
5.3048 2.9582 -1.2454 0.9755
4.9386 4.6022 -1.3841 0.9728
4.8484 4.8971 -1.4130 0.9723
4.6442 5.5148 -1.4783 0.9710
4.5317 5.8430 -1.5161 0.9703
4.1121 6.8765 -1.6428 0.9678
3.9353 7.2258 -1.6871 0.9670
3.5631 8.0171 -1.7989 0.9648
3.1235 8.8943 -1.9329 0.9622
2.8742 9.3750 -2.0106 0.9608
2.6004 9.8846 -2.0957 0.9591
1.9685 11.0201 -2.2953 0.9553
1.6041 11.6770 -2.4167 0.9530
1.1900 12.3228 -2.5384 0.9507
0.7396 13.1856 -2.7078 0.9475
0.2218 14.0440 -2.8799 0.9443
-1.0498 16.2040 -3.3294 0.9358
-1.8484 17.5493 -3.6182 0.9305
-3.8569 20.5614 -4.2894 0.9181
-5.1374 22.3775 -4.7076 0.9105
-6.6656 24.4735 -5.2008 0.9016
-8.5054 26.9080 -5.7863 0.8912
-10.9393 30.3069 -6.6065 0.8767
-14.1019 34.6372 -7.6680 0.8584
-17.4148 26.1307 -6.4387 0.8797
-27.5245 37.9020 -9.6044 0.8259
-29.7395 37.6663 -9.8402 0.8220
-28.8415 28.6307 -8.3327 0.8471
-18.0438 16.5248 -5.0168 0.9049
-19.5420 16.5016 -5.2443 0.9008
-29.0591 22.5996 -7.5481 0.8604
-28.4762 20.3621 -7.1779 0.8668
-29.1672 19.1309 -7.1521 0.8672
-29.3827 17.6237 -7.0252 0.8694
-32.4972 16.0920 -7.4354 0.8624
-39.7119 17.7125 -8.9157 0.8373
-43.7454 17.4370 -9.6558 0.8251
-27.5487 8.4861 -5.9105 0.8890
-27.5551 7.2881 -5.8442 0.8901
-31.2456 -15.7069 -7.1705 0.8669
-31.4202 -34.2171 -9.5251 0.8272
-13.3703 -33.4139 -7.3793 0.8633
-22.5420 -42.1865 -10.3609 0.8222
-17.3268 -35.8236 -8.6199 0.8497
-13.9656 -32.1094 -7.5847 0.8665
-10.9366 -28.1958 -6.5509 0.8836
-8.5432 -24.9605 -5.7147 0.8976
-5.1941 -20.4025 -4.5604 0.9174
-3.9759 -18.7416 -4.1500 0.9246
-2.9696 -17.4248 -3.8289 0.9302
-0.6879 -14.2998 -3.1011 0.9431
1.2861 -11.3435 -2.4729 0.9544
2.2857 -9.6050 -2.1387 0.9604
3.2408 -7.7822 -1.8261 0.9661
3.7738 -6.6632 -1.6588 0.9691
4.2808 -5.3340 -1.4815 0.9724
4.4690 -4.7324 -1.4099 0.9737
4.9465 -2.9136 -1.2435 0.9768
5.1336 -1.9991 -1.1934 0.9777
5.1702 -1.7773 -1.1843 0.9779
5.2029 -1.5575 -1.1764 0.9780
3.8149 -0.0349 -0.8264 0.9845
3.8186 0.1187 -0.8276 0.9845
3.9470 0.9337 -0.8786 0.9835
5.3492 1.4951 -1.2031 0.9775
5.2875 2.1937 -1.2400 0.9768
5.2170 2.6748 -1.2699 0.9763
5.1277 3.1738 -1.3063 0.9756
4.9544 3.9654 -1.3746 0.9744
4.6121 5.1036 -1.4900 0.9722
4.3911 5.7242 -1.5627 0.9709
4.1363 6.3983 -1.6504 0.9693
3.2198 8.2362 -1.9156 0.9645
2.7434 9.1208 -2.0631 0.9618
2.4720 9.6034 -2.1480 0.9602
2.1743 10.1170 -2.2415 0.9585
1.8478 10.6715 -2.3460 0.9566
1.4876 11.2727 -2.4630 0.9545
-1.8323 16.5525 -3.6074 0.9341
-16.0498 34.7945 -8.3002 0.8549
-15.6994 30.7211 -7.4732 0.8683
-15.8139 28.0948 -6.9836 0.8764
-16.1115 26.1073 -6.6454 0.8820
-17.6214 26.1390 -6.8285 0.8790
-28.5041 32.9028 -9.4297 0.8368
-28.7096 28.1988 -8.7170 0.8481
-28.9361 22.2584 -7.9078 0.8612
-28.9958 20.5019 -7.6923 0.8647
-28.5793 16.9363 -7.1960 0.8729
-32.9168 17.7576 -8.1016 0.8581
-32.9632 16.1056 -7.9470 0.8606
-43.7979 19.2570 -10.3638 0.8222
-23.8504 -4.5722 -5.2604 0.9054
-31.1054 -15.8437 -7.5616 0.8669
-32.6250 -33.1280 -10.0716 0.8267
-31.0483 -34.1743 -10.0016 0.8278
-17.9225 -36.5589 -8.8196 0.8465
-14.4776 -32.8096 -7.7682 0.8635
-8.8607 -25.4466 -5.8367 0.8956
-5.3500 -20.5579 -4.6014 0.9167
-4.1234 -18.9410 -4.1990 0.9237
-3.0930 -17.5850 -3.8676 0.9295
-2.2086 -16.3999 -3.5845 0.9345
-0.7701 -14.4144 -3.1268 0.9426
-0.1784 -13.5802 -2.9419 0.9459
0.8168 -12.1095 -2.6290 0.9515
1.6076 -10.7951 -2.3642 0.9563
1.9385 -10.1852 -2.2459 0.9585
2.2479 -9.6735 -2.1512 0.9602
2.7749 -8.6986 -1.9778 0.9633
3.0045 -8.2553 -1.9030 0.9647
3.9057 -6.3666 -1.6179 0.9699
4.0436 -6.0326 -1.5732 0.9707
4.1597 -5.6961 -1.5278 0.9715
4.4578 -4.7710 -1.4144 0.9736
4.5383 -4.4813 -1.3815 0.9742
4.6116 -4.2009 -1.3513 0.9748
4.6783 -3.9292 -1.3234 0.9753
4.7498 -3.6738 -1.3007 0.9757
4.8805 -3.1826 -1.2621 0.9764
4.9391 -2.9447 -1.2456 0.9767
4.9931 -2.7107 -1.2307 0.9770
5.1656 -1.8064 -1.1854 0.9779
5.1988 -1.5863 -1.1774 0.9780
5.2283 -1.3680 -1.1706 0.9781
3.8716 -0.8482 -0.8585 0.9839
3.8298 -0.5209 -0.8372 0.9843
3.8266 -0.3644 -0.8326 0.9844
3.8212 -0.2093 -0.8290 0.9845
3.8157 -0.0552 -0.8266 0.9845
3.8233 0.2528 -0.8300 0.9844
3.8276 0.5648 -0.8381 0.9843
3.8285 0.7234 -0.8440 0.9842
5.3506 1.4649 -1.2017 0.9776
5.3199 1.9282 -1.2257 0.9771
5.2915 2.1625 -1.2382 0.9769
5.2222 2.6425 -1.2678 0.9763
5.1807 2.8890 -1.2849 0.9760
5.1342 3.1403 -1.3037 0.9757
4.8947 4.2064 -1.3980 0.9739
4.7236 4.7711 -1.4543 0.9729
4.6256 5.0642 -1.4857 0.9723
4.5194 5.3665 -1.5198 0.9717
4.2857 6.0104 -1.5990 0.9702
4.1544 6.3522 -1.6441 0.9694
4.0010 6.6906 -1.6886 0.9686
3.6467 7.3889 -1.7848 0.9668
3.2485 8.1812 -1.9067 0.9646
3.0218 8.6045 -1.9754 0.9634
2.7774 9.0592 -2.0525 0.9620
2.5092 9.5381 -2.1364 0.9604
1.1380 11.7837 -2.5644 0.9527
0.7049 12.5675 -2.7266 0.9498
0.2107 13.3447 -2.8910 0.9468
-0.3475 14.2077 -3.0785 0.9435
-0.9875 15.2421 -3.3086 0.9394
-3.5697 19.0303 -4.1941 0.9238
-9.7084 26.8967 -6.1941 0.8896
-12.3205 30.2617 -7.0776 0.8748
-15.5655 34.2210 -8.1435 0.8574
-15.6060 30.9426 -7.5068 0.8678
-15.7873 28.3992 -7.0383 0.8755
-17.3952 26.1013 -6.7945 0.8795
-28.4887 33.2397 -9.4828 0.8360
-28.9884 20.7283 -7.7194 0.8643
-29.0422 19.0489 -7.5234 0.8675
-28.7884 17.2673 -7.2717 0.8716
-29.2994 16.0075 -7.2321 0.8723
-39.7096 17.7115 -9.4184 0.8370
-27.4158 9.6689 -6.2971 0.8878
-27.4566 7.2621 -6.1520 0.8903
-25.6746 -9.2288 -5.9098 0.8943
-31.1214 -15.6444 -7.5452 0.8671
-25.3697 -16.8591 -6.5982 0.8828
-32.8205 -32.9746 -10.0778 0.8266
-23.3729 -42.6463 -10.5342 0.8195
-14.9981 -33.5066 -7.9519 0.8605
-15.4939 -32.0339 -8.1219 0.8642
-9.6652 -24.9181 -6.1002 0.8961
-7.6877 -22.4609 -5.4185 0.9072
-1.9763 -15.2881 -3.5184 0.9387
-1.2733 -14.3799 -3.2949 0.9425
-0.6529 -13.5718 -3.1013 0.9458
0.3935 -12.1346 -2.7711 0.9514
1.5866 -10.2791 -2.3739 0.9582
2.7107 -8.3440 -2.0024 0.9646
3.1389 -7.5373 -1.8636 0.9671
3.3275 -7.1637 -1.8028 0.9681
3.5022 -6.8086 -1.7475 0.9691
3.6643 -6.4698 -1.6971 0.9700
3.9458 -5.8197 -1.6048 0.9716
4.0611 -5.4996 -1.5604 0.9723
4.3540 -4.6106 -1.4474 0.9743
4.5070 -4.0621 -1.3849 0.9754
4.5779 -3.8036 -1.3585 0.9759
4.6504 -3.5576 -1.3364 0.9763
4.7173 -3.3167 -1.3162 0.9766
4.8382 -2.8498 -1.2816 0.9772
4.8916 -2.6221 -1.2668 0.9775
4.9405 -2.3977 -1.2534 0.9777
5.0257 -1.9570 -1.2310 0.9781
3.8496 -0.8220 -0.8985 0.9840
3.8293 -0.6578 -0.8868 0.9842
3.8197 -0.3433 -0.8753 0.9844
3.8144 -0.1886 -0.8717 0.9845
3.8088 -0.0349 -0.8694 0.9845
3.8125 0.1186 -0.8706 0.9845
3.8179 0.2728 -0.8736 0.9844
3.8232 0.4283 -0.8781 0.9843
3.8266 0.7441 -0.8898 0.9841
5.2364 1.4636 -1.2410 0.9779
5.1997 1.9159 -1.2648 0.9775
5.1701 2.1450 -1.2776 0.9773
5.0985 2.6140 -1.3077 0.9768
5.0557 2.8546 -1.3252 0.9765
4.9550 3.3500 -1.3652 0.9758
4.8966 3.6058 -1.3879 0.9754
4.8329 3.8681 -1.4129 0.9749
4.6836 4.4112 -1.4685 0.9739
4.5921 4.6877 -1.4978 0.9734
4.4930 4.9719 -1.5295 0.9729
4.3858 5.2644 -1.5639 0.9723
3.6987 6.8780 -1.7824 0.9685
3.5188 7.2261 -1.8345 0.9676
3.1216 7.9849 -1.9568 0.9654
2.8924 8.3780 -2.0230 0.9643
1.4289 10.8279 -2.4928 0.9562
0.6139 12.0922 -2.7635 0.9515
0.1336 12.7458 -2.9093 0.9490
-1.7176 15.5169 -3.5633 0.9380
-2.5212 16.6268 -3.8383 0.9333
-5.7699 20.7498 -4.9157 0.9154
-7.2351 22.4736 -5.3887 0.9077
-11.2278 27.1641 -6.7088 0.8864
-15.6055 30.5374 -7.8273 0.8687
-16.0892 26.0712 -6.9925 0.8819
-17.6103 26.1225 -7.1906 0.8787
-28.0739 38.2301 -10.8258 0.8232
-30.0618 37.6617 -10.9987 0.8206
-28.3510 32.7261 -9.8826 0.8372
-28.4115 27.9060 -9.0896 0.8493
-30.5338 27.6669 -9.4045 0.8445
-28.9245 18.7530 -7.8680 0.8681
-31.2646 16.8663 -8.1081 0.8644
-33.6726 16.4522 -8.5539 0.8575
-40.2716 17.7066 -10.0410 0.8349
-27.3016 9.4661 -6.5953 0.8882
-46.9373 8.1915 -10.8751 0.8224
-23.7617 -4.5552 -5.5222 0.9055
-30.9885 -15.7842 -7.9376 0.8670
-32.6819 -33.1857 -10.6308 0.8261
-30.9941 -34.1146 -10.5201 0.8277
-24.3061 -40.8917 -10.8576 0.8227
-12.5335 -28.4037 -7.0861 0.8804
-10.0061 -25.3964 -6.2303 0.8940
-6.2500 -20.5804 -4.9092 0.9155
-3.8339 -17.6113 -4.1138 0.9287
-2.8928 -16.4471 -3.8116 0.9338
-2.0760 -15.4153 -3.5502 0.9382
-1.3609 -14.4932 -3.3225 0.9420
-0.7306 -13.6749 -3.1257 0.9454
-0.1696 -12.9118 -2.9473 0.9484
0.3315 -12.2257 -2.7915 0.9511
1.1812 -10.9365 -2.5107 0.9559
1.8625 -9.7857 -2.2736 0.9600
2.1640 -9.3125 -2.1822 0.9615
2.4334 -8.8418 -2.0931 0.9631
2.6798 -8.4004 -2.0125 0.9645
2.9053 -7.9827 -1.9389 0.9657
3.1127 -7.5877 -1.8719 0.9669
3.7951 -6.1863 -1.6565 0.9707
3.9299 -5.8631 -1.6110 0.9715
4.4238 -4.3683 -1.4190 0.9748
4.4978 -4.0972 -1.3887 0.9753
4.5679 -3.8365 -1.3615 0.9758
4.6411 -3.5897 -1.3392 0.9762
4.8308 -2.8801 -1.2837 0.9772
4.8848 -2.6520 -1.2686 0.9775
4.9343 -2.4271 -1.2551 0.9777
4.9795 -2.2051 -1.2430 0.9779
5.0576 -1.7686 -1.2229 0.9783
3.8689 -0.8476 -0.9040 0.9839
3.8295 -0.6788 -0.8877 0.9842
3.8256 -0.5204 -0.8812 0.9843
3.8096 -0.0551 -0.8696 0.9845
3.8118 0.0983 -0.8703 0.9845
3.8226 0.4077 -0.8774 0.9844
3.8257 0.5645 -0.8826 0.9843
5.2250 1.6592 -1.2513 0.9778
5.0616 2.8226 -1.3228 0.9765
4.9623 3.3167 -1.3623 0.9758
4.7727 4.1015 -1.4363 0.9745
4.6951 4.3753 -1.4648 0.9740
4.5066 4.9339 -1.5252 0.9730
4.1669 5.8438 -1.6382 0.9710
3.7224 6.8348 -1.7764 0.9686
3.5428 7.1784 -1.8271 0.9677
3.3542 7.5470 -1.8850 0.9667
2.9237 8.3253 -2.0140 0.9644
2.6847 8.7567 -2.0905 0.9631
2.4238 9.2135 -2.1745 0.9617
2.1367 9.6913 -2.2651 0.9601
1.4771 10.7523 -2.4772 0.9564
1.0915 11.3021 -2.5916 0.9545
0.1997 12.6488 -2.8874 0.9494
-0.3298 13.4838 -3.0785 0.9462
-3.3182 17.6894 -4.1079 0.9288
-4.3659 19.0172 -4.4535 0.9231
-7.0273 22.2317 -5.3217 0.9088
-8.7542 24.2533 -5.8852 0.8996
-10.9046 26.7841 -6.6005 0.8881
-13.6270 29.9592 -7.5121 0.8737
-15.6947 28.2326 -7.3727 0.8759
-17.3834 26.0836 -7.1544 0.8793
-28.0530 38.6297 -10.8966 0.8221
-29.7376 37.6639 -10.9531 0.8213
-28.1953 32.8974 -9.8891 0.8371
-28.5543 28.3456 -9.1833 0.8478
-32.7468 27.6520 -9.7825 0.8387
-28.7967 22.3955 -8.3264 0.8610
-28.8608 20.6370 -8.0981 0.8645
-27.2217 16.3276 -7.2451 0.8779
-31.9931 17.4792 -8.3210 0.8611
-33.7043 16.6898 -8.5843 0.8570
-44.3455 17.6762 -10.8960 0.8221
-32.9080 -33.0625 -10.6472 0.8258
-31.2138 -33.9923 -10.5333 0.8275
-31.0363 -36.6560 -10.9626 0.8211
-24.7061 -41.0670 -10.9388 0.8215
-16.5212 -33.2528 -8.4749 0.8587
-12.9288 -28.8837 -7.2228 0.8782
-10.3070 -25.7585 -6.3324 0.8924
-10.7773 -24.7791 -6.4833 0.8948
-2.6108 -15.3195 -3.7286 0.9381
-1.2078 -13.6403 -3.2856 0.9452
-0.6211 -12.9113 -3.1014 0.9482
0.3747 -11.5567 -2.7743 0.9535
1.1801 -10.4079 -2.5132 0.9578
1.5245 -9.8766 -2.3978 0.9597
2.8401 -7.6766 -1.9639 0.9669
3.0426 -7.3062 -1.8989 0.9680
3.2286 -6.9508 -1.8389 0.9690
3.5605 -6.2864 -1.7334 0.9707
3.7090 -5.9745 -1.6872 0.9715
3.8378 -5.6604 -1.6408 0.9723
4.0608 -5.0598 -1.5566 0.9737
4.1565 -4.7723 -1.5184 0.9743
4.3247 -4.2252 -1.4507 0.9754
4.6131 -3.2434 -1.3530 0.9771
4.6758 -3.0139 -1.3347 0.9774
4.7340 -2.7884 -1.3182 0.9777
4.7874 -2.5663 -1.3033 0.9779
4.8810 -2.1306 -1.2778 0.9783
4.9216 -1.9165 -1.2672 0.9785
4.1117 -1.0526 -1.0184 0.9827
3.8496 -0.8220 -0.9445 0.9839
3.8187 -0.4988 -0.9240 0.9843
3.8135 -0.3428 -0.9187 0.9844
3.8027 -0.0348 -0.9124 0.9845
3.8064 0.1184 -0.9137 0.9845
3.8171 0.4277 -0.9216 0.9843
3.8222 0.5848 -0.9277 0.9842
4.1042 0.9709 -1.0119 0.9828
5.1133 1.6537 -1.2894 0.9781
5.0874 1.8745 -1.3009 0.9779
4.9414 2.7900 -1.3615 0.9769
4.8397 3.2720 -1.4017 0.9763
4.7808 3.5205 -1.4245 0.9759
4.7166 3.7751 -1.4495 0.9755
4.6464 4.0360 -1.4767 0.9750
4.5696 4.3038 -1.5061 0.9745
4.4783 4.5716 -1.5355 0.9740
4.2725 5.1284 -1.6015 0.9729
4.0374 5.7262 -1.6811 0.9716
3.4204 7.0242 -1.8745 0.9684
3.0261 7.7406 -1.9941 0.9664
2.8007 8.1123 -2.0591 0.9653
2.3081 8.9667 -2.2215 0.9626
0.9978 10.9383 -2.6354 0.9558
0.5870 11.5616 -2.7776 0.9535
0.1276 12.1753 -2.9214 0.9511
-0.3849 12.9289 -3.1034 0.9482
-0.9611 13.7069 -3.2968 0.9450
-3.2162 16.6575 -4.0705 0.9326
-4.1943 17.8351 -4.3960 0.9274
-5.3205 19.1337 -4.7650 0.9216
-6.6341 20.6067 -5.1941 0.9148
-10.0776 24.3815 -6.3299 0.8972
-15.2591 29.8596 -8.0455 0.8712
-15.6454 27.7955 -7.6529 0.8770
-30.0608 37.6605 -11.5616 0.8202
-23.0257 24.5126 -8.0692 0.8708
-18.2343 16.5222 -5.9039 0.9037
-33.0975 27.6485 -10.3474 0.8374
-28.6353 20.2470 -8.4145 0.8657
-28.8008 18.6727 -8.2355 0.8683
-29.9958 17.7757 -8.3658 0.8664
-34.2654 16.7418 -9.1502 0.8548
-40.2692 17.7055 -10.5545 0.8345
-45.0240 17.6704 -11.6049 0.8196
-23.6790 -4.5393 -5.7848 0.9056
-17.8450 -27.4443 -7.8544 0.8740
-20.9266 -35.2062 -9.8267 0.8450
-16.6476 -30.7614 -8.3922 0.8660
-13.7845 -28.1180 -7.5135 0.8791
-11.0738 -25.0956 -6.5814 0.8933
-8.9380 -22.6854 -5.8502 0.9046
-1.9581 -14.5403 -3.5202 0.9414
-0.1618 -12.3204 -2.9563 0.9506
0.3162 -11.6628 -2.7993 0.9531
0.7454 -11.0505 -2.6574 0.9555
1.1321 -10.4813 -2.5294 0.9576
1.4809 -9.9443 -2.4123 0.9595
2.0858 -8.9759 -2.2110 0.9628
2.5906 -8.1206 -2.0451 0.9655
3.0169 -7.3543 -1.9072 0.9678
3.6900 -6.0150 -1.6931 0.9714
3.8220 -5.7019 -1.6470 0.9722
3.9390 -5.3940 -1.6025 0.9729
4.0474 -5.0983 -1.5619 0.9736
4.2332 -4.5305 -1.4877 0.9748
4.3145 -4.2603 -1.4548 0.9754
4.4635 -3.7488 -1.3986 0.9763
4.6046 -3.2741 -1.3556 0.9770
4.6678 -3.0439 -1.3370 0.9773
4.7266 -2.8180 -1.3203 0.9776
4.7806 -2.5954 -1.3052 0.9779
4.9165 -1.9446 -1.2685 0.9785
4.9868 -1.5217 -1.2510 0.9788
5.0163 -1.3125 -1.2441 0.9789
3.8708 -0.8480 -0.9508 0.9838
3.8244 -0.6779 -0.9319 0.9841
3.8194 -0.5195 -0.9248 0.9843
3.8142 -0.3632 -0.9193 0.9844
3.8089 -0.2086 -0.9152 0.9844
3.8057 0.0981 -0.9134 0.9845
5.0280 2.2951 -1.3261 0.9775
4.9474 2.7589 -1.3591 0.9770
4.8471 3.2396 -1.3988 0.9763
4.7254 3.7411 -1.4461 0.9755
4.5801 4.2681 -1.5021 0.9746
4.4908 4.5359 -1.5315 0.9741
4.2871 5.0907 -1.5968 0.9730
4.0540 5.6854 -1.6754 0.9717
3.7827 6.3256 -1.7684 0.9701
3.4442 6.9786 -1.8672 0.9685
3.2579 7.3305 -1.9247 0.9675
3.0545 7.6927 -1.9859 0.9665
2.8314 8.0624 -2.0502 0.9655
2.3437 8.9089 -2.2103 0.9628
2.0632 9.3579 -2.2992 0.9613
1.7565 9.8337 -2.3968 0.9597
1.4213 10.3465 -2.5058 0.9579
1.0491 10.8637 -2.6187 0.9561
-1.5235 14.4643 -3.4896 0.9419
-2.2572 15.4380 -3.7435 0.9378
-3.0969 16.5096 -4.0303 0.9332
-4.0577 17.6748 -4.3511 0.9281
-5.1612 18.9498 -4.7123 0.9224
-6.4500 20.4056 -5.1347 0.9157
-7.9181 21.9369 -5.5957 0.9085
-15.6315 28.1189 -7.7190 0.8760
-17.3905 26.0942 -7.5238 0.8790
-28.1818 32.8817 -10.3905 0.8368
-23.0988 22.9299 -7.8092 0.8747
-30.2113 27.6680 -9.8292 0.8449
-28.6663 22.2941 -8.7132 0.8612
-28.6380 20.4777 -8.4471 0.8652
-28.7934 18.8857 -8.2619 0.8679
-29.6401 17.7781 -8.2928 0.8675
-33.9332 16.8031 -9.0852 0.8558
-44.3425 17.6750 -11.4533 0.8217
-27.2446 7.2060 -6.7616 0.8905
-31.0567 -33.8212 -11.0170 0.8279
-28.5868 -36.6572 -11.1535 0.8259
-28.0117 -39.0646 -11.5335 0.8206
-21.5935 -35.8931 -10.0503 0.8417
-17.1439 -31.2807 -8.5585 0.8635
-11.3976 -25.4629 -6.6935 0.8916
-17.3767 -29.5904 -8.6366 0.8680
-14.5895 -27.3037 -7.7914 0.8801
-11.8165 -24.4308 -6.8303 0.8941
-9.6614 -22.2134 -6.0967 0.9049
-6.4010 -18.7018 -4.9750 0.9217
-5.1817 -17.3941 -4.5679 0.9279
-3.2495 -15.3177 -3.9410 0.9375
-2.4621 -14.4471 -3.6885 0.9413
-1.1451 -12.9328 -3.2677 0.9479
-0.5921 -12.3075 -3.1012 0.9504
0.3589 -11.0693 -2.7874 0.9553
0.7652 -10.5125 -2.6528 0.9575
2.3026 -8.1963 -2.1427 0.9655
2.5364 -7.8073 -2.0661 0.9667
2.7525 -7.4398 -1.9965 0.9678
2.9516 -7.0876 -1.9323 0.9688
3.4618 -6.1123 -1.7680 0.9714
3.7355 -5.5095 -1.6753 0.9729
3.9556 -4.9287 -1.5906 0.9743
4.1394 -4.3834 -1.5174 0.9754
4.2201 -4.1231 -1.4849 0.9760
4.2950 -3.8710 -1.4552 0.9764
4.3733 -3.6337 -1.4311 0.9768
4.5755 -2.9492 -1.3701 0.9778
4.6336 -2.7293 -1.3535 0.9781
4.7360 -2.2984 -1.3249 0.9785
4.7807 -2.0868 -1.3129 0.9787
4.8213 -1.8774 -1.3022 0.9789
4.8905 -1.4639 -1.2848 0.9792
4.1183 -1.0543 -1.0699 0.9826
3.8638 -0.8250 -0.9944 0.9838
3.8292 -0.6578 -0.9779 0.9841
3.8111 -0.3425 -0.9631 0.9843
3.8026 -0.1880 -0.9582 0.9844
3.7965 -0.0348 -0.9556 0.9845
3.8004 0.1182 -0.9569 0.9844
3.8110 0.4270 -0.9652 0.9843
3.8164 0.5839 -0.9717 0.9842
3.8233 0.7435 -0.9803 0.9841
4.1031 0.9707 -1.0612 0.9828
5.0056 1.6188 -1.3241 0.9785
4.9794 1.8347 -1.3356 0.9783
4.9489 2.0532 -1.3485 0.9781
4.8753 2.4996 -1.3789 0.9777
4.8316 2.7280 -1.3965 0.9774
4.7829 2.9604 -1.4157 0.9771
4.7291 3.1972 -1.4367 0.9767
4.5347 3.9390 -1.5118 0.9755
4.4576 4.1983 -1.5411 0.9751
4.0508 5.2806 -1.6750 0.9729
3.9300 5.5739 -1.7165 0.9723
3.5043 6.5165 -1.8622 0.9699
3.3270 6.8323 -1.9126 0.9691
3.1407 7.1691 -1.9699 0.9682
2.4755 8.2299 -2.1630 0.9652
2.2295 8.6614 -2.2510 0.9638
1.3242 10.0339 -2.5473 0.9591
0.5619 11.0677 -2.7891 0.9553
-0.3665 12.3118 -3.1000 0.9505
-0.9082 12.9530 -3.2681 0.9478
-1.5245 13.7720 -3.4874 0.9444
-3.0101 15.5901 -3.9962 0.9366
-4.9359 17.7507 -4.6371 0.9268
-6.1167 18.9996 -5.0236 0.9210
-9.1244 22.0753 -6.0119 0.9062
-11.0841 24.0294 -6.6602 0.8966
-27.9056 34.9605 -11.2583 0.8315
-28.0474 32.3756 -10.7808 0.8380
-22.9917 22.5827 -8.1111 0.8755
-18.1840 16.4767 -6.1759 0.9037
-28.5462 21.9586 -9.0643 0.8620
-29.9943 17.7748 -8.7751 0.8661
-32.9117 17.7549 -9.4118 0.8571
-36.2914 17.7317 -10.1659 0.8465
-45.0210 17.6692 -12.1725 0.8191
-27.1334 9.4077 -7.2278 0.8883
-46.6007 8.1328 -11.9059 0.8227
-23.5988 -4.5240 -6.0476 0.9056
-32.6887 -33.1927 -11.7251 0.8252
-30.7711 -33.8692 -11.5171 0.8280
