ply
format ascii 1.0
element vertex 1541
property float32 x
property float32 y
property float32 z
property float32 I
end_header
-18.6476 -27.4420 -3.4128 0.8751
0.1607 -27.8178 -2.8615 0.8942
1.8474 -21.3966 -2.2091 0.9173
3.4683 -16.5439 -1.7388 0.9343
4.6452 -12.0710 -1.3304 0.9493
5.2344 -9.8638 -1.1486 0.9561
5.6611 -8.1273 -1.0188 0.9610
6.1168 -5.3793 -0.8379 0.9678
6.0604 -4.9125 -0.8025 0.9691
6.0813 -4.5372 -0.7805 0.9700
6.2123 -3.5608 -0.7365 0.9716
6.3300 -2.6758 -0.7069 0.9727
6.5286 -2.4556 -0.7175 0.9723
6.5606 -2.1711 -0.7108 0.9726
6.5912 -1.8911 -0.7054 0.9728
6.6188 -1.6144 -0.7008 0.9730
4.0310 -0.8132 -0.4230 0.9836
3.8813 -0.6219 -0.4043 0.9843
3.8665 -0.3043 -0.3990 0.9845
3.8516 0.0070 -0.3962 0.9846
3.8702 0.3187 -0.3994 0.9845
0.6397 24.1569 -2.7567 0.9073
-29.8371 38.7235 -5.5766 0.8213
-29.2189 27.4170 -4.5708 0.8510
-20.7055 16.5135 -3.0212 0.8989
-33.6285 22.6572 -4.6257 0.8494
-30.2042 18.6314 -4.0484 0.8669
-34.7469 17.7538 -4.4512 0.8546
-36.2905 16.7399 -4.5591 0.8514
-32.4511 -37.1958 -5.6310 0.8198
-20.3104 -27.4489 -3.8952 0.8716
-2.4186 -32.3711 -3.7031 0.8775
-0.9618 -27.9492 -3.1902 0.8935
0.1449 -25.0921 -2.8625 0.9039
1.7875 -20.7036 -2.3706 0.9197
2.3555 -18.5509 -2.1332 0.9275
2.8270 -16.8242 -1.9461 0.9336
4.4269 -11.5039 -1.4061 0.9516
4.8441 -10.0872 -1.2765 0.9559
5.0217 -9.4630 -1.2221 0.9578
5.1815 -8.8829 -1.1731 0.9594
5.3255 -8.3410 -1.1289 0.9609
5.4561 -7.8331 -1.0890 0.9623
5.5706 -7.3495 -1.0520 0.9636
5.6569 -6.8715 -1.0153 0.9648
5.7345 -6.4216 -0.9821 0.9659
5.8041 -5.9964 -0.9520 0.9670
5.8667 -5.5930 -0.9246 0.9679
5.9031 -4.4042 -0.8402 0.9708
6.3908 -2.1149 -0.7679 0.9733
6.4219 -1.8426 -0.7621 0.9735
6.4499 -1.5732 -0.7573 0.9736
3.8443 -0.1475 -0.4389 0.9846
3.8371 0.0070 -0.4377 0.9847
3.8463 0.1616 -0.4392 0.9846
3.8644 0.4751 -0.4442 0.9844
0.5844 22.0676 -2.7664 0.9149
-1.4945 27.7145 -3.4781 0.8941
-2.9424 31.1936 -3.9264 0.8813
-7.5149 42.6523 -5.4274 0.8398
-31.9664 27.6665 -5.2979 0.8433
-29.5992 23.6067 -4.7445 0.8585
-33.6271 22.6563 -5.0812 0.8492
-31.3315 17.6302 -4.5053 0.8651
-38.4335 17.7284 -5.3040 0.8431
-42.8129 17.6994 -5.8056 0.8296
-34.2112 -33.3777 -5.9896 0.8247
-32.5171 -34.3803 -5.9302 0.8263
-18.6563 -27.4548 -4.1597 0.8748
-6.0612 -38.8098 -4.9225 0.8536
0.1316 -22.7806 -2.8548 0.9123
0.9511 -20.6843 -2.5948 0.9199
2.1681 -17.0749 -2.1569 0.9330
2.6433 -15.7309 -1.9990 0.9377
3.3836 -13.4289 -1.7355 0.9457
3.7025 -12.5445 -1.6391 0.9486
4.2278 -10.9865 -1.4752 0.9537
4.4480 -10.3036 -1.4064 0.9558
5.1322 -8.0382 -1.1951 0.9623
5.3797 -7.0975 -1.1161 0.9647
5.5505 -6.2156 -1.0443 0.9670
5.6235 -5.8098 -1.0133 0.9679
5.8114 -4.7106 -0.9375 0.9703
5.8663 -4.0204 -0.8912 0.9717
5.8769 -3.6898 -0.8696 0.9724
6.1579 -2.6031 -0.8378 0.9734
6.1947 -2.3300 -0.8294 0.9737
6.2292 -2.0614 -0.8223 0.9739
6.2890 -1.5339 -0.8112 0.9742
3.8370 -0.3020 -0.4823 0.9846
3.8296 -0.1470 -0.4803 0.9847
3.8318 0.1610 -0.4806 0.9847
3.8408 0.3163 -0.4829 0.9846
3.8501 0.4734 -0.4861 0.9845
0.5361 20.2423 -2.7658 0.9215
-1.3593 25.2073 -3.4480 0.9031
-4.2728 31.6416 -4.3611 0.8791
-16.1585 46.4012 -6.7111 0.8201
-19.0741 16.5084 -3.4456 0.9032
-29.8523 23.8085 -5.2155 0.8571
-33.6256 22.6553 -5.5380 0.8490
-29.9490 18.4740 -4.8063 0.8676
-42.8102 17.6983 -6.3273 0.8294
-34.1625 -33.3302 -6.5191 0.8247
-32.3715 -34.2263 -6.4347 0.8268
-31.6448 -36.2715 -6.5747 0.8234
-7.8555 -39.7515 -5.5346 0.8491
-3.3471 -29.0404 -3.9928 0.8887
-1.9007 -25.4396 -3.4844 0.9021
0.1197 -20.7284 -2.8313 0.9197
1.4933 -17.2954 -2.3711 0.9323
2.0259 -15.9546 -2.1967 0.9371
2.8689 -13.6848 -1.9098 0.9451
3.2165 -12.7657 -1.7981 0.9482
3.5254 -11.9443 -1.7010 0.9510
3.8001 -11.1974 -1.6151 0.9534
5.0876 -7.3041 -1.2158 0.9647
5.2937 -6.4303 -1.1376 0.9669
5.5240 -5.2663 -1.0424 0.9697
5.5890 -4.9152 -1.0166 0.9704
5.6479 -4.5781 -0.9930 0.9711
5.7032 -4.2550 -0.9719 0.9717
5.7567 -3.9453 -0.9532 0.9722
5.9171 -3.0827 -0.9113 0.9734
5.9617 -2.8075 -0.9001 0.9737
6.0023 -2.5373 -0.8901 0.9740
6.0398 -2.2718 -0.8814 0.9743
6.1355 -1.4965 -0.8626 0.9748
3.8408 -0.6154 -0.5313 0.9844
3.8174 0.1604 -0.5219 0.9847
3.8266 0.3151 -0.5244 0.9846
-1.2433 23.0552 -3.4147 0.9109
-3.8306 28.3674 -4.2334 0.8907
-5.6501 32.0682 -4.8157 0.8766
-11.5582 44.3848 -6.7832 0.8307
-16.1497 46.3759 -7.2627 0.8199
-29.4089 35.1519 -6.7782 0.8308
-17.6259 16.5389 -3.5746 0.9069
-28.7742 22.9487 -5.4432 0.8617
-33.6242 22.6543 -5.9962 0.8488
-38.4291 17.7264 -6.2589 0.8427
-42.8076 17.6972 -6.8507 0.8292
-6.7556 -34.1856 -5.1536 0.8686
-1.7061 -22.8352 -3.3866 0.9116
0.8045 -17.4964 -2.5903 0.9316
2.7264 -13.0050 -1.9652 0.9477
3.3643 -11.3987 -1.7577 0.9531
3.6349 -10.7106 -1.6728 0.9553
4.2940 -8.9416 -1.4670 0.9607
4.4731 -8.4293 -1.4113 0.9621
4.6355 -7.9469 -1.3606 0.9635
4.9214 -7.0655 -1.2734 0.9658
5.2145 -5.8394 -1.1578 0.9688
5.4338 -4.7788 -1.0702 0.9712
5.5497 -4.1405 -1.0240 0.9724
5.7675 -3.0048 -0.9618 0.9740
5.9281 -1.9618 -0.9235 0.9751
5.9602 -1.7101 -0.9170 0.9752
5.9889 -1.4607 -0.9117 0.9754
3.8188 -0.4555 -0.5688 0.9846
3.8100 -0.2998 -0.5652 0.9847
3.8034 0.1598 -0.5630 0.9847
3.8237 0.4701 -0.5698 0.9845
0.4639 17.5191 -2.7907 0.9315
-0.2630 19.1971 -3.0572 0.9252
-1.1420 21.1764 -3.3770 0.9177
-3.4827 25.7905 -4.1441 0.9000
-5.0524 28.6761 -4.6366 0.8888
-7.0573 32.3835 -5.2777 0.8744
-13.6741 45.0124 -7.4911 0.8265
-17.6245 16.5376 -3.8485 0.9067
-31.9629 27.6635 -6.7312 0.8426
-29.5795 23.5909 -6.0247 0.8579
-29.9224 16.8373 -5.4673 0.8702
-32.9585 16.8400 -5.8936 0.8608
-19.7518 -4.2226 -3.2163 0.9214
-31.7271 -16.9979 -5.7315 0.8643
-32.2176 -34.0636 -7.4660 0.8270
-11.7009 -41.3992 -6.8505 0.8401
-1.5614 -20.8989 -3.3371 0.9186
1.3109 -15.1829 -2.4267 0.9401
2.2235 -13.2329 -2.1367 0.9471
3.2189 -10.9060 -1.8107 0.9550
3.4830 -10.2631 -1.7258 0.9571
3.9397 -9.1261 -1.5828 0.9605
4.4772 -7.6756 -1.4150 0.9646
4.6275 -7.2477 -1.3693 0.9658
4.9725 -6.0401 -1.2458 0.9688
5.1425 -5.3129 -1.1774 0.9705
5.2180 -4.9745 -1.1480 0.9712
5.2866 -4.6493 -1.1211 0.9719
5.4056 -4.0331 -1.0739 0.9731
5.4622 -3.7434 -1.0544 0.9735
5.5766 -3.1964 -1.0235 0.9743
5.6729 -2.6715 -0.9985 0.9749
5.7149 -2.4158 -0.9880 0.9752
5.8198 -1.6698 -0.9641 0.9758
4.0729 -0.9934 -0.6676 0.9832
3.8357 -0.6146 -0.6186 0.9844
3.8255 -0.4563 -0.6135 0.9845
3.7987 -0.1458 -0.6053 0.9847
3.7873 0.0069 -0.6031 0.9848
3.7958 0.1595 -0.6050 0.9847
3.8141 0.4690 -0.6119 0.9846
-0.2448 17.8696 -3.0492 0.9300
-2.0266 21.4851 -3.6820 0.9162
-3.1846 23.5830 -4.0602 0.9080
-4.5831 26.0124 -4.5066 0.8984
-6.2980 28.8990 -5.0465 0.8869
-15.8896 45.6290 -8.2437 0.8220
-23.0557 42.6275 -8.2688 0.8215
-28.9827 37.6146 -8.1019 0.8247
-29.0858 34.7656 -7.7339 0.8320
-17.6111 16.5250 -4.1205 0.9067
-33.6213 22.6524 -6.9170 0.8483
-34.3695 19.3397 -6.7287 0.8521
-34.4814 17.6181 -6.6067 0.8546
-34.6411 15.9791 -6.5089 0.8566
-44.5113 18.4015 -8.2179 0.8225
-34.2821 -33.4468 -8.1719 0.8234
-18.6248 -27.4084 -5.6539 0.8742
-13.7109 -41.9882 -7.5363 0.8359
-7.2816 -30.3760 -5.3296 0.8810
-3.6583 -23.4241 -4.0451 0.9083
-1.4457 -19.3498 -3.3107 0.9243
-0.6163 -17.9082 -3.0573 0.9299
0.7061 -15.3550 -2.6226 0.9395
1.7052 -13.4293 -2.3097 0.9466
2.1166 -12.5967 -2.1794 0.9495
2.7977 -11.1035 -1.9537 0.9546
3.3433 -9.8515 -1.7750 0.9587
3.7945 -8.7898 -1.6335 0.9619
3.9898 -8.3082 -1.5725 0.9633
4.4803 -7.0172 -1.4205 0.9668
4.9997 -5.1653 -1.2265 0.9713
5.2654 -3.9284 -1.1209 0.9737
5.3275 -3.6511 -1.1020 0.9741
5.4938 -2.8622 -1.0569 0.9752
5.5826 -2.3599 -1.0341 0.9757
5.6871 -1.6317 -1.0095 0.9763
3.8395 -0.7746 -0.6683 0.9842
3.8036 0.0069 -0.6490 0.9847
3.8122 0.1602 -0.6510 0.9846
3.8213 0.3147 -0.6542 0.9846
-0.9818 18.2069 -3.3193 0.9285
-4.1849 23.7522 -4.3906 0.9066
-5.7014 26.1617 -4.8744 0.8969
-10.0695 33.1468 -6.3065 0.8686
-17.8818 36.4923 -7.3980 0.8477
-16.1020 29.7708 -6.1616 0.8714
-16.3467 27.5209 -5.8272 0.8780
-28.8159 37.3981 -8.5947 0.8253
-29.0229 31.9869 -7.8628 0.8389
-17.5817 16.4974 -4.3891 0.9066
-29.4465 18.1641 -6.2984 0.8688
-34.6170 15.9680 -6.9400 0.8564
-27.7501 8.9401 -5.3075 0.8882
-27.7365 7.7208 -5.2413 0.8895
-31.4041 -18.4853 -6.6339 0.8623
-32.1101 -33.9499 -8.5069 0.8270
-30.8421 -35.3515 -8.5406 0.8263
-11.5506 -35.3724 -6.7740 0.8596
-8.6565 -30.6279 -5.7941 0.8786
-3.3160 -21.2324 -3.9121 0.9163
-2.2477 -19.5014 -3.5737 0.9233
-1.3447 -17.9986 -3.2857 0.9292
-0.5739 -16.6768 -3.0377 0.9344
0.0897 -15.5324 -2.8277 0.9388
0.6670 -14.5046 -2.6433 0.9427
1.6241 -12.7906 -2.3472 0.9489
2.6802 -10.6372 -1.9970 0.9564
2.9616 -10.0341 -1.9046 0.9584
3.2156 -9.4750 -1.8215 0.9601
4.0289 -7.5921 -1.5647 0.9657
4.4764 -6.4265 -1.4258 0.9687
4.9422 -4.7116 -1.2430 0.9726
5.0134 -4.4090 -1.2154 0.9732
5.1344 -3.8307 -1.1662 0.9743
5.1988 -3.5629 -1.1474 0.9747
5.2595 -3.3021 -1.1305 0.9751
5.3152 -3.0466 -1.1153 0.9754
5.4559 -2.3063 -1.0783 0.9762
5.4947 -2.0667 -1.0687 0.9764
5.5610 -1.5956 -1.0532 0.9768
3.8329 -0.3016 -0.6999 0.9845
3.8202 0.0069 -0.6954 0.9846
3.8288 0.1609 -0.6976 0.9845
3.8305 0.3154 -0.6997 0.9845
3.8316 0.4711 -0.7028 0.9844
-0.9153 16.9726 -3.2893 0.9331
-2.7024 20.0121 -3.9078 0.9210
-6.8248 26.2082 -5.2409 0.8955
-8.8528 29.1416 -5.8939 0.8833
-11.6107 33.3417 -6.8323 0.8660
-19.4908 44.1839 -9.3453 0.8214
-15.9612 29.5105 -6.4926 0.8722
-16.1841 27.2472 -6.1328 0.8789
-28.8703 31.8187 -8.3144 0.8394
-28.9612 29.4500 -7.9931 0.8451
-17.6015 16.5160 -4.6709 0.9063
-19.0952 16.5267 -4.8871 0.9022
-27.5776 21.9943 -6.8262 0.8661
-29.2788 19.7266 -6.8320 0.8660
-29.3224 18.0875 -6.6671 0.8690
-31.5773 17.7685 -7.0118 0.8628
-27.6349 8.9030 -5.6185 0.8884
-27.6659 7.7011 -5.5574 0.8896
-32.0198 -33.8544 -9.0176 0.8271
-30.5621 -35.0306 -8.9964 0.8275
-10.0408 -30.7489 -6.2597 0.8765
-4.2458 -21.4850 -4.2381 0.9146
-2.0901 -18.1346 -3.5326 0.9283
-1.2567 -16.8198 -3.2640 0.9336
-0.5397 -15.6821 -3.0366 0.9381
0.6329 -13.7647 -2.6665 0.9454
1.1153 -12.9172 -2.5090 0.9485
1.5485 -12.1955 -2.3790 0.9511
1.9226 -11.4420 -2.2453 0.9538
3.5326 -8.1831 -1.7248 0.9643
4.0618 -6.9635 -1.5601 0.9677
4.5543 -5.5322 -1.3867 0.9712
4.7352 -4.8921 -1.3176 0.9726
4.8846 -4.2957 -1.2588 0.9738
4.9467 -4.0097 -1.2323 0.9744
5.1928 -2.9764 -1.1583 0.9759
5.2443 -2.7322 -1.1443 0.9762
5.2914 -2.4918 -1.1318 0.9765
5.3343 -2.2549 -1.1207 0.9767
5.3733 -2.0211 -1.1110 0.9769
5.4085 -1.7898 -1.1025 0.9771
3.9860 -0.9722 -0.7940 0.9834
3.8314 -0.3015 -0.7437 0.9845
3.8296 -0.1470 -0.7416 0.9845
3.8291 0.1609 -0.7416 0.9845
3.8301 0.3154 -0.7437 0.9845
3.8310 0.4710 -0.7470 0.9844
-0.2022 14.7570 -3.0261 0.9415
-0.8577 15.9041 -3.2657 0.9370
-1.6215 17.1904 -3.5404 0.9319
-2.5065 18.5619 -3.8405 0.9264
-3.5427 20.1071 -4.1862 0.9200
-13.1196 33.3031 -7.3392 0.8640
-16.8001 38.0844 -8.5348 0.8437
-21.5041 43.8846 -10.0203 0.8191
-15.8368 29.2805 -6.8255 0.8729
-16.9549 26.0971 -6.3811 0.8807
-28.7302 31.6644 -8.7666 0.8398
-29.0997 21.3540 -7.4007 0.8630
-29.1988 18.0112 -7.0343 0.8693
-32.6393 16.6769 -7.5153 0.8610
-38.4181 17.7213 -8.6749 0.8413
-42.9942 17.7743 -9.5391 0.8270
-43.5988 16.0058 -9.5228 0.8273
-27.5671 7.6737 -5.8673 0.8897
-25.6152 -13.7234 -5.9584 0.8881
-25.5628 -15.0470 -6.0820 0.8859
-31.9603 -33.7916 -9.5367 0.8270
-30.4958 -34.9545 -9.5113 0.8274
-23.3952 -41.1941 -9.7135 0.8241
-14.9100 -35.6649 -7.9260 0.8540
-8.8433 -27.0816 -5.8413 0.8902
-6.7778 -23.9808 -5.1096 0.9033
-1.1807 -15.8026 -3.2492 0.9373
-0.5091 -14.7931 -3.0350 0.9414
1.0667 -12.3551 -2.5427 0.9506
1.4779 -11.6389 -2.4056 0.9532
2.1738 -10.3688 -2.1722 0.9577
2.4713 -9.8081 -2.0739 0.9595
2.9859 -8.7984 -1.9051 0.9628
3.2096 -8.3405 -1.8324 0.9642
3.4140 -7.9085 -1.7662 0.9654
3.6036 -7.5040 -1.7068 0.9666
3.9391 -6.7530 -1.6030 0.9686
4.0872 -6.4016 -1.5573 0.9695
4.3274 -5.7092 -1.4689 0.9712
4.4302 -5.3814 -1.4292 0.9719
4.5253 -5.0676 -1.3931 0.9726
4.6125 -4.7653 -1.3598 0.9733
4.6907 -4.4719 -1.3288 0.9739
5.0754 -2.9091 -1.1995 0.9764
5.2567 -1.9772 -1.1516 0.9773
5.2920 -1.7513 -1.1429 0.9775
5.3236 -1.5274 -1.1356 0.9776
4.0417 -0.9858 -0.8530 0.9832
3.8345 -0.7735 -0.8021 0.9842
3.8311 -0.4570 -0.7911 0.9844
3.8294 -0.3014 -0.7876 0.9844
3.8261 0.1607 -0.7852 0.9845
3.8281 0.3152 -0.7876 0.9844
3.8291 0.4708 -0.7910 0.9844
0.3477 13.1313 -2.8454 0.9477
-1.5121 16.0304 -3.4878 0.9362
-3.2834 18.6358 -4.0989 0.9255
-5.6872 21.8397 -4.8885 0.9118
-11.5076 29.2110 -6.8008 0.8794
-17.9020 36.5337 -8.8127 0.8466
-15.7301 29.0832 -7.1622 0.8734
-15.9442 26.8433 -6.7630 0.8800
-16.9320 26.0619 -6.7322 0.8806
-28.7282 31.6621 -9.2608 0.8395
-19.0645 16.5001 -5.4615 0.9020
-28.9706 21.2592 -7.7838 0.8632
-29.0756 17.9353 -7.4000 0.8695
-28.9585 16.2949 -7.1977 0.8728
-38.4158 17.7203 -9.1640 0.8410
-21.4071 -4.5765 -4.7419 0.9143
-25.6539 -9.9890 -5.9634 0.8934
-31.0846 -16.6537 -7.6388 0.8656
-31.0236 -18.2614 -7.7979 0.8630
-31.8874 -33.7144 -10.0521 0.8270
-4.7436 -19.7885 -4.4079 0.9201
-3.6079 -18.2571 -4.0312 0.9267
-2.6554 -17.0027 -3.7277 0.9320
0.5739 -12.4811 -2.7064 0.9501
1.0177 -11.7875 -2.5628 0.9527
3.4908 -7.2690 -1.7467 0.9675
3.8230 -6.5540 -1.6435 0.9694
3.9701 -6.2181 -1.5981 0.9703
4.0965 -5.8812 -1.5525 0.9711
4.2080 -5.5517 -1.5090 0.9719
4.7090 -3.8171 -1.3131 0.9755
4.8448 -3.3203 -1.2723 0.9762
4.9627 -2.8445 -1.2391 0.9769
5.0620 -2.3838 -1.2120 0.9774
5.1053 -2.1581 -1.2006 0.9776
5.2115 -1.4953 -1.1744 0.9781
3.8308 -0.6138 -0.8404 0.9842
3.8292 -0.4567 -0.8353 0.9843
3.8244 -0.3010 -0.8310 0.9844
3.8201 0.1605 -0.8282 0.9845
3.8271 0.4706 -0.8352 0.9843
0.3315 12.5161 -2.8577 0.9499
-5.2322 20.0924 -4.7389 0.9183
-6.6030 21.7359 -5.1849 0.9110
-15.8392 26.6664 -7.0792 0.8805
-16.9175 26.0396 -7.0876 0.8804
-28.2472 36.6600 -10.5632 0.8271
-28.2975 33.8234 -10.0654 0.8345
-28.6194 26.8544 -8.9576 0.8513
-28.8420 21.1649 -8.1653 0.8635
-28.9008 19.4720 -7.9539 0.8668
-28.9529 17.8596 -7.7644 0.8697
-42.7886 17.6894 -10.5679 0.8270
-27.3398 7.6104 -6.4774 0.8901
-30.8915 -18.1836 -8.1816 0.8632
-22.1467 -38.9957 -10.2358 0.8319
-17.2953 -33.5211 -8.6093 0.8566
-11.2259 -26.8524 -6.6429 0.8874
-8.9309 -24.0326 -5.8518 0.9002
-7.0836 -21.6927 -5.2085 0.9106
-5.5985 -19.8082 -4.6982 0.9190
-4.3825 -18.2823 -4.2910 0.9258
-3.3663 -17.0349 -3.9633 0.9312
-1.7249 -14.9653 -3.4384 0.9401
-0.4581 -13.3120 -3.0402 0.9468
0.5475 -11.9066 -2.7205 0.9523
1.3535 -10.6591 -2.4524 0.9569
1.6969 -10.0989 -2.3373 0.9589
2.0023 -9.5509 -2.2273 0.9608
2.2909 -9.0920 -2.1401 0.9623
2.5491 -8.6365 -2.0553 0.9637
2.7852 -8.2070 -1.9781 0.9651
3.0015 -7.7999 -1.9075 0.9663
3.2012 -7.4155 -1.8435 0.9674
3.9828 -5.7180 -1.5905 0.9718
4.1997 -5.1015 -1.5082 0.9733
4.2944 -4.8090 -1.4716 0.9739
4.4570 -4.2490 -1.4055 0.9751
4.7363 -3.2459 -1.3105 0.9767
4.7978 -3.0123 -1.2930 0.9770
4.8544 -2.7824 -1.2771 0.9773
4.9064 -2.5561 -1.2627 0.9776
5.1036 -1.4643 -1.2119 0.9785
4.1101 -1.0025 -0.9656 0.9828
3.8304 -0.7727 -0.8919 0.9841
3.8286 -0.6135 -0.8850 0.9842
3.8235 -0.4560 -0.8789 0.9843
3.8129 -0.1463 -0.8709 0.9845
3.8140 0.1602 -0.8713 0.9845
3.8194 0.3145 -0.8747 0.9844
3.8246 0.4703 -0.8795 0.9843
-0.7219 13.3866 -3.2165 0.9463
-2.8449 16.1468 -3.9338 0.9348
-3.7800 17.3452 -4.2594 0.9296
-4.8387 18.5811 -4.6069 0.9241
-6.0720 19.9879 -5.0121 0.9177
-7.5038 21.5482 -5.4746 0.9104
-9.2447 23.4670 -6.0516 0.9014
-11.3909 25.8223 -6.7716 0.8904
-14.0281 28.6280 -7.6491 0.8771
-16.9179 26.0402 -7.4507 0.8801
-29.0234 37.6675 -11.4093 0.8223
-28.7758 19.3877 -8.3251 0.8670
-31.5710 17.7650 -8.6918 0.8616
-38.4113 17.7182 -10.1493 0.8403
-38.5478 15.9361 -10.0081 0.8423
-30.8324 -16.5186 -8.3925 0.8660
-30.7292 -18.0881 -8.5554 0.8636
-28.0858 -37.9572 -11.3292 0.8235
-27.0498 -39.8069 -11.5474 0.8204
-18.6661 -32.8670 -9.0689 0.8560
-15.5757 -30.1882 -8.1504 0.8696
-9.9974 -23.9139 -6.2189 0.8989
-8.0389 -21.6322 -5.5371 0.9094
-5.1662 -18.2785 -4.5574 0.9248
-3.1536 -15.9584 -3.9030 0.9353
-0.4362 -12.6753 -3.0430 0.9492
0.5229 -11.3707 -2.7311 0.9543
0.9307 -10.7799 -2.5961 0.9565
1.9278 -9.1955 -2.2543 0.9621
2.9074 -7.5553 -1.9423 0.9672
3.4524 -6.5059 -1.7671 0.9702
3.9882 -5.2617 -1.5841 0.9732
4.1844 -4.6858 -1.5073 0.9745
4.3478 -4.1449 -1.4413 0.9756
4.4960 -3.6444 -1.3886 0.9765
4.5667 -3.4072 -1.3671 0.9768
4.6935 -2.9468 -1.3297 0.9775
4.7502 -2.7227 -1.3137 0.9777
4.9326 -1.8553 -1.2644 0.9786
4.9680 -1.6441 -1.2555 0.9787
3.8224 -0.6125 -0.9288 0.9842
3.8173 -0.4553 -0.9224 0.9843
3.8067 -0.1461 -0.9140 0.9845
3.8024 0.0069 -0.9123 0.9845
3.8079 0.1600 -0.9144 0.9844
-0.6836 12.6768 -3.1952 0.9490
-1.2698 13.4618 -3.4031 0.9458
-1.9269 14.2694 -3.6240 0.9423
-3.5186 16.1455 -4.1589 0.9341
-4.4997 17.2792 -4.4939 0.9290
-5.6104 18.4684 -4.8580 0.9235
-6.8928 19.7935 -5.2751 0.9172
-15.6903 26.4158 -7.7328 0.8810
-22.9698 23.3575 -8.2450 0.8736
-31.9533 27.6552 -10.6359 0.8400
-28.5133 22.7406 -9.1792 0.8603
-30.8849 22.6640 -9.6416 0.8538
-33.2629 22.4110 -10.0946 0.8475
-28.8285 17.7828 -8.5250 0.8696
-42.7831 17.6871 -11.6517 0.8262
-30.7118 -16.4540 -8.7691 0.8661
-30.6124 -18.0193 -8.9403 0.8637
-33.6729 -32.8525 -11.8402 0.8236
-31.7157 -33.5330 -11.6166 0.8266
-22.8514 -33.6284 -10.2329 0.8456
-13.5014 -26.1680 -7.4110 0.8856
-7.3240 -19.7085 -5.2917 0.9169
-4.8039 -16.9969 -4.4454 0.9297
-3.8203 -15.9369 -4.1247 0.9346
-2.9652 -15.0048 -3.8495 0.9389
-1.5468 -13.4209 -3.4002 0.9458
-0.4158 -12.0840 -3.0431 0.9514
0.0662 -11.4597 -2.8843 0.9538
0.5002 -10.8777 -2.7406 0.9561
1.2477 -9.8260 -2.4929 0.9600
1.8582 -8.8635 -2.2793 0.9633
2.8187 -7.3247 -1.9753 0.9681
3.0121 -6.9774 -1.9127 0.9691
3.3557 -6.3236 -1.8018 0.9709
3.5096 -6.0167 -1.7531 0.9717
3.6509 -5.7182 -1.7075 0.9724
3.9861 -4.8420 -1.5785 0.9745
4.0794 -4.5682 -1.5414 0.9751
4.2433 -4.0453 -1.4755 0.9761
4.3194 -3.7986 -1.4477 0.9766
4.3958 -3.5632 -1.4242 0.9769
4.4665 -3.3324 -1.4025 0.9773
4.5318 -3.1058 -1.3827 0.9776
4.6499 -2.6652 -1.3489 0.9781
4.7019 -2.4496 -1.3343 0.9784
4.7495 -2.2366 -1.3213 0.9786
4.7929 -2.0261 -1.3096 0.9788
4.8676 -1.6108 -1.2904 0.9791
4.8991 -1.4057 -1.2828 0.9792
4.1175 -1.0043 -1.0667 0.9827
3.8392 -0.7745 -0.9857 0.9840
3.8174 -0.4553 -0.9676 0.9843
3.8005 -0.1459 -0.9572 0.9844
3.7963 0.0069 -0.9555 0.9845
0.2897 10.9380 -2.8832 0.9557
-1.8228 13.4983 -3.5891 0.9452
-2.5174 14.2882 -3.8229 0.9418
-3.3080 15.1794 -4.0937 0.9378
-4.1890 16.0862 -4.3801 0.9336
-5.2131 17.1605 -4.7258 0.9285
-6.3652 18.2784 -5.1000 0.9231
-7.6455 19.4074 -5.4964 0.9173
-9.2944 21.0697 -6.0680 0.9091
-11.2311 22.9200 -6.7255 0.8998
-18.9409 29.1541 -9.1610 0.8660
-22.8399 23.2254 -8.5833 0.8739
-22.9138 21.5007 -8.2796 0.8781
-33.1187 22.3138 -10.5227 0.8477
-34.7228 17.7415 -10.2746 0.8510
-27.0018 9.9128 -7.5793 0.8878
-46.4074 8.9799 -12.4552 0.8224
-30.5638 -16.3747 -9.1366 0.8664
-28.1408 -32.2552 -11.2792 0.8377
-24.5492 -33.1776 -10.8753 0.8431
-21.0447 -30.9696 -9.8663 0.8565
-11.9603 -23.1811 -6.8733 0.8977
-9.9007 -21.2421 -6.1754 0.9076
-8.1719 -19.5473 -5.5827 0.9161
-6.7246 -18.0954 -5.0867 0.9233
-5.5207 -16.9064 -4.6863 0.9291
-3.5893 -14.9732 -4.0572 0.9383
-2.7984 -14.1607 -3.8035 0.9420
-1.4714 -12.7661 -3.3861 0.9482
-0.9070 -12.1400 -3.2078 0.9509
0.0633 -10.9577 -2.8874 0.9557
0.8568 -9.9235 -2.6246 0.9596
1.2005 -9.4547 -2.5113 0.9613
1.5136 -9.0077 -2.4068 0.9629
1.7931 -8.5530 -2.3027 0.9645
3.1011 -6.4575 -1.8876 0.9708
3.4154 -5.8552 -1.7861 0.9724
3.7843 -4.9927 -1.6508 0.9744
3.9789 -4.4557 -1.5741 0.9756
4.2231 -3.7140 -1.4819 0.9770
4.3700 -3.2604 -1.4367 0.9777
4.4353 -3.0397 -1.4168 0.9780
4.6527 -2.1910 -1.3551 0.9790
4.7707 -1.5788 -1.3241 0.9794
4.8021 -1.3778 -1.3164 0.9795
3.8601 -0.7787 -1.0376 0.9838
3.8341 -0.6144 -1.0232 0.9841
3.8103 -0.1462 -1.0048 0.9844
3.8076 0.1600 -1.0042 0.9844
3.8192 0.4696 -1.0139 0.9842
0.2781 10.5013 -2.8929 0.9574
-0.1509 11.0137 -3.0333 0.9553
-0.6241 11.5725 -3.1915 0.9531
-1.1440 12.1281 -3.3547 0.9507
-1.7215 12.7483 -3.5426 0.9480
-2.3795 13.5052 -3.7764 0.9447
-4.8491 15.9624 -4.5942 0.9331
-5.9156 16.9873 -4.9536 0.9281
-10.1630 20.7403 -6.3605 0.9086
-12.1747 22.5097 -7.0475 0.8993
-16.7764 25.8225 -8.4802 0.8801
-25.6512 30.6603 -11.0087 0.8472
-22.6289 24.9399 -9.2739 0.8696
-22.6944 23.0775 -8.9133 0.8743
-23.0335 16.9025 -7.8678 0.8882
-28.8257 17.7811 -9.3270 0.8689
-38.0507 17.5518 -11.5397 0.8404
-42.7775 17.6848 -12.7473 0.8253
-46.2611 8.9516 -12.9760 0.8224
-46.2846 7.0409 -12.8928 0.8235
-25.9845 -25.3515 -9.9973 0.8602
-29.3541 -31.0361 -11.7642 0.8376
-24.6918 -30.7094 -10.8516 0.8492
-18.1683 -26.7367 -8.9020 0.8745
-8.9883 -19.2846 -5.8592 0.9155
-6.2328 -16.7722 -4.9274 0.9285
-5.1517 -15.7764 -4.5704 0.9335
-4.2120 -14.9025 -4.2647 0.9378
-3.3847 -14.1196 -3.9985 0.9415
-1.9873 -12.7249 -3.5467 0.9480
-1.4021 -12.1646 -3.3721 0.9505
0.0606 -10.4946 -2.8901 0.9574
0.4600 -10.0034 -2.7577 0.9593
0.8209 -9.5081 -2.6282 0.9612
1.1566 -9.1084 -2.5285 0.9626
2.2330 -7.5657 -2.1723 0.9678
3.1770 -5.9867 -1.8664 0.9723
3.3265 -5.7028 -1.8181 0.9730
3.4596 -5.4186 -1.7704 0.9737
3.5788 -5.1379 -1.7243 0.9744
3.7896 -4.6033 -1.6420 0.9756
3.8828 -4.3480 -1.6053 0.9761
4.0486 -3.8597 -1.5404 0.9771
4.1306 -3.6326 -1.5148 0.9774
4.3423 -2.9759 -1.4497 0.9784
4.5117 -2.3505 -1.4010 0.9791
4.5592 -2.1470 -1.3878 0.9793
4.7084 -1.3509 -1.3489 0.9799
3.8365 -0.4576 -1.0640 0.9841
3.8300 -0.3014 -1.0580 0.9842
3.8242 -0.1468 -1.0539 0.9842
3.8214 0.1605 -1.0533 0.9843
3.8236 0.3149 -1.0565 0.9842
3.8268 0.4705 -1.0618 0.9841
-2.9378 13.4806 -3.9645 0.9442
-5.5184 15.8469 -4.8217 0.9325
-9.2489 18.8748 -6.0397 0.9162
-11.0001 20.3380 -6.6440 0.9083
-15.2916 23.5370 -8.0653 0.8897
-17.3684 24.5185 -8.6338 0.8825
-20.7402 26.9173 -9.7642 0.8681
-22.5027 24.8009 -9.6227 0.8699
-22.5937 22.9751 -9.2592 0.8745
-22.7920 19.7262 -8.6614 0.8821
-22.8612 18.2328 -8.4024 0.8854
-28.8244 17.7803 -9.7316 0.8685
-32.9749 18.5549 -10.8722 0.8543
-37.9020 19.3659 -12.2302 0.8377
-38.4022 17.7140 -12.1521 0.8386
-26.8333 7.4694 -8.0036 0.8905
-46.1088 7.0141 -13.4016 0.8236
-34.6915 -31.2271 -13.4121 0.8234
-25.5682 -29.3066 -11.1755 0.8506
-22.6774 -28.2041 -10.3991 0.8602
-11.5629 -20.3598 -6.7279 0.9072
-8.2448 -17.6894 -5.6079 0.9220
-3.2020 -13.3575 -3.9470 0.9444
-1.8914 -12.1109 -3.5222 0.9503
-1.3316 -11.5537 -3.3419 0.9527
0.0581 -10.0666 -2.8927 0.9590
0.7934 -9.1894 -2.6504 0.9623
1.1154 -8.7843 -2.5444 0.9638
1.4105 -8.3942 -2.4458 0.9652
1.9276 -7.6505 -2.2670 0.9677
2.1654 -7.3367 -2.1981 0.9687
2.7637 -6.4020 -2.0037 0.9714
3.0938 -5.8300 -1.8965 0.9729
3.2416 -5.5573 -1.8487 0.9736
3.3703 -5.2787 -1.7996 0.9743
3.6977 -4.4916 -1.6717 0.9761
4.0415 -3.5542 -1.5465 0.9778
4.3697 -2.5046 -1.4473 0.9793
4.4689 -2.1045 -1.4194 0.9797
4.5512 -1.7119 -1.3972 0.9800
4.6177 -1.3249 -1.3804 0.9802
3.8871 -0.7842 -1.1394 0.9836
3.8667 -0.6196 -1.1253 0.9838
3.8571 -0.4601 -1.1162 0.9840
3.8411 -0.1474 -1.1045 0.9841
3.8389 0.3161 -1.1068 0.9841
3.8420 0.4724 -1.1123 0.9840
0.2578 9.7347 -2.9154 0.9602
-0.1390 10.1430 -3.0369 0.9585
-1.5696 11.6237 -3.5115 0.9522
-3.4905 13.4040 -4.1467 0.9438
-6.1536 15.6205 -5.0263 0.9323
-7.2451 16.4241 -5.3742 0.9278
-9.9644 18.4230 -6.2706 0.9163
-11.7690 19.8140 -6.8994 0.9083
-13.8197 21.2714 -7.5942 0.8995
-15.9873 22.5689 -8.2802 0.8909
-18.1061 23.4987 -8.8812 0.8835
-22.7211 19.6649 -8.9962 0.8821
-32.6884 22.0239 -11.8002 0.8483
-28.8230 17.7794 -10.1387 0.8681
-28.4478 16.0076 -9.7725 0.8726
-36.8848 17.0140 -12.1607 0.8440
-45.9748 6.9937 -13.9223 0.8235
-30.7670 -25.5339 -11.9699 0.8462
-22.8543 -26.1959 -10.4077 0.8649
-19.7236 -24.5304 -9.4234 0.8768
-14.3541 -21.1237 -7.6459 0.8989
-8.9508 -17.3482 -5.8443 0.9217
-7.6152 -16.3386 -5.3967 0.9275
-6.4520 -15.4331 -5.0079 0.9325
-5.4396 -14.6376 -4.6750 0.9369
-4.5473 -13.9257 -4.3857 0.9407
-3.7518 -13.2743 -4.1298 0.9440
-3.0370 -12.6693 -3.9004 0.9471
-2.3942 -12.1156 -3.6973 0.9497
-0.3480 -10.1121 -3.0292 0.9586
0.0559 -9.6725 -2.8958 0.9604
1.3636 -8.1152 -2.4636 0.9662
2.1014 -7.1198 -2.2224 0.9695
2.6889 -6.2286 -2.0311 0.9721
2.8575 -5.9503 -1.9762 0.9728
3.0144 -5.6804 -1.9252 0.9735
3.4007 -4.8822 -1.7813 0.9755
3.5092 -4.6298 -1.7392 0.9760
3.7021 -4.1458 -1.6640 0.9771
3.7876 -3.9130 -1.6304 0.9775
3.8743 -3.6935 -1.6025 0.9779
3.9556 -3.4787 -1.5770 0.9782
4.0311 -3.2676 -1.5535 0.9786
4.3815 -2.0634 -1.4499 0.9800
4.4636 -1.6789 -1.4277 0.9803
4.2957 -1.0478 -1.3238 0.9817
3.8625 -0.1482 -1.1572 0.9840
3.8548 0.0070 -1.1541 0.9840
0.2486 9.3886 -2.9255 0.9614
-0.1338 9.7680 -3.0430 0.9599
-1.0032 10.6349 -3.3274 0.9562
-2.0351 11.5508 -3.6534 0.9520
-3.3041 12.6882 -4.0841 0.9466
-4.0379 13.2920 -4.3272 0.9435
-4.8541 13.9392 -4.5977 0.9400
-5.7656 14.6355 -4.8999 0.9362
-6.7629 15.3310 -5.2196 0.9322
-9.1565 16.9293 -5.9953 0.9225
-16.7269 21.7087 -8.5367 0.8915
-21.9080 24.1454 -10.1557 0.8723
-25.7882 26.2235 -11.4565 0.8572
-22.5243 21.1352 -9.6213 0.8786
-28.0342 18.8881 -10.5296 0.8679
-29.2925 16.4829 -10.4698 0.8686
-37.5926 19.2078 -13.1499 0.8379
-45.7497 6.9595 -14.4148 0.8238
-35.4356 -24.8917 -13.4892 0.8341
-30.2090 -27.1922 -12.6607 0.8434
-26.3279 -25.6864 -11.4576 0.8572
-23.5428 -24.8917 -10.6724 0.8663
-20.2861 -23.2521 -9.6120 0.8787
-17.5699 -21.8518 -8.7341 0.8892
-12.9625 -19.0758 -7.1841 0.9079
-11.1771 -17.9601 -6.5894 0.9152
-9.6183 -16.9359 -6.0669 0.9216
-7.0781 -15.1862 -5.2190 0.9322
-6.0370 -14.4405 -4.8754 0.9365
-5.1183 -13.7730 -4.5769 0.9403
-4.2959 -13.1556 -4.3109 0.9437
-2.2723 -11.4988 -3.6511 0.9521
-1.7268 -11.0566 -3.4858 0.9542
-1.2204 -10.5882 -3.3200 0.9563
0.0537 -9.3058 -2.8988 0.9618
0.4101 -8.9187 -2.7811 0.9633
0.7381 -8.5489 -2.6729 0.9647
1.0406 -8.1948 -2.5732 0.9660
1.3197 -7.8536 -2.4807 0.9672
1.8127 -7.1943 -2.3110 0.9694
2.0407 -6.9140 -2.2455 0.9702
2.2473 -6.6219 -2.1782 0.9711
2.6175 -6.0634 -2.0572 0.9727
2.7837 -5.7966 -2.0030 0.9734
2.9384 -5.5373 -1.9527 0.9741
3.0811 -5.2822 -1.9048 0.9747
3.4251 -4.5188 -1.7662 0.9765
3.6172 -4.0506 -1.6916 0.9775
3.7918 -3.6149 -1.6319 0.9783
3.8727 -3.4059 -1.6065 0.9786
4.0176 -2.9975 -1.5614 0.9792
4.0822 -2.7976 -1.5415 0.9795
4.1425 -2.6008 -1.5236 0.9797
4.2970 -2.0235 -1.4795 0.9803
4.3399 -1.8346 -1.4677 0.9805
4.3788 -1.6470 -1.4573 0.9806
4.4137 -1.4606 -1.4482 0.9807
4.4728 -1.0909 -1.4341 0.9809
3.9316 -0.7931 -1.2493 0.9833
3.9163 -0.6275 -1.2355 0.9835
3.8933 -0.3064 -1.2165 0.9838
3.8824 -0.1490 -1.2102 0.9839
3.8862 0.3200 -1.2146 0.9838
-0.9622 10.2003 -3.3164 0.9578
-1.9437 11.0319 -3.6260 0.9540
-3.1356 12.0410 -4.0276 0.9490
-4.5768 13.1429 -4.5049 0.9432
-7.3467 14.9929 -5.4045 0.9322
-19.1925 21.1526 -9.2454 0.8868
-22.2387 22.6141 -10.2666 0.8752
-17.5908 16.5060 -7.8083 0.9036
-22.5455 17.9810 -9.3346 0.8858
-27.8284 20.4211 -11.1731 0.8649
-32.9342 16.8276 -11.9716 0.8560
-24.8954 -17.4877 -9.8480 0.8799
-37.0792 -28.3368 -15.1060 0.8218
-30.5374 -25.3434 -12.8455 0.8463
-13.5514 -18.3144 -7.3747 0.9087
-10.2413 -16.4564 -6.2741 0.9217
-7.6824 -14.8898 -5.4235 0.9320
-6.6184 -14.1998 -5.0712 0.9363
-4.0704 -12.4650 -4.2445 0.9464
-2.7512 -11.4770 -3.8203 0.9516
-1.6508 -10.5701 -3.4630 0.9560
-0.7271 -9.7324 -3.1591 0.9598
0.0518 -8.9635 -2.9015 0.9630
0.7130 -8.2582 -2.6831 0.9658
1.0064 -7.9262 -2.5863 0.9670
1.5308 -7.3020 -2.4150 0.9691
1.7651 -7.0054 -2.3385 0.9701
1.9770 -6.6984 -2.2607 0.9711
2.1855 -6.4397 -2.2013 0.9718
2.3739 -6.1688 -2.1395 0.9726
2.5494 -5.9056 -2.0821 0.9733
2.8657 -5.4002 -1.9789 0.9746
3.0045 -5.1509 -1.9302 0.9752
3.1271 -4.8978 -1.8810 0.9759
3.3453 -4.4136 -1.7927 0.9770
3.5355 -3.9591 -1.7182 0.9779
3.7928 -3.3355 -1.6349 0.9790
3.8675 -3.1350 -1.6115 0.9793
3.9369 -2.9373 -1.5900 0.9796
4.0612 -2.5498 -1.5522 0.9800
4.1169 -2.3597 -1.5360 0.9802
4.1681 -2.1715 -1.5213 0.9804
4.2151 -1.9850 -1.5081 0.9806
4.3313 -1.4334 -1.4768 0.9810
4.3626 -1.2517 -1.4691 0.9811
4.3906 -1.0709 -1.4629 0.9812
3.9137 -0.3080 -1.2708 0.9836
3.8949 0.0071 -1.2608 0.9838
3.9003 0.1639 -1.2636 0.9837
3.9066 0.3217 -1.2688 0.9837
3.9139 0.4812 -1.2764 0.9836
0.2315 8.7433 -2.9386 0.9638
-1.3764 10.1927 -3.4556 0.9575
-1.8646 10.5830 -3.6105 0.9557
-3.6103 11.8844 -4.1731 0.9489
-5.1028 12.9530 -4.6775 0.9429
-13.5981 17.6481 -7.4854 0.9103
-17.0625 18.8050 -8.5313 0.8984
-17.4668 16.3897 -8.0475 0.9039
-22.3828 19.3721 -9.9457 0.8826
-24.9483 18.3076 -10.3969 0.8776
-27.7880 18.7222 -11.2576 0.8682
-31.3701 17.6520 -12.0938 0.8591
-29.6670 13.6846 -10.9769 0.8712
-33.0967 13.6826 -12.0327 0.8597
-26.3610 8.4925 -9.3051 0.8897
-32.0849 -24.5200 -13.5675 0.8433
-27.7315 -23.0148 -12.1080 0.8589
-20.9550 -20.4444 -9.8362 0.8838
-18.7833 -19.8596 -9.1842 0.8911
-16.3262 -18.7132 -8.3438 0.9005
-7.1784 -13.9129 -5.2600 0.9361
-6.2175 -13.3397 -4.9448 0.9398
-5.3559 -12.8113 -4.6654 0.9431
-4.5754 -12.3122 -4.4131 0.9461
-2.0806 -10.5285 -3.6058 0.9557
-1.5808 -10.1218 -3.4420 0.9577
-0.6990 -9.3552 -3.1519 0.9612
-0.3094 -8.9921 -3.0230 0.9627
0.0499 -8.6433 -2.9041 0.9642
0.3820 -8.3079 -2.7942 0.9655
0.6894 -7.9847 -2.6927 0.9667
0.9747 -7.6760 -2.5997 0.9679
1.2397 -7.3776 -2.5135 0.9689
1.4858 -7.0870 -2.4329 0.9699
1.9220 -6.5119 -2.2812 0.9718
2.3116 -6.0070 -2.1625 0.9732
2.4843 -5.7547 -2.1060 0.9739
2.9312 -5.0251 -1.9546 0.9758
3.5497 -3.6673 -1.7148 0.9787
3.6355 -3.4659 -1.6876 0.9790
3.8588 -2.8790 -1.6176 0.9799
4.0380 -2.3145 -1.5637 0.9806
4.2168 -1.5861 -1.5137 0.9812
4.3350 -0.8745 -1.4858 0.9815
4.3726 -0.5215 -1.4795 0.9816
4.3861 -0.3452 -1.4782 0.9816
4.3961 -0.1687 -1.4781 0.9816
4.4116 0.1853 -1.4835 0.9815
4.4142 0.5427 -1.4943 0.9814
0.2235 8.4397 -2.9411 0.9649
-0.8889 9.4235 -3.2974 0.9607
-1.3218 9.7883 -3.4408 0.9590
-1.7875 10.1451 -3.5886 0.9573
-2.2920 10.5170 -3.7497 0.9554
-2.8338 10.8823 -3.9174 0.9535
-3.4449 11.3399 -4.1286 0.9510
-7.3998 13.6815 -5.4186 0.9362
-8.4260 14.1858 -5.7478 0.9325
-12.3284 16.0002 -7.0365 0.9180
-14.0556 16.8003 -7.6307 0.9114
-17.3972 17.6908 -8.6435 0.9002
-17.4497 16.3736 -8.3359 0.9036
-22.3857 17.8536 -9.9747 0.8858
-24.8168 18.2111 -10.7232 0.8778
-28.8173 17.7759 -11.7951 0.8664
-31.5562 17.7567 -12.6138 0.8578
-34.7091 17.7345 -13.5782 0.8478
-33.0851 13.6778 -12.4717 0.8593
-26.3016 8.4734 -9.6262 0.8895
-34.3384 -4.4985 -12.0644 0.8636
-35.5319 -22.8848 -14.7231 0.8361
-24.6762 -17.3337 -10.5051 0.8801
-21.0639 -18.9604 -9.8727 0.8869
-19.4960 -19.0210 -9.4886 0.8910
-14.5165 -16.6390 -7.6923 0.9107
-11.3283 -15.3099 -6.6346 0.9225
-8.7876 -14.1205 -5.7938 0.9320
-7.7123 -13.5798 -5.4404 0.9360
-6.7214 -13.0272 -5.1066 0.9398
-5.8645 -12.5823 -4.8359 0.9429
-5.0689 -12.1249 -4.5781 0.9459
-4.3428 -11.6862 -4.3430 0.9486
-3.6773 -11.2614 -4.1269 0.9511
-2.5080 -10.4624 -3.7480 0.9555
-0.2983 -8.6674 -3.0212 0.9639
0.3692 -8.0298 -2.8002 0.9665
0.9447 -7.4398 -2.6126 0.9687
1.6668 -6.6154 -2.3766 0.9715
2.0703 -6.1004 -2.2442 0.9731
2.4220 -5.6103 -2.1288 0.9744
2.8608 -4.9044 -1.9779 0.9762
3.6407 -3.2018 -1.6890 0.9797
3.7146 -3.0110 -1.6658 0.9799
3.8469 -2.6364 -1.6246 0.9804
4.1010 -1.7336 -1.5510 0.9813
4.1393 -1.5569 -1.5406 0.9814
4.1743 -1.3814 -1.5317 0.9815
4.2057 -1.2067 -1.5242 0.9816
4.2333 -1.0325 -1.5180 0.9817
4.2573 -0.8588 -1.5130 0.9818
4.2777 -0.6855 -1.5092 0.9818
4.2946 -0.5122 -1.5067 0.9818
4.3177 -0.1657 -1.5052 0.9819
4.3263 0.0078 -1.5071 0.9818
4.3326 0.1820 -1.5106 0.9818
4.3346 0.5330 -1.5214 0.9817
-0.1159 8.4571 -3.0519 0.9647
-2.1957 10.0751 -3.7208 0.9571
-2.7164 10.4312 -3.8895 0.9552
-3.8844 11.1544 -4.2620 0.9510
-4.5524 11.5560 -4.4817 0.9486
-5.3004 12.0156 -4.7388 0.9457
-6.0937 12.4357 -4.9970 0.9428
-6.9508 12.8513 -5.2720 0.9398
-7.8632 13.2383 -5.5560 0.9366
-8.9151 13.7222 -5.9047 0.9328
-11.3016 14.6676 -6.6815 0.9243
-12.7529 15.2433 -7.1714 0.9190
-14.3692 15.8367 -7.7161 0.9131
-17.4159 16.3419 -8.6176 0.9034
-19.8012 17.1377 -9.4494 0.8946
-22.2583 17.7520 -10.2732 0.8860
-27.5433 18.5573 -11.9839 0.8683
-28.8158 17.7750 -12.2169 0.8659
-31.5545 17.7557 -13.0648 0.8573
-28.3938 14.5077 -11.5054 0.8732
-42.6016 13.7247 -16.1503 0.8267
-25.4798 -4.3853 -9.3292 0.8959
-37.9304 -20.3214 -15.5272 0.8328
-33.6821 -19.8262 -14.1030 0.8469
-29.9203 -19.2706 -12.8418 0.8596
-24.5351 -17.2346 -10.8191 0.8803
-23.6436 -18.0690 -10.7376 0.8811
-21.3053 -17.6815 -9.9903 0.8889
-16.7910 -16.3819 -8.4647 0.9051
-13.2582 -15.1967 -7.2771 0.9178
-11.7867 -14.6593 -6.7874 0.9231
-10.4594 -14.1356 -6.3451 0.9280
-9.2797 -13.6562 -5.9577 0.9322
-5.5479 -11.9032 -4.7387 0.9457
-3.5056 -10.7354 -4.0750 0.9531
-1.9026 -9.6280 -3.5413 0.9591
-0.6481 -8.6749 -3.1389 0.9637
0.0466 -8.0609 -2.9087 0.9663
0.3573 -7.7701 -2.8067 0.9675
0.6466 -7.4893 -2.7125 0.9685
1.1678 -6.9500 -2.5430 0.9705
1.6212 -6.4342 -2.3942 0.9722
1.8195 -6.1648 -2.3194 0.9730
2.0088 -5.9192 -2.2555 0.9738
2.5185 -5.2445 -2.0993 0.9756
2.7932 -4.7885 -2.0003 0.9767
2.9124 -4.5614 -1.9528 0.9772
3.0230 -4.3400 -1.9085 0.9778
3.1257 -4.1238 -1.8671 0.9782
3.2209 -3.9125 -1.8286 0.9787
3.6418 -2.9520 -1.6916 0.9803
3.9376 -2.0514 -1.6021 0.9813
4.0644 -1.5288 -1.5669 0.9817
4.0994 -1.3566 -1.5581 0.9818
4.1580 -1.0142 -1.5443 0.9820
4.2020 -0.6733 -1.5356 0.9821
4.2498 0.0077 -1.5335 0.9821
4.2558 0.1788 -1.5370 0.9820
0.2088 7.8830 -2.9447 0.9669
-0.4561 8.4582 -3.1630 0.9645
-0.8259 8.7554 -3.2839 0.9631
-1.2234 9.0601 -3.4138 0.9617
-1.6494 9.3613 -3.5495 0.9602
-2.1070 9.6683 -3.6950 0.9586
-3.6991 10.6224 -4.2001 0.9531
-4.3390 11.0141 -4.4204 0.9507
-5.7407 11.7153 -4.8716 0.9458
-6.5451 12.1011 -5.1373 0.9429
-7.4072 12.4706 -5.4162 0.9399
-10.4707 13.5892 -6.4060 0.9294
-11.6994 13.9841 -6.8083 0.9251
-16.7189 15.6878 -8.5610 0.9067
-17.7249 15.3407 -8.7533 0.9048
-19.7438 15.7466 -9.4302 0.8978
-27.1628 16.7553 -11.9174 0.8726
-35.4323 14.6482 -14.3169 0.8490
-38.5641 14.1574 -15.3400 0.8391
-34.0916 -4.4661 -12.8389 0.8635
-42.9355 -16.7180 -17.2051 0.8214
-38.9495 -16.9977 -15.8688 0.8341
-35.2346 -17.0927 -14.6234 0.8460
-28.6697 -16.8758 -12.4225 0.8676
-25.8112 -16.6240 -11.4642 0.8771
-19.1760 -15.9144 -9.3052 0.8991
-13.6183 -14.3986 -7.4005 0.9189
-9.6810 -13.0836 -6.0776 0.9329
-8.6668 -12.7542 -5.7581 0.9363
-7.6772 -12.3361 -5.4256 0.9398
-5.9879 -11.6056 -4.8765 0.9458
-4.5725 -10.9375 -4.4267 0.9506
-3.3480 -10.2527 -4.0274 0.9550
-2.2922 -9.5620 -3.6717 0.9589
-1.8346 -9.2836 -3.5336 0.9604
-0.2780 -8.0772 -3.0179 0.9661
0.0450 -7.7972 -2.9116 0.9673
0.3450 -7.5033 -2.8048 0.9684
0.6270 -7.2618 -2.7217 0.9694
0.8893 -7.0038 -2.6363 0.9703
1.3635 -6.5038 -2.4814 0.9720
1.5776 -6.2613 -2.4111 0.9728
1.7778 -6.0234 -2.3451 0.9735
2.1406 -5.5625 -2.2256 0.9749
2.3049 -5.3391 -2.1715 0.9755
2.4589 -5.1202 -2.1210 0.9760
2.6013 -4.9019 -2.0722 0.9766
2.9558 -4.2436 -1.9311 0.9782
3.0577 -4.0341 -1.8902 0.9786
3.4200 -3.2604 -1.7644 0.9800
3.5712 -2.8948 -1.7166 0.9806
3.7019 -2.5371 -1.6758 0.9810
3.8150 -2.1867 -1.6420 0.9814
3.8653 -2.0137 -1.6275 0.9816
3.9113 -1.8419 -1.6143 0.9817
3.9918 -1.5014 -1.5925 0.9820
4.0847 -0.9963 -1.5700 0.9822
4.1084 -0.8288 -1.5650 0.9823
4.1449 -0.4944 -1.5587 0.9823
4.1674 -0.1599 -1.5573 0.9824
4.1820 0.5142 -1.5734 0.9822
-0.1082 7.8965 -3.0490 0.9667
-0.4404 8.1668 -3.1577 0.9655
-1.5870 9.0071 -3.5311 0.9615
-2.0246 9.2901 -3.6710 0.9601
-2.4936 9.5756 -3.8203 0.9585
-4.1316 10.4878 -4.3521 0.9528
-4.7503 10.7686 -4.5442 0.9508
-5.4555 11.1333 -4.7868 0.9482
-6.1908 11.4461 -5.0242 0.9457
-12.0532 13.2841 -6.9254 0.9260
-13.3836 13.6095 -7.3696 0.9214
-16.8592 14.5915 -8.6086 0.9088
-21.5744 14.5358 -10.0439 0.8945
-23.7447 14.6469 -10.7715 0.8873
-26.0842 14.6776 -11.5558 0.8796
-31.2556 14.4174 -13.2895 0.8628
-34.0591 14.0805 -14.2293 0.8538
-39.9388 12.8668 -16.2005 0.8353
-42.9026 11.9425 -17.1941 0.8262
-25.7965 -4.4398 -10.1062 0.8938
-43.6307 -13.0658 -17.5845 0.8226
-40.4176 -13.8955 -16.5013 0.8326
-34.1946 -14.9226 -14.4046 0.8522
-31.3329 -15.1999 -13.4457 0.8613
-25.8893 -15.2391 -11.5987 0.8791
-20.9470 -14.7141 -9.8833 0.8960
-13.9153 -13.5763 -7.5060 0.9200
-10.1086 -12.5721 -6.2284 0.9332
-9.0831 -12.2756 -5.8959 0.9366
-8.1401 -11.9790 -5.5918 0.9398
-7.2398 -11.6334 -5.2903 0.9429
-5.6973 -11.0424 -4.7974 0.9481
-2.6877 -9.5093 -3.8153 0.9585
-2.2094 -9.2167 -3.6593 0.9602
-1.3488 -8.6361 -3.3747 0.9632
-0.6035 -8.0780 -3.1275 0.9659
0.0435 -7.5285 -2.9067 0.9682
0.3355 -7.2952 -2.8196 0.9692
1.3265 -6.3274 -2.4960 0.9727
1.5360 -6.0960 -2.4272 0.9734
1.9159 -5.6453 -2.3017 0.9748
2.4015 -5.0007 -2.1418 0.9765
2.7824 -4.3580 -1.9963 0.9781
3.6908 -2.3172 -1.6826 0.9815
3.7450 -2.1466 -1.6666 0.9817
3.7949 -1.9771 -1.6521 0.9818
3.8406 -1.8086 -1.6390 0.9820
3.9556 -1.3090 -1.6087 0.9823
4.0134 -0.9789 -1.5950 0.9824
4.0567 -0.6500 -1.5862 0.9825
4.1029 0.0074 -1.5841 0.9826
4.1084 0.1726 -1.5876 0.9825
4.1103 0.3385 -1.5923 0.9825
4.1088 0.5052 -1.5983 0.9824
0.1956 7.3866 -2.9474 0.9687
-0.4256 7.8925 -3.1527 0.9665
-1.1356 8.4095 -3.3848 0.9641
-1.5277 8.6706 -3.5118 0.9628
-1.9469 8.9338 -3.6472 0.9614
-2.3952 9.1979 -3.7912 0.9599
-3.3900 9.7348 -4.1117 0.9566
-4.5368 10.2846 -4.4837 0.9527
-5.1790 10.5691 -4.6947 0.9506
-8.2247 11.6105 -5.6755 0.9406
-10.1246 12.1017 -6.2937 0.9343
-11.1962 12.3396 -6.6461 0.9308
-15.0402 13.0171 -7.9341 0.9179
-17.6239 12.9328 -8.7195 0.9102
-21.0705 12.9973 -9.8749 0.8989
-22.9582 12.9186 -10.5078 0.8928
-24.9471 12.7466 -11.1746 0.8863
-29.1686 12.0587 -12.5898 0.8729
-31.3523 11.5099 -13.3219 0.8660
-33.5371 10.8044 -14.0543 0.8592
-35.6750 9.9306 -14.7711 0.8526
-37.7093 8.8817 -15.4530 0.8463
-16.9197 3.2740 -6.8741 0.9285
-17.5810 2.6744 -7.0934 0.9263
-46.0193 3.2550 -18.4020 0.8198
-46.4260 -0.4521 -18.5192 0.8188
-45.7047 -2.2831 -18.2534 0.8211
-43.8451 -5.7439 -17.6383 0.8266
-40.8566 -8.7345 -16.6651 0.8353
-38.6901 -9.9117 -15.9310 0.8420
-36.3753 -10.8930 -15.1460 0.8491
-29.1395 -12.7166 -12.6817 0.8720
-26.6713 -12.9385 -11.8244 0.8802
-24.4598 -13.1044 -11.0685 0.8874
-15.5952 -12.9426 -8.0838 0.9164
-14.1523 -12.7390 -7.5952 0.9213
-11.5922 -12.2564 -6.7291 0.9299
-10.4778 -12.0098 -6.3573 0.9337
-9.4674 -11.7746 -6.0265 0.9370
-8.5400 -11.5416 -5.7270 0.9400
-7.6492 -11.2566 -5.4286 0.9431
-6.8657 -11.0322 -5.1831 0.9456
-6.1132 -10.7640 -4.9376 0.9481
-5.4140 -10.4932 -4.7098 0.9504
-4.7623 -10.2177 -4.4966 0.9526
-4.1567 -9.9429 -4.2987 0.9547
-3.5931 -9.6690 -4.1144 0.9566
-2.5795 -9.1266 -3.7830 0.9600
-1.2999 -8.3233 -3.3603 0.9644
-0.5834 -7.8084 -3.1233 0.9668
0.0423 -7.3158 -2.9182 0.9690
0.3254 -7.0762 -2.8255 0.9700
0.5906 -6.8409 -2.7389 0.9709
0.8393 -6.6099 -2.6577 0.9717
1.0725 -6.3829 -2.5817 0.9725
1.2912 -6.1589 -2.5100 0.9733
2.0379 -5.2957 -2.2634 0.9759
2.1969 -5.0890 -2.2110 0.9764
2.4815 -4.6761 -2.1116 0.9775
3.0287 -3.6790 -1.9008 0.9797
3.1215 -3.4956 -1.8693 0.9800
3.2893 -3.1359 -1.8128 0.9806
3.4364 -2.7855 -1.7645 0.9811
3.6770 -2.1076 -1.6905 0.9819
3.7265 -1.9414 -1.6761 0.9821
3.7723 -1.7765 -1.6632 0.9822
3.8866 -1.2862 -1.6330 0.9825
3.9440 -0.9620 -1.6193 0.9827
3.9869 -0.6389 -1.6106 0.9828
4.0323 0.0073 -1.6084 0.9828
4.0375 0.4964 -1.6226 0.9826
0.1896 7.1582 -2.9486 0.9695
-0.4117 7.6339 -3.1480 0.9675
-0.7426 7.8727 -3.2562 0.9664
-1.0957 8.1143 -3.3716 0.9652
-1.8736 8.5974 -3.6233 0.9627
-4.3289 9.8132 -4.4166 0.9547
-4.9271 10.0550 -4.6108 0.9527
-6.2513 10.5246 -5.0407 0.9484
-8.5524 11.0996 -5.7700 0.9412
-11.4201 11.6128 -6.7068 0.9320
-12.5248 11.7524 -7.0724 0.9284
-13.7013 11.8583 -7.4616 0.9246
-15.0988 12.0420 -7.9527 0.9199
-16.5518 12.1461 -8.4540 0.9150
-20.4819 11.5251 -9.6776 0.9033
-22.1049 11.2944 -10.2217 0.8982
-25.4779 10.5329 -11.3525 0.8876
-27.1852 9.9801 -11.9249 0.8823
-28.8686 9.3004 -12.4892 0.8770
-17.0220 2.5894 -7.0900 0.9282
-37.5403 4.1761 -15.5538 0.8493
-38.7632 1.1802 -15.9693 0.8456
-38.8074 -0.3779 -15.9809 0.8455
-25.8053 -4.4413 -10.7824 0.8929
-34.3572 -7.3450 -14.4673 0.8590
-30.9306 -9.2626 -13.2955 0.8696
-27.1369 -10.5665 -11.9917 0.8816
-17.0893 -12.0043 -8.5997 0.9136
-14.3095 -11.8757 -7.6573 0.9227
-13.0412 -11.7388 -7.2252 0.9269
-10.7986 -11.4173 -6.4712 0.9343
-9.8062 -11.2400 -6.1423 0.9375
-8.0542 -10.8850 -5.5758 0.9431
-7.2551 -10.6767 -5.3155 0.9457
-5.7882 -10.1917 -4.8263 0.9506
-5.1542 -9.9896 -4.6288 0.9525
-3.4411 -9.2599 -4.0678 0.9582
-2.4786 -8.7697 -3.7526 0.9613
-1.6350 -8.2738 -3.4729 0.9642
-1.2541 -8.0300 -3.3467 0.9655
-0.5628 -7.5324 -3.1104 0.9679
-0.2520 -7.3230 -3.0173 0.9688
0.0410 -7.0939 -2.9212 0.9698
0.3158 -6.8682 -2.8312 0.9707
0.5738 -6.6458 -2.7468 0.9716
1.2574 -5.9977 -2.5234 0.9738
1.4579 -5.7861 -2.4571 0.9745
1.8155 -5.3497 -2.3263 0.9759
1.9795 -5.1440 -2.2696 0.9764
2.1460 -4.9710 -2.2296 0.9768
2.2930 -4.7749 -2.1812 0.9773
2.4249 -4.5695 -2.1302 0.9779
2.5474 -4.3671 -2.0819 0.9784
2.6616 -4.1688 -2.0367 0.9788
2.7682 -3.9741 -1.9943 0.9793
2.9688 -3.6063 -1.9235 0.9800
3.0608 -3.4276 -1.8922 0.9803
3.3723 -2.7336 -1.7876 0.9814
3.4383 -2.5652 -1.7664 0.9816
3.4999 -2.3986 -1.7472 0.9818
3.7854 -1.4238 -1.6654 0.9827
3.8497 -1.1045 -1.6492 0.9828
3.9564 -0.1519 -1.6304 0.9830
3.9700 0.3269 -1.6403 0.9829
3.9680 0.4879 -1.6462 0.9829
-0.0981 7.1636 -3.0434 0.9693
-0.3984 7.3880 -3.1430 0.9684
-1.4202 8.0603 -3.4768 0.9651
-2.2147 8.5046 -3.7333 0.9625
-4.1375 9.3793 -4.3548 0.9564
-5.2998 9.7988 -4.7324 0.9527
-5.9385 9.9979 -4.9399 0.9507
-6.6095 10.1735 -5.1537 0.9486
-9.7446 10.7397 -6.1603 0.9389
-10.6658 10.8459 -6.4619 0.9360
-11.6505 10.9320 -6.7868 0.9329
-12.7019 10.9933 -7.1360 0.9296
-13.8621 11.0556 -7.5321 0.9258
-16.3860 11.0401 -8.3933 0.9177
-19.8255 10.1298 -9.4576 0.9078
-21.2048 9.7812 -9.9200 0.9035
-28.0473 7.8073 -12.3675 0.8812
-32.5141 3.6170 -13.8973 0.8675
-33.0503 2.3377 -14.0749 0.8659
-33.3564 1.0156 -14.1764 0.8650
-33.3678 -0.3249 -14.1754 0.8650
-33.0988 -1.6534 -14.0780 0.8659
-30.8939 -2.7907 -13.1772 0.8739
-30.2534 -3.9633 -12.9615 0.8758
-25.5226 -4.3926 -11.0014 0.8936
-29.4300 -6.2917 -12.7844 0.8774
-25.3669 -8.7211 -11.3950 0.8900
-23.8992 -9.3058 -10.8949 0.8945
-22.4358 -9.7911 -10.3988 0.8991
-19.6354 -10.5198 -9.4628 0.9077
-16.9454 -10.9139 -8.5623 0.9161
-13.2011 -10.9558 -7.2875 0.9282
-12.0889 -10.8817 -6.9094 0.9318
-11.0647 -10.7951 -6.5668 0.9350
-10.1008 -10.6796 -6.2444 0.9381
-9.2226 -10.5710 -5.9594 0.9409
-8.3959 -10.4421 -5.6918 0.9434
-6.1801 -9.9305 -4.9687 0.9504
-4.3426 -9.3170 -4.3667 0.9563
-3.7924 -9.0715 -4.1768 0.9582
-2.8278 -8.6599 -3.8699 0.9612
-2.3836 -8.4333 -3.7228 0.9626
-1.9596 -8.1747 -3.5710 0.9641
-1.5769 -7.9795 -3.4552 0.9653
-1.2114 -7.7569 -3.3351 0.9665
-0.8657 -7.5113 -3.2119 0.9677
-0.5466 -7.3163 -3.1166 0.9686
0.0398 -6.8833 -2.9241 0.9705
1.0160 -6.0467 -2.6047 0.9737
1.2250 -5.8434 -2.5362 0.9744
1.4213 -5.6407 -2.4711 0.9750
1.9333 -5.0238 -2.2867 0.9769
2.0969 -4.8574 -2.2475 0.9773
2.3703 -4.4667 -2.1481 0.9783
2.4913 -4.2711 -2.1005 0.9787
2.8135 -3.7120 -1.9786 0.9800
3.0018 -3.3616 -1.9145 0.9806
3.0871 -3.1894 -1.8856 0.9809
3.1669 -3.0192 -1.8587 0.9812
3.2414 -2.8506 -1.8337 0.9814
3.3755 -2.5184 -1.7890 0.9819
3.4363 -2.3550 -1.7696 0.9821
3.4932 -2.1932 -1.7521 0.9822
3.5464 -2.0327 -1.7364 0.9824
3.6825 -1.5567 -1.6984 0.9828
3.7539 -1.2423 -1.6797 0.9830
3.8525 -0.6173 -1.6574 0.9832
3.8807 -0.3054 -1.6536 0.9832
3.8896 -0.1493 -1.6535 0.9832
3.8965 0.0071 -1.6552 0.9832
3.9012 0.1639 -1.6587 0.9832
3.9025 0.3214 -1.6634 0.9831
3.9002 0.4795 -1.6693 0.9831
0.1784 6.7359 -2.9510 0.9710
-0.6948 7.3663 -3.2404 0.9682
-2.5494 8.3922 -3.8412 0.9624
-2.9916 8.5907 -3.9838 0.9611
-3.9600 8.9770 -4.2970 0.9581
-5.0534 9.3432 -4.6520 0.9547
-5.6523 9.5160 -4.8472 0.9528
-6.9396 9.7964 -5.2577 0.9489
-7.6380 9.9128 -5.4805 0.9468
-10.0279 10.1972 -6.2634 0.9395
-15.0201 10.1198 -7.9317 0.9240
-18.6400 9.5240 -9.1672 0.9126
-20.0773 9.2611 -9.6831 0.9080
-21.0273 8.6930 -9.9647 0.9054
-23.7734 7.6589 -10.9384 0.8967
-24.5018 6.8204 -11.1384 0.8949
-16.4505 3.8746 -7.4016 0.9289
-16.4431 3.1818 -7.3347 0.9295
-28.4529 2.0125 -12.4919 0.8829
-28.7203 0.8745 -12.5838 0.8821
-28.7575 -0.2800 -12.5948 0.8820
-28.5403 -1.4257 -12.5147 0.8827
-36.1538 -3.2659 -15.8978 0.8534
-26.4858 -3.4698 -11.6984 0.8899
-22.1489 -4.7351 -9.9192 0.9058
-23.7350 -7.1077 -10.8507 0.8975
-22.6312 -7.7806 -10.4806 0.9008
-20.2781 -8.8494 -9.6895 0.9079
-19.1095 -9.2702 -9.3017 0.9114
-17.9069 -9.5937 -8.8968 0.9151
-16.7188 -9.8412 -8.4962 0.9188
-15.5342 -10.0050 -8.0920 0.9225
-10.3546 -10.1023 -6.3355 0.9388
-9.5013 -10.0457 -6.0555 0.9414
-8.7001 -9.9722 -5.7957 0.9438
-7.9406 -9.8758 -5.5497 0.9462
-4.6972 -9.1039 -4.4864 0.9563
-4.1562 -8.9173 -4.3086 0.9579
-3.6475 -8.7249 -4.1415 0.9595
-0.8408 -7.2952 -3.2160 0.9684
-0.5297 -7.0898 -3.1136 0.9694
0.5424 -6.2824 -2.7616 0.9728
1.3815 -5.4827 -2.4762 0.9756
1.7376 -5.1201 -2.3679 0.9767
1.8983 -4.9329 -2.3148 0.9772
2.0496 -4.7478 -2.2648 0.9777
2.1899 -4.5601 -2.2154 0.9782
2.3177 -4.3675 -2.1654 0.9786
2.4372 -4.1783 -2.1184 0.9791
2.9446 -3.2975 -1.9361 0.9809
3.1822 -2.7985 -1.8559 0.9817
3.2511 -2.6353 -1.8328 0.9819
3.3153 -2.4735 -1.8115 0.9821
3.3749 -2.3129 -1.7918 0.9823
3.6192 -1.5299 -1.7208 0.9830
3.6900 -1.2211 -1.7022 0.9832
3.7460 -0.9137 -1.6886 0.9833
3.7687 -0.7603 -1.6837 0.9834
3.8035 -0.4537 -1.6775 0.9834
3.8156 -0.3003 -1.6762 0.9834
3.8244 -0.1468 -1.6761 0.9834
3.8310 0.0069 -1.6778 0.9834
3.8329 0.4713 -1.6912 0.9833
-0.0923 6.7369 -3.0401 0.9709
-0.3739 6.9344 -3.1335 0.9700
-0.6728 7.1323 -3.2325 0.9691
-0.9896 7.3281 -3.3366 0.9681
-1.6802 7.7098 -3.5605 0.9660
-2.4546 8.0802 -3.8104 0.9636
-2.8764 8.2599 -3.9465 0.9623
-3.3228 8.4348 -4.0906 0.9610
-3.7951 8.6032 -4.2428 0.9596
-4.2961 8.7674 -4.4054 0.9581
-4.8268 8.9242 -4.5780 0.9565
-6.5925 9.3064 -5.1460 0.9512
-7.9191 9.4655 -5.5686 0.9473
-10.2345 9.6033 -6.3326 0.9403
-11.0837 9.5928 -6.6142 0.9377
-12.9007 9.4668 -7.2202 0.9322
-13.8648 9.3415 -7.5435 0.9293
-14.8760 9.1762 -7.8866 0.9262
-15.9194 8.9578 -8.2422 0.9230
-19.0887 7.8915 -9.3202 0.9133
-16.3183 3.8435 -7.5646 0.9291
-16.3808 2.4919 -7.4763 0.9299
-24.9368 1.7638 -11.2800 0.8961
-25.1501 0.7658 -11.3534 0.8955
-25.2147 -0.2455 -11.3779 0.8952
-25.0753 -1.2526 -11.3285 0.8957
-24.7673 -2.2373 -11.2210 0.8966
-23.5272 -3.0822 -10.7066 0.9011
-22.9940 -3.9574 -10.5278 0.9027
-22.0002 -4.7033 -10.1512 0.9060
-21.3389 -6.3902 -10.0509 0.9069
-19.4936 -7.5904 -9.4391 0.9123
-18.5000 -8.0735 -9.1078 0.9152
-16.4067 -8.7900 -8.3985 0.9216
-15.3544 -9.0380 -8.0393 0.9248
-14.3201 -9.2230 -7.6857 0.9280
-10.5584 -9.5040 -6.4099 0.9396
-9.7360 -9.4988 -6.1375 0.9421
-8.2296 -9.4328 -5.6484 0.9465
-6.8513 -9.2593 -5.1973 0.9507
-6.2127 -9.1427 -4.9877 0.9527
-5.6082 -9.0116 -4.7893 0.9545
-5.0357 -8.8668 -4.6011 0.9562
-4.4946 -8.7112 -4.4230 0.9579
-2.2119 -7.8260 -3.6696 0.9649
-1.1337 -7.2588 -3.3150 0.9683
-0.8145 -7.0670 -3.2098 0.9693
-0.2300 -6.6831 -3.0173 0.9711
0.2898 -6.3019 -2.8465 0.9727
0.7523 -5.9251 -2.6950 0.9741
0.9642 -5.7383 -2.6255 0.9748
1.1602 -5.5344 -2.5515 0.9755
1.6972 -5.0010 -2.3829 0.9771
1.9917 -4.6137 -2.2675 0.9782
2.2669 -4.2718 -2.1821 0.9790
2.3849 -4.0886 -2.1358 0.9794
2.4954 -3.9083 -2.0923 0.9799
2.9728 -3.0712 -1.9286 0.9814
3.0512 -2.9088 -1.9021 0.9817
3.3158 -2.2724 -1.8138 0.9825
3.4232 -1.9621 -1.7803 0.9828
3.5166 -1.6560 -1.7539 0.9831
3.7057 -0.7476 -1.7057 0.9835
3.7246 -0.5968 -1.7021 0.9836
3.7521 -0.2953 -1.6983 0.9836
3.7671 0.0068 -1.6998 0.9836
3.7723 0.3106 -1.7079 0.9835
0.1683 6.3544 -2.9534 0.9724
-0.0896 6.5397 -3.0388 0.9716
-0.3627 6.7249 -3.1291 0.9707
-0.6518 6.9102 -3.2249 0.9699
-1.9843 7.6200 -3.6585 0.9659
-2.7687 7.9507 -3.9116 0.9635
-3.1941 8.1079 -4.0489 0.9623
-4.1160 8.3997 -4.3460 0.9596
-5.1442 8.6606 -4.6802 0.9565
-6.2766 8.8605 -5.0450 0.9532
-6.8791 8.9280 -5.2367 0.9515
-8.1733 9.0080 -5.6514 0.9478
-11.1976 8.9306 -6.6547 0.9388
-13.7595 8.4875 -7.5114 0.9312
-16.5079 7.6147 -8.4466 0.9229
-17.4137 7.1990 -8.7549 0.9202
-18.2984 6.7176 -9.0566 0.9176
-19.8944 5.5379 -9.5948 0.9129
-19.6315 2.1839 -9.1775 0.9166
-22.3412 1.5802 -10.4061 0.9059
-22.4882 0.6847 -10.4534 0.9055
-21.1246 -3.6357 -9.9593 0.9098
-20.7440 -4.4347 -9.8559 0.9107
-19.3969 -5.8087 -9.4077 0.9146
-16.9282 -7.3875 -8.5816 0.9218
-16.0292 -7.7759 -8.2776 0.9244
-13.2701 -8.5468 -7.3337 0.9327
-12.3773 -8.6944 -7.0278 0.9355
-11.4730 -8.7679 -6.7090 0.9383
-10.7118 -8.8899 -6.4677 0.9404
