ply
format ascii 1.0
element vertex 1565
property float32 x
property float32 y
property float32 z
property float32 I
end_header
4.0203 -0.2412 -1.6065 0.9828
4.0387 0.2454 -1.6139 0.9827
4.0388 0.4089 -1.6192 0.9827
4.0353 0.5732 -1.6258 0.9826
4.0095 0.9030 -1.6394 0.9825
3.9905 1.0690 -1.6478 0.9824
3.9676 1.2358 -1.6576 0.9823
3.7441 2.2606 -1.7446 0.9813
3.6915 2.4365 -1.7643 0.9811
3.6342 2.6143 -1.7857 0.9809
3.1780 3.7278 -1.9539 0.9791
3.0809 3.9230 -1.9897 0.9787
2.8614 4.3172 -2.0659 0.9779
2.6076 4.7180 -2.1502 0.9771
2.3189 5.1307 -2.2459 0.9760
2.1602 5.3419 -2.2984 0.9755
1.9794 5.5239 -2.3406 0.9750
1.8012 5.7438 -2.4011 0.9744
1.4135 6.2199 -2.5442 0.9729
0.9623 6.6816 -2.6926 0.9713
0.7141 6.9205 -2.7751 0.9705
-0.1364 7.6640 -3.0575 0.9675
-0.4598 7.9185 -3.1638 0.9664
-1.9930 8.9617 -3.6619 0.9612
-2.4447 9.2256 -3.8069 0.9597
-2.9273 9.4885 -3.9608 0.9581
-3.4483 9.7651 -4.1308 0.9564
-5.2530 10.6004 -4.7190 0.9503
-5.9272 10.8423 -4.9288 0.9482
-6.6756 11.1241 -5.1748 0.9457
-7.4718 11.3869 -5.4325 0.9430
-8.3259 11.6401 -5.7085 0.9402
-9.2538 11.8960 -6.0117 0.9372
-11.3262 12.3662 -6.6889 0.9303
-13.6719 12.7074 -7.4453 0.9228
-15.2269 13.0521 -7.9997 0.9173
-21.2946 12.9918 -9.9500 0.8981
-23.1967 12.9024 -10.5877 0.8920
-25.1990 12.7178 -11.2589 0.8855
-27.2871 12.4217 -11.9590 0.8789
-31.6278 11.4295 -13.4142 0.8652
-35.9409 9.8062 -14.8601 0.8518
-37.9591 8.7338 -15.5367 0.8456
-16.9352 3.1858 -6.8736 0.9285
-44.8566 4.7512 -17.9925 0.8234
-46.1082 3.0161 -18.4309 0.8196
-46.3820 -0.7002 -18.5029 0.8189
-45.7793 -2.5344 -18.2884 0.8208
-44.8403 -4.2958 -17.9678 0.8237
-32.4828 -4.4358 -13.0769 0.8683
-40.5682 -8.9073 -16.5673 0.8362
-38.3712 -10.0574 -15.8225 0.8430
-36.0608 -11.0188 -15.0404 0.8501
-33.7929 -11.8306 -14.2814 0.8571
-31.3939 -12.4288 -13.4680 0.8647
-28.7745 -12.7524 -12.5542 0.8732
-24.1555 -13.1206 -10.9647 0.8884
-18.5305 -13.1791 -9.0702 0.9067
-16.9144 -13.0845 -8.5299 0.9120
-13.9465 -12.7046 -7.5251 0.9220
-10.3175 -11.9712 -6.3038 0.9342
-8.4047 -11.5049 -5.6832 0.9405
-7.5479 -11.2555 -5.4056 0.9433
-6.7463 -10.9910 -5.1441 0.9460
-6.0017 -10.7220 -4.9012 0.9485
-4.6648 -10.1745 -4.4646 0.9529
-4.0656 -9.8997 -4.2688 0.9550
-2.9885 -9.3531 -3.9166 0.9586
-1.6313 -8.5448 -3.4699 0.9632
-0.5291 -7.7673 -3.1054 0.9670
-0.2086 -7.4986 -2.9922 0.9682
0.0902 -7.2758 -2.9024 0.9692
0.6331 -6.8020 -2.7249 0.9710
0.8793 -6.5714 -2.6446 0.9719
-13.3473 11.8793 -7.3577 0.9256
-16.0767 12.1420 -8.2960 0.9165
-17.6493 12.2477 -8.8462 0.9113
-18.4027 11.7034 -8.9805 0.9100
-21.5462 11.3828 -10.0344 0.9000
-23.2043 11.0896 -10.5902 0.8947
-24.8994 10.6924 -11.1585 0.8894
-29.9551 8.7758 -12.8534 0.8737
-16.7969 3.4850 -7.0640 0.9285
-16.8465 2.7942 -7.0318 0.9288
-37.1327 4.6342 -15.4092 0.8505
-38.1446 3.2098 -15.7627 0.8474
-38.8244 0.1373 -15.9873 0.8454
-38.6554 -1.4182 -15.9283 0.8459
-38.1511 -2.9389 -15.7565 0.8474
-34.5129 -5.4739 -14.3894 0.8597
-33.3338 -8.0765 -14.1234 0.8621
-29.7547 -9.7985 -12.8997 0.8733
-27.7700 -10.3999 -12.2107 0.8796
-25.7867 -10.8581 -11.5215 0.8860
-22.1924 -11.5242 -10.2971 0.8975
-20.5540 -11.7456 -9.7482 0.9027
-19.0554 -11.9301 -9.2576 0.9073
-17.5513 -11.9966 -8.7543 0.9121
-14.7279 -11.9097 -7.7995 0.9213
-12.1746 -11.5809 -6.9191 0.9299
-11.1277 -11.4717 -6.5811 0.9332
-10.1035 -11.2905 -6.2389 0.9366
-7.4984 -10.7435 -5.3949 0.9449
-6.7331 -10.5244 -5.1448 0.9474
-4.7270 -9.8228 -4.4888 0.9539
-4.1306 -9.5478 -4.2838 0.9560
-3.6003 -9.3349 -4.1199 0.9576
-2.6170 -8.8445 -3.7981 0.9609
-1.3665 -8.1031 -3.3838 0.9651
-0.6624 -7.6257 -3.1520 0.9674
-0.3435 -7.3921 -3.0472 0.9685
-0.0445 -7.1428 -2.9413 0.9696
0.2357 -6.9350 -2.8573 0.9704
0.7458 -6.4912 -2.6905 0.9721
1.1958 -6.0604 -2.5437 0.9736
1.7725 -5.4318 -2.3528 0.9756
1.9328 -5.2036 -2.2858 0.9763
2.3878 -4.6287 -2.1447 0.9777
2.5129 -4.4250 -2.0954 0.9782
2.6295 -4.2253 -2.0493 0.9787
2.7383 -4.0295 -2.0061 0.9791
2.9414 -3.6576 -1.9327 0.9799
3.0352 -3.4780 -1.9009 0.9802
3.2050 -3.1257 -1.8435 0.9808
3.3530 -2.7813 -1.7939 0.9813
3.4200 -2.6121 -1.7721 0.9816
3.4831 -2.4450 -1.7524 0.9818
3.5415 -2.2792 -1.7342 0.9819
3.5962 -2.1150 -1.7180 0.9821
3.6467 -1.9518 -1.7032 0.9823
3.6936 -1.7897 -1.6901 0.9824
3.7364 -1.6284 -1.6783 0.9825
3.8103 -1.3077 -1.6589 0.9827
3.8417 -1.1480 -1.6511 0.9828
3.8934 -0.8297 -1.6392 0.9829
3.9308 -0.5121 -1.6323 0.9830
3.9443 -0.3533 -1.6307 0.9830
3.9674 0.1241 -1.6345 0.9830
3.9499 0.7683 -1.6570 0.9827
3.9336 0.9307 -1.6645 0.9827
3.8618 1.4225 -1.6947 0.9824
3.8299 1.5884 -1.7073 0.9822
3.7536 1.9235 -1.7368 0.9819
3.7089 2.0930 -1.7537 0.9817
3.6599 2.2640 -1.7721 0.9816
3.6062 2.4364 -1.7921 0.9813
3.4163 2.9651 -1.8627 0.9806
3.2629 3.3276 -1.9191 0.9800
2.8825 4.0829 -2.0580 0.9786
2.3720 4.8618 -2.2275 0.9769
2.2228 5.0629 -2.2769 0.9764
1.8950 5.4737 -2.3852 0.9753
1.1026 6.3298 -2.6457 0.9726
0.8717 6.5529 -2.7221 0.9718
0.6258 6.7799 -2.8037 0.9710
0.3637 7.0107 -2.8908 0.9701
-0.2139 7.4826 -3.0825 0.9681
-0.5320 7.7220 -3.1873 0.9671
-1.2334 8.2048 -3.4165 0.9647
-1.6191 8.4457 -3.5411 0.9635
-2.0307 8.6880 -3.6740 0.9621
-2.4701 8.9313 -3.8158 0.9607
-2.9390 9.1738 -3.9667 0.9592
-3.4400 9.4169 -4.1283 0.9576
-3.9766 9.6618 -4.3023 0.9558
-5.1663 10.1488 -4.6894 0.9519
-6.5208 10.6052 -5.1265 0.9476
-9.8063 11.3603 -6.1798 0.9371
-11.8377 11.6701 -6.8450 0.9306
-13.0269 11.8485 -7.2512 0.9267
-17.1851 12.2023 -8.6790 0.9129
-18.0021 11.7233 -8.8462 0.9113
-21.1098 11.4452 -9.8881 0.9013
-22.7550 11.1780 -10.4396 0.8961
-26.1504 10.3295 -11.5779 0.8855
-31.1099 8.1285 -13.2405 0.8701
-16.7974 3.6745 -7.0804 0.9283
-18.3976 2.4979 -7.6453 0.9228
-35.7424 -3.8138 -14.8016 0.8560
-34.8061 -5.1361 -14.4877 0.8588
-35.0851 -6.6281 -14.7030 0.8569
-33.7494 -7.7927 -14.2630 0.8608
-32.1503 -8.7986 -13.7257 0.8657
-22.6516 -11.4541 -10.4522 0.8960
-20.9733 -11.6869 -9.8867 0.9013
-17.9479 -11.9857 -8.8871 0.9109
-15.0889 -11.9347 -7.9220 0.9201
-11.4148 -11.5164 -6.6770 0.9323
-8.5394 -10.9951 -5.7327 0.9416
-6.9333 -10.5841 -5.2102 0.9467
-6.2055 -10.3589 -4.9724 0.9491
-4.8902 -9.8876 -4.5423 0.9534
-4.2824 -9.6128 -4.3334 0.9555
-3.2249 -9.1551 -3.9970 0.9589
-1.4683 -8.1685 -3.4176 0.9647
-1.0980 -7.9267 -3.2952 0.9660
0.9170 -6.3322 -2.6347 0.9727
1.3466 -5.9047 -2.4939 0.9741
1.5418 -5.6942 -2.4292 0.9748
1.8976 -5.2828 -2.3115 0.9760
2.2120 -4.8840 -2.2078 0.9771
2.3527 -4.6841 -2.1584 0.9776
2.5990 -4.2785 -2.0614 0.9786
2.7099 -4.0817 -2.0174 0.9790
2.8134 -3.8887 -1.9764 0.9795
3.0106 -3.5260 -1.9092 0.9801
3.2616 -2.9988 -1.8245 0.9810
3.3344 -2.8271 -1.8001 0.9813
3.4023 -2.6572 -1.7777 0.9815
3.5819 -2.1589 -1.7222 0.9821
3.6335 -1.9955 -1.7070 0.9822
3.7253 -1.6716 -1.6814 0.9825
3.7652 -1.5108 -1.6706 0.9826
3.8013 -1.3506 -1.6612 0.9827
3.8336 -1.1908 -1.6530 0.9828
3.9087 -0.7135 -1.6361 0.9830
3.9410 -0.3959 -1.6310 0.9830
3.9519 -0.2371 -1.6302 0.9830
3.9662 0.0813 -1.6335 0.9830
3.9694 0.4019 -1.6429 0.9829
3.9537 0.7248 -1.6552 0.9828
3.9384 0.8870 -1.6624 0.9827
3.8388 1.5438 -1.7038 0.9823
3.7213 2.0474 -1.7490 0.9818
3.6210 2.3900 -1.7866 0.9814
3.4352 2.9171 -1.8558 0.9807
3.3627 3.0966 -1.8824 0.9804
3.2013 3.4629 -1.9419 0.9798
2.7987 4.2225 -2.0860 0.9783
2.5482 4.6105 -2.1692 0.9775
2.4104 4.8082 -2.2148 0.9770
2.1076 5.2119 -2.3150 0.9760
1.7553 5.5977 -2.4157 0.9749
1.5760 5.8383 -2.4901 0.9742
1.1621 6.2708 -2.6262 0.9728
0.4357 6.9484 -2.8669 0.9703
0.1610 7.1817 -2.9580 0.9694
-0.7781 7.8974 -3.2677 0.9663
-2.8104 9.1096 -3.9256 0.9596
-3.3014 9.3491 -4.0828 0.9580
-5.6465 10.3289 -4.8473 0.9504
-6.3300 10.5483 -5.0657 0.9482
-7.0596 10.7588 -5.2989 0.9459
-7.8057 10.9128 -5.5249 0.9436
-8.6522 11.1225 -5.8026 0.9409
-12.6596 11.7664 -7.1170 0.9280
-13.9137 11.9264 -7.5462 0.9238
-15.2730 12.0612 -8.0138 0.9193
-16.7869 12.1940 -8.5438 0.9142
-17.8637 11.9096 -8.8408 0.9113
-19.1070 11.6572 -9.2166 0.9077
-22.3088 11.2591 -10.2900 0.8975
-23.9864 10.9192 -10.8524 0.8923
-30.6928 8.3743 -13.1007 0.8714
-16.7967 3.8647 -7.0973 0.9282
-37.6962 3.9928 -15.6094 0.8488
-38.7867 0.9742 -15.9767 0.8455
-38.4646 -2.1294 -15.8633 0.8465
-34.1539 -7.4989 -14.3989 0.8596
-30.7850 -9.4067 -13.2553 0.8700
-28.8363 -10.0954 -12.5809 0.8762
-26.8609 -10.6342 -11.8961 0.8825
-24.9262 -11.0469 -11.2270 0.8887
-23.1112 -11.3751 -10.6070 0.8946
-21.4091 -11.6288 -10.0324 0.9000
-19.8522 -11.8406 -9.5184 0.9048
-15.4564 -11.9567 -8.0467 0.9189
-11.7071 -11.5591 -6.7746 0.9313
-9.6663 -11.2156 -6.0970 0.9380
-8.7701 -11.0441 -5.8072 0.9408
-7.1372 -10.6432 -5.2769 0.9461
-6.3959 -10.4201 -5.0346 0.9485
-5.6844 -10.1553 -4.7923 0.9509
-3.3604 -9.2210 -4.0413 0.9584
-2.4071 -8.7296 -3.7288 0.9616
-1.9671 -8.4450 -3.5706 0.9632
-0.8423 -7.7525 -3.2111 0.9668
0.3597 -6.8309 -2.8168 0.9708
0.6152 -6.6089 -2.7332 0.9717
-13.4233 11.0127 -7.3757 0.9273
-14.5766 11.0091 -7.7598 0.9237
-15.9720 11.0837 -8.2586 0.9190
-17.3374 11.0259 -8.7282 0.9146
-18.5692 10.7863 -9.1225 0.9109
-19.3610 10.2283 -9.3018 0.9092
-20.7344 9.9092 -9.7622 0.9050
-22.1227 9.5000 -10.2276 0.9007
-23.5071 8.9935 -10.6917 0.8964
-24.8653 8.3838 -11.1471 0.8922
-26.9498 7.8953 -11.9295 0.8851
-16.6257 3.4494 -7.2130 0.9289
-16.6800 2.7666 -7.1825 0.9292
-33.3939 0.1181 -14.1859 0.8649
-33.2286 -1.2191 -14.1251 0.8654
-29.7168 -4.7133 -12.7816 0.8774
-28.6056 -6.9309 -12.5033 0.8799
-27.2812 -7.7834 -12.0515 0.8840
-20.0703 -10.4222 -9.6069 0.9064
-17.3641 -10.8712 -8.7027 0.9148
-13.5690 -10.9726 -7.4130 0.9270
-12.4288 -10.9054 -7.0241 0.9307
-11.3804 -10.8254 -6.6723 0.9340
-9.4916 -10.6068 -6.0465 0.9400
-7.8548 -10.3420 -5.5168 0.9451
-6.3906 -9.9891 -5.0375 0.9498
-5.7066 -9.7635 -4.8041 0.9520
-4.5150 -9.3823 -4.4231 0.9558
-2.9688 -8.7273 -3.9160 0.9607
-1.3193 -7.8232 -3.3702 0.9661
-0.9664 -7.5769 -3.2448 0.9673
-0.6412 -7.3820 -3.1477 0.9683
-0.0432 -6.9290 -2.9435 0.9703
0.2289 -6.7333 -2.8620 0.9711
0.4847 -6.5220 -2.7782 0.9720
0.7253 -6.3132 -2.6995 0.9728
0.9517 -6.1070 -2.6256 0.9735
1.5474 -5.4796 -2.4188 0.9756
1.8873 -5.0811 -2.3026 0.9767
2.0531 -4.9128 -2.2619 0.9771
2.3337 -4.5239 -2.1624 0.9781
2.7845 -3.7627 -1.9885 0.9799
3.0634 -3.2379 -1.8935 0.9808
3.1448 -3.0670 -1.8661 0.9811
3.4195 -2.4004 -1.7748 0.9820
3.5319 -2.0771 -1.7406 0.9824
3.7760 -1.1284 -1.6741 0.9830
3.8874 -0.1912 -1.6534 0.9832
3.9002 0.1220 -1.6576 0.9832
3.9011 0.4375 -1.6676 0.9831
3.8933 0.5960 -1.6731 0.9830
3.8644 0.9143 -1.6869 0.9829
3.8443 1.0744 -1.6956 0.9828
3.8204 1.2353 -1.7056 0.9827
3.6846 1.8882 -1.7588 0.9822
3.6402 2.0542 -1.7756 0.9820
3.5913 2.2215 -1.7939 0.9818
3.5379 2.3903 -1.8138 0.9816
3.4800 2.5608 -1.8354 0.9814
3.4172 2.7329 -1.8588 0.9812
3.3491 2.9068 -1.8838 0.9809
3.2759 3.0826 -1.9108 0.9806
3.1131 3.4413 -1.9713 0.9800
3.0226 3.6240 -2.0046 0.9797
2.9255 3.8090 -2.0402 0.9793
2.8209 3.9956 -2.0777 0.9790
2.5850 4.3684 -2.1563 0.9782
2.4553 4.5579 -2.1993 0.9778
2.1704 4.9436 -2.2935 0.9768
2.0022 5.1091 -2.3311 0.9764
1.6717 5.5396 -2.4581 0.9752
1.4840 5.7430 -2.5198 0.9746
1.2800 5.9277 -2.5761 0.9740
1.0725 6.1572 -2.6550 0.9732
0.8473 6.3696 -2.7296 0.9725
0.3529 6.8026 -2.8936 0.9708
0.0817 7.0232 -2.9837 0.9699
-0.2072 7.2462 -3.0795 0.9690
-0.5148 7.4716 -3.1815 0.9680
-1.5611 8.1432 -3.5222 0.9646
-1.9554 8.3656 -3.6495 0.9634
-3.8051 9.2452 -4.2470 0.9575
-5.5394 9.8783 -4.8111 0.9520
-6.8762 10.2368 -5.2386 0.9478
-7.6068 10.3958 -5.4721 0.9456
-8.3897 10.5483 -5.7254 0.9431
-11.0791 10.9223 -6.6090 0.9346
-14.3112 11.0531 -7.6815 0.9244
-15.5457 11.0382 -8.0993 0.9205
-19.0086 10.3060 -9.1853 0.9103
-21.7497 9.6191 -10.1026 0.9018
-23.1372 9.1393 -10.5677 0.8975
-24.5049 8.5577 -11.0262 0.8933
-16.6612 2.9485 -7.1877 0.9291
-33.2037 1.8124 -14.1260 0.8654
-33.2990 -0.8621 -14.1502 0.8652
-29.9408 -4.4182 -12.8567 0.8768
-27.6439 -7.5653 -12.1750 0.8829
-19.0860 -10.6353 -9.2816 0.9094
-17.7231 -10.8316 -8.8236 0.9137
-16.4007 -10.9525 -8.3777 0.9179
-15.1114 -10.9948 -7.9387 0.9220
-13.8869 -10.9840 -7.5214 0.9259
-11.6546 -10.8491 -6.7640 0.9331
-10.6552 -10.7501 -6.4298 0.9363
-8.8702 -10.5193 -5.8452 0.9420
-5.8998 -9.8486 -4.8770 0.9513
-5.2469 -9.6155 -4.6532 0.9535
-4.1098 -9.2253 -4.2902 0.9571
-2.2020 -8.3357 -3.6625 0.9632
-1.7967 -8.1084 -3.5280 0.9646
-1.4170 -7.8831 -3.4024 0.9658
-1.0614 -7.6622 -3.2860 0.9669
-0.7273 -7.4410 -3.1760 0.9680
-0.1192 -7.0050 -2.9762 0.9700
0.1575 -6.7905 -2.8854 0.9709
1.1089 -5.9577 -2.5743 0.9740
1.3123 -5.7542 -2.5072 0.9747
1.4983 -5.5336 -2.4353 0.9754
1.6834 -5.3538 -2.3841 0.9759
2.0009 -4.9371 -2.2630 0.9771
2.1619 -4.7734 -2.2260 0.9775
2.4249 -4.3795 -2.1266 0.9785
2.6521 -3.9946 -2.0368 0.9794
2.8576 -3.6329 -1.9635 0.9801
2.9521 -3.4575 -1.9313 0.9804
3.1235 -3.1127 -1.8732 0.9810
3.5177 -2.1202 -1.7448 0.9823
3.5692 -1.9601 -1.7298 0.9825
3.6168 -1.8010 -1.7164 0.9826
3.7001 -1.4847 -1.6936 0.9828
3.7680 -1.1704 -1.6761 0.9830
3.7964 -1.0139 -1.6692 0.9831
3.8212 -0.8575 -1.6636 0.9831
3.8425 -0.7014 -1.6593 0.9832
3.8744 -0.3893 -1.6541 0.9832
3.8924 -0.0768 -1.6538 0.9832
3.8990 0.0799 -1.6566 0.9832
3.9018 0.3951 -1.6660 0.9831
3.8960 0.5535 -1.6717 0.9830
3.8844 0.7121 -1.6776 0.9830
3.8691 0.8714 -1.6848 0.9829
3.8272 1.1920 -1.7028 0.9827
3.8004 1.3536 -1.7138 0.9826
3.6958 1.8439 -1.7545 0.9822
3.6525 2.0096 -1.7709 0.9820
3.6048 2.1765 -1.7888 0.9819
3.4960 2.5149 -1.8295 0.9815
3.4345 2.6866 -1.8523 0.9812
3.3679 2.8600 -1.8769 0.9810
3.2191 3.2129 -1.9320 0.9804
3.1363 3.3927 -1.9627 0.9801
2.8501 3.9459 -2.0678 0.9791
2.4909 4.5068 -2.1875 0.9779
1.8939 5.2852 -2.3850 0.9759
1.5355 5.6882 -2.5028 0.9747
1.3393 5.8934 -2.5673 0.9741
0.6735 6.5269 -2.7874 0.9719
0.1561 6.9638 -2.9590 0.9702
-0.1279 7.1862 -3.0532 0.9692
-1.8472 8.3059 -3.6146 0.9637
-2.6993 8.7493 -3.8896 0.9610
-3.1671 8.9689 -4.0406 0.9595
-3.6658 9.1869 -4.2018 0.9579
-4.1975 9.4026 -4.3742 0.9562
-5.3694 9.8221 -4.7552 0.9525
-6.0118 10.0180 -4.9631 0.9505
-6.6879 10.1923 -5.1786 0.9484
-7.4065 10.3547 -5.4081 0.9462
-8.1733 10.5070 -5.6548 0.9438
-8.9976 10.6537 -5.9238 0.9412
-11.7712 10.9408 -6.8268 0.9325
-15.2429 11.0725 -8.0033 0.9214
-18.8389 10.4785 -9.1575 0.9106
-19.9946 10.0911 -9.5142 0.9073
-25.5211 8.0786 -11.3716 0.8902
-16.6419 3.1306 -7.1935 0.9290
-32.5955 3.4525 -13.9241 0.8672
-33.1042 2.1654 -14.0928 0.8657
-33.3486 -0.5034 -14.1681 0.8651
-33.0372 -1.8290 -14.0558 0.8661
-30.8096 -2.9517 -13.1479 0.8741
-30.1514 -4.1174 -12.9272 0.8761
-24.9858 -4.4416 -10.7804 0.8956
-29.2665 -6.4258 -12.7286 0.8779
-25.1648 -8.8100 -11.3262 0.8906
-22.2307 -9.8523 -10.3295 0.8997
-15.4506 -10.9886 -8.0541 0.9209
-14.2098 -10.9923 -7.6317 0.9249
-11.9332 -10.8706 -6.8572 0.9323
-10.9174 -10.7795 -6.5174 0.9355
-9.9646 -10.6631 -6.1997 0.9385
-9.0950 -10.5527 -5.9180 0.9413
-8.2750 -10.4206 -5.6527 0.9438
-7.4992 -10.2654 -5.4004 0.9462
-6.7654 -10.0887 -5.1601 0.9486
-3.7231 -9.0658 -4.1633 0.9583
-3.2237 -8.8459 -3.9995 0.9599
-1.5164 -7.9432 -3.4352 0.9655
0.3494 -6.6351 -2.8225 0.9715
-11.5287 10.2608 -6.7591 0.9348
-13.5308 10.2193 -7.4260 0.9286
-14.6088 10.1377 -7.7874 0.9253
-17.0110 9.8812 -8.6155 0.9177
-18.2250 9.6282 -9.0269 0.9139
-20.6756 8.8786 -9.8544 0.9064
-23.3606 7.8764 -10.7965 0.8979
-24.1266 7.0682 -11.0102 0.8960
-16.5052 4.1229 -7.4505 0.9284
-16.4423 3.4114 -7.3542 0.9293
-16.4923 2.7354 -7.3214 0.9296
-18.1560 2.2659 -8.0130 0.9232
-28.3194 2.3830 -12.4462 0.8833
-28.6541 1.2542 -12.5609 0.8823
-28.7726 0.1017 -12.6009 0.8819
-26.6661 -3.1366 -11.7588 0.8894
-22.1608 -4.4346 -9.8977 0.9060
-22.9927 -7.5717 -10.6015 0.8997
-21.8440 -8.1806 -10.2154 0.9032
-18.2927 -9.4992 -9.0270 0.9139
-14.7499 -10.0818 -7.8244 0.9249
-9.7615 -10.0632 -6.1399 0.9406
-8.9465 -9.9976 -5.8755 0.9431
-8.1734 -9.9079 -5.6250 0.9455
-7.4369 -9.7918 -5.3849 0.9477
-6.7191 -9.6270 -5.1414 0.9500
-6.0782 -9.5008 -4.9395 0.9519
-5.4566 -9.3357 -4.7357 0.9539
-4.8706 -9.1595 -4.5432 0.9557
-4.3191 -8.9753 -4.3621 0.9574
-3.7886 -8.7573 -4.1788 0.9592
-3.3125 -8.5887 -4.0314 0.9606
-2.8537 -8.3888 -3.8806 0.9620
-1.2709 -7.5365 -3.3472 0.9672
-0.9383 -7.3571 -3.2481 0.9681
-0.3228 -6.9465 -3.0455 0.9701
0.4713 -6.3413 -2.7848 0.9726
0.9268 -5.9468 -2.6358 0.9741
1.1350 -5.7523 -2.5678 0.9747
1.3263 -5.5393 -2.4945 0.9754
1.5151 -5.3653 -2.4416 0.9759
1.8435 -4.9632 -2.3187 0.9771
2.6249 -3.8626 -2.0453 0.9798
2.7294 -3.6882 -2.0094 0.9802
2.8275 -3.5159 -1.9759 0.9805
3.0057 -3.1769 -1.9153 0.9811
3.2977 -2.5187 -1.8173 0.9820
3.3586 -2.3576 -1.7971 0.9822
3.4153 -2.1980 -1.7787 0.9824
3.4695 -2.0405 -1.7628 0.9826
3.5198 -1.8838 -1.7484 0.9827
3.6081 -1.5725 -1.7237 0.9830
3.7391 -0.9555 -1.6902 0.9833
3.7628 -0.8019 -1.6849 0.9833
3.7829 -0.6484 -1.6809 0.9834
3.8223 -0.1880 -1.6760 0.9834
3.8346 0.1200 -1.6802 0.9834
3.8348 0.4301 -1.6900 0.9833
3.8132 0.7417 -1.7013 0.9832
3.7529 1.2135 -1.7274 0.9829
3.6176 1.8539 -1.7802 0.9824
3.4715 2.3455 -1.8348 0.9819
3.3515 2.6804 -1.8795 0.9814
3.2841 2.8503 -1.9044 0.9812
3.2118 3.0224 -1.9315 0.9809
2.9606 3.5497 -2.0243 0.9800
2.8645 3.7296 -2.0595 0.9797
2.7613 3.9112 -2.0968 0.9793
2.6485 4.0910 -2.1343 0.9789
2.5283 4.2727 -2.1743 0.9786
2.4005 4.4562 -2.2167 0.9781
2.2645 4.6415 -2.2617 0.9777
2.1200 4.8287 -2.3095 0.9772
1.4462 5.5968 -2.5316 0.9751
1.2510 5.7936 -2.5957 0.9744
1.0408 5.9753 -2.6563 0.9739
0.5907 6.3991 -2.8144 0.9723
0.0792 6.8127 -2.9838 0.9707
-0.2008 7.0223 -3.0767 0.9698
-1.5067 7.8590 -3.5045 0.9657
-1.8848 8.0635 -3.6266 0.9645
-2.2863 8.2664 -3.7562 0.9632
-3.1651 8.6644 -4.0398 0.9605
-4.7002 9.2331 -4.5374 0.9558
-5.2760 9.4086 -4.7241 0.9540
-5.8871 9.5745 -4.9223 0.9521
-7.2018 9.8424 -5.3411 0.9481
-7.9158 9.9525 -5.5692 0.9460
-8.6823 10.0581 -5.8190 0.9436
-9.5007 10.1510 -6.0890 0.9411
-11.2742 10.2543 -6.6743 0.9356
-12.2403 10.2650 -6.9961 0.9326
-19.1108 9.3879 -9.3248 0.9112
-20.4273 9.0342 -9.7819 0.9071
-21.4692 8.4805 -10.1093 0.9041
-23.8215 7.2588 -10.9061 0.8970
-24.9184 6.5108 -11.2792 0.8936
-16.4490 3.5983 -7.3741 0.9291
-17.0461 2.3144 -7.5337 0.9276
-28.1952 2.6792 -12.4036 0.8837
-28.7661 0.4121 -12.5993 0.8819
-28.6978 -0.7430 -12.5723 0.8822
-26.8013 -2.8597 -11.8041 0.8890
-25.5248 -4.8220 -11.3762 0.8928
-24.6809 -5.6988 -11.0933 0.8953
-24.3662 -6.6683 -11.0635 0.8956
-22.1632 -8.0286 -10.3235 0.9022
-18.6178 -9.4144 -9.1367 0.9129
-16.2260 -9.9166 -8.3281 0.9203
-13.9294 -10.1348 -7.5441 0.9275
-12.8498 -10.1637 -7.1751 0.9310
-9.1610 -10.0177 -5.9451 0.9424
-5.6199 -9.3813 -4.7893 0.9534
-3.9363 -8.8360 -4.2363 0.9586
-3.4404 -8.6415 -4.0734 0.9602
-2.9743 -8.4435 -3.9205 0.9617
-2.1212 -8.0298 -3.6373 0.9644
-1.7334 -7.8229 -3.5091 0.9656
-1.3646 -7.5914 -3.3779 0.9669
-0.7044 -7.2063 -3.1710 0.9689
-0.1154 -6.7804 -2.9699 0.9708
0.1530 -6.5953 -2.8892 0.9716
0.4059 -6.3948 -2.8062 0.9724
1.0803 -5.8044 -2.5857 0.9745
1.2794 -5.6098 -2.5199 0.9752
1.6432 -5.2259 -2.3991 0.9764
1.8011 -5.0143 -2.3334 0.9770
2.1136 -4.6667 -2.2436 0.9779
2.4877 -4.0952 -2.0985 0.9793
2.5962 -3.9104 -2.0556 0.9797
2.7020 -3.7348 -2.0188 0.9801
2.8954 -3.3910 -1.9528 0.9807
2.9831 -3.2219 -1.9230 0.9810
3.1420 -2.8889 -1.8693 0.9815
3.2137 -2.7248 -1.8452 0.9818
3.2806 -2.5621 -1.8230 0.9820
3.4003 -2.2406 -1.7834 0.9824
3.4553 -2.0826 -1.7669 0.9825
3.5539 -1.7697 -1.7387 0.9828
3.5972 -1.6142 -1.7267 0.9829
3.6366 -1.4592 -1.7160 0.9830
3.6721 -1.3047 -1.7067 0.9831
3.7322 -0.9967 -1.6918 0.9833
3.7568 -0.8431 -1.6862 0.9833
3.7778 -0.6896 -1.6818 0.9834
3.7954 -0.5362 -1.6787 0.9834
3.8169 0.6998 -1.6995 0.9832
3.8016 0.8562 -1.7066 0.9831
3.7825 1.0133 -1.7150 0.9830
3.7597 1.1710 -1.7246 0.9830
3.7330 1.3295 -1.7354 0.9828
3.7023 1.4889 -1.7476 0.9827
3.6287 1.8104 -1.7760 0.9824
3.4861 2.3010 -1.8293 0.9819
3.3687 2.6351 -1.8731 0.9815
3.3026 2.8045 -1.8975 0.9813
3.1554 3.1494 -1.9524 0.9807
2.9853 3.5018 -2.0153 0.9801
2.5613 4.2238 -2.1633 0.9787
2.4356 4.4068 -2.2051 0.9783
2.3018 4.5916 -2.2494 0.9778
2.1596 4.7783 -2.2964 0.9774
1.6777 5.3500 -2.4555 0.9758
1.4967 5.5443 -2.5150 0.9752
1.3045 5.7406 -2.5782 0.9746
1.0973 5.9208 -2.6371 0.9740
0.4107 6.5495 -2.8740 0.9718
0.1515 6.7567 -2.9598 0.9709
-0.1240 6.9659 -3.0512 0.9700
-0.4167 7.1766 -3.1483 0.9691
-0.7279 7.3877 -3.2511 0.9681
-1.4090 7.8039 -3.4730 0.9660
-2.5956 8.4134 -3.8560 0.9623
-3.0410 8.6118 -3.9997 0.9609
-3.5138 8.8061 -4.1523 0.9594
-5.7214 9.5341 -4.8696 0.9526
-6.3515 9.6797 -5.0703 0.9507
-7.0171 9.8102 -5.2823 0.9487
-10.1301 10.2045 -6.2971 0.9391
-11.0262 10.2483 -6.5926 0.9364
-12.9760 10.2472 -7.2411 0.9303
-17.5692 9.7723 -8.8045 0.9160
-20.1821 9.1874 -9.7114 0.9077
-23.5119 7.4426 -10.8005 0.8979
-16.4494 3.0944 -7.3303 0.9295
-28.4983 1.8642 -12.5074 0.8828
-27.0567 -2.5921 -11.9036 0.8881
-25.0395 -4.4511 -11.1378 0.8949
-24.9189 -5.4713 -11.1731 0.8946
-24.6412 -6.4587 -11.1561 0.8947
-23.5821 -7.2057 -10.7990 0.8979
-21.2886 -8.4281 -10.0273 0.9049
-20.1112 -8.9130 -9.6338 0.9084
-18.9434 -9.3238 -9.2466 0.9119
-17.7349 -9.6331 -8.8387 0.9156
-16.5462 -9.8688 -8.4373 0.9193
-15.3656 -10.0233 -8.0344 0.9230
-12.0990 -10.1625 -6.9198 0.9333
-11.1356 -10.1440 -6.5969 0.9363
-9.3786 -10.0360 -6.0157 0.9418
-8.5831 -9.9588 -5.7577 0.9442
-5.7674 -9.3962 -4.8284 0.9530
-5.1806 -9.2551 -4.6450 0.9547
-3.5705 -8.6941 -4.1161 0.9598
-1.8351 -7.8784 -3.5427 0.9653
-1.4645 -7.6713 -3.4203 0.9665
-0.7890 -7.2615 -3.1989 0.9686
-0.1906 -6.8521 -3.0020 0.9705
0.5817 -6.2492 -2.7487 0.9730
0.8098 -6.0519 -2.6740 0.9737
-13.5309 9.3897 -7.4314 0.9303
-14.5150 9.2310 -7.7617 0.9273
-16.6187 8.7796 -8.4808 0.9208
-19.7579 7.5591 -9.5453 0.9113
-16.3318 3.3885 -7.5261 0.9294
-16.3708 2.7153 -7.4877 0.9298
-17.8879 2.2324 -8.1340 0.9239
-24.8429 2.0905 -11.2492 0.8964
-25.0920 1.0983 -11.3328 0.8956
-25.1409 -0.9224 -11.3516 0.8955
-24.8877 -1.9171 -11.2630 0.8962
-21.8490 -5.2938 -10.1439 0.9061
-21.6231 -6.1691 -10.1460 0.9060
-20.7321 -6.8273 -9.8489 0.9087
-19.8023 -7.4160 -9.5412 0.9114
-16.7464 -8.6961 -8.5143 0.9205
-11.7144 -9.4729 -6.7977 0.9360
-8.4563 -9.4498 -5.7219 0.9459
-7.0574 -9.2921 -5.2649 0.9501
-5.2092 -8.9126 -4.6580 0.9557
-4.6582 -8.7601 -4.4768 0.9574
-2.7451 -8.0698 -3.8462 0.9633
-2.3326 -7.8831 -3.7094 0.9646
-1.9375 -7.6687 -3.5690 0.9659
-0.6022 -6.9324 -3.1398 0.9699
-0.3132 -6.7404 -3.0446 0.9708
-0.0407 -6.5325 -2.9476 0.9717
0.9028 -5.7933 -2.6456 0.9746
1.1064 -5.6072 -2.5789 0.9752
1.2981 -5.4213 -2.5153 0.9758
1.4788 -5.2367 -2.4553 0.9764
1.8012 -4.8495 -2.3342 0.9776
1.9502 -4.6665 -2.2821 0.9780
2.3516 -4.1410 -2.1488 0.9793
2.5726 -3.7856 -2.0652 0.9801
2.7730 -3.4481 -1.9965 0.9808
2.8641 -3.2820 -1.9655 0.9811
3.1043 -2.7930 -1.8842 0.9818
3.2996 -2.3162 -1.8191 0.9825
3.3556 -2.1595 -1.8005 0.9826
3.5845 -1.3936 -1.7353 0.9833
3.6764 -0.9394 -1.7121 0.9835
3.7362 -0.4868 -1.7001 0.9836
3.7491 -0.3359 -1.6984 0.9836
3.7653 -0.0336 -1.6990 0.9836
3.7705 0.1180 -1.7022 0.9836
3.7691 0.4227 -1.7113 0.9835
3.7474 0.7289 -1.7226 0.9834
3.6872 1.1922 -1.7485 0.9831
3.6595 1.3480 -1.7597 0.9830
3.5523 1.8204 -1.8011 0.9826
3.5082 1.9798 -1.8176 0.9825
3.4069 2.3018 -1.8553 0.9821
3.3498 2.4650 -1.8766 0.9819
3.2879 2.6296 -1.8997 0.9817
2.8055 3.6527 -2.0782 0.9800
2.4736 4.1803 -2.1917 0.9789
1.9092 4.8719 -2.3610 0.9773
1.5902 5.2697 -2.4837 0.9761
1.2189 5.6448 -2.6057 0.9750
0.5743 6.2218 -2.8193 0.9730
0.0769 6.6129 -2.9840 0.9714
-0.1947 6.8098 -3.0740 0.9705
-0.4828 7.0077 -3.1695 0.9696
-0.7885 7.2057 -3.2708 0.9687
-1.1124 7.4003 -3.3766 0.9677
-2.6104 8.1481 -3.8606 0.9631
-3.4980 8.4990 -4.1470 0.9605
-3.9810 8.6653 -4.3028 0.9590
-4.4938 8.8278 -4.4696 0.9575
-5.0362 8.9810 -4.6460 0.9558
-6.2078 9.2418 -5.0235 0.9523
-6.8361 9.3426 -5.2235 0.9505
-7.4959 9.4245 -5.4335 0.9485
-8.1936 9.4920 -5.6579 0.9465
-9.7321 9.5943 -6.1664 0.9418
-11.4243 9.5808 -6.7276 0.9367
-12.3300 9.5229 -7.0296 0.9339
-14.2483 9.2787 -7.6721 0.9281
-15.2807 9.0980 -8.0245 0.9249
-16.3321 8.8549 -8.3828 0.9217
-17.3944 8.5447 -8.7445 0.9185
-21.4451 6.5346 -10.1157 0.9063
-22.3207 5.8320 -10.4096 0.9037
-16.3280 3.5718 -7.5417 0.9293
-16.6678 2.2630 -7.5898 0.9288
-24.7559 2.3524 -11.2206 0.8966
-25.1819 -0.6519 -11.3663 0.8953
-24.9706 -1.6527 -11.2918 0.8960
-23.9895 -2.5597 -10.8859 0.8995
-22.7435 -4.2966 -10.4438 0.9034
-22.0513 -5.0916 -10.2117 0.9055
-20.9730 -6.6567 -9.9286 0.9080
-18.0721 -8.2437 -8.9628 0.9165
-15.9711 -8.8996 -8.2497 0.9229
-14.9243 -9.1211 -7.8922 0.9261
-13.9001 -9.2826 -7.5420 0.9293
-12.9059 -9.3901 -7.2016 0.9324
-11.0634 -9.4980 -6.5793 0.9380
-10.2063 -9.5009 -6.2918 0.9406
-8.6535 -9.4627 -5.7859 0.9453
-6.5785 -9.2121 -5.1077 0.9515
-4.8031 -8.8022 -4.5245 0.9570
-3.3050 -8.3014 -4.0317 0.9615
-2.8602 -8.1197 -3.8844 0.9629
-2.4408 -7.9334 -3.7453 0.9642
-1.3241 -7.3663 -3.3771 0.9677
-0.9941 -7.1763 -3.2690 0.9687
-0.6826 -6.9839 -3.1663 0.9697
-0.3891 -6.7918 -3.0696 0.9706
-0.1121 -6.5839 -2.9712 0.9715
0.3948 -6.2195 -2.8120 0.9730
0.6271 -6.0308 -2.7359 0.9737
1.0529 -5.6570 -2.5964 0.9751
1.6045 -5.1028 -2.4136 0.9768
1.7677 -4.9213 -2.3595 0.9773
2.0666 -4.5630 -2.2602 0.9783
2.3201 -4.1902 -2.1611 0.9792
2.4348 -4.0081 -2.1161 0.9796
2.5438 -3.8315 -2.0751 0.9800
2.6488 -3.6613 -2.0391 0.9804
2.9271 -3.1615 -1.9441 0.9813
3.0847 -2.8362 -1.8908 0.9818
3.1558 -2.6757 -1.8669 0.9820
3.2222 -2.5165 -1.8448 0.9822
3.4926 -1.7391 -1.7605 0.9830
3.5355 -1.5865 -1.7485 0.9831
3.5746 -1.4343 -1.7379 0.9832
3.7321 -0.5272 -1.7007 0.9836
3.7564 -0.2254 -1.6980 0.9836
3.7694 0.0772 -1.7012 0.9836
3.7628 0.5345 -1.7149 0.9835
3.6367 1.4625 -1.7687 0.9829
3.5634 1.7778 -1.7969 0.9827
3.5205 1.9369 -1.8130 0.9825
3.4732 2.0970 -1.8307 0.9824
3.3049 2.5852 -1.8933 0.9818
3.2397 2.7511 -1.9178 0.9815
3.1694 2.9186 -1.9441 0.9813
3.0937 3.0878 -1.9723 0.9810
2.5062 4.1328 -2.1809 0.9790
2.3822 4.3101 -2.2221 0.9786
1.9501 4.8224 -2.3472 0.9774
1.7943 5.0073 -2.4001 0.9769
1.2713 5.5941 -2.5885 0.9751
1.0718 5.7834 -2.6540 0.9745
0.8584 5.9604 -2.7172 0.9739
0.3991 6.3644 -2.8774 0.9724
0.1471 6.5602 -2.9608 0.9716
-0.1202 6.7568 -3.0493 0.9708
-0.7047 7.1526 -3.2430 0.9690
-1.0236 7.3481 -3.3476 0.9680
-1.3614 7.5406 -3.4575 0.9669
-2.0977 7.9161 -3.6951 0.9647
-2.4988 8.0995 -3.8246 0.9635
-2.9235 8.2789 -3.9616 0.9622
-3.8486 8.6210 -4.2600 0.9594
-4.3534 8.7850 -4.4240 0.9579
-4.8877 8.9409 -4.5977 0.9563
-8.7382 9.5406 -5.8376 0.9448
-10.3320 9.6030 -6.3647 0.9400
-13.0148 9.4540 -7.2584 0.9318
-13.9834 9.3226 -7.5832 0.9289
-16.0484 8.9264 -8.2861 0.9226
-17.1099 8.6352 -8.6478 0.9193
-18.1704 8.2716 -9.0083 0.9161
-19.2158 7.8310 -9.3629 0.9130
-21.1961 6.7095 -10.0318 0.9070
-22.0964 6.0288 -10.3347 0.9044
-16.3224 3.7555 -7.5574 0.9291
-24.6581 2.6118 -11.1884 0.8969
-25.1674 0.6322 -11.3596 0.8954
-25.2103 -0.3806 -11.3766 0.8953
-24.7075 -2.3671 -11.1995 0.8968
-23.4615 -3.2039 -10.6845 0.9013
-22.0075 -4.8320 -10.1667 0.9059
-21.6665 -5.6790 -10.1065 0.9064
-19.3574 -7.6636 -9.3940 0.9127
-18.3523 -8.1335 -9.0577 0.9157
-17.2758 -8.5030 -8.6882 0.9190
-15.2035 -9.0680 -7.9876 0.9253
-13.1694 -9.3662 -7.2919 0.9315
-12.2038 -9.4405 -6.9619 0.9345
-11.3000 -9.4913 -6.6587 0.9373
-10.4324 -9.5034 -6.3676 0.9400
-8.8532 -9.4738 -5.8507 0.9447
-6.1180 -9.1233 -4.9565 0.9529
-5.5181 -8.9899 -4.7596 0.9548
-4.9501 -8.8433 -4.5728 0.9565
-4.4132 -8.6860 -4.3961 0.9581
-3.8947 -8.4948 -4.2167 0.9598
-2.9772 -8.1694 -3.9233 0.9626
-1.7659 -7.5814 -3.5124 0.9664
-1.0808 -7.2279 -3.2976 0.9684
-0.7644 -7.0356 -3.1932 0.9694
-0.1850 -6.6516 -3.0025 0.9712
0.0801 -6.4605 -2.9153 0.9720
-10.9178 8.9571 -6.5613 0.9396
-11.7392 8.8661 -6.8351 0.9372
-12.5873 8.7349 -7.1186 0.9347
-13.4582 8.5589 -7.4104 0.9321
-14.3486 8.3347 -7.7098 0.9294
-16.1966 7.7405 -8.3405 0.9239
-18.0026 6.8875 -8.9557 0.9185
-18.8645 6.3605 -9.2497 0.9159
-19.6460 5.7556 -9.5116 0.9137
-16.2235 4.0525 -7.7694 0.9289
-16.2030 3.3617 -7.6886 0.9296
-16.2358 2.6929 -7.6466 0.9300
-17.9020 2.2342 -8.3822 0.9235
-22.4513 0.9827 -10.4414 0.9056
-22.5275 0.0796 -10.4668 0.9054
-22.2618 -1.7149 -10.3740 0.9062
-21.9278 -2.5793 -10.2584 0.9072
-21.2283 -3.3669 -9.9864 0.9096
-21.0275 -4.2078 -9.9635 0.9098
-19.6341 -5.6017 -9.4865 0.9139
-18.0707 -6.7675 -8.9655 0.9184
-14.4780 -8.2735 -7.7477 0.9291
-8.7019 -8.9709 -5.8069 0.9464
-7.3478 -8.9071 -5.3649 0.9503
-6.1050 -8.7471 -4.9561 0.9540
-4.4613 -8.3897 -4.4149 0.9590
-3.0619 -7.9390 -3.9535 0.9632
-2.6443 -7.7734 -3.8149 0.9644
-2.2424 -7.5784 -3.6720 0.9657
-1.1944 -7.0826 -3.3372 0.9688
-0.8806 -6.9044 -3.2339 0.9698
-0.5841 -6.7245 -3.1361 0.9707
-0.3041 -6.5442 -3.0439 0.9715
-0.0396 -6.3481 -2.9495 0.9724
0.2102 -6.1835 -2.8747 0.9731
0.6692 -5.8246 -2.7240 0.9745
0.8798 -5.6457 -2.6548 0.9751
1.0789 -5.4679 -2.5895 0.9757
1.2667 -5.2901 -2.5274 0.9763
1.4438 -5.1129 -2.4685 0.9768
1.6111 -4.9372 -2.4130 0.9774
1.9181 -4.5899 -2.3113 0.9783
2.1826 -4.2309 -2.2119 0.9792
2.5218 -3.7109 -2.0846 0.9804
2.7200 -3.3823 -2.0166 0.9810
2.9741 -2.9005 -1.9302 0.9818
3.1821 -2.4304 -1.8604 0.9825
3.3504 -1.9704 -1.8059 0.9830
3.3991 -1.8193 -1.7913 0.9831
3.4446 -1.6691 -1.7784 0.9833
3.4862 -1.5194 -1.7669 0.9834
3.5239 -1.3700 -1.7567 0.9835
3.5579 -1.2210 -1.7477 0.9835
3.6151 -0.9238 -1.7336 0.9837
3.6581 -0.6270 -1.7244 0.9838
3.6871 -0.3303 -1.7200 0.9838
3.6965 -0.1818 -1.7196 0.9838
3.7096 0.2656 -1.7280 0.9837
3.7049 0.4155 -1.7322 0.9837
3.6958 0.5658 -1.7372 0.9836
3.6668 0.8675 -1.7507 0.9835
3.6468 1.0192 -1.7593 0.9834
3.6230 1.1715 -1.7692 0.9833
3.5954 1.3244 -1.7803 0.9832
3.5284 1.6325 -1.8063 0.9830
3.4449 1.9440 -1.8378 0.9827
3.3441 2.2594 -1.8752 0.9824
3.2265 2.5805 -1.9196 0.9819
3.1605 2.7430 -1.9444 0.9817
3.0127 3.0725 -1.9993 0.9812
2.9305 3.2395 -2.0296 0.9809
2.4207 4.0908 -2.2085 0.9793
2.2965 4.2630 -2.2498 0.9789
2.1645 4.4365 -2.2936 0.9785
2.0120 4.5827 -2.3254 0.9782
1.8760 4.7871 -2.3889 0.9776
1.5519 5.1426 -2.4958 0.9766
1.3752 5.3218 -2.5538 0.9760
1.1881 5.5020 -2.6153 0.9755
0.5586 6.0522 -2.8240 0.9735
0.3236 6.2375 -2.9020 0.9728
-0.1889 6.6082 -3.0716 0.9713
-0.4681 6.7936 -3.1639 0.9704
-0.7637 6.9788 -3.2619 0.9695
-1.0765 7.1615 -3.3648 0.9686
-1.4070 7.3392 -3.4721 0.9676
-1.7561 7.5129 -3.5847 0.9665
-2.9262 8.0105 -3.9624 0.9631
-3.3607 8.1654 -4.1026 0.9618
-4.3026 8.4520 -4.4065 0.9590
-5.9169 8.8087 -4.9303 0.9543
-6.5037 8.8883 -5.1172 0.9526
-7.1171 8.9483 -5.3123 0.9508
-9.9165 9.0195 -6.2282 0.9426
-10.7018 8.9748 -6.4893 0.9403
-11.5163 8.8945 -6.7608 0.9378
-13.2228 8.6109 -7.3315 0.9328
-16.8657 7.4591 -8.5684 0.9219
-17.7651 7.0173 -8.8747 0.9192
-16.2241 2.8712 -7.6552 0.9299
-22.5186 0.3226 -10.4637 0.9054
-22.4982 -0.5825 -10.4567 0.9055
-16.5638 -7.5557 -8.4588 0.9228
-13.8038 -8.4363 -7.5165 0.9311
-12.0217 -8.7468 -6.9075 0.9365
-11.1871 -8.8486 -6.6272 0.9390
-8.8916 -8.9707 -5.8685 0.9458
-6.2646 -8.7726 -5.0085 0.9536
-4.5980 -8.4263 -4.4600 0.9585
-3.6258 -8.1389 -4.1398 0.9615
-3.1781 -7.9826 -3.9920 0.9628
-2.7540 -7.8183 -3.8513 0.9641
-1.2816 -7.1296 -3.3657 0.9686
-0.3777 -6.5926 -3.0681 0.9713
-0.1089 -6.3966 -2.9724 0.9722
0.3842 -6.0519 -2.8175 0.9736
0.8245 -5.6936 -2.6730 0.9749
1.3973 -5.1604 -2.4840 0.9767
1.5672 -4.9842 -2.4275 0.9772
1.8686 -4.6104 -2.3114 0.9783
2.1493 -4.2791 -2.2249 0.9791
2.2703 -4.1002 -2.1776 0.9795
2.3836 -3.9239 -2.1331 0.9800
2.5972 -3.5899 -2.0587 0.9806
2.6949 -3.4260 -2.0252 0.9810
2.7866 -3.2636 -1.9939 0.9813
2.8727 -3.1027 -1.9646 0.9815
3.0994 -2.6279 -1.8880 0.9822
3.2828 -2.1631 -1.8266 0.9828
3.3367 -2.0111 -1.8101 0.9830
3.3864 -1.8598 -1.7951 0.9831
3.4754 -1.5595 -1.7699 0.9833
3.5142 -1.4101 -1.7593 0.9834
3.6083 -0.9636 -1.7352 0.9837
3.6840 -0.3701 -1.7203 0.9838
3.7012 -0.0730 -1.7200 0.9838
3.7095 0.2254 -1.7267 0.9837
3.6986 0.5254 -1.7357 0.9837
3.6869 0.6759 -1.7416 0.9836
3.6298 1.1306 -1.7664 0.9834
3.4998 1.7461 -1.8172 0.9829
3.4100 2.0589 -1.8508 0.9826
3.3586 2.2168 -1.8697 0.9824
3.2434 2.5371 -1.9132 0.9820
3.1787 2.6993 -1.9375 0.9818
3.1089 2.8629 -1.9636 0.9815
3.0338 3.0279 -1.9915 0.9813
2.6753 3.7039 -2.1228 0.9800
2.4528 4.0449 -2.1979 0.9794
2.3305 4.2167 -2.2385 0.9790
2.2007 4.3899 -2.2816 0.9786
1.9055 4.7121 -2.3616 0.9778
1.2393 5.4536 -2.5985 0.9756
0.3880 6.1878 -2.8806 0.9730
0.1429 6.3730 -2.9618 0.9723
-0.3916 6.7438 -3.1386 0.9706
-0.6827 6.9292 -3.2350 0.9698
-1.3166 7.2921 -3.4429 0.9678
-1.6605 7.4666 -3.5539 0.9668
-2.4080 7.8053 -3.7952 0.9646
-3.2418 8.1245 -4.0642 0.9622
-3.6936 8.2738 -4.2099 0.9608
-4.1699 8.4148 -4.3634 0.9594
-4.6740 8.5499 -4.5273 0.9579
-5.2051 8.6737 -4.6999 0.9564
-5.7634 8.7834 -4.8811 0.9547
-6.3438 8.8689 -5.0663 0.9530
-6.9499 8.9342 -5.2591 0.9513
-7.5830 8.9787 -5.4604 0.9495
-8.9679 9.0338 -5.9142 0.9454
-10.4878 8.9898 -6.4180 0.9409
-12.9887 8.6594 -7.2530 0.9335
-13.8671 8.4603 -7.5474 0.9309
-19.2347 6.0887 -9.3739 0.9149
-19.9861 5.4530 -9.6254 0.9127
-16.1994 3.7272 -7.7233 0.9293
-16.2125 3.0498 -7.6648 0.9298
-16.3124 2.3942 -7.6603 0.9299
-22.1185 2.3428 -10.3342 0.9066
-22.3669 1.4631 -10.4144 0.9059
-22.5002 0.5652 -10.4574 0.9055
-22.5202 -0.3400 -10.4646 0.9054
-20.6605 -4.5363 -9.8280 0.9109
-18.5134 -6.4814 -9.1136 0.9171
-17.6788 -6.9990 -8.8342 0.9196
-16.8026 -7.4467 -8.5392 0.9221
-15.8975 -7.8246 -8.2325 0.9248
-14.9738 -8.1334 -7.9172 0.9276
-14.0500 -8.3800 -7.6009 0.9304
-12.2500 -8.7123 -6.9843 0.9358
-11.4084 -8.8253 -6.7015 0.9384
-10.5934 -8.8978 -6.4278 0.9408
-8.3790 -8.9664 -5.7019 0.9473
-7.0491 -8.8768 -5.2666 0.9512
-6.4265 -8.7970 -5.0618 0.9531
-5.2715 -8.5882 -4.6820 0.9565
-4.7367 -8.4621 -4.5057 0.9581
-4.2298 -8.3251 -4.3386 0.9596
-3.7501 -8.1793 -4.1807 0.9611
-3.2960 -8.0258 -4.0312 0.9625
-2.8654 -7.8628 -3.8883 0.9638
0.0779 -6.2802 -2.9181 0.9727
0.3212 -6.1002 -2.8382 0.9734
0.7683 -5.7416 -2.6915 0.9748
-9.5289 8.4809 -6.0997 0.9450
-10.2475 8.4072 -6.3380 0.9429
-10.9903 8.3005 -6.5856 0.9408
-14.1219 7.4606 -7.6370 0.9316
-14.9289 7.1347 -7.9118 0.9293
-15.7257 6.7530 -8.1835 0.9269
-16.1636 2.6809 -7.8345 0.9299
-17.9119 2.2354 -8.6313 0.9231
-20.3275 0.8898 -9.7292 0.9137
-20.3774 0.0720 -9.7438 0.9136
-20.1563 -1.5527 -9.6666 0.9143
-19.0756 -3.8172 -9.3021 0.9174
-17.9533 -5.1221 -8.9272 0.9206
-16.5854 -6.2113 -8.4685 0.9245
-15.8340 -6.6673 -8.2151 0.9267
-15.0484 -7.0615 -7.9485 0.9289
-12.6101 -7.8949 -7.1140 0.9362
-8.9083 -8.4739 -5.8790 0.9469
-6.9873 -8.4701 -5.2504 0.9525
-6.3939 -8.4186 -5.0549 0.9542
-4.7694 -8.1600 -4.5195 0.9590
-4.2784 -8.0459 -4.3574 0.9604
-3.3695 -7.7886 -4.0578 0.9631
-2.9486 -7.6452 -3.9181 0.9643
-1.8149 -7.1830 -3.5426 0.9677
-1.4770 -7.0238 -3.4320 0.9687
-1.1571 -6.8618 -3.3274 0.9696
-0.8539 -6.6953 -3.2274 0.9705
-0.2954 -6.3572 -3.0431 0.9722
-0.0385 -6.1722 -2.9514 0.9730
0.2045 -6.0164 -2.8785 0.9737
0.4345 -5.8458 -2.8030 0.9743
0.8552 -5.4878 -2.6558 0.9757
1.4102 -4.9937 -2.4812 0.9773
1.5744 -4.8245 -2.4267 0.9778
1.7295 -4.6565 -2.3752 0.9782
1.8652 -4.4633 -2.3131 0.9788
2.0009 -4.2940 -2.2652 0.9792
2.1355 -4.1397 -2.2273 0.9796
2.3652 -3.8005 -2.1405 0.9803
2.4725 -3.6383 -2.1034 0.9807
2.6686 -3.3183 -2.0361 0.9813
3.0624 -2.5402 -1.9025 0.9825
3.1265 -2.3879 -1.8811 0.9827
3.1856 -2.2362 -1.8611 0.9829
3.3862 -1.6408 -1.7992 0.9835
3.4273 -1.4937 -1.7877 0.9836
3.4648 -1.3470 -1.7775 0.9837
3.5978 -0.6167 -1.7454 0.9839
3.6265 -0.3249 -1.7410 0.9840
3.6358 -0.1788 -1.7406 0.9840
3.6420 -0.0325 -1.7415 0.9840
3.5842 1.0017 -1.7795 0.9836
3.5330 1.3014 -1.8003 0.9834
3.5016 1.4522 -1.8126 0.9833
3.4662 1.6038 -1.8262 0.9832
3.4267 1.7561 -1.8412 0.9831
3.1667 2.5327 -1.9389 0.9822
3.1012 2.6916 -1.9635 0.9820
3.0305 2.8518 -1.9898 0.9817
2.9546 3.0133 -2.0179 0.9815
2.8732 3.1761 -2.0479 0.9812
2.6928 3.5060 -2.1138 0.9806
2.4850 3.8385 -2.1865 0.9799
2.3695 4.0043 -2.2248 0.9796
1.9672 4.4807 -2.3399 0.9785
1.8229 4.6515 -2.3889 0.9781
1.3417 5.1923 -2.5643 0.9765
1.1585 5.3650 -2.6245 0.9760
0.9648 5.5387 -2.6883 0.9754
0.7601 5.7142 -2.7564 0.9748
0.5437 5.8901 -2.8284 0.9741
0.0726 6.2414 -2.9846 0.9727
-0.7401 6.7636 -3.2534 0.9703
-1.3613 7.1008 -3.4572 0.9685
-2.8183 7.7149 -3.9274 0.9642
-4.1262 8.1056 -4.3491 0.9605
-5.1153 8.3193 -4.6698 0.9576
-6.1993 8.4723 -5.0199 0.9545
-6.7726 8.5152 -5.2025 0.9529
-7.3683 8.5360 -5.3919 0.9512
-7.9884 8.5352 -5.5899 0.9495
-10.0522 8.4300 -6.2731 0.9435
-10.7892 8.3329 -6.5186 0.9413
-11.5449 8.1975 -6.7705 0.9392
-12.3212 8.0238 -7.0307 0.9369
-13.1072 7.8039 -7.2942 0.9346
-13.9063 7.5397 -7.5640 0.9323
-14.7109 7.2264 -7.8371 0.9299
-15.5138 6.8612 -8.1113 0.9275
-16.2943 6.4363 -8.3772 0.9253
-16.9858 5.9319 -8.6031 0.9233
-17.7393 5.4054 -8.8674 0.9211
-16.1431 3.5314 -7.9016 0.9294
-20.1014 1.9101 -9.6551 0.9144
-20.2120 -1.3378 -9.6859 0.9141
-19.6239 -2.8958 -9.4851 0.9158
-19.2025 -3.6277 -9.3444 0.9170
-16.7813 -6.0790 -8.5345 0.9239
-16.0384 -6.5506 -8.2840 0.9261
-12.0292 -8.0332 -6.9166 0.9379
-10.5032 -8.3076 -6.4034 0.9424
-9.7786 -8.3951 -6.1626 0.9445
-9.0895 -8.4614 -5.9380 0.9464
-7.7780 -8.5053 -5.5111 0.9502
-7.1511 -8.4806 -5.3044 0.9520
-6.5505 -8.4343 -5.1065 0.9538
-5.9766 -8.3692 -4.9175 0.9554
-3.4857 -7.8244 -4.0959 0.9627
-2.6457 -7.5108 -3.8077 0.9653
-2.2714 -7.3827 -3.6935 0.9663
-1.9027 -7.2028 -3.5623 0.9675
0.1406 -6.0622 -2.8995 0.9735
0.8013 -5.5336 -2.6736 0.9755
1.0013 -5.3796 -2.6165 0.9760
1.3645 -5.0393 -2.4964 0.9771
1.5312 -4.8698 -2.4410 0.9776
1.6888 -4.7015 -2.3887 0.9781
1.8274 -4.5089 -2.3264 0.9787
2.1027 -4.1863 -2.2401 0.9794
2.3353 -3.8443 -2.1508 0.9803
2.4443 -3.6817 -2.1131 0.9806
2.5470 -3.5206 -2.0778 0.9809
2.6436 -3.3609 -2.0446 0.9812
2.7344 -3.2025 -2.0136 0.9815
2.8197 -3.0454 -1.9845 0.9818
2.9745 -2.7349 -1.9321 0.9822
3.1097 -2.4287 -1.8867 0.9827
3.1701 -2.2768 -1.8663 0.9828
3.2799 -1.9768 -1.8312 0.9832
3.3293 -1.8283 -1.8162 0.9833
3.3747 -1.6804 -1.8026 0.9834
3.4166 -1.5331 -1.7907 0.9835
3.4551 -1.3864 -1.7802 0.9836
3.4898 -1.2399 -1.7709 0.9837
3.5484 -0.9476 -1.7562 0.9838
3.5724 -0.8017 -1.7507 0.9839
3.5929 -0.6558 -1.7464 0.9839
3.6336 -0.2180 -1.7406 0.9840
3.6404 -0.0718 -1.7410 0.9840
3.6459 0.0747 -1.7437 0.9840
3.6482 0.2217 -1.7477 0.9839
3.6441 0.3690 -1.7514 0.9839
3.6359 0.5165 -1.7560 0.9838
3.6242 0.6644 -1.7619 0.9838
3.6089 0.8128 -1.7689 0.9837
3.5407 1.2611 -1.7972 0.9835
3.4761 1.5630 -1.8224 0.9832
3.3485 2.0217 -1.8703 0.9828
3.2429 2.3328 -1.9102 0.9824
3.1835 2.4902 -1.9326 0.9822
3.1193 2.6488 -1.9568 0.9820
3.0500 2.8087 -1.9826 0.9818
2.9755 2.9698 -2.0102 0.9815
2.8099 3.2961 -2.0711 0.9810
2.7184 3.4614 -2.1045 0.9807
2.5148 3.7942 -2.1766 0.9800
1.8732 4.6322 -2.3892 0.9781
1.7210 4.8027 -2.4395 0.9776
1.3891 5.1460 -2.5487 0.9766
1.0177 5.4917 -2.6707 0.9755
0.8162 5.6670 -2.7377 0.9749
0.3767 6.0081 -2.8785 0.9737
0.1389 6.1944 -2.9627 0.9729
-0.6618 6.7173 -3.2275 0.9705
-0.9598 6.8895 -3.3261 0.9696
-1.2742 7.0571 -3.4290 0.9687
-1.6053 7.2185 -3.5360 0.9677
-1.9546 7.3760 -3.6487 0.9667
-2.3227 7.5289 -3.7675 0.9657
-2.7107 7.6764 -3.8927 0.9645
-3.1193 7.8173 -4.0245 0.9634
-3.5492 7.9504 -4.1632 0.9621
-4.0011 8.0741 -4.3088 0.9608
-4.9768 8.2933 -4.6248 0.9580
-6.0489 8.4566 -4.9716 0.9549
-6.6167 8.5059 -5.1529 0.9533
-8.4716 8.5338 -5.7498 0.9481
-9.1534 8.5076 -5.9754 0.9461
-9.8589 8.4508 -6.2091 0.9441
-12.8956 7.8676 -7.2233 0.9352
-14.4938 7.3149 -7.7631 0.9305
-16.8413 6.0860 -8.5626 0.9237
-18.2114 4.9688 -9.0264 0.9197
-16.1512 3.0383 -7.8584 0.9297
-16.2380 2.3833 -7.8476 0.9298
-20.0350 2.1221 -9.6336 0.9145
-20.3630 -0.3074 -9.7380 0.9137
-20.2591 -1.1216 -9.7020 0.9140
-19.3235 -3.4350 -9.3847 0.9167
-18.8429 -4.1372 -9.2247 0.9180
-17.6543 -5.3945 -8.8270 0.9214
-16.9717 -5.9417 -8.5983 0.9234
-16.2409 -6.4297 -8.3523 0.9255
-12.2384 -7.9834 -6.9870 0.9373
-10.7036 -8.2800 -6.4707 0.9418
-9.9670 -8.3717 -6.2240 0.9439
-9.2723 -8.4467 -5.9976 0.9459
-7.9489 -8.5062 -5.5669 0.9497
-7.3168 -8.4895 -5.3590 0.9515
-5.0433 -8.2164 -4.6099 0.9582
-4.5388 -8.1086 -4.4433 0.9596
-3.6037 -7.8600 -4.1346 0.9624
-1.0146 -6.7851 -3.2805 0.9700
-0.4393 -6.4484 -3.0905 0.9717
0.3126 -5.9373 -2.8430 0.9740
-8.9952 8.0059 -5.9228 0.9477
-9.6517 7.9184 -6.1405 0.9459
-11.0130 7.6424 -6.5933 0.9420
-11.7154 7.4506 -6.8289 0.9400
-12.4223 7.2158 -7.0660 0.9380
-14.5353 6.2418 -7.7806 0.9319
-15.2108 5.8194 -8.0103 0.9300
-15.8524 5.3449 -8.2284 0.9281
-17.8583 2.9620 -8.9037 0.9225
-18.1704 2.2677 -9.0065 0.9216
-18.4015 1.5485 -9.0828 0.9210
-18.5451 -0.6804 -9.1276 0.9206
-18.1789 -2.1383 -9.0030 0.9216
-17.8703 -2.8343 -8.8994 0.9225
-16.5122 -4.7110 -8.4457 0.9263
-15.2586 -5.7144 -8.0140 0.9299
-14.6485 -6.1681 -7.8176 0.9316
-13.9460 -6.5442 -7.5771 0.9336
-13.2295 -6.8699 -7.3320 0.9357
-11.0836 -7.5759 -6.6033 0.9419
-9.7193 -7.8595 -6.1479 0.9458
-7.8334 -8.0755 -5.5337 0.9511
-6.6566 -8.0693 -5.1451 0.9544
-6.1018 -8.0339 -4.9620 0.9560
-5.0595 -7.9085 -4.6178 0.9590
-4.5721 -7.8224 -4.4565 0.9604
-3.6536 -7.5923 -4.1442 0.9631
-3.2440 -7.4985 -4.0185 0.9642
-2.4608 -7.2340 -3.7583 0.9665
-0.5506 -6.3384 -3.1293 0.9720
-0.2872 -6.1788 -3.0424 0.9728
-0.0374 -6.0040 -2.9531 0.9736
0.4232 -5.6938 -2.8082 0.9749
0.8366 -5.3680 -2.6721 0.9761
1.0270 -5.2052 -2.6096 0.9766
1.6914 -4.5537 -2.3893 0.9786
1.8249 -4.3668 -2.3278 0.9791
1.9585 -4.2032 -2.2808 0.9795
2.0900 -4.0514 -2.2422 0.9799
2.5245 -3.4113 -2.0873 0.9813
2.6185 -3.2560 -2.0551 0.9815
2.7898 -2.9487 -1.9966 0.9821
2.9405 -2.6457 -1.9456 0.9825
3.0718 -2.3461 -1.9012 0.9829
3.1305 -2.1975 -1.8812 0.9831
3.1860 -2.0504 -1.8635 0.9833
3.3702 -1.4688 -1.8082 0.9837
3.4070 -1.3246 -1.7979 0.9838
3.4704 -1.0371 -1.7815 0.9840
3.4967 -0.8935 -1.7751 0.9840
3.5389 -0.6066 -1.7660 0.9841
3.5764 -0.1759 -1.7612 0.9842
3.5866 0.2568 -1.7686 0.9841
3.5719 0.5468 -1.7773 0.9840
3.4720 1.2790 -1.8199 0.9836
3.4408 1.4270 -1.8321 0.9835
3.3229 1.8752 -1.8767 0.9831
3.1086 2.4861 -1.9578 0.9824
3.0435 2.6415 -1.9821 0.9822
2.9734 2.7980 -2.0082 0.9820
2.8175 3.1145 -2.0657 0.9815
2.7311 3.2746 -2.0973 0.9812
2.4338 3.7595 -2.2028 0.9802
2.3199 3.9205 -2.2406 0.9799
2.0711 4.2450 -2.3232 0.9792
1.9239 4.3821 -2.3539 0.9789
1.4794 4.9023 -2.5186 0.9774
1.1300 5.2332 -2.6333 0.9764
0.9406 5.3997 -2.6959 0.9759
0.5293 5.7348 -2.8327 0.9747
0.3062 5.9020 -2.9068 0.9740
-0.1782 6.2334 -3.0672 0.9726
-1.0101 6.7196 -3.3422 0.9702
-2.3404 7.3054 -3.7731 0.9664
-2.7169 7.4375 -3.8946 0.9653
-3.9626 7.7843 -4.2963 0.9618
-5.3965 8.0340 -4.7603 0.9578
-7.0128 8.1241 -5.2787 0.9533
-7.5876 8.1070 -5.4615 0.9517
-8.1893 8.0734 -5.6562 0.9500
-8.8222 8.0241 -5.8656 0.9482
-10.1420 7.8331 -6.3030 0.9445
-12.2325 7.2831 -7.0023 0.9385
-12.9419 7.0168 -7.2409 0.9365
-13.6544 6.7075 -7.4825 0.9344
-14.9841 5.9188 -7.9241 0.9307
-15.6859 5.4779 -8.1721 0.9286
-16.2902 4.9639 -8.3761 0.9269
-16.7838 4.3853 -8.5323 0.9256
-17.3370 3.7925 -8.7289 0.9239
-16.3535 2.2203 -8.1173 0.9291
-18.5137 1.0106 -9.1196 0.9207
-18.4530 -1.2214 -9.0961 0.9209
-17.1621 -3.9627 -8.6634 0.9245
-16.0958 -5.1087 -8.3060 0.9275
-14.8283 -6.0563 -7.8782 0.9311
-13.3708 -6.7611 -7.3695 0.9354
-9.2457 -7.9375 -5.9935 0.9471
-7.9957 -8.0669 -5.5865 0.9506
-6.8094 -8.0753 -5.1955 0.9540
-6.2484 -8.0453 -5.0104 0.9556
-5.1942 -7.9293 -4.6624 0.9586
-4.7006 -7.8468 -4.4990 0.9600
-3.3436 -7.5054 -4.0413 0.9640
-2.9481 -7.4049 -3.9201 0.9651
-2.5612 -7.2710 -3.7917 0.9662
-2.1941 -7.1313 -3.6698 0.9673
-1.8462 -6.9887 -3.5553 0.9683
-1.5162 -6.8425 -3.4472 0.9692
-1.2030 -6.6928 -3.3446 0.9701
-0.9057 -6.5385 -3.2467 0.9710
-0.3565 -6.2218 -3.0652 0.9726
0.3642 -5.7375 -2.8277 0.9747
0.9769 -5.2489 -2.6260 0.9765
1.1600 -5.0863 -2.5659 0.9770
1.3329 -4.9225 -2.5084 0.9775
1.4965 -4.7595 -2.4540 0.9780
1.7877 -4.4108 -2.3409 0.9790
1.9235 -4.2470 -2.2932 0.9794
2.0576 -4.0966 -2.2548 0.9798
2.1754 -3.9289 -2.2089 0.9802
2.2890 -3.7682 -2.1685 0.9805
2.4983 -3.4532 -2.0964 0.9812
2.5938 -3.2975 -2.0635 0.9815
2.6837 -3.1431 -2.0328 0.9817
2.9214 -2.6861 -1.9520 0.9825
2.9908 -2.5358 -1.9286 0.9827
3.2244 -1.9434 -1.8517 0.9834
3.2734 -1.7977 -1.8368 0.9835
3.3185 -1.6524 -1.8234 0.9836
3.3597 -1.5076 -1.8112 0.9837
3.4319 -1.2193 -1.7914 0.9839
3.4627 -1.0756 -1.7834 0.9840
3.4900 -0.9320 -1.7767 0.9840
3.5137 -0.7885 -1.7712 0.9841
3.5340 -0.6451 -1.7669 0.9841
3.5643 -0.3581 -1.7619 0.9842
3.5809 -0.0706 -1.7616 0.9842
3.5829 0.3628 -1.7713 0.9841
3.5747 0.5078 -1.7759 0.9840
3.5477 0.7990 -1.7887 0.9839
3.5288 0.9453 -1.7968 0.9838
3.4495 1.3872 -1.8287 0.9836
3.3350 1.8348 -1.8722 0.9832
3.2892 1.9860 -1.8898 0.9830
3.1841 2.2906 -1.9293 0.9827
3.1252 2.4446 -1.9515 0.9825
3.0614 2.5997 -1.9755 0.9823
2.9927 2.7559 -2.0010 0.9820
2.9189 2.9133 -2.0284 0.9818
2.6642 3.3925 -2.1217 0.9810
2.4633 3.7164 -2.1930 0.9803
2.1062 4.2013 -2.3115 0.9793
1.8208 4.5027 -2.3889 0.9786
1.6816 4.6928 -2.4519 0.9780
1.5233 4.8579 -2.5041 0.9776
1.1791 5.1888 -2.6172 0.9766
0.5872 5.6898 -2.8134 0.9748
0.1349 6.0157 -2.9596 0.9735
-0.1101 6.1892 -3.0447 0.9728
-0.9301 6.6769 -3.3158 0.9704
-1.2340 6.8346 -3.4160 0.9695
-3.0044 7.5295 -3.9874 0.9645
-4.7656 7.9413 -4.5553 0.9596
-5.2602 8.0164 -4.7160 0.9582
-7.4316 8.1140 -5.4118 0.9521
-8.0228 8.0818 -5.6011 0.9505
-11.3376 7.5587 -6.7021 0.9411
-12.0427 7.3473 -6.9386 0.9391
-12.7497 7.0916 -7.1758 0.9370
-13.4641 6.7952 -7.4180 0.9350
-15.5139 5.6063 -8.1135 0.9291
-16.1326 5.1067 -8.3229 0.9273
-17.1471 3.9453 -8.6543 0.9246
-17.6531 3.3208 -8.8351 0.9230
-16.3580 2.4009 -8.1319 0.9290
-18.5756 0.4666 -9.1394 0.9205
-18.4925 -1.0238 -9.1096 0.9208
-17.7010 -3.1466 -8.8428 0.9230
-17.2252 -3.7820 -8.6741 0.9244
-16.7996 -4.4033 -8.5421 0.9255
-8.7804 -7.9985 -5.8419 0.9484
-8.1592 -8.0561 -5.6397 0.9502
-7.5531 -8.0826 -5.4411 0.9519
-6.9637 -8.0799 -5.2465 0.9536
-6.3967 -8.0553 -5.0593 0.9552
-5.3306 -7.9491 -4.7075 0.9582
-3.8878 -7.6520 -4.2216 0.9625
-3.0553 -7.4396 -3.9558 0.9648
-2.6631 -7.3075 -3.8255 0.9659
-0.9840 -6.5804 -3.2726 0.9708
-0.6979 -6.4234 -3.1780 0.9716
-0.4268 -6.2647 -3.0884 0.9724
-0.1698 -6.1045 -3.0037 0.9731
0.5230 -5.6183 -2.7753 0.9752
0.7300 -5.4553 -2.7071 0.9758
-8.5131 7.5768 -5.7631 0.9502
-10.3560 7.1865 -6.3744 0.9451
-11.6301 6.7556 -6.8015 0.9415
-12.2657 6.4799 -7.0151 0.9397
-12.8967 6.1635 -7.2283 0.9379
-14.1051 5.3964 -7.6371 0.9345
-14.6661 4.9449 -7.8267 0.9330
-15.1905 4.4503 -8.0046 0.9315
-16.7055 2.0849 -8.5134 0.9273
-16.9088 1.4228 -8.5809 0.9268
-16.7264 -1.9675 -8.5168 0.9273
-16.4607 -2.6108 -8.4281 0.9280
-16.1262 -3.2270 -8.3166 0.9289
-15.7283 -3.8108 -8.1838 0.9300
-14.7597 -4.8605 -7.8582 0.9327
-13.6069 -5.7295 -7.4660 0.9360
-12.9842 -6.0929 -7.2530 0.9377
-9.1971 -7.4373 -5.9813 0.9484
-7.9900 -7.6004 -5.5766 0.9518
-7.4459 -7.6760 -5.4079 0.9532
-6.8883 -7.6976 -5.2236 0.9548
-6.3493 -7.6967 -5.0456 0.9563
-5.8302 -7.6763 -4.8745 0.9577
-5.3118 -7.6107 -4.6934 0.9593
-4.8331 -7.5546 -4.5352 0.9606
-3.9477 -7.4240 -4.2521 0.9630
-3.5280 -7.3313 -4.1143 0.9642
-3.1262 -7.2261 -3.9815 0.9653
-1.3864 -6.5928 -3.4069 0.9703
-1.0882 -6.4527 -3.3092 0.9711
-0.2792 -6.0084 -3.0417 0.9734
-0.0364 -5.8430 -2.9548 0.9741
0.1938 -5.7026 -2.8855 0.9747
0.4113 -5.5342 -2.8063 0.9754
0.6196 -5.3927 -2.7450 0.9760
0.8161 -5.2370 -2.6803 0.9765
1.5046 -4.6108 -2.4527 0.9785
2.0459 -3.9659 -2.2567 0.9802
2.3780 -3.4993 -2.1395 0.9812
2.4767 -3.3468 -2.1055 0.9815
2.5697 -3.1954 -2.0736 0.9818
2.6572 -3.0449 -2.0436 0.9820
2.7393 -2.8954 -2.0156 0.9823
2.8164 -2.7467 -1.9894 0.9825
2.8886 -2.5990 -1.9650 0.9827
2.9559 -2.4519 -1.9421 0.9829
3.0767 -2.1597 -1.9009 0.9833
3.1836 -1.8723 -1.8677 0.9836
3.2312 -1.7294 -1.8533 0.9837
3.2749 -1.5869 -1.8403 0.9838
3.3148 -1.4447 -1.8286 0.9839
3.3511 -1.3028 -1.8182 0.9840
3.3838 -1.1613 -1.8091 0.9841
3.4134 -1.0200 -1.8015 0.9842
3.4621 -0.7378 -1.7901 0.9843
3.4812 -0.5967 -1.7861 0.9843
3.4970 -0.4556 -1.7833 0.9843
3.5093 -0.3144 -1.7817 0.9843
3.5183 -0.1730 -1.7813 0.9843
3.5241 -0.0315 -1.7822 0.9843
3.5268 0.2525 -1.7881 0.9843
3.5212 0.3949 -1.7918 0.9842
3.5121 0.5376 -1.7967 0.9842
3.4995 0.6807 -1.8028 0.9841
3.4832 0.8241 -1.8101 0.9841
3.4398 1.1122 -1.8282 0.9839
3.3814 1.4024 -1.8512 0.9837
3.3464 1.5483 -1.8646 0.9836
3.3078 1.6951 -1.8796 0.9835
3.2192 1.9914 -1.9142 0.9832
3.1673 2.1399 -1.9330 0.9830
3.1117 2.2898 -1.9537 0.9828
3.0519 2.4408 -1.9762 0.9826
