ply
format ascii 1.0
element vertex 1381
property float32 x
property float32 y
property float32 z
property float32 CosAngle
property uint32 ObjIdx
property uint32 ObjTag
end_header
1.6880 -7.6890 -2.3568 0.3480 0 1
1.9239 -7.3398 -2.2716 0.3593 0 24
2.1531 -7.0453 -2.2055 0.3719 0 1
2.3605 -6.7406 -2.1382 0.3826 0 1
2.5526 -6.4452 -2.0754 0.3942 0 1
2.7311 -6.1596 -2.0172 0.4056 0 1
2.8971 -5.8829 -1.9632 0.4167 0 1
3.0515 -5.6144 -1.9131 0.4274 0 1
3.1931 -5.3499 -1.8653 0.4229 0 1
3.3154 -5.0787 -1.8158 0.4344 0 1
3.4288 -4.8171 -1.7702 0.4390 0 1
3.5354 -4.5663 -1.7289 0.4495 0 1
3.6339 -4.3223 -1.6906 0.4597 0 1
3.7248 -4.0847 -1.6550 0.4696 0 1
3.8101 -3.8546 -1.6226 0.4984 0 1
3.8961 -3.6365 -1.5956 0.5069 0 1
3.9760 -3.4223 -1.5706 0.5149 0 1
4.0501 -3.2117 -1.5475 0.5226 0 1
4.1188 -3.0044 -1.5263 0.5299 0 1
4.1824 -2.8001 -1.5068 0.5368 0 1
4.2421 -2.5991 -1.4894 0.5431 0 1
4.2971 -2.4006 -1.4736 0.5489 0 1
4.3475 -2.2041 -1.4593 0.5544 0 1
4.3937 -2.0095 -1.4464 0.5593 0 1
4.4357 -1.8167 -1.4350 0.5637 0 1
4.4737 -1.6252 -1.4250 0.5677 0 1
4.5077 -1.4351 -1.4162 0.5712 0 1
4.5378 -1.2460 -1.4088 0.5742 0 1
4.2846 -0.9929 -1.3167 0.3403 25 14
3.9005 -0.7399 -1.1885 0.7273 25 14
3.8883 -0.5766 -1.1768 0.7433 25 14
3.8787 -0.4165 -1.1679 0.7489 25 14
3.8700 -0.2586 -1.1612 0.7905 25 14
3.8595 -0.1022 -1.1559 0.7941 25 14
3.8563 0.0531 -1.1546 0.7950 25 14
3.8612 0.2088 -1.1577 0.7555 25 14
3.8637 0.3653 -1.1619 0.7528 25 14
3.8673 0.5234 -1.1683 0.7486 25 14
3.8721 0.6837 -1.1772 0.7343 25 14
4.1795 0.9128 -1.2808 0.6740 25 14
4.6433 1.2118 -1.4367 0.5571 0 1
4.6218 1.4070 -1.4464 0.5533 0 1
4.5962 1.6040 -1.4574 0.5492 0 1
4.5665 1.8029 -1.4698 0.5445 0 1
4.5325 2.0038 -1.4836 0.5394 0 1
4.4942 2.2072 -1.4990 0.5336 0 1
4.4514 2.4132 -1.5159 0.5276 0 1
4.4039 2.6220 -1.5344 0.5212 0 1
4.3513 2.8339 -1.5546 0.5145 0 1
4.2936 3.0492 -1.5766 0.5073 0 1
4.2308 3.2684 -1.6006 0.4997 0 1
4.1624 3.4918 -1.6265 0.4918 0 1
4.0878 3.7196 -1.6546 0.4834 0 1
4.0068 3.9520 -1.6849 0.4747 0 1
3.9189 4.1895 -1.7175 0.4657 0 1
3.8216 4.4301 -1.7516 0.4698 0 1
3.7130 4.6718 -1.7866 0.4605 0 1
3.5981 4.9215 -1.8252 0.4488 0 1
3.4752 5.1788 -1.8672 0.4387 0 1
3.3430 5.4429 -1.9123 0.4284 0 1
3.2003 5.7142 -1.9608 0.4147 0 1
3.0457 5.9915 -2.0122 0.4041 0 1
2.8792 6.2772 -2.0675 0.3936 0 1
2.6996 6.5714 -2.1269 0.3827 0 1
2.5007 6.8605 -2.1861 0.3943 0 1
2.2867 7.1562 -2.2491 0.3832 0 1
2.0572 7.4611 -2.3171 0.3720 0 1
1.8145 7.7919 -2.3952 0.3405 0 1
1.5571 8.1601 -2.4871 0.3279 0 1
1.2768 8.5465 -2.5871 0.3152 0 1
0.9711 8.9530 -2.6961 0.3025 0 1
0.6337 9.3327 -2.8005 0.3115 0 1
0.2679 9.7237 -2.9122 0.2995 0 1
-0.1287 10.1323 -3.0336 0.2875 0 1
-0.5616 10.5955 -3.1765 0.2613 0 1
-1.0346 11.0684 -3.3281 0.2527 0 24
-1.5590 11.6129 -3.5079 0.2311 0 1
-2.1350 12.1674 -3.6983 0.2192 0 1
-2.7586 12.6965 -3.8898 0.2096 0 24
-3.4801 13.3943 -4.1431 0.1954 0 1
-4.2708 14.0831 -4.4058 0.1799 0 1
-5.1595 14.8356 -4.7024 0.1733 0 1
-6.1448 15.6133 -5.0233 0.1644 0 1
-7.2374 16.4180 -5.3716 0.1536 0 1
-8.4863 17.3265 -5.7760 0.1370 0 1
-9.9595 18.4189 -6.2688 0.1195 0 1
-11.7667 19.8117 -6.8985 0.1040 0 1
-13.8212 21.2719 -7.5946 0.1063 0 1
-15.9930 22.5716 -8.2818 0.1094 0 1
-18.1191 23.5065 -8.8854 0.0860 0 2
-21.4303 25.6016 -9.9954 0.0765 0 2
-24.4376 26.9154 -10.8838 0.7140 0 21
-22.4984 22.8596 -9.6023 0.7185 0 5
-22.6209 21.2054 -9.2826 0.7510 0 5
-22.7245 19.6457 -8.9932 0.7924 0 5
-22.7695 18.1362 -8.7149 0.8101 0 5
-22.8493 16.7426 -8.4805 0.8706 0 5
-32.6900 21.9880 -11.7946 0.8412 0 3
-26.5250 16.3307 -9.3254 0.7456 0 3
-28.4706 15.9857 -9.7752 0.6375 0 3
-32.9839 16.8115 -11.0834 0.8654 0 3
-36.8989 16.9725 -12.1594 0.9997 0 3
-42.5613 17.5382 -13.7814 0.9831 0 3
-26.6617 8.5513 -8.3825 0.8837 0 6
-45.9296 8.8151 -14.0014 0.9738 0 22
-45.9671 6.9177 -13.9166 0.9568 0 22
-34.2990 -31.0743 -13.8559 0.6373 0 20
-29.8153 -29.2811 -12.5109 0.7325 0 9
-25.8074 -27.4707 -11.2841 0.9062 0 9
-23.0502 -26.6046 -10.5385 0.0725 0 2
-19.4363 -24.3478 -9.3270 0.0820 0 2
-17.0266 -23.1844 -8.6117 0.8326 0 2
-14.1305 -20.9593 -7.5676 0.0945 0 24
-12.1224 -19.6422 -6.9102 0.1094 0 1
-10.3460 -18.3798 -6.3144 0.1210 0 1
-8.8118 -17.2428 -5.7972 0.1306 0 1
-7.4926 -16.2432 -5.3553 0.1453 0 1
-6.3443 -15.3492 -4.9723 0.1616 0 1
-5.3434 -14.5616 -4.6437 0.1766 0 1
-4.4600 -13.8542 -4.3573 0.1882 0 1
-3.6724 -13.2079 -4.1042 0.2022 0 1
-2.9647 -12.6082 -3.8776 0.2187 0 1
-2.3273 -12.0557 -3.6759 0.2247 0 1
-1.7474 -11.5267 -3.4903 0.2313 0 1
-1.2186 -11.0132 -3.3173 0.2433 0 1
-0.7374 -10.5243 -3.1585 0.2549 0 1
-0.2989 -10.0590 -3.0128 0.2682 0 1
0.1012 -9.5932 -2.8722 0.2769 0 24
0.4680 -9.2062 -2.7597 0.2928 0 1
0.8044 -8.8110 -2.6488 0.3051 0 1
1.1138 -8.4341 -2.5469 0.3173 0 1
1.3981 -8.0701 -2.4520 0.3312 0 1
1.6610 -7.7249 -2.3656 0.3467 0 1
1.9045 -7.3955 -2.2863 0.3588 0 1
2.1300 -7.0785 -2.2130 0.3706 0 1
2.3391 -6.7728 -2.1452 0.3814 0 1
2.5327 -6.4763 -2.0819 0.3930 0 1
2.7126 -6.1897 -2.0232 0.4044 0 1
2.8799 -5.9121 -1.9688 0.4155 0 1
3.0355 -5.6428 -1.9183 0.4265 0 1
3.1794 -5.3795 -1.8708 0.4216 0 1
3.3028 -5.1073 -1.8209 0.4332 0 1
3.4169 -4.8444 -1.7748 0.4379 0 1
3.5244 -4.5928 -1.7332 0.4484 0 1
3.6238 -4.3481 -1.6945 0.4586 0 1
3.7154 -4.1099 -1.6587 0.4685 0 1
3.8005 -3.8782 -1.6256 0.4975 0 1
3.8872 -3.6597 -1.5983 0.5060 0 1
3.9677 -3.4451 -1.5731 0.5141 0 1
4.0424 -3.2341 -1.5499 0.5218 0 1
4.1117 -3.0264 -1.5285 0.5291 0 1
4.1758 -2.8218 -1.5088 0.5360 0 1
4.2359 -2.6205 -1.4912 0.5424 0 1
4.2914 -2.4217 -1.4752 0.5483 0 1
4.3423 -2.2250 -1.4607 0.5538 0 1
4.3890 -2.0303 -1.4478 0.5588 0 1
4.4314 -1.8372 -1.4362 0.5633 0 1
4.4698 -1.6457 -1.4260 0.5673 0 1
4.5042 -1.4554 -1.4171 0.5709 0 1
4.5348 -1.2661 -1.4096 0.5739 0 1
4.2887 -1.0133 -1.3193 0.3396 25 14
3.9024 -0.7577 -1.1901 0.7263 25 14
3.8894 -0.5939 -1.1779 0.7426 25 14
3.8797 -0.4335 -1.1687 0.7484 25 14
3.8712 -0.2754 -1.1619 0.7528 25 14
3.8606 -0.1189 -1.1563 0.7938 25 14
3.8557 0.0365 -1.1544 0.7952 25 14
3.8610 0.1921 -1.1573 0.7558 25 14
3.8634 0.3485 -1.1613 0.7532 25 14
3.8669 0.5064 -1.1675 0.7492 25 14
3.8713 0.6664 -1.1760 0.7437 25 14
3.9188 0.8382 -1.1998 0.7315 25 14
4.6453 1.1909 -1.4357 0.5659 0 1
4.6243 1.3861 -1.4453 0.5538 0 1
4.5991 1.5828 -1.4562 0.5496 0 1
4.5699 1.7815 -1.4684 0.5450 0 1
4.5363 1.9822 -1.4821 0.5400 0 1
4.4985 2.1853 -1.4973 0.5342 0 1
4.4562 2.3910 -1.5140 0.5283 0 1
4.4092 2.5995 -1.5324 0.5219 0 1
4.3572 2.8111 -1.5524 0.5152 0 1
4.3000 3.0259 -1.5741 0.5081 0 1
4.2378 3.2448 -1.5979 0.5006 0 1
4.1700 3.4677 -1.6237 0.4926 0 1
4.0961 3.6950 -1.6515 0.4843 0 1
4.0158 3.9269 -1.6815 0.4757 0 1
3.9286 4.1638 -1.7138 0.4667 0 1
3.8327 4.4046 -1.7480 0.4707 0 1
3.7250 4.6457 -1.7827 0.4615 0 1
3.6107 4.8944 -1.8209 0.4499 0 1
3.4888 5.1509 -1.8625 0.4398 0 1
3.3576 5.4143 -1.9073 0.4295 0 1
3.2162 5.6850 -1.9555 0.4159 0 1
3.0628 5.9615 -2.0065 0.4053 0 1
2.8976 6.2462 -2.0614 0.3945 0 1
2.7195 6.5395 -2.1203 0.3838 0 1
2.5227 6.8294 -2.1796 0.3955 0 1
2.3104 7.1241 -2.2422 0.3844 0 1
2.0826 7.4280 -2.3095 0.3732 0 1
1.8408 7.7535 -2.3858 0.3418 0 1
1.5857 8.1199 -2.4769 0.3293 0 1
1.3079 8.5042 -2.5759 0.3166 0 1
1.0051 8.9085 -2.6839 0.3039 0 1
0.6712 9.2919 -2.7891 0.3127 0 1
0.3085 9.6810 -2.8998 0.3008 0 1
-0.0847 10.0876 -3.0201 0.2888 0 1
-0.5133 10.5440 -3.1604 0.2626 0 1
-0.9819 11.0170 -3.3113 0.2549 0 24
-1.5007 11.5556 -3.4886 0.2324 0 1
-2.0606 12.0481 -3.6593 0.2258 0 24
-2.6874 12.6310 -3.8661 0.2112 0 24
-3.4006 13.3240 -4.1168 0.1969 0 1
-4.1815 14.0054 -4.3758 0.1812 0 1
-5.0603 14.7549 -4.6699 0.1745 0 1
-6.0348 15.5297 -4.9880 0.1656 0 1
-45.7345 6.6814 -14.3973 0.9111 0 22
-35.1710 -25.0914 -13.4578 0.3392 0 20
-34.8538 -29.3671 -14.1969 0.4345 0 9
-30.3913 -27.7733 -12.8243 0.9216 0 9
-25.5747 -25.3339 -11.2133 0.6831 0 20
-23.0803 -24.7809 -10.5486 0.0751 0 2
-19.6802 -22.9136 -9.4087 0.0842 0 2
-17.4441 -22.0463 -8.7570 0.9263 0 2
-14.6712 -20.1587 -7.7663 0.0753 0 1
-12.5901 -18.8492 -7.0608 0.1141 0 1
-10.8472 -17.7466 -6.4788 0.1222 0 1
-9.3304 -16.7440 -5.9708 0.1365 0 1
-8.0135 -15.8487 -5.5320 0.1474 0 1
-6.8535 -15.0275 -5.1449 0.1619 0 1
-5.8363 -14.2944 -4.8095 0.1777 0 1
-4.9382 -13.6386 -4.5183 0.1882 0 1
-4.1209 -12.9925 -4.2458 0.1985 0 24
-3.4085 -12.4665 -4.0258 0.2137 0 1
-2.7530 -11.9383 -3.8163 0.2244 0 1
-2.1573 -11.4395 -3.6262 0.2362 0 1
-1.6120 -10.9516 -3.4481 0.2428 0 1
-1.1148 -10.4879 -3.2853 0.2548 0 1
-0.6601 -10.0412 -3.1345 0.2673 0 1
-0.2436 -9.5914 -2.9886 0.2766 0 24
0.1369 -9.2163 -2.8712 0.2919 0 1
0.4872 -8.8327 -2.7555 0.3041 0 1
0.8097 -8.4659 -2.6491 0.3163 0 1
1.1072 -8.1146 -2.5511 0.3285 0 1
1.3818 -7.7763 -2.4602 0.3457 0 1
1.6363 -7.4538 -2.3771 0.3578 0 1
1.8668 -7.1219 -2.2934 0.3690 0 24
2.0914 -6.8432 -2.2289 0.3816 0 1
2.2947 -6.5525 -2.1626 0.3923 0 1
2.4835 -6.2705 -2.1009 0.4038 0 1
2.6591 -5.9972 -2.0435 0.4151 0 1
2.8227 -5.7318 -1.9902 0.4263 0 1
2.9750 -5.4738 -1.9406 0.4369 0 1
3.1128 -5.2154 -1.8919 0.4323 0 1
3.2342 -4.9543 -1.8430 0.4438 0 1
3.3463 -4.7013 -1.7975 0.4550 0 1
3.4512 -4.4575 -1.7560 0.4589 0 1
3.5492 -4.2216 -1.7180 0.4691 0 1
3.6398 -3.9915 -1.6826 0.4789 0 1
3.7280 -3.7716 -1.6519 0.5077 0 1
3.8135 -3.5595 -1.6249 0.5161 0 1
3.8930 -3.3510 -1.6000 0.5241 0 1
3.9668 -3.1457 -1.5770 0.5318 0 1
4.0353 -2.9435 -1.5558 0.5390 0 1
4.0986 -2.7440 -1.5364 0.5458 0 1
4.1580 -2.5476 -1.5190 0.5522 0 1
4.2128 -2.3535 -1.5032 0.5580 0 1
4.2631 -2.1613 -1.4888 0.5634 0 1
4.3091 -1.9709 -1.4760 0.5683 0 1
4.3510 -1.7820 -1.4646 0.5728 0 1
4.3888 -1.5944 -1.4545 0.5767 0 1
4.4227 -1.4080 -1.4458 0.5802 0 1
4.4528 -1.2226 -1.4384 0.5863 0 1
4.4800 -1.0382 -1.4325 0.5887 0 1
3.9262 -0.7448 -1.2448 0.7201 25 14
3.9132 -0.5803 -1.2323 0.7360 25 14
3.9016 -0.4190 -1.2223 0.7787 25 14
3.8900 -0.2599 -1.2144 0.7838 25 14
3.8794 -0.1027 -1.2088 0.7874 25 14
3.8762 0.0534 -1.2075 0.7882 25 14
3.8818 0.2099 -1.2109 0.7860 25 14
3.8882 0.3677 -1.2166 0.7824 25 14
3.8919 0.5267 -1.2234 0.7414 25 14
3.8976 0.6882 -1.2329 0.7270 25 14
4.2714 0.9329 -1.3619 0.3411 25 14
4.5532 1.1882 -1.4658 0.5662 0 1
4.5314 1.3795 -1.4755 0.5625 0 1
4.5057 1.5724 -1.4865 0.5583 0 1
4.4758 1.7671 -1.4989 0.5537 0 1
4.4416 1.9637 -1.5127 0.5486 0 1
4.4031 2.1625 -1.5280 0.5428 0 1
4.3602 2.3637 -1.5449 0.5368 0 1
4.3126 2.5676 -1.5634 0.5305 0 1
4.2600 2.7744 -1.5836 0.5237 0 1
4.2022 2.9843 -1.6055 0.5166 0 1
4.1395 3.1979 -1.6294 0.5090 0 1
4.0711 3.4152 -1.6553 0.5011 0 1
3.9966 3.6366 -1.6832 0.4928 0 1
3.9158 3.8623 -1.7132 0.4841 0 1
3.8282 4.0926 -1.7456 0.4751 0 1
3.7334 4.3280 -1.7804 0.4659 0 1
3.6262 4.5626 -1.8154 0.4700 0 1
3.5119 4.8037 -1.8536 0.4583 0 1
3.3902 5.0520 -1.8952 0.4482 0 1
3.2592 5.3066 -1.9399 0.4379 0 1
3.1174 5.5661 -1.9872 0.4243 0 1
2.9647 5.8323 -2.0380 0.4138 0 1
2.8006 6.1059 -2.0925 0.4030 0 1
2.6239 6.3872 -2.1509 0.3924 0 1
2.4327 6.6738 -2.2127 0.4039 0 1
2.2228 6.9560 -2.2747 0.3929 0 1
1.9980 7.2463 -2.3414 0.3817 0 1
1.7580 7.5493 -2.4145 0.3502 0 1
1.5068 7.8966 -2.5041 0.3377 0 1
1.2339 8.2598 -2.6014 0.3251 0 1
0.9372 8.6400 -2.7071 0.3118 0 1
0.6120 9.0136 -2.8142 0.3214 0 1
0.2584 9.3784 -2.9224 0.3095 0 1
-0.1239 9.7580 -3.0398 0.2975 0 1
-0.5389 10.1682 -3.1718 0.2713 0 1
-0.9931 10.6245 -3.3239 0.2589 0 1
-1.4889 11.0904 -3.4856 0.2502 0 1
-2.0251 11.5415 -3.6501 0.2350 0 24
-2.6210 12.0630 -3.8452 0.2206 0 24
-3.2944 12.6797 -4.0808 0.2060 0 1
-4.0285 13.2840 -4.3240 0.1941 0 1
-4.8452 13.9319 -4.5947 0.1827 0 1
-5.7574 14.6291 -4.8971 0.1725 0 1
-6.7560 15.3259 -5.2172 0.1667 0 1
-7.8308 15.9883 -5.5456 0.1532 0 24
-9.1523 16.9261 -5.9938 0.1354 0 1
-10.6428 17.9194 -6.4921 0.1190 0 1
-12.4574 19.1730 -7.1222 0.1066 0 1
-14.5207 20.4935 -7.8237 0.1200 0 1
-16.7278 21.7015 -8.5351 0.6510 0 2
-18.7345 22.3810 -9.0917 0.0872 0 2
-21.9361 24.1602 -10.1650 0.0780 0 2
-25.8307 26.2453 -11.4707 0.0691 0 25
-22.5252 21.1157 -9.6174 0.7468 0 5
-22.5878 19.5276 -9.3008 0.8050 0 5
-22.6842 18.0683 -9.0336 0.7586 0 5
-22.7460 16.6669 -8.7838 0.7230 0 5
-28.0347 18.8568 -10.5243 0.8421 0 3
-28.8760 17.7782 -10.5628 0.5064 0 3
-29.2837 16.4423 -10.4613 0.3690 0 3
-37.5943 19.1613 -13.1438 0.8981 0 3
-29.8376 13.7245 -10.2304 0.3533 0 5
-33.2423 13.6982 -11.1995 0.4347 0 5
-26.5579 8.5180 -8.6878 0.9996 0 6
-45.7491 6.8849 -14.4111 0.9209 0 22
-35.3295 -24.9755 -13.4772 0.8374 0 20
-35.8280 -29.9248 -14.5410 0.9928 0 9
-30.1101 -27.2792 -12.6560 0.7329 0 9
-26.2854 -25.8145 -11.4760 0.8819 0 9
-23.4852 -24.9989 -10.6843 0.0742 0 2
-20.0138 -23.1000 -9.5206 0.0833 0 2
-17.5135 -21.9391 -8.7444 0.9277 0 2
-14.9830 -20.4018 -7.8847 0.0742 0 1
-12.7897 -18.9706 -7.1268 0.1130 0 1
-11.0224 -17.8600 -6.5375 0.1211 0 1
-9.4820 -16.8449 -6.0213 0.1354 0 1
-8.1463 -15.9406 -5.5763 0.1462 0 1
-6.9697 -15.1096 -5.1832 0.1607 0 1
-5.9387 -14.3679 -4.8428 0.1707 0 1
-5.0297 -13.7069 -4.5480 0.1870 0 1
-4.2031 -13.0563 -4.2725 0.1974 0 24
-3.4826 -12.5253 -4.0496 0.2125 0 1
-2.8201 -11.9934 -3.8378 0.2232 0 1
-2.2184 -11.4916 -3.6457 0.2349 0 1
-1.6680 -11.0027 -3.4665 0.2415 0 1
-1.1658 -10.5363 -3.3020 0.2535 0 1
-0.7068 -10.0877 -3.1500 0.2660 0 1
-0.2871 -9.6628 -3.0112 0.2783 0 1
0.0977 -9.2585 -2.8841 0.2906 0 1
0.4511 -8.8729 -2.7674 0.3028 0 1
0.7764 -8.5044 -2.6601 0.3150 0 1
1.0764 -8.1515 -2.5612 0.3272 0 1
1.3533 -7.8116 -2.4695 0.3444 0 1
1.6050 -7.4644 -2.3783 0.3560 0 24
1.8424 -7.1545 -2.3013 0.3678 0 24
2.0687 -6.8748 -2.2363 0.3803 0 1
2.2736 -6.5832 -2.1695 0.3910 0 1
2.4639 -6.3003 -2.1072 0.4026 0 1
2.6409 -6.0261 -2.0494 0.4139 0 1
2.8057 -5.7599 -1.9957 0.4251 0 1
2.9593 -5.5011 -1.9458 0.4357 0 1
3.0992 -5.2439 -1.8974 0.4311 0 1
3.2217 -4.9819 -1.8480 0.4426 0 1
3.3347 -4.7280 -1.8022 0.4538 0 1
3.4403 -4.4831 -1.7603 0.4578 0 1
3.5391 -4.2465 -1.7219 0.4680 0 1
3.6304 -4.0158 -1.6863 0.4779 0 1
3.7185 -3.7945 -1.6549 0.5068 0 1
3.8047 -3.5820 -1.6277 0.5152 0 1
3.8848 -3.3731 -1.6026 0.5233 0 1
3.9592 -3.1675 -1.5794 0.5310 0 1
4.0282 -2.9650 -1.5580 0.5383 0 1
4.0920 -2.7652 -1.5384 0.5451 0 1
4.1519 -2.5685 -1.5208 0.5515 0 1
4.2071 -2.3742 -1.5048 0.5574 0 1
4.2579 -2.1818 -1.4903 0.5629 0 1
4.3044 -1.9912 -1.4773 0.5678 0 1
4.3467 -1.8021 -1.4657 0.5723 0 1
4.3849 -1.6144 -1.4555 0.5763 0 1
4.4192 -1.4279 -1.4466 0.5799 0 1
4.4497 -1.2424 -1.4391 0.5860 0 1
4.4772 -1.0579 -1.4330 0.5885 0 1
3.9282 -0.7627 -1.2465 0.7191 25 14
3.9143 -0.5977 -1.2334 0.7353 25 14
3.9029 -0.4361 -1.2233 0.7781 25 14
3.8912 -0.2768 -1.2152 0.7833 25 14
3.8805 -0.1195 -1.2093 0.7871 25 14
3.8756 0.0367 -1.2073 0.7884 25 14
3.8811 0.1931 -1.2104 0.7863 25 14
3.8875 0.3507 -1.2159 0.7829 25 14
3.8915 0.5096 -1.2225 0.7419 25 14
3.8963 0.6707 -1.2315 0.7278 25 14
4.2698 0.9133 -1.3601 0.3416 25 14
4.5552 1.1678 -1.4648 0.5666 0 1
4.5339 1.3590 -1.4744 0.5629 0 1
4.5086 1.5517 -1.4853 0.5588 0 1
4.4792 1.7461 -1.4975 0.5542 0 1
4.4455 1.9425 -1.5112 0.5492 0 1
4.4074 2.1411 -1.5263 0.5434 0 1
4.3650 2.3421 -1.5431 0.5375 0 1
4.3179 2.5457 -1.5614 0.5312 0 1
4.2659 2.7521 -1.5813 0.5245 0 1
4.2086 2.9616 -1.6030 0.5174 0 1
4.1464 3.1748 -1.6267 0.5099 0 1
4.0787 3.3918 -1.6524 0.5020 0 1
4.0049 3.6127 -1.6801 0.4937 0 1
3.9248 3.8379 -1.7099 0.4851 0 1
3.8379 4.0677 -1.7420 0.4761 0 1
3.7440 4.3025 -1.7766 0.4669 0 1
3.6381 4.5373 -1.8116 0.4710 0 1
3.5244 4.7775 -1.8493 0.4593 0 1
3.4036 5.0251 -1.8906 0.4493 0 1
3.2737 5.2790 -1.9349 0.4390 0 1
3.1331 5.5380 -1.9820 0.4255 0 1
2.9816 5.8035 -2.0324 0.4149 0 1
2.8188 6.0763 -2.0865 0.4042 0 1
2.6435 6.3567 -2.1445 0.3935 0 1
2.4543 6.6441 -2.2063 0.4051 0 1
2.2459 6.9254 -2.2678 0.3941 0 1
2.0228 7.2148 -2.3340 0.3829 0 1
1.7837 7.5130 -2.4053 0.3516 0 1
1.5346 7.8587 -2.4942 0.3391 0 1
1.2642 8.2201 -2.5906 0.3264 0 1
0.9702 8.5988 -2.6955 0.3137 0 1
0.6482 8.9738 -2.8026 0.3036 0 1
0.2976 9.3386 -2.9104 0.3108 0 1
-0.0816 9.7166 -3.0268 0.2988 0 1
-0.4927 10.1207 -3.1563 0.2727 0 1
-0.9425 10.5745 -3.3070 0.2602 0 1
-1.4339 11.0414 -3.4682 0.2515 0 1
-1.9648 11.4879 -3.6304 0.2363 0 24
-2.5653 12.0571 -3.8398 0.2189 0 1
-3.2203 12.6176 -4.0563 0.2072 0 1
-3.9462 13.2173 -4.2967 0.1953 0 1
-4.7535 13.8603 -4.5643 0.1839 0 1
-5.6555 14.5538 -4.8637 0.1737 0 1
-35.1600 -25.0835 -13.9805 0.8359 0 20
-34.6326 -26.8741 -14.1896 0.9517 0 9
-29.8981 -25.1915 -12.6552 0.6881 0 9
-27.2243 -24.8791 -11.9379 0.0688 0 2
-23.3517 -23.1318 -10.6396 0.0771 0 2
-20.1229 -21.6057 -9.5572 0.0859 0 2
-18.0083 -20.9670 -8.9466 0.9646 0 2
-15.3025 -19.3397 -7.9828 0.0751 0 1
-13.1868 -18.1190 -7.2539 0.1150 0 1
-11.4655 -17.1655 -6.6819 0.1227 0 1
-9.9550 -16.2869 -6.1788 0.1356 0 1
-8.6314 -15.4896 -5.7398 0.1459 0 1
-7.4549 -14.7440 -5.3479 0.1613 0 1
-6.4138 -14.0634 -5.0033 0.1711 0 1
-5.4940 -13.4561 -4.7047 0.1872 0 1
-4.6656 -12.8857 -4.4360 0.2009 0 1
-3.9187 -12.3550 -4.1956 0.2116 0 1
-3.2399 -11.8498 -3.9765 0.2230 0 1
-2.6236 -11.3771 -3.7794 0.2347 0 1
-2.0591 -10.9188 -3.5967 0.2410 0 1
-1.5418 -10.4746 -3.4271 0.2529 0 1
-1.0684 -10.0516 -3.2720 0.2652 0 1
-0.6339 -9.6431 -3.1281 0.2774 0 1
-0.2350 -9.2532 -2.9962 0.2896 0 1
0.1319 -8.8805 -2.8749 0.3018 0 1
0.4701 -8.5233 -2.7631 0.3140 0 1
0.7824 -8.1804 -2.6601 0.3262 0 1
1.0712 -7.8514 -2.5650 0.3433 0 1
1.3346 -7.5109 -2.4693 0.3552 0 24
1.5874 -7.2310 -2.3964 0.3675 0 1
1.8126 -6.9153 -2.3141 0.3788 0 24
2.0264 -6.6307 -2.2443 0.3893 0 24
2.2320 -6.3735 -2.1859 0.4019 0 1
2.4175 -6.1040 -2.1251 0.4134 0 1
2.5904 -5.8421 -2.0686 0.4247 0 1
2.7515 -5.5874 -2.0160 0.4355 0 1
2.9019 -5.3391 -1.9670 0.4463 0 1
3.0359 -5.0867 -1.9175 0.4417 0 1
3.1564 -4.8351 -1.8691 0.4532 0 1
3.2677 -4.5909 -1.8240 0.4643 0 1
3.3707 -4.3535 -1.7822 0.4752 0 1
3.4678 -4.1248 -1.7443 0.4784 0 1
3.5580 -3.9018 -1.7093 0.4882 0 1
3.6489 -3.6915 -1.6802 0.5169 0 1
3.7339 -3.4851 -1.6533 0.5253 0 1
3.8129 -3.2820 -1.6285 0.5333 0 1
3.8864 -3.0819 -1.6055 0.5409 0 1
3.9545 -2.8845 -1.5844 0.5481 0 1
4.0175 -2.6897 -1.5650 0.5549 0 1
4.0767 -2.4978 -1.5476 0.5612 0 1
4.1312 -2.3079 -1.5318 0.5670 0 1
4.1813 -2.1198 -1.5175 0.5724 0 1
4.2272 -1.9334 -1.5046 0.5773 0 1
4.2689 -1.7483 -1.4932 0.5817 0 1
4.3065 -1.5645 -1.4831 0.5857 0 1
4.3402 -1.3818 -1.4744 0.5892 0 1
4.3708 -1.2001 -1.4672 0.5952 0 1
4.3977 -1.0191 -1.4613 0.5976 0 1
4.4211 -0.8387 -1.4566 0.5995 0 1
4.4408 -0.6585 -1.4532 0.6009 0 1
3.9221 -0.4212 -1.2769 0.7719 25 14
3.9103 -0.2613 -1.2686 0.7770 25 14
3.8996 -0.1032 -1.2627 0.7806 25 14
3.8964 0.0537 -1.2614 0.7814 25 14
3.9021 0.2110 -1.2649 0.7792 25 14
3.9087 0.3696 -1.2709 0.7756 25 14
3.9163 0.5300 -1.2792 0.7705 25 14
3.9235 0.6928 -1.2897 0.7197 25 14
4.4820 0.9789 -1.4850 0.5874 0 1
4.4658 1.1654 -1.4940 0.5752 0 1
4.4439 1.3529 -1.5037 0.5715 0 1
4.4181 1.5418 -1.5147 0.5674 0 1
4.3880 1.7324 -1.5271 0.5628 0 1
4.3538 1.9248 -1.5409 0.5577 0 1
4.3151 2.1192 -1.5561 0.5522 0 1
4.2721 2.3160 -1.5730 0.5460 0 1
4.2244 2.5152 -1.5914 0.5396 0 1
4.1718 2.7170 -1.6115 0.5329 0 1
4.1140 2.9216 -1.6333 0.5258 0 1
4.0514 3.1298 -1.6572 0.5183 0 1
3.9831 3.3414 -1.6829 0.5104 0 1
3.9089 3.5567 -1.7107 0.5021 0 1
3.8283 3.7760 -1.7406 0.4934 0 1
3.7411 3.9995 -1.7727 0.4845 0 1
3.6468 4.2275 -1.8072 0.4752 0 1
3.5427 4.4577 -1.8431 0.4794 0 1
3.4293 4.6907 -1.8808 0.4677 0 1
3.3087 4.9305 -1.9220 0.4576 0 1
3.1784 5.1750 -1.9659 0.4442 0 1
3.0381 5.4245 -2.0125 0.4339 0 1
2.8874 5.6803 -2.0626 0.4234 0 1
2.7257 5.9426 -2.1163 0.4126 0 1
2.5519 6.2118 -2.1738 0.4020 0 1
2.3651 6.4884 -2.2355 0.3909 0 1
2.1619 6.7654 -2.2990 0.4026 0 1
1.9417 7.0421 -2.3645 0.3914 0 1
1.7061 7.3263 -2.4349 0.3801 0 1
1.4593 7.6479 -2.5202 0.3475 0 1
1.1936 7.9898 -2.6150 0.3349 0 1
0.9051 8.3440 -2.7167 0.3217 0 1
0.5905 8.6959 -2.8213 0.3123 0 1
0.2495 9.0546 -2.9320 0.3194 0 1
-0.1195 9.4080 -3.0456 0.3075 0 1
-0.5181 9.7749 -3.1685 0.2956 0 1
-0.9525 10.1908 -3.3131 0.2690 0 1
-1.4257 10.6200 -3.4685 0.2604 0 1
-1.9343 11.0236 -3.6228 0.2468 0 24
-2.5050 11.5294 -3.8191 0.2279 0 1
-3.1265 12.0333 -4.0245 0.2163 0 1
-3.7980 12.5240 -4.2363 0.2036 0 24
-4.5686 13.1365 -4.5020 0.1931 0 1
-5.4082 13.7416 -4.7802 0.1818 0 1
-6.3289 14.3572 -5.0789 0.1746 0 1
-7.3416 14.9894 -5.4027 0.1666 0 1
-8.4644 15.6539 -5.7604 0.1548 0 1
-9.7632 16.4384 -6.1888 0.1358 0 1
-11.2836 17.3664 -6.7038 0.1193 0 1
-13.0651 18.4392 -7.3151 0.1081 0 1
-15.0545 19.5306 -7.9821 0.1138 0 1
-16.7648 20.0279 -8.4544 0.6807 0 2
-19.2149 21.1631 -9.2527 0.0887 0 2
-22.2715 22.6289 -10.2774 0.0799 0 2
-17.5961 16.4950 -7.8071 0.9726 0 6
-22.4646 19.4210 -9.6123 0.7758 0 5
-22.5462 17.9584 -9.3302 0.7799 0 5
-27.8299 20.3921 -11.1679 0.8217 0 3
-27.9120 18.7743 -10.8886 0.8428 0 3
-28.8745 17.7773 -10.9759 0.5046 0 3
-29.8679 16.7703 -11.0878 0.4717 0 3
-32.9700 16.8044 -11.9785 0.2544 0 3
-29.7738 13.6952 -10.6083 0.5764 0 5
-33.1615 13.6648 -11.6098 0.3486 0 5
-26.4699 8.4898 -8.9981 0.8273 0 6
-24.8886 -17.5945 -9.8661 0.8382 0 20
-36.3035 -27.9209 -14.8248 0.8202 0 9
-29.9322 -25.0004 -12.6239 0.5760 0 9
-27.5707 -24.9786 -12.0425 0.4354 0 9
-23.7326 -23.3074 -10.7673 0.0762 0 2
-20.4423 -21.7598 -9.6642 0.0849 0 2
-18.0818 -20.8701 -8.9384 0.9655 0 2
-15.6018 -19.5444 -8.0950 0.0741 0 1
-13.3839 -18.2243 -7.3190 0.1139 0 1
-11.6403 -17.2656 -6.7403 0.1216 0 1
-10.1071 -16.3767 -6.2293 0.1339 0 1
-8.7654 -15.5719 -5.7842 0.1448 0 1
-7.5733 -14.8194 -5.3871 0.1601 0 1
-6.5197 -14.1339 -5.0384 0.1699 0 1
-5.5880 -13.5195 -4.7353 0.1869 0 1
-4.7499 -12.9443 -4.4632 0.1996 0 1
-3.9952 -12.4105 -4.2202 0.2111 0 1
-3.3093 -11.9019 -3.9987 0.2218 0 1
-2.6869 -11.4266 -3.7996 0.2334 0 1
-2.1173 -10.9677 -3.6157 0.2397 0 1
-1.5949 -10.5211 -3.4445 0.2516 0 1
-1.1171 -10.0964 -3.2881 0.2642 0 1
-0.6786 -9.6859 -3.1430 0.2761 0 1
-0.2761 -9.2941 -3.0098 0.2883 0 1
0.0941 -8.9196 -2.8874 0.3005 0 1
0.4352 -8.5608 -2.7747 0.3127 0 1
0.7502 -8.2165 -2.6707 0.3249 0 1
1.0413 -7.8856 -2.5747 0.3420 0 1
1.3070 -7.5439 -2.4783 0.3540 0 24
1.5617 -7.2632 -2.4048 0.3662 0 1
1.7888 -6.9462 -2.3218 0.3776 0 24
2.0043 -6.6609 -2.2516 0.3880 0 24
2.2113 -6.4028 -2.1927 0.4006 0 1
2.3983 -6.1324 -2.1314 0.4122 0 1
2.5724 -5.8698 -2.0745 0.4235 0 1
2.7348 -5.6143 -2.0215 0.4343 0 1
2.8863 -5.3654 -1.9721 0.4452 0 1
3.0225 -5.1141 -1.9229 0.4405 0 1
3.1439 -4.8616 -1.8741 0.4520 0 1
3.2562 -4.6167 -1.8287 0.4632 0 1
3.3601 -4.3786 -1.7866 0.4741 0 1
3.4578 -4.1489 -1.7482 0.4773 0 1
3.5487 -3.9254 -1.7129 0.4872 0 1
3.6394 -3.7138 -1.6832 0.5159 0 1
3.7251 -3.5071 -1.6561 0.5244 0 1
3.8047 -3.3036 -1.6310 0.5324 0 1
3.8788 -3.1032 -1.6079 0.5401 0 1
3.9474 -2.9055 -1.5866 0.5473 0 1
4.0110 -2.7105 -1.5670 0.5542 0 1
4.0705 -2.5182 -1.5494 0.5606 0 1
4.1256 -2.3281 -1.5334 0.5664 0 1
4.1762 -2.1399 -1.5189 0.5719 0 1
4.2225 -1.9533 -1.5059 0.5768 0 1
4.2646 -1.7681 -1.4944 0.5813 0 1
4.3027 -1.5841 -1.4842 0.5853 0 1
4.3368 -1.4013 -1.4753 0.5888 0 1
4.3676 -1.2195 -1.4679 0.5949 0 1
4.3950 -1.0385 -1.4618 0.5974 0 1
4.4188 -0.8580 -1.4570 0.5993 0 1
4.4389 -0.6778 -1.4535 0.6008 0 1
4.4555 -0.4979 -1.4512 0.6017 0 1
3.9115 -0.2783 -1.2693 0.7765 25 14
3.9007 -0.1201 -1.2632 0.7803 25 14
3.8959 0.0369 -1.2611 0.7815 25 14
3.9015 0.1941 -1.2644 0.7795 25 14
3.9080 0.3525 -1.2701 0.7760 25 14
3.9154 0.5128 -1.2782 0.7711 25 14
3.9222 0.6752 -1.2883 0.7205 25 14
4.4831 0.9589 -1.4840 0.5878 0 1
4.4679 1.1454 -1.4930 0.5756 0 1
4.4465 1.3328 -1.5026 0.5719 0 1
4.4210 1.5215 -1.5134 0.5678 0 1
4.3914 1.7119 -1.5257 0.5633 0 1
4.3576 1.9041 -1.5393 0.5583 0 1
4.3195 2.0983 -1.5544 0.5529 0 1
4.2769 2.2948 -1.5711 0.5466 0 1
4.2298 2.4937 -1.5894 0.5403 0 1
4.1777 2.6952 -1.6093 0.5337 0 1
4.1205 2.8996 -1.6309 0.5266 0 1
4.0584 3.1074 -1.6545 0.5191 0 1
3.9907 3.3186 -1.6801 0.5112 0 1
3.9171 3.5335 -1.7076 0.5030 0 1
3.8372 3.7523 -1.7373 0.4944 0 1
3.7508 3.9753 -1.7691 0.4855 0 1
3.6573 4.2029 -1.8034 0.4762 0 1
3.5546 4.4332 -1.8393 0.4804 0 1
3.4417 4.6653 -1.8766 0.4687 0 1
3.3220 4.9046 -1.9175 0.4587 0 1
3.1929 5.1487 -1.9610 0.4453 0 1
3.0536 5.3975 -2.0074 0.4350 0 1
2.9041 5.6526 -2.0571 0.4245 0 1
2.7436 5.9142 -2.1104 0.4138 0 1
2.5711 6.1827 -2.1675 0.4032 0 1
2.3857 6.4585 -2.2286 0.3921 0 1
2.1846 6.7362 -2.2923 0.4038 0 1
1.9660 7.0121 -2.3573 0.3926 0 1
1.7321 7.2955 -2.4272 0.3813 0 1
1.4865 7.6121 -2.5105 0.3488 0 1
1.2231 7.9525 -2.6045 0.3362 0 1
0.9373 8.3071 -2.7060 0.3230 0 1
0.6254 8.6580 -2.8098 0.3111 0 1
0.2874 9.0175 -2.9204 0.3207 0 1
-0.0787 9.3696 -3.0330 0.3088 0 1
-0.4739 9.7350 -3.1549 0.2969 0 1
-0.9042 10.1449 -3.2969 0.2703 0 1
-1.3734 10.5753 -3.4519 0.2617 0 1
-1.8772 10.9760 -3.6044 0.2481 0 24
-2.4420 11.4772 -3.7983 0.2313 0 1
-3.0452 11.9316 -3.9860 0.2184 0 24
-3.7215 12.4648 -4.2108 0.2049 0 24
-4.4838 13.0740 -4.4739 0.1943 0 1
-5.3141 13.6750 -4.7490 0.1830 0 1
-38.9516 -25.4876 -15.6398 0.2621 0 9
-24.7686 -17.6702 -10.2225 0.8366 0 20
-31.2247 -24.2297 -13.2790 0.0639 0 2
-27.0032 -22.7523 -11.8638 0.0715 0 2
-23.4449 -21.4253 -10.6708 0.0795 0 2
-20.4182 -20.2259 -9.6561 0.0879 0 2
-18.6351 -20.0082 -9.1865 0.9881 0 2
-15.8717 -18.4794 -8.1845 0.0876 0 1
-13.7155 -17.3340 -7.4265 0.1163 0 1
-12.0287 -16.5278 -6.8680 0.1258 0 1
-10.5281 -15.7621 -6.3685 0.1354 0 1
-9.2018 -15.0546 -5.9281 0.1461 0 1
-8.0267 -14.4044 -5.5403 0.1615 0 1
-6.9722 -13.7894 -5.1916 0.1705 0 1
-6.0331 -13.2286 -4.8850 0.1874 0 1
-5.1870 -12.7041 -4.6104 0.1999 0 1
-4.4210 -12.2102 -4.3631 0.2104 0 1
-3.7229 -11.7377 -4.1373 0.2204 0 1
-3.0862 -11.2876 -3.9316 0.2333 0 1
-2.5045 -10.8607 -3.7448 0.2394 0 1
-1.9612 -10.4000 -3.5558 0.2526 0 24
-1.4772 -10.0361 -3.4083 0.2672 0 1
-1.0255 -9.6485 -3.2600 0.2753 0 1
-0.6096 -9.2727 -3.1222 0.2874 0 1
-0.2264 -8.9123 -2.9953 0.2996 0 1
0.1273 -8.5660 -2.8784 0.3118 0 1
0.4541 -8.2328 -2.7703 0.3239 0 1
0.7567 -7.9117 -2.6703 0.3360 0 1
1.0342 -7.5798 -2.5703 0.3532 0 24
1.2986 -7.3086 -2.4940 0.3652 0 1
1.5410 -7.0197 -2.4147 0.3772 0 1
1.7666 -6.7398 -2.3409 0.3891 0 1
1.9704 -6.4474 -2.2651 0.3981 0 24
2.1722 -6.2028 -2.2081 0.4114 0 1
2.3545 -5.9449 -2.1483 0.4229 0 1
2.5246 -5.6939 -2.0927 0.4341 0 1
2.6834 -5.4490 -2.0407 0.4449 0 1
2.8317 -5.2100 -1.9923 0.4557 0 1
2.9623 -4.9632 -1.9420 0.4510 0 1
3.0817 -4.7206 -1.8941 0.4625 0 1
3.1922 -4.4848 -1.8495 0.4736 0 1
3.2945 -4.2551 -1.8081 0.4845 0 1
3.3895 -4.0316 -1.7697 0.4877 0 1
3.4819 -3.8184 -1.7362 0.5173 0 1
3.5725 -3.6143 -1.7074 0.5260 0 1
3.6569 -3.4133 -1.6807 0.5343 0 1
3.7355 -3.2154 -1.6560 0.5423 0 1
3.8086 -3.0202 -1.6331 0.5499 0 1
3.8763 -2.8275 -1.6120 0.5571 0 1
3.9391 -2.6372 -1.5927 0.5639 0 1
3.9979 -2.4495 -1.5753 0.5702 0 1
4.0522 -2.2638 -1.5595 0.5760 0 1
4.1021 -2.0797 -1.5452 0.5814 0 1
4.1477 -1.8970 -1.5324 0.5862 0 1
4.1892 -1.7157 -1.5210 0.5906 0 1
4.2267 -1.5355 -1.5109 0.5946 0 1
4.2606 -1.3564 -1.5023 0.6011 0 1
4.2911 -1.1782 -1.4951 0.6040 0 1
4.3179 -1.0006 -1.4892 0.6064 0 1
4.3411 -0.8235 -1.4845 0.6083 0 1
4.3607 -0.6467 -1.4811 0.6097 0 1
4.3767 -0.4700 -1.4789 0.6106 0 1
4.3892 -0.2933 -1.4780 0.6110 0 1
4.3982 -0.1165 -1.4782 0.6109 0 1
4.4072 0.0607 -1.4809 0.6092 0 1
4.4127 0.2386 -1.4848 0.6076 0 1
4.4148 0.4174 -1.4899 0.6055 0 1
4.4132 0.5973 -1.4963 0.6029 0 1
4.4081 0.7784 -1.5039 0.5998 0 1
4.3993 0.9608 -1.5129 0.5874 0 1
4.3812 1.1433 -1.5213 0.5842 0 1
4.3592 1.3271 -1.5310 0.5805 0 1
4.3332 1.5122 -1.5420 0.5764 0 1
4.3031 1.6989 -1.5544 0.5718 0 1
4.2687 1.8872 -1.5681 0.5668 0 1
4.2300 2.0774 -1.5833 0.5613 0 1
4.1869 2.2698 -1.6001 0.5551 0 1
4.1392 2.4644 -1.6185 0.5487 0 1
4.0866 2.6615 -1.6385 0.5420 0 1
4.0289 2.8612 -1.6603 0.5350 0 1
3.9664 3.0642 -1.6840 0.5275 0 1
3.8983 3.2703 -1.7096 0.5196 0 1
3.8243 3.4797 -1.7372 0.5113 0 1
3.7440 3.6928 -1.7669 0.5027 0 1
3.6573 3.9098 -1.7988 0.4938 0 1
3.5635 4.1310 -1.8330 0.4846 0 1
3.4624 4.3566 -1.8697 0.4751 0 1
3.3499 4.5820 -1.9070 0.4770 0 1
3.2301 4.8135 -1.9476 0.4637 0 1
3.1009 5.0487 -1.9907 0.4536 0 1
2.9622 5.2891 -2.0368 0.4434 0 1
2.8136 5.5350 -2.0861 0.4329 0 1
2.6542 5.7868 -2.1390 0.4222 0 1
2.4832 6.0447 -2.1956 0.4116 0 1
2.2997 6.3091 -2.2562 0.4006 0 1
2.1028 6.5805 -2.3211 0.3894 0 1
1.8881 6.8477 -2.3866 0.4011 0 1
1.6576 7.1183 -2.4556 0.3898 0 1
1.4144 7.4127 -2.5355 0.3572 0 1
1.1556 7.7352 -2.6277 0.3446 0 1
0.8749 8.0656 -2.7258 0.3316 0 1
0.5701 8.3954 -2.8272 0.3197 0 1
0.2407 8.7338 -2.9355 0.3104 0 1
-0.1153 9.0801 -3.0510 0.3175 0 1
-0.4993 9.4209 -3.1697 0.3056 0 1
-0.9149 9.7883 -3.3030 0.2790 0 1
-1.3673 10.1849 -3.4526 0.2705 0 1
-1.8557 10.5756 -3.6075 0.2589 0 1
-2.3896 10.9981 -3.7814 0.2402 0 1
-2.9633 11.4054 -3.9592 0.2287 0 24
-3.6021 11.8781 -4.1703 0.2147 0 24
-4.3201 12.4221 -4.4188 0.2024 0 1
-5.0958 12.9480 -4.6751 0.1913 0 1
-5.9483 13.4937 -4.9546 0.1840 0 1
-6.8770 14.0408 -5.2529 0.1746 0 1
-7.8685 14.5519 -5.5582 0.1651 0 24
-9.0324 15.2080 -5.9429 0.1488 0 1
-10.3268 15.8938 -6.3682 0.1378 0 1
-11.8477 16.7210 -6.8853 0.1193 0 1
-13.6062 17.6518 -7.4881 0.1077 0 1
-15.5341 18.5577 -8.1312 0.1140 0 1
-17.0807 18.8125 -8.5373 0.0994 0 2
-19.5572 19.8712 -9.3675 0.0906 0 2
-17.4817 16.3878 -8.0507 0.5011 0 6
-22.3837 19.3511 -9.9413 0.7639 0 5
-22.4676 17.8957 -9.6506 0.8246 0 5
-24.9458 18.2788 -10.3905 0.7311 0 21
-27.7895 18.6918 -11.2524 0.8434 0 3
-28.8731 17.7764 -11.3920 0.5028 0 3
-31.4363 17.6509 -12.1131 0.3455 0 3
-37.2858 19.0041 -14.0607 0.8991 0 3
-29.7288 13.6745 -10.9943 0.3413 0 5
-33.1952 13.6787 -12.0628 0.3958 0 5
-42.7552 13.7131 -15.0858 0.2360 0 5
-24.7787 -17.5169 -10.1954 0.8388 0 20
-31.7226 -24.3978 -13.4459 0.0631 0 2
-27.4208 -22.9028 -12.0037 0.0707 0 2
-23.7983 -21.5608 -10.7893 0.0787 0 2
-20.7200 -20.3488 -9.7573 0.0870 0 2
-18.7173 -19.9237 -9.1846 0.9954 0 2
-16.1222 -18.6082 -8.2722 0.0867 0 1
-13.9092 -17.4241 -7.4907 0.1153 0 1
-12.2009 -16.6135 -6.9254 0.1247 0 1
-10.6800 -15.8413 -6.4190 0.1344 0 1
-9.3362 -15.1277 -5.9727 0.1450 0 1
-8.1457 -14.4710 -5.5793 0.1603 0 1
-7.0799 -13.8538 -5.2272 0.1694 0 1
-6.1286 -13.2861 -4.9159 0.1862 0 1
-5.2735 -12.7586 -4.6384 0.1964 0 1
-4.4996 -12.2620 -4.3884 0.2092 0 1
-3.7799 -11.7416 -4.1443 0.2204 0 24
-3.1514 -11.3342 -3.9525 0.2321 0 1
-2.5647 -10.9071 -3.7645 0.2381 0 1
-2.0236 -10.4826 -3.5870 0.2499 0 1
-1.5277 -10.0778 -3.4246 0.2659 0 1
-1.0721 -9.6897 -3.2754 0.2740 0 1
-0.6525 -9.3122 -3.1364 0.2861 0 1
-0.2659 -8.9502 -3.0084 0.2983 0 1
0.0907 -8.6025 -2.8904 0.3105 0 1
0.4203 -8.2679 -2.7815 0.3226 0 1
0.7254 -7.9456 -2.6807 0.3347 0 1
1.0087 -7.6382 -2.5886 0.3517 0 1
1.2716 -7.3401 -2.5029 0.3639 0 1
1.5159 -7.0502 -2.4229 0.3759 0 1
1.7432 -6.7694 -2.3486 0.3878 0 1
1.9488 -6.4762 -2.2723 0.3975 0 24
2.1519 -6.2308 -2.2148 0.4102 0 1
2.3356 -5.9722 -2.1545 0.4217 0 1
2.5070 -5.7204 -2.0984 0.4329 0 1
2.6669 -5.4749 -2.0461 0.4437 0 1
2.8163 -5.2353 -1.9973 0.4546 0 1
2.9489 -4.9896 -1.9473 0.4498 0 1
3.0693 -4.7463 -1.8991 0.4612 0 1
3.1808 -4.5097 -1.8542 0.4724 0 1
3.2840 -4.2794 -1.8124 0.4833 0 1
3.3795 -4.0551 -1.7735 0.4866 0 1
3.4719 -3.8405 -1.7394 0.5163 0 1
3.5631 -3.6360 -1.7104 0.5251 0 1
3.6482 -3.4347 -1.6835 0.5335 0 1
3.7274 -3.2364 -1.6585 0.5415 0 1
3.8010 -3.0410 -1.6355 0.5491 0 1
3.8693 -2.8480 -1.6142 0.5564 0 1
3.9326 -2.6575 -1.5947 0.5632 0 1
3.9918 -2.4695 -1.5771 0.5695 0 1
4.0466 -2.2836 -1.5611 0.5754 0 1
4.0970 -2.0993 -1.5467 0.5808 0 1
4.1431 -1.9165 -1.5337 0.5857 0 1
4.1850 -1.7351 -1.5221 0.5902 0 1
4.2229 -1.5548 -1.5119 0.5942 0 1
4.2571 -1.3755 -1.5031 0.6008 0 1
4.2880 -1.1972 -1.4958 0.6037 0 1
4.3152 -1.0196 -1.4898 0.6062 0 1
4.3388 -0.8424 -1.4850 0.6081 0 1
4.3588 -0.6656 -1.4814 0.6096 0 1
4.3752 -0.4889 -1.4791 0.6106 0 1
4.3880 -0.3122 -1.4780 0.6110 0 1
4.3974 -0.1354 -1.4781 0.6110 0 1
4.4064 0.0417 -1.4805 0.6093 0 1
4.4123 0.2196 -1.4843 0.6078 0 1
4.4147 0.3983 -1.4893 0.6057 0 1
4.4136 0.5780 -1.4955 0.6032 0 1
4.4088 0.7589 -1.5031 0.6002 0 1
4.4004 0.9412 -1.5119 0.5967 0 1
4.3833 1.1238 -1.5203 0.5846 0 1
4.3617 1.3074 -1.5299 0.5809 0 1
4.3362 1.4923 -1.5407 0.5768 0 1
4.3065 1.6788 -1.5530 0.5723 0 1
4.2726 1.8670 -1.5666 0.5673 0 1
4.2343 2.0570 -1.5816 0.5619 0 1
4.1917 2.2491 -1.5983 0.5557 0 1
4.1445 2.4435 -1.6165 0.5494 0 1
4.0925 2.6403 -1.6363 0.5428 0 1
4.0353 2.8397 -1.6578 0.5357 0 1
3.9733 3.0423 -1.6814 0.5283 0 1
3.9058 3.2480 -1.7068 0.5204 0 1
3.8325 3.4571 -1.7341 0.5122 0 1
3.7529 3.6698 -1.7636 0.5036 0 1
3.6669 3.8864 -1.7952 0.4948 0 1
3.5739 4.1071 -1.8292 0.4856 0 1
3.4736 4.3322 -1.8657 0.4761 0 1
3.3622 4.5575 -1.9028 0.4781 0 1
3.2435 4.7886 -1.9432 0.4647 0 1
3.1151 5.0233 -1.9859 0.4547 0 1
2.9775 5.2631 -2.0317 0.4445 0 1
2.8300 5.5084 -2.0807 0.4340 0 1
2.6718 5.7595 -2.1332 0.4233 0 1
2.5021 6.0168 -2.1894 0.4128 0 1
2.3200 6.2804 -2.2495 0.4018 0 1
2.1245 6.5511 -2.3139 0.3906 0 1
1.9119 6.8192 -2.3795 0.4023 0 1
1.6830 7.0890 -2.4480 0.3910 0 1
1.4410 7.3789 -2.5260 0.3585 0 1
1.1843 7.7001 -2.6175 0.3460 0 1
0.9061 8.0310 -2.7154 0.3329 0 1
0.6038 8.3596 -2.8160 0.3210 0 1
0.2771 8.6972 -2.9236 0.3117 0 1
-0.0759 9.0443 -3.0388 0.3187 0 1
-0.4568 9.3839 -3.1565 0.3068 0 1
-0.8686 9.7461 -3.2875 0.2803 0 1
-1.3173 10.1440 -3.4368 0.2718 0 1
-1.8015 10.5331 -3.5903 0.2602 0 1
-2.3301 10.9514 -3.7618 0.2415 0 1
-2.8985 11.3567 -3.9380 0.2299 0 24
-3.5435 11.8685 -4.1615 0.2160 0 1
-4.2415 12.3673 -4.3928 0.2046 0 1
-4.9907 12.8429 -4.6293 0.1923 0 24
-32.9665 -4.5341 -11.5924 0.2821 0 20
-25.5710 -4.5721 -9.0492 0.5384 0 20
-39.7566 -23.7865 -16.1393 0.0543 0 2
-34.6759 -22.6899 -14.4360 0.0607 0 2
-24.6586 -17.5918 -10.5521 0.8371 0 20
-26.5958 -20.6377 -11.7272 0.0748 0 2
-23.3693 -19.6905 -10.6455 0.0824 0 2
-20.5682 -18.7964 -9.7064 0.0903 0 2
-18.9210 -18.7428 -9.2778 0.0682 0 1
-16.1260 -17.3142 -8.2425 0.0899 0 1
-14.1723 -16.5008 -7.5774 0.1196 0 1
-12.5283 -15.8336 -7.0336 0.1286 0 1
-11.0505 -15.1836 -6.5419 0.1364 0 1
-9.7324 -14.5708 -6.1041 0.1514 0 1
-8.5632 -14.0099 -5.7200 0.1615 0 1
-7.5060 -13.4700 -5.3718 0.1702 0 1
-6.5530 -12.9602 -5.0591 0.1869 0 1
-5.6749 -12.4431 -4.7642 0.1950 0 24
-4.9126 -12.0319 -4.5273 0.2094 0 1
-4.1823 -11.5511 -4.2796 0.2204 0 24
-3.5438 -11.1731 -4.0834 0.2307 0 1
-2.9454 -10.7726 -3.8905 0.2435 0 1
-2.3932 -10.3779 -3.7101 0.2496 0 1
-1.8853 -9.9975 -3.5441 0.2654 0 1
-1.4120 -9.5928 -3.3778 0.2731 0 24
-0.9857 -9.2739 -3.2489 0.2853 0 1
-0.5869 -8.9273 -3.1167 0.2974 0 1
-0.2183 -8.5933 -2.9946 0.3095 0 1
0.1229 -8.2710 -2.8816 0.3217 0 1
0.4391 -7.9596 -2.7770 0.3338 0 1
0.7328 -7.6619 -2.6813 0.3509 0 1
1.0061 -7.3737 -2.5925 0.3628 0 1
1.2603 -7.0929 -2.5096 0.3749 0 1
1.4970 -6.8190 -2.4320 0.3868 0 1
1.7176 -6.5528 -2.3598 0.3987 0 1
1.9170 -6.2725 -2.2849 0.4073 0 24
2.1151 -6.0398 -2.2293 0.4209 0 1
2.2943 -5.7929 -2.1705 0.4323 0 1
2.4616 -5.5518 -2.1156 0.4433 0 1
2.6181 -5.3163 -2.0644 0.4543 0 1
2.7640 -5.0855 -2.0163 0.4487 0 1
2.8916 -4.8448 -1.9655 0.4603 0 1
3.0099 -4.6107 -1.9181 0.4717 0 1
3.1196 -4.3827 -1.8740 0.4828 0 1
3.2212 -4.1604 -1.8330 0.4936 0 1
3.3154 -3.9434 -1.7947 0.5041 0 1
3.4088 -3.7383 -1.7624 0.5264 0 1
3.4987 -3.5396 -1.7338 0.5350 0 1
3.5826 -3.3439 -1.7072 0.5434 0 1
3.6606 -3.1509 -1.6826 0.5513 0 1
3.7333 -2.9605 -1.6598 0.5589 0 1
3.8007 -2.7723 -1.6388 0.5661 0 1
3.8631 -2.5863 -1.6195 0.5728 0 1
3.9215 -2.4028 -1.6021 0.5791 0 1
3.9756 -2.2210 -1.5864 0.5848 0 1
4.0252 -2.0407 -1.5721 0.5902 0 1
4.0707 -1.8618 -1.5593 0.5951 0 1
4.1120 -1.6841 -1.5479 0.5995 0 1
4.1493 -1.5074 -1.5379 0.6066 0 1
4.1834 -1.3318 -1.5294 0.6099 0 1
4.2138 -1.1570 -1.5222 0.6128 0 1
4.2404 -0.9827 -1.5163 0.6152 0 1
4.2634 -0.8087 -1.5117 0.6171 0 1
4.2828 -0.6351 -1.5083 0.6185 0 1
4.2986 -0.4616 -1.5061 0.6194 0 1
4.3110 -0.2881 -1.5051 0.6198 0 1
4.3198 -0.1144 -1.5054 0.6197 0 1
4.3284 0.0596 -1.5080 0.6179 0 1
4.3336 0.2344 -1.5119 0.6163 0 1
4.3354 0.4099 -1.5170 0.6143 0 1
4.3335 0.5865 -1.5234 0.6117 0 1
4.3281 0.7642 -1.5311 0.6086 0 1
4.3173 0.9429 -1.5394 0.5963 0 1
4.2991 1.1219 -1.5478 0.5931 0 1
4.2770 1.3021 -1.5575 0.5894 0 1
4.2509 1.4835 -1.5684 0.5853 0 1
4.2207 1.6664 -1.5808 0.5807 0 1
4.1863 1.8508 -1.5945 0.5757 0 1
4.1476 2.0370 -1.6097 0.5703 0 1
4.1044 2.2251 -1.6264 0.5641 0 1
4.0567 2.4153 -1.6447 0.5578 0 1
4.0042 2.6078 -1.6646 0.5511 0 1
3.9467 2.8028 -1.6863 0.5441 0 1
3.8843 3.0007 -1.7099 0.5366 0 1
3.8164 3.2015 -1.7353 0.5287 0 1
3.7426 3.4055 -1.7627 0.5205 0 1
3.6628 3.6127 -1.7922 0.5119 0 1
3.5765 3.8235 -1.8238 0.5030 0 1
3.4834 4.0381 -1.8578 0.4939 0 1
3.3830 4.2567 -1.8941 0.4844 0 1
3.2735 4.4776 -1.9322 0.4863 0 1
3.1542 4.7004 -1.9720 0.4730 0 1
3.0264 4.9275 -2.0145 0.4630 0 1
2.8895 5.1592 -2.0600 0.4528 0 1
2.7429 5.3959 -2.1086 0.4424 0 1
2.5859 5.6378 -2.1607 0.4317 0 1
2.4177 5.8852 -2.2164 0.4212 0 1
2.2374 6.1381 -2.2759 0.4102 0 1
2.0442 6.3972 -2.3396 0.3990 0 1
1.8370 6.6625 -2.4076 0.4107 0 1
1.6115 6.9203 -2.4753 0.3994 0 1
1.3719 7.1900 -2.5499 0.3669 0 1
1.1196 7.4946 -2.6398 0.3544 0 1
0.8464 7.8033 -2.7343 0.3415 0 1
0.5509 8.1126 -2.8326 0.3296 0 1
0.2323 8.4308 -2.9381 0.3203 0 1
-0.1112 8.7558 -3.0504 0.3085 0 1
-0.4817 9.0893 -3.1708 0.3155 0 1
-0.8801 9.4161 -3.2945 0.3037 0 1
-1.3131 9.7812 -3.4379 0.2806 0 1
-1.7789 10.1384 -3.5858 0.2691 0 1
-2.2836 10.5104 -3.7469 0.2504 0 1
-2.8258 10.8763 -3.9147 0.2397 0 24
-3.4372 11.3343 -4.1260 0.2274 0 1
-4.0946 11.7736 -4.3424 0.2128 0 1
-4.7978 12.1908 -4.5639 0.2023 0 24
-5.5866 12.6733 -4.8248 0.1903 0 24
-6.4610 13.1914 -5.1170 0.1840 0 1
-7.3968 13.6796 -5.4175 0.1738 0 1
-8.4247 14.1847 -5.7472 0.1658 0 1
-9.5585 14.7114 -6.1116 0.1494 0 1
-10.8458 15.3071 -6.5353 0.1387 0 1
-12.3352 16.0028 -7.0387 0.1205 0 1
-14.0669 16.8050 -7.6345 0.1093 0 1
-15.9594 17.5775 -8.2707 0.0963 0 1
-17.4186 17.6982 -8.6505 0.1014 0 2
-17.4660 16.3730 -8.3399 0.6842 0 6
-22.4435 19.4028 -10.3351 0.0848 0 2
-22.3875 17.8320 -9.9706 0.8168 0 5
-24.8232 18.1890 -10.7204 0.9111 0 21
-27.6672 18.6095 -11.6156 0.8439 0 3
-28.8717 17.7755 -11.8112 0.5009 0 3
-31.6238 17.7562 -12.6343 0.4683 0 3
-34.7937 17.7339 -13.6044 0.4349 0 3
-29.7797 13.6978 -11.4189 0.4873 0 5
-33.1896 13.6764 -12.5051 0.3710 0 5
-42.6344 13.6743 -15.5974 0.2848 0 5
-33.7536 -4.4943 -11.8622 0.1180 0 20
-25.5687 -4.4581 -9.0415 0.9877 0 20
-40.3500 -23.9062 -16.3382 0.0537 0 2
-35.1821 -22.8053 -14.6057 0.0600 0 2
-24.6690 -17.4393 -10.5243 0.8393 0 20
-26.9696 -20.7423 -11.8525 0.0740 0 2
-23.6931 -19.7893 -10.7540 0.0815 0 2
-20.8498 -18.8896 -9.8008 0.0895 0 2
-19.3761 -19.0289 -9.4606 0.1146 0 2
-16.3621 -17.4167 -8.3247 0.0890 0 1
-14.3619 -16.5765 -7.6405 0.1186 0 1
-12.6949 -15.9029 -7.0887 0.1276 0 1
-11.2010 -15.2520 -6.5921 0.1353 0 1
-9.8650 -14.6325 -6.1476 0.1503 0 1
-8.6826 -14.0686 -5.7592 0.1604 0 1
-7.6148 -13.5278 -5.4079 0.1691 0 1
-6.6497 -13.0121 -5.0905 0.1857 0 1
-5.7630 -12.4936 -4.7930 0.1939 0 24
-4.9929 -12.0796 -4.5533 0.2082 0 1
-4.2555 -11.5969 -4.3033 0.2192 0 24
-3.6112 -11.2176 -4.1053 0.2294 0 1
-3.0069 -10.8144 -3.9102 0.2423 0 1
-2.4501 -10.4198 -3.7288 0.2483 0 1
-1.9306 -10.0007 -3.5482 0.2612 0 24
-1.4661 -9.6715 -3.4077 0.2723 0 1
-1.0303 -9.3118 -3.2637 0.2840 0 1
-0.6281 -8.9638 -3.1303 0.2961 0 1
-0.2564 -8.6285 -3.0072 0.3082 0 1
0.0876 -8.3050 -2.8933 0.3204 0 1
0.4063 -7.9924 -2.7878 0.3325 0 1
0.7024 -7.6932 -2.6912 0.3496 0 1
0.9777 -7.4041 -2.6017 0.3615 0 1
1.2340 -7.1227 -2.5182 0.3736 0 1
1.4724 -6.8479 -2.4401 0.3856 0 1
1.6947 -6.5809 -2.3673 0.3974 0 1
1.9020 -6.3208 -2.2994 0.4081 0 1
2.0952 -6.0666 -2.2359 0.4197 0 1
2.2757 -5.8190 -2.1766 0.4311 0 1
2.4443 -5.5773 -2.1213 0.4421 0 1
2.6018 -5.3413 -2.0697 0.4531 0 1
2.7492 -5.1105 -2.0216 0.4639 0 1
2.8784 -4.8702 -1.9708 0.4591 0 1
2.9977 -4.6355 -1.9231 0.4705 0 1
3.1082 -4.4069 -1.8786 0.4816 0 1
3.2107 -4.1840 -1.8372 0.4925 0 1
3.3056 -3.9664 -1.7987 0.5030 0 1
3.3989 -3.7597 -1.7656 0.5254 0 1
3.4894 -3.5607 -1.7367 0.5341 0 1
3.5739 -3.3647 -1.7100 0.5425 0 1
3.6526 -3.1715 -1.6851 0.5505 0 1
3.7257 -2.9808 -1.6622 0.5581 0 1
3.7937 -2.7924 -1.6410 0.5653 0 1
3.8566 -2.6061 -1.6215 0.5721 0 1
3.9155 -2.4223 -1.6039 0.5784 0 1
3.9700 -2.2403 -1.5880 0.5842 0 1
4.0201 -2.0599 -1.5736 0.5897 0 1
4.0660 -1.8809 -1.5606 0.5946 0 1
4.1077 -1.7030 -1.5491 0.5990 0 1
4.1454 -1.5262 -1.5389 0.6030 0 1
4.1799 -1.3506 -1.5303 0.6096 0 1
4.2107 -1.1757 -1.5229 0.6125 0 1
4.2377 -1.0013 -1.5169 0.6149 0 1
4.2611 -0.8273 -1.5121 0.6169 0 1
4.2809 -0.6537 -1.5086 0.6183 0 1
4.2971 -0.4802 -1.5063 0.6193 0 1
4.3098 -0.3066 -1.5052 0.6197 0 1
4.3190 -0.1330 -1.5053 0.6197 0 1
4.3276 0.0410 -1.5076 0.6181 0 1
4.3332 0.2156 -1.5114 0.6165 0 1
4.3353 0.3911 -1.5164 0.6145 0 1
4.3339 0.5676 -1.5226 0.6120 0 1
4.3288 0.7452 -1.5302 0.6090 0 1
4.3190 0.9238 -1.5386 0.5966 0 1
4.3012 1.1027 -1.5468 0.5935 0 1
4.2796 1.2827 -1.5564 0.5898 0 1
4.2539 1.4640 -1.5672 0.5858 0 1
4.2242 1.6467 -1.5794 0.5812 0 1
4.1902 1.8310 -1.5930 0.5763 0 1
4.1519 2.0169 -1.6080 0.5709 0 1
4.1093 2.2048 -1.6245 0.5647 0 1
4.0621 2.3948 -1.6427 0.5585 0 1
4.0100 2.5871 -1.6624 0.5518 0 1
3.9530 2.7818 -1.6839 0.5449 0 1
3.8912 2.9794 -1.7073 0.5374 0 1
3.8239 3.1799 -1.7325 0.5296 0 1
3.7508 3.3835 -1.7597 0.5214 0 1
3.6716 3.5904 -1.7890 0.5129 0 1
3.5861 3.8008 -1.8204 0.5040 0 1
3.4937 4.0149 -1.8540 0.4948 0 1
3.3941 4.2331 -1.8901 0.4854 0 1
3.2857 4.4538 -1.9281 0.4873 0 1
3.1674 4.6764 -1.9676 0.4741 0 1
3.0405 4.9030 -2.0098 0.4641 0 1
2.9046 5.1342 -2.0549 0.4539 0 1
2.7591 5.3703 -2.1033 0.4435 0 1
2.6032 5.6116 -2.1550 0.4328 0 1
2.4363 5.8584 -2.2103 0.4224 0 1
2.2573 6.1107 -2.2693 0.4114 0 1
2.0655 6.3692 -2.3325 0.4002 0 1
1.8600 6.6343 -2.4002 0.3889 0 1
1.6364 6.8924 -2.4678 0.4006 0 1
1.3978 7.1580 -2.5407 0.3682 0 1
1.1476 7.4615 -2.6299 0.3557 0 1
0.8768 7.7708 -2.7242 0.3427 0 1
0.5836 8.0790 -2.8218 0.3309 0 1
0.2676 8.3967 -2.9266 0.3216 0 1
-0.0732 8.7205 -3.0380 0.3098 0 1
-0.4408 9.0549 -3.1581 0.3168 0 1
-0.8361 9.3807 -3.2808 0.3049 0 1
-1.2654 9.7436 -3.4228 0.2819 0 1
-1.7273 10.0996 -3.5694 0.2703 0 1
-2.2273 10.4682 -3.7283 0.2517 0 1
-2.7649 10.8331 -3.8948 0.2421 0 24
-3.3703 11.2885 -4.1040 0.2286 0 1
-4.0076 11.6853 -4.3034 0.2153 0 24
-4.7178 12.1407 -4.5374 0.2034 0 24
-32.8363 -4.5162 -11.9601 0.9923 0 20
-25.5125 -4.5616 -9.3518 0.9756 0 20
-41.8400 -20.6605 -16.8377 0.0537 0 2
-37.1421 -20.2389 -15.2628 0.0593 0 2
-32.9766 -19.7300 -13.8663 0.0652 0 2
-29.2895 -19.1653 -12.6302 0.0716 0 2
-24.5172 -17.4908 -10.8672 0.8376 0 20
-23.1390 -17.9553 -10.5683 0.0856 0 2
-21.1118 -17.7883 -9.9615 0.9256 0 2
-18.8807 -17.2542 -9.2291 0.0707 0 1
-16.4033 -16.2488 -8.3313 0.1104 0 1
-14.5725 -15.6462 -7.7152 0.1192 0 1
-12.9612 -15.0907 -7.1780 0.1302 0 1
-11.5169 -14.5554 -6.6973 0.1376 0 1
-10.2139 -14.0342 -6.2632 0.1471 0 1
-9.0604 -13.5648 -5.8861 0.1610 0 1
-7.9793 -13.0546 -5.5208 0.1735 0 24
-7.0501 -12.6518 -5.2262 0.1867 0 1
-6.1833 -12.2291 -4.9447 0.1982 0 1
-5.3904 -11.8195 -4.6875 0.2087 0 1
-4.6635 -11.4218 -4.4517 0.2197 0 1
-3.9949 -11.0335 -4.2342 0.2295 0 1
-3.3800 -10.6565 -4.0340 0.2409 0 1
-2.8141 -10.2926 -3.8502 0.2481 0 1
-2.2914 -9.9364 -3.6795 0.2638 0 1
-1.8016 -9.5533 -3.5080 0.2722 0 24
-1.3622 -9.2545 -3.3753 0.2836 0 1
-0.9486 -8.9247 -3.2385 0.2953 0 1
-0.5656 -8.6044 -3.1115 0.3074 0 1
-0.2107 -8.2942 -2.9938 0.3194 0 1
0.1188 -7.9936 -2.8847 0.3315 0 1
0.4250 -7.7051 -2.7845 0.3486 0 1
0.7102 -7.4256 -2.6916 0.3605 0 1
0.9760 -7.1536 -2.6052 0.3725 0 1
1.2239 -6.8881 -2.5244 0.3845 0 1
1.4550 -6.6280 -2.4486 0.3964 0 1
1.6709 -6.3745 -2.3779 0.4082 0 1
1.8660 -6.1057 -2.3037 0.4162 0 24
2.0606 -5.8841 -2.2496 0.4304 0 1
2.2366 -5.6472 -2.1917 0.4415 0 1
2.4013 -5.4157 -2.1376 0.4527 0 1
2.5554 -5.1890 -2.0871 0.4636 0 1
2.6974 -4.9630 -2.0383 0.4580 0 1
2.8237 -4.7310 -1.9881 0.4695 0 1
2.9409 -4.5050 -1.9413 0.4809 0 1
3.0497 -4.2845 -1.8976 0.4919 0 1
3.1506 -4.0692 -1.8570 0.5027 0 1
3.2453 -3.8601 -1.8197 0.5341 0 1
3.3390 -3.6616 -1.7881 0.5436 0 1
3.4274 -3.4674 -1.7592 0.5440 0 1
3.5106 -3.2768 -1.7328 0.5523 0 1
3.5882 -3.0886 -1.7083 0.5603 0 1
3.6603 -2.9026 -1.6857 0.5678 0 1
3.7273 -2.7189 -1.6648 0.5749 0 1
3.7894 -2.5370 -1.6455 0.5816 0 1
3.8475 -2.3574 -1.6282 0.5879 0 1
3.9012 -2.1794 -1.6125 0.5937 0 1
3.9506 -2.0029 -1.5983 0.5990 0 1
3.9958 -1.8276 -1.5855 0.6038 0 1
4.0369 -1.6533 -1.5741 0.6082 0 1
4.0745 -1.4802 -1.5642 0.6153 0 1
4.1084 -1.3080 -1.5558 0.6186 0 1
4.1386 -1.1363 -1.5486 0.6215 0 1
4.1650 -0.9652 -1.5427 0.6239 0 1
4.1878 -0.7944 -1.5381 0.6257 0 1
4.2071 -0.6239 -1.5347 0.6271 0 1
4.2227 -0.4534 -1.5325 0.6280 0 1
4.2349 -0.2830 -1.5315 0.6284 0 1
4.2435 -0.1124 -1.5318 0.6283 0 1
4.2518 0.0586 -1.5343 0.6266 0 1
4.2568 0.2302 -1.5382 0.6250 0 1
4.2582 0.4026 -1.5434 0.6229 0 1
4.2561 0.5760 -1.5497 0.6204 0 1
4.2503 0.7505 -1.5574 0.6173 0 1
4.2377 0.9255 -1.5652 0.6051 0 1
4.2194 1.1011 -1.5735 0.6019 0 1
4.1973 1.2778 -1.5832 0.5983 0 1
4.1711 1.4557 -1.5941 0.5942 0 1
4.1409 1.6348 -1.6064 0.5896 0 1
4.1064 1.8155 -1.6201 0.5846 0 1
4.0677 1.9977 -1.6352 0.5792 0 1
4.0245 2.1818 -1.6519 0.5730 0 1
3.9769 2.3678 -1.6701 0.5668 0 1
3.9244 2.5559 -1.6899 0.5601 0 1
3.8671 2.7463 -1.7115 0.5531 0 1
3.8049 2.9394 -1.7349 0.5456 0 1
3.7372 3.1352 -1.7602 0.5378 0 1
3.6638 3.3338 -1.7874 0.5296 0 1
3.5844 3.5354 -1.8167 0.5211 0 1
3.4987 3.7403 -1.8480 0.5122 0 1
3.4062 3.9486 -1.8817 0.5031 0 1
3.3066 4.1605 -1.9177 0.4936 0 1
3.1993 4.3761 -1.9560 0.4920 0 1
3.0813 4.5917 -1.9953 0.4823 0 1
2.9549 4.8111 -2.0373 0.4724 0 1
2.8198 5.0347 -2.0822 0.4622 0 1
2.6752 5.2626 -2.1302 0.4518 0 1
2.5205 5.4952 -2.1815 0.4412 0 1
2.3550 5.7327 -2.2363 0.4303 0 1
2.1779 5.9749 -2.2947 0.4197 0 1
1.9884 6.2225 -2.3572 0.4086 0 1
1.7856 6.4759 -2.4239 0.3974 0 1
1.5676 6.7316 -2.4940 0.4090 0 1
1.3324 6.9826 -2.5650 0.3977 0 1
1.0856 7.2668 -2.6512 0.3640 0 1
0.8196 7.5557 -2.7424 0.3513 0 1
0.5328 7.8462 -2.8377 0.3395 0 1
0.2244 8.1452 -2.9402 0.3276 0 1
-0.1073 8.4491 -3.0490 0.3185 0 1
-0.4643 8.7610 -3.1657 0.3067 0 1
-0.8488 9.0814 -3.2912 0.3136 0 1
-1.2626 9.4054 -3.4243 0.2907 0 1
-1.7078 9.7328 -3.5656 0.2792 0 1
-2.1878 10.0693 -3.7182 0.2677 0 1
-2.7088 10.4257 -3.8869 0.2491 0 1
-3.2760 10.8027 -4.0733 0.2377 0 1
-3.8777 11.1500 -4.2597 0.2247 0 24
-4.5621 11.5918 -4.4950 0.2121 0 1
-5.2953 12.0124 -4.7370 0.2013 0 1
-6.0897 12.4333 -4.9956 0.1945 0 1
-6.9481 12.8497 -5.2710 0.1843 0 1
-7.8620 13.2374 -5.5555 0.1733 0 24
-8.9158 13.7221 -5.9048 0.1672 0 1
-10.0373 14.1661 -6.2647 0.1504 0 1
-11.3073 14.6693 -6.6832 0.1400 0 1
-12.7626 15.2467 -7.1746 0.1195 0 1
-14.3834 15.8417 -7.7209 0.1090 0 24
-16.5551 16.8208 -8.5161 0.1245 0 2
-17.4321 16.3413 -8.6218 0.6829 0 6
-19.8324 17.1454 -9.4598 0.0956 0 2
-22.2982 17.7609 -10.2864 0.0879 0 2
-24.6599 18.0693 -11.0313 0.4984 0 21
-27.5449 18.5273 -11.9784 0.8444 0 3
-28.8702 17.7746 -12.2335 0.4990 0 3
-31.6221 17.7552 -13.0860 0.4665 0 3
-28.4633 14.5073 -11.5277 0.4366 0 21
-29.8289 13.7205 -11.8474 0.4126 0 5
-33.1921 13.6775 -12.9539 0.3695 0 5
-39.0984 14.2995 -15.0220 0.1650 0 21
-42.7854 13.7228 -16.2132 0.3245 0 5
-33.7608 -4.4953 -12.2896 0.1175 0 20
-25.4721 -4.4412 -9.3299 0.9876 0 20
-37.6186 -20.2888 -15.4225 0.0587 0 2
-33.3986 -19.7876 -14.0078 0.0646 0 2
-29.6629 -19.2277 -12.7554 0.0709 0 2
-24.5278 -17.3395 -10.8387 0.8398 0 20
-23.4317 -18.0212 -10.6664 0.0848 0 2
-21.2235 -17.7267 -9.9781 0.9241 0 2
-19.1877 -17.3837 -9.3425 0.0698 0 1
-16.6128 -16.3152 -8.4019 0.1094 0 1
-14.7583 -15.7095 -7.7776 0.1183 0 1
-13.1252 -15.1492 -7.2327 0.1292 0 1
-11.6646 -14.6122 -6.7465 0.1366 0 1
-10.3470 -14.0891 -6.3076 0.1461 0 1
-9.1782 -13.6138 -5.9245 0.1599 0 1
-8.0860 -13.1019 -5.5555 0.1721 0 24
-7.1477 -12.6979 -5.2579 0.1855 0 1
-6.2723 -12.2736 -4.9736 0.1970 0 1
-5.4720 -11.8628 -4.7140 0.2075 0 1
-4.7383 -11.4638 -4.4760 0.2186 0 1
-4.0638 -11.0746 -4.2567 0.2283 0 1
-3.4434 -10.6963 -4.0547 0.2397 0 1
-2.8727 -10.3318 -3.8695 0.2469 0 1
-2.3453 -9.9738 -3.6971 0.2625 0 1
-1.8513 -9.5900 -3.5243 0.2710 0 24
-1.4084 -9.2904 -3.3906 0.2824 0 1
-0.9914 -8.9596 -3.2527 0.2940 0 1
-0.6052 -8.6382 -3.1246 0.3061 0 1
-0.2474 -8.3269 -3.0060 0.3181 0 1
0.0846 -8.0253 -2.8960 0.3302 0 1
0.3933 -7.7355 -2.7948 0.3473 0 1
0.6806 -7.4551 -2.7013 0.3592 0 1
0.9485 -7.1823 -2.6141 0.3712 0 1
1.1982 -6.9163 -2.5328 0.3832 0 1
1.4311 -6.6555 -2.4564 0.3952 0 1
1.6485 -6.4013 -2.3852 0.4070 0 1
1.8452 -6.1321 -2.3107 0.4169 0 24
