ply
format ascii 1.0
element vertex 1399
property float32 x
property float32 y
property float32 z
property float32 CosAngle
property uint32 ObjIdx
property uint32 ObjTag
end_header
-9.8741 -7.8304 -6.1984 0.2063 0 1
-9.2260 -7.9403 -5.9871 0.2136 0 1
-8.5932 -8.0186 -5.7809 0.2212 0 1
-7.9780 -8.0678 -5.5807 0.2291 0 1
-7.3760 -8.0841 -5.3826 0.2328 0 1
-6.7937 -8.0747 -5.1903 0.2414 0 1
-6.2338 -8.0441 -5.0055 0.2504 0 1
-5.6967 -7.9947 -4.8284 0.2595 0 1
-5.1817 -7.9274 -4.6582 0.2691 0 1
-4.6890 -7.8445 -4.4951 0.2789 0 1
-4.2191 -7.7490 -4.3397 0.2888 0 1
-3.7603 -7.6202 -4.1795 0.3001 0 24
-3.3346 -7.5027 -4.0383 0.3099 0 24
-2.9399 -7.4021 -3.9174 0.3203 0 1
-2.5538 -7.2682 -3.7891 0.3312 0 1
-2.1873 -7.1285 -3.6675 0.3422 0 1
-1.8400 -6.9860 -3.5533 0.3562 0 1
-1.5106 -6.8399 -3.4453 0.3673 0 1
-1.1980 -6.6902 -3.3430 0.3786 0 1
-0.9012 -6.5359 -3.2451 0.3889 0 1
-0.6197 -6.3786 -3.1521 0.4004 0 1
-0.3528 -6.2195 -3.0640 0.4118 0 1
-0.0997 -6.0451 -2.9737 0.4239 0 24
0.1397 -5.8978 -2.9017 0.4348 0 1
0.3667 -5.7355 -2.8268 0.4448 0 1
0.5803 -5.5577 -2.7485 0.4581 0 24
0.7856 -5.4100 -2.6888 0.4678 0 1
0.9786 -5.2473 -2.6254 0.4791 0 1
1.1614 -5.0849 -2.5654 0.4905 0 1
1.3341 -4.9213 -2.5079 0.5017 0 1
1.4975 -4.7584 -2.4536 0.5128 0 1
1.6521 -4.5962 -2.4023 0.5238 0 1
1.7883 -4.4100 -2.3406 0.5323 0 24
1.9240 -4.2463 -2.2930 0.5435 0 24
2.0580 -4.0960 -2.2546 0.5384 0 1
2.1757 -3.9285 -2.2088 0.5496 0 1
2.2891 -3.7679 -2.1685 0.5829 0 1
2.3968 -3.6099 -2.1313 0.5930 0 1
2.4982 -3.4532 -2.0963 0.6029 0 1
2.5937 -3.2977 -2.0636 0.6125 0 1
2.6835 -3.1433 -2.0328 0.6217 0 1
2.7678 -2.9901 -2.0040 0.6307 0 1
2.8469 -2.8379 -1.9772 0.6393 0 1
2.9211 -2.6867 -1.9521 0.6475 0 1
2.9904 -2.5365 -1.9287 0.6553 0 1
3.0549 -2.3871 -1.9069 0.6590 0 1
3.1147 -2.2383 -1.8865 0.6661 0 1
3.1709 -2.0908 -1.8681 0.6772 0 1
3.2239 -1.9446 -1.8518 0.6832 0 1
3.2729 -1.7990 -1.8370 0.6887 0 1
3.3180 -1.6539 -1.8235 0.6938 0 1
3.3593 -1.5092 -1.8114 0.6985 0 1
3.3969 -1.3649 -1.8006 0.6950 0 1
3.4314 -1.2211 -1.7914 0.6986 0 1
3.4623 -1.0775 -1.7835 0.7017 0 1
3.4896 -0.9341 -1.7768 0.7044 0 1
3.5134 -0.7907 -1.7713 0.7065 0 1
3.5337 -0.6474 -1.7670 0.7083 0 1
3.5505 -0.5040 -1.7639 0.7095 0 1
3.5640 -0.3606 -1.7619 0.7103 0 1
3.5741 -0.2171 -1.7612 0.7106 0 1
3.5808 -0.0734 -1.7616 0.7104 0 1
3.5860 0.0706 -1.7641 0.7087 0 1
3.5875 0.2150 -1.7677 0.6967 0 1
3.5830 0.3596 -1.7712 0.6954 0 1
3.5749 0.5045 -1.7758 0.6936 0 1
3.5633 0.6498 -1.7815 0.6913 0 1
3.5481 0.7955 -1.7885 0.6886 0 1
3.5293 0.9416 -1.7966 0.6855 0 1
3.5067 1.0882 -1.8059 0.6820 0 1
3.4805 1.2354 -1.8165 0.6780 0 1
3.4504 1.3831 -1.8284 0.6736 0 1
3.4164 1.5315 -1.8415 0.6688 0 1
3.3784 1.6805 -1.8559 0.6636 0 1
3.3363 1.8303 -1.8717 0.6580 0 1
3.2907 1.9812 -1.8892 0.6630 0 1
3.2406 2.1330 -1.9082 0.6563 0 1
3.1860 2.2855 -1.9285 0.6431 0 1
3.1272 2.4394 -1.9507 0.6358 0 1
3.0637 2.5943 -1.9746 0.6281 0 1
2.9952 2.7504 -2.0001 0.6201 0 1
2.9216 2.9075 -2.0273 0.6117 0 1
2.8426 3.0659 -2.0564 0.6031 0 1
2.7581 3.2254 -2.0874 0.5942 0 1
2.6678 3.3862 -2.1203 0.5849 0 1
2.5714 3.5482 -2.1553 0.5754 0 1
2.4676 3.7099 -2.1915 0.5704 0 1
2.3559 3.8705 -2.2287 0.5609 0 1
2.2373 4.0320 -2.2680 0.5512 0 1
2.1117 4.1943 -2.3097 0.5412 0 1
1.9665 4.3308 -2.3394 0.5327 0 24
1.8272 4.4953 -2.3867 0.5221 0 24
1.6885 4.6853 -2.4496 0.5109 0 1
1.5308 4.8502 -2.5016 0.5003 0 1
1.3640 5.0154 -2.5564 0.4899 0 1
1.1878 5.1808 -2.6143 0.4791 0 1
1.0016 5.3466 -2.6755 0.4683 0 1
0.8053 5.5139 -2.7408 0.4572 0 1
0.5979 5.6813 -2.8098 0.4459 0 1
0.3788 5.8486 -2.8827 0.4347 0 1
0.1472 6.0069 -2.9554 0.4224 0 24
-0.0969 6.1804 -3.0403 0.4129 0 1
-0.3547 6.3446 -3.1255 0.4016 0 1
-0.6268 6.5073 -3.2155 0.3904 0 1
-0.9138 6.6680 -3.3103 0.3792 0 1
-1.2165 6.8260 -3.4103 0.3703 0 1
-1.5346 6.9755 -3.5130 0.3604 0 1
-1.8692 7.1206 -3.6210 0.3496 0 1
-2.2213 7.2607 -3.7346 0.3390 0 1
-2.5915 7.3948 -3.8541 0.3285 0 1
-2.9804 7.5220 -3.9796 0.3182 0 1
-3.3886 7.6410 -4.1113 0.3080 0 1
-3.8167 7.7503 -4.2492 0.2982 0 1
-4.2651 7.8489 -4.3937 0.2884 0 1
-4.7348 7.9360 -4.5453 0.2759 0 1
-5.2276 8.0120 -4.7054 0.2665 0 1
-5.7416 8.0717 -4.8720 0.2596 0 1
-6.2732 8.1086 -5.0425 0.2508 0 1
-6.8242 8.1244 -5.2187 0.2454 0 1
-7.3923 8.1153 -5.3993 0.2372 0 1
-15.1885 -4.4456 -8.0029 0.1564 0 1
-14.6684 -4.9411 -7.8272 0.1590 0 1
-14.1049 -5.3912 -7.6360 0.1615 0 1
-13.5040 -5.7934 -7.4308 0.1651 0 1
-12.8784 -6.1487 -7.2167 0.1704 0 1
-12.2363 -6.4579 -6.9967 0.1803 0 1
-11.5995 -6.7309 -6.7818 0.1860 0 1
-10.9601 -6.9628 -6.5663 0.1920 0 1
-10.3225 -7.1553 -6.3515 0.1985 0 1
-9.7032 -7.3201 -6.1465 0.2127 0 1
-9.1003 -7.4572 -5.9497 0.2198 0 1
-8.4763 -7.5347 -5.7351 0.2262 0 24
-7.8986 -7.6106 -5.5467 0.2338 0 24
-7.3560 -7.6810 -5.3781 0.2382 0 1
-6.8018 -7.6988 -5.1950 0.2466 0 1
-6.2662 -7.6945 -5.0181 0.2553 0 1
-5.7315 -7.6456 -4.8321 0.2646 0 24
-5.2360 -7.6028 -4.6682 0.2745 0 24
-4.7608 -7.5445 -4.5113 0.2842 0 24
-4.3191 -7.4956 -4.3747 0.2930 0 1
-3.8709 -7.3889 -4.2182 0.3047 0 24
-3.4658 -7.3162 -4.0939 0.3157 0 1
-3.0668 -7.2090 -3.9617 0.3239 0 1
-2.6862 -7.0923 -3.8351 0.3346 0 1
-2.3239 -6.9687 -3.7148 0.3454 0 1
-1.9735 -6.8193 -3.5900 0.3581 0 24
-1.6527 -6.7090 -3.4941 0.3703 0 1
-1.3415 -6.5724 -3.3921 0.3815 0 1
-1.0457 -6.4315 -3.2951 0.3916 0 1
-0.7643 -6.2855 -3.2019 0.4030 0 1
-0.4971 -6.1370 -3.1136 0.4144 0 1
-0.2435 -5.9865 -3.0299 0.4258 0 1
-0.0028 -5.8210 -2.9437 0.4379 0 24
0.2256 -5.6806 -2.8749 0.4471 0 1
0.4412 -5.5121 -2.7964 0.4604 0 24
0.6478 -5.3707 -2.7356 0.4701 0 1
0.8428 -5.2152 -2.6715 0.4814 0 1
1.0277 -5.0595 -2.6108 0.4926 0 1
1.2028 -4.9032 -2.5530 0.5039 0 1
1.3686 -4.7461 -2.4979 0.5150 0 1
1.5255 -4.5894 -2.4457 0.5260 0 1
1.6741 -4.4331 -2.3963 0.5369 0 1
1.8041 -4.2521 -2.3358 0.5460 0 24
1.9346 -4.0942 -2.2899 0.5576 0 24
2.0615 -3.9442 -2.2506 0.5515 0 1
2.1772 -3.7869 -2.2089 0.5850 0 1
2.2873 -3.6325 -2.1708 0.5953 0 1
2.3912 -3.4793 -2.1349 0.6053 0 1
2.4891 -3.3271 -2.1012 0.6150 0 1
2.5813 -3.1759 -2.0696 0.6244 0 1
2.6679 -3.0256 -2.0399 0.6335 0 1
2.7494 -2.8764 -2.0122 0.6422 0 1
2.8258 -2.7280 -1.9862 0.6506 0 1
2.8973 -2.5805 -1.9620 0.6587 0 1
2.9639 -2.4335 -1.9393 0.6625 0 1
3.0259 -2.2873 -1.9181 0.6698 0 1
3.0835 -2.1418 -1.8986 0.6814 0 1
3.1386 -1.9981 -1.8815 0.6875 0 1
3.1895 -1.8549 -1.8659 0.6933 0 1
3.2366 -1.7121 -1.8516 0.6986 0 1
3.2798 -1.5698 -1.8388 0.7035 0 1
3.3193 -1.4278 -1.8272 0.7080 0 1
3.3551 -1.2861 -1.8170 0.7119 0 1
3.3873 -1.1447 -1.8081 0.7077 0 1
3.4165 -1.0036 -1.8007 0.7106 0 1
3.4422 -0.8626 -1.7945 0.7131 0 1
3.4644 -0.7216 -1.7895 0.7151 0 1
3.4831 -0.5806 -1.7857 0.7166 0 1
3.4985 -0.4396 -1.7831 0.7176 0 1
3.5105 -0.2985 -1.7816 0.7182 0 1
3.5190 -0.1573 -1.7813 0.7183 0 1
3.5247 -0.0158 -1.7824 0.7171 0 1
3.5288 0.1260 -1.7856 0.7158 0 1
3.5264 0.2680 -1.7884 0.7041 0 1
3.5204 0.4103 -1.7923 0.7026 0 1
3.5109 0.5529 -1.7973 0.7006 0 1
3.4979 0.6959 -1.8035 0.6982 0 1
3.4813 0.8392 -1.8109 0.6954 0 1
3.4610 0.9830 -1.8194 0.6921 0 1
3.4371 1.1272 -1.8292 0.6884 0 1
3.4094 1.2720 -1.8402 0.6843 0 1
3.3779 1.4173 -1.8525 0.6798 0 1
3.3425 1.5631 -1.8660 0.6749 0 1
3.3037 1.7099 -1.8812 0.6809 0 1
3.2611 1.8576 -1.8979 0.6749 0 1
3.2143 2.0061 -1.9160 0.6685 0 1
3.1619 2.1545 -1.9348 0.6618 0 1
3.1060 2.3044 -1.9558 0.6484 0 1
3.0458 2.4554 -1.9784 0.6410 0 1
2.9809 2.6073 -2.0027 0.6332 0 1
2.9110 2.7602 -2.0286 0.6251 0 1
2.8359 2.9141 -2.0563 0.6167 0 1
2.7556 3.0691 -2.0858 0.6080 0 1
2.6696 3.2251 -2.1172 0.5990 0 1
2.5779 3.3822 -2.1505 0.5897 0 1
2.4802 3.5403 -2.1859 0.5801 0 1
2.3744 3.6968 -2.2218 0.5753 0 1
2.2615 3.8531 -2.2593 0.5657 0 1
2.1419 4.0101 -2.2990 0.5560 0 1
2.0028 4.1418 -2.3265 0.5477 0 24
1.8812 4.3256 -2.3854 0.5358 0 1
1.7301 4.4598 -2.4190 0.5268 0 24
1.5897 4.6428 -2.4816 0.5156 0 1
1.4314 4.8018 -2.5338 0.5050 0 1
1.2642 4.9607 -2.5887 0.4947 0 1
1.0877 5.1195 -2.6467 0.4839 0 1
0.9018 5.2791 -2.7083 0.4730 0 1
0.7056 5.4390 -2.7735 0.4619 0 1
0.4987 5.5985 -2.8423 0.4507 0 1
0.2804 5.7573 -2.9149 0.4395 0 1
0.0501 5.9076 -2.9875 0.4259 0 24
-0.1924 6.0707 -3.0715 0.4179 0 1
-0.4481 6.2248 -3.1560 0.4067 0 1
-0.7174 6.3768 -3.2450 0.3955 0 1
-1.0011 6.5260 -3.3388 0.3844 0 1
-1.2995 6.6712 -3.4370 0.3746 0 1
-1.6124 6.8079 -3.5380 0.3659 0 1
-1.9410 6.9397 -3.6440 0.3552 0 1
-2.2859 7.0655 -3.7553 0.3447 0 1
-2.6477 7.1846 -3.8721 0.3343 0 1
-3.0268 7.2960 -3.9944 0.3241 0 1
-3.4238 7.3983 -4.1225 0.3141 0 1
-3.8387 7.4901 -4.2562 0.3044 0 1
-4.2721 7.5703 -4.3958 0.2947 0 1
-4.7242 7.6375 -4.5414 0.2853 0 1
-5.1965 7.6923 -4.6944 0.2731 0 1
-5.6883 7.7317 -4.8540 0.2664 0 1
-6.1947 7.7476 -5.0163 0.2578 0 1
-6.7183 7.7431 -5.1841 0.2495 0 1
-7.2569 7.7148 -5.3561 0.2445 0 1
-7.8084 7.6599 -5.5314 0.2367 0 1
-8.3895 7.5933 -5.7222 0.2203 0 1
-8.9894 7.5020 -5.9209 0.2128 0 1
-9.6017 7.3796 -6.1239 0.2058 0 1
-10.2235 7.2233 -6.3302 0.1978 0 1
-10.8570 7.0347 -6.5421 0.1909 0 1
-11.4949 6.8087 -6.7561 0.1849 0 1
-12.1314 6.5423 -6.9700 0.1799 0 1
-12.7625 6.2345 -7.1828 0.1722 0 1
-13.3358 5.8634 -7.3669 0.1667 0 24
-13.9802 5.4878 -7.5949 0.1633 0 1
-14.5466 5.0458 -7.7861 0.1592 0 1
-15.0812 4.5614 -7.9677 0.1542 0 1
-15.5655 4.0332 -8.1313 0.1512 0 1
-15.9964 3.4658 -8.2770 0.1497 0 1
-16.3574 2.8616 -8.3974 0.1475 0 1
-16.6504 2.2279 -8.4950 0.1458 0 1
-16.8703 1.5707 -8.5681 0.1445 0 1
-17.0124 0.8968 -8.6150 0.1437 0 1
-17.0737 0.2133 -8.6347 0.1434 0 1
-17.0539 -0.4722 -8.6274 0.1440 0 1
-16.9551 -1.1523 -8.5938 0.1446 0 1
-16.7769 -1.8195 -8.5337 0.1456 0 1
-16.5266 -2.4674 -8.4500 0.1478 0 1
-16.2077 -3.0898 -8.3437 0.1497 0 1
-15.7662 -3.6675 -8.1857 0.1519 0 24
-15.3807 -4.2357 -8.0675 0.1552 0 1
-14.8814 -4.7489 -7.8993 0.1576 0 1
-14.3342 -5.2174 -7.7139 0.1598 0 1
-13.6998 -5.6194 -7.4880 0.1639 0 24
-13.1302 -6.0127 -7.3029 0.1680 0 1
-12.4937 -6.3401 -7.0849 0.1731 0 1
-11.8539 -6.6271 -6.8676 0.1837 0 1
-11.2150 -6.8752 -6.6522 0.1896 0 1
-10.5760 -7.0831 -6.4369 0.1959 0 1
-9.9458 -7.2561 -6.2258 0.2100 0 1
-9.3395 -7.4064 -6.0278 0.2169 0 1
-8.7426 -7.5243 -5.8330 0.2242 0 1
-8.1271 -7.5837 -5.6212 0.2307 0 24
-7.5585 -7.6435 -5.4360 0.2375 0 24
-7.0205 -7.6944 -5.2673 0.2433 0 1
-6.4774 -7.6987 -5.0878 0.2518 0 1
-5.9536 -7.6826 -4.9150 0.2626 0 1
-5.4310 -7.6219 -4.7327 0.2704 0 24
-4.9477 -7.5695 -4.5730 0.2802 0 24
-4.4989 -7.5265 -4.4342 0.2890 0 1
-4.0537 -7.4453 -4.2869 0.2990 0 1
-3.6294 -7.3550 -4.1476 0.3116 0 1
-3.2238 -7.2533 -4.0139 0.3197 0 1
-2.8356 -7.1397 -3.8848 0.3303 0 1
-2.4661 -7.0187 -3.7620 0.3411 0 1
-2.1148 -6.8925 -3.6459 0.3549 0 1
-1.7811 -6.7623 -3.5363 0.3659 0 1
-1.4637 -6.6273 -3.4322 0.3770 0 1
-1.1619 -6.4883 -3.3333 0.3882 0 1
-0.8747 -6.3440 -3.2385 0.3985 0 1
-0.6020 -6.1965 -3.1483 0.4098 0 1
-0.3430 -6.0467 -3.0627 0.4212 0 1
-0.0970 -5.8819 -2.9748 0.4333 0 24
0.1360 -5.7420 -2.9045 0.4426 0 1
0.3564 -5.5739 -2.8244 0.4561 0 24
0.5672 -5.4327 -2.7622 0.4654 0 1
0.7663 -5.2772 -2.6966 0.4769 0 1
0.9551 -5.1215 -2.6346 0.4881 0 1
1.1342 -4.9658 -2.5758 0.4993 0 1
1.3036 -4.8087 -2.5195 0.5106 0 1
1.4640 -4.6518 -2.4661 0.5217 0 1
1.6159 -4.4953 -2.4157 0.5326 0 1
1.7595 -4.3389 -2.3677 0.5242 0 1
1.8908 -4.1731 -2.3168 0.5357 0 1
2.0095 -3.9996 -2.2635 0.5640 0 24
2.1315 -3.8487 -2.2248 0.5809 0 1
2.2442 -3.6939 -2.1857 0.5912 0 1
2.3505 -3.5402 -2.1490 0.6014 0 1
2.4508 -3.3876 -2.1144 0.6112 0 1
2.5452 -3.2360 -2.0819 0.6207 0 1
2.6340 -3.0854 -2.0515 0.6299 0 1
2.7175 -2.9358 -2.0230 0.6388 0 1
2.7959 -2.7870 -1.9963 0.6473 0 1
2.8694 -2.6392 -1.9715 0.6555 0 1
2.9380 -2.4920 -1.9482 0.6595 0 1
3.0017 -2.3455 -1.9264 0.6670 0 1
3.0610 -2.1997 -1.9062 0.6741 0 1
3.1171 -2.0553 -1.8881 0.6851 0 1
3.1697 -1.9119 -1.8719 0.6911 0 1
3.2183 -1.7690 -1.8571 0.6966 0 1
3.2630 -1.6265 -1.8437 0.7016 0 1
3.3040 -1.4844 -1.8317 0.7062 0 1
3.3413 -1.3425 -1.8209 0.7104 0 1
3.3749 -1.2010 -1.8115 0.7141 0 1
3.4053 -1.0598 -1.8035 0.7095 0 1
3.4324 -0.9188 -1.7968 0.7121 0 1
3.4560 -0.7778 -1.7914 0.7143 0 1
3.4761 -0.6368 -1.7871 0.7160 0 1
3.4928 -0.4958 -1.7840 0.7173 0 1
3.5061 -0.3548 -1.7821 0.7181 0 1
3.5160 -0.2136 -1.7813 0.7184 0 1
3.5226 -0.0722 -1.7817 0.7182 0 1
3.5276 0.0694 -1.7842 0.7164 0 1
3.5278 0.2114 -1.7872 0.7046 0 1
3.5232 0.3536 -1.7906 0.7033 0 1
3.5151 0.4961 -1.7952 0.7015 0 1
3.5035 0.6389 -1.8009 0.6993 0 1
3.4883 0.7821 -1.8078 0.6966 0 1
3.4695 0.9257 -1.8159 0.6935 0 1
3.4471 1.0697 -1.8252 0.6900 0 1
3.4209 1.2142 -1.8357 0.6860 0 1
3.3910 1.3593 -1.8474 0.6816 0 1
3.3571 1.5049 -1.8604 0.6769 0 1
3.3195 1.6513 -1.8749 0.6831 0 1
3.2786 1.7986 -1.8910 0.6773 0 1
3.2335 1.9468 -1.9086 0.6711 0 1
3.1836 2.0954 -1.9273 0.6644 0 1
3.1287 2.2444 -1.9472 0.6512 0 1
3.0704 2.3951 -1.9692 0.6440 0 1
3.0073 2.5466 -1.9928 0.6363 0 1
2.9394 2.6991 -2.0181 0.6284 0 1
2.8665 2.8527 -2.0450 0.6201 0 1
2.7882 3.0072 -2.0738 0.6115 0 1
2.7046 3.1628 -2.1044 0.6026 0 1
2.6152 3.3194 -2.1370 0.5934 0 1
2.5199 3.4771 -2.1716 0.5840 0 1
2.4176 3.6347 -2.2075 0.5790 0 1
2.3073 3.7907 -2.2441 0.5696 0 1
2.1904 3.9474 -2.2829 0.5599 0 1
2.0666 4.1047 -2.3240 0.5500 0 1
1.9240 4.2371 -2.3532 0.5415 0 24
1.7869 4.3962 -2.3997 0.5310 0 24
1.6504 4.5795 -2.4616 0.5198 0 1
1.4955 4.7384 -2.5127 0.5092 0 1
1.3319 4.8973 -2.5665 0.4990 0 1
1.1592 5.0562 -2.6232 0.4882 0 1
0.9770 5.2153 -2.6832 0.4775 0 1
0.7851 5.3753 -2.7471 0.4664 0 1
0.5825 5.5350 -2.8145 0.4552 0 1
0.3688 5.6941 -2.8855 0.4440 0 1
0.1434 5.8524 -2.9604 0.4336 0 1
-0.0941 6.0028 -3.0359 0.4212 0 24
-0.3446 6.1636 -3.1218 0.4112 0 1
-0.6084 6.3165 -3.2090 0.4000 0 1
-0.8863 6.4669 -3.3008 0.3889 0 1
-1.1788 6.6143 -3.3975 0.3778 0 1
-1.4858 6.7540 -3.4971 0.3705 0 1
-1.8081 6.8878 -3.6011 0.3595 0 1
-2.1465 7.0161 -3.7103 0.3489 0 1
-2.5015 7.1380 -3.8249 0.3384 0 1
-2.8736 7.2526 -3.9450 0.3281 0 1
-3.2634 7.3587 -4.0707 0.3181 0 1
-3.6711 7.4548 -4.2022 0.3083 0 1
-4.0972 7.5398 -4.3394 0.2985 0 1
-4.5418 7.6124 -4.4826 0.2890 0 1
-5.0057 7.6719 -4.6324 0.2768 0 1
-5.4901 7.7181 -4.7897 0.2677 0 1
-5.9908 7.7436 -4.9510 0.2612 0 1
-6.5076 7.7475 -5.1166 0.2528 0 1
-7.0410 7.7297 -5.2874 0.2476 0 1
-14.1123 -4.1306 -7.6417 0.1649 0 1
-13.6449 -4.5963 -7.4826 0.1684 0 1
-13.1399 -5.0224 -7.3105 0.1715 0 1
-12.6013 -5.4061 -7.1259 0.1759 0 1
-12.0479 -5.7521 -6.9381 0.1861 0 1
-11.4236 -6.0290 -6.7128 0.1868 0 24
-10.9052 -6.3280 -6.5523 0.1967 0 1
-10.3235 -6.5584 -6.3561 0.2027 0 1
-9.7516 -6.7596 -6.1662 0.2167 0 1
-9.1901 -6.9330 -5.9826 0.2233 0 1
-8.6323 -7.0736 -5.7999 0.2283 0 1
-8.0820 -7.1842 -5.6196 0.2356 0 1
-7.5394 -7.2645 -5.4410 0.2406 0 1
-7.0072 -7.3168 -5.2649 0.2487 0 1
-6.4897 -7.3456 -5.0939 0.2570 0 1
-5.9893 -7.3544 -4.9291 0.2676 0 1
-5.5051 -7.3436 -4.7697 0.2746 0 1
-5.0358 -7.3122 -4.6140 0.2838 0 1
-4.5845 -7.2651 -4.4645 0.2933 0 1
-4.1514 -7.2047 -4.3213 0.3056 0 1
-3.7371 -7.1335 -4.1851 0.3155 0 1
-3.3403 -7.0513 -4.0548 0.3234 0 1
-2.9587 -6.9547 -3.9278 0.3338 0 1
-2.5943 -6.8499 -3.8066 0.3444 0 1
-2.2473 -6.7390 -3.6917 0.3582 0 1
-1.9103 -6.6010 -3.5712 0.3680 0 24
-1.6014 -6.5010 -3.4795 0.3800 0 1
-1.3011 -6.3744 -3.3810 0.3911 0 1
-1.0150 -6.2429 -3.2869 0.4012 0 1
-0.7425 -6.1062 -3.1967 0.4124 0 1
-0.4833 -5.9666 -3.1109 0.4238 0 1
-0.2369 -5.8245 -3.0294 0.4336 0 1
-0.0027 -5.6680 -2.9456 0.4472 0 24
0.2193 -5.5217 -2.8718 0.4583 0 24
0.4312 -5.3870 -2.8085 0.4677 0 1
0.6319 -5.2389 -2.7423 0.4792 0 1
0.8226 -5.0901 -2.6796 0.4904 0 1
1.0035 -4.9408 -2.6201 0.5016 0 1
1.1753 -4.7909 -2.5636 0.5128 0 1
1.3379 -4.6397 -2.5094 0.5239 0 1
1.4920 -4.4886 -2.4581 0.5348 0 1
1.6381 -4.3377 -2.4096 0.5456 0 1
1.7661 -4.1625 -2.3498 0.5552 0 24
1.8997 -4.0202 -2.3108 0.5488 0 1
2.0161 -3.8575 -2.2620 0.5777 0 24
2.1344 -3.7124 -2.2254 0.5934 0 1
2.2431 -3.5623 -2.1877 0.6036 0 1
2.3457 -3.4131 -2.1523 0.6136 0 1
2.4425 -3.2648 -2.1189 0.6232 0 1
2.5336 -3.1173 -2.0876 0.6326 0 1
2.6194 -2.9706 -2.0582 0.6416 0 1
2.7000 -2.8247 -2.0307 0.6503 0 1
2.7757 -2.6797 -2.0050 0.6586 0 1
2.8463 -2.5351 -1.9808 0.6628 0 1
2.9123 -2.3911 -1.9582 0.6705 0 1
2.9737 -2.2479 -1.9372 0.6777 0 1
3.0312 -2.1055 -1.9180 0.6892 0 1
3.0858 -1.9645 -1.9011 0.6953 0 1
3.1364 -1.8240 -1.8855 0.7011 0 1
3.1831 -1.6838 -1.8714 0.7064 0 1
3.2259 -1.5440 -1.8586 0.7112 0 1
3.2651 -1.4045 -1.8471 0.7156 0 1
3.3006 -1.2652 -1.8370 0.7196 0 1
3.3326 -1.1262 -1.8281 0.7231 0 1
3.3610 -0.9873 -1.8205 0.7261 0 1
3.3862 -0.8485 -1.8141 0.7208 0 1
3.4081 -0.7099 -1.8092 0.7227 0 1
3.4267 -0.5712 -1.8054 0.7243 0 1
3.4419 -0.4325 -1.8028 0.7253 0 1
3.4537 -0.2937 -1.8013 0.7259 0 1
3.4622 -0.1547 -1.8010 0.7260 0 1
3.4677 -0.0156 -1.8021 0.7248 0 1
3.4704 0.1239 -1.8047 0.7130 0 1
3.4679 0.2636 -1.8074 0.7120 0 1
3.4619 0.4035 -1.8113 0.7104 0 1
3.4524 0.5437 -1.8163 0.7085 0 1
3.4394 0.6843 -1.8224 0.7061 0 1
3.4228 0.8252 -1.8298 0.7033 0 1
3.4027 0.9664 -1.8383 0.7000 0 1
3.3788 1.1081 -1.8480 0.6963 0 1
3.3513 1.2503 -1.8589 0.6922 0 1
3.3203 1.3931 -1.8712 0.6994 0 1
3.2858 1.5366 -1.8851 0.6943 0 1
3.2474 1.6808 -1.9003 0.6887 0 1
3.2050 1.8257 -1.9169 0.6828 0 1
3.1586 1.9713 -1.9349 0.6764 0 1
3.1063 2.1166 -1.9534 0.6699 0 1
3.0503 2.2631 -1.9739 0.6565 0 1
2.9906 2.4109 -1.9963 0.6491 0 1
2.9262 2.5595 -2.0203 0.6414 0 1
2.8569 2.7089 -2.0460 0.6333 0 1
2.7825 2.8593 -2.0734 0.6250 0 1
2.7029 3.0105 -2.1026 0.6163 0 1
2.6179 3.1626 -2.1336 0.6073 0 1
2.5272 3.3156 -2.1665 0.5981 0 1
2.4306 3.4695 -2.2015 0.5886 0 1
2.3264 3.6221 -2.2372 0.5838 0 1
2.2150 3.7739 -2.2741 0.5743 0 1
2.0971 3.9262 -2.3132 0.5646 0 1
1.9604 4.0541 -2.3403 0.5564 0 24
1.8299 4.2077 -2.3845 0.5460 0 24
1.7011 4.3851 -2.4443 0.5343 0 1
1.5462 4.5160 -2.4807 0.5249 0 24
1.3985 4.6915 -2.5441 0.5139 0 1
1.2346 4.8444 -2.5980 0.5037 0 1
1.0617 4.9968 -2.6547 0.4929 0 1
0.8797 5.1500 -2.7151 0.4822 0 1
0.6879 5.3029 -2.7789 0.4711 0 1
0.4859 5.4550 -2.8461 0.4600 0 1
0.2730 5.6061 -2.9168 0.4488 0 1
0.0489 5.7558 -2.9913 0.4385 0 1
-0.1871 5.9032 -3.0693 0.4273 0 1
-0.4354 6.0484 -3.1514 0.4162 0 1
-0.6965 6.1911 -3.2377 0.4051 0 1
-0.9711 6.3307 -3.3285 0.3941 0 1
-1.2596 6.4661 -3.4235 0.3843 0 1
-1.5617 6.5939 -3.5216 0.3760 0 1
-1.8782 6.7151 -3.6237 0.3654 0 1
-2.2098 6.8300 -3.7306 0.3546 0 1
-2.5568 6.9380 -3.8426 0.3442 0 1
-2.9198 7.0379 -3.9597 0.3341 0 1
-3.2989 7.1285 -4.0821 0.3241 0 1
-3.6945 7.2086 -4.2096 0.3145 0 1
-4.1065 7.2768 -4.3423 0.3049 0 1
-4.5353 7.3320 -4.4804 0.2955 0 1
-4.9806 7.3727 -4.6238 0.2863 0 1
-5.4436 7.3990 -4.7737 0.2745 0 1
-5.9216 7.4060 -4.9278 0.2682 0 1
-6.4126 7.3908 -5.0851 0.2599 0 1
-6.9173 7.3538 -5.2467 0.2519 0 1
-7.4345 7.2932 -5.4123 0.2442 0 1
-7.9611 7.2056 -5.5803 0.2309 0 1
-8.5151 7.1063 -5.7638 0.2234 0 1
-9.0788 6.9776 -5.9506 0.2164 0 1
-9.6486 6.8171 -6.1395 0.2098 0 1
-10.2237 6.6244 -6.3309 0.2024 0 1
-10.8051 6.4001 -6.5264 0.1964 0 1
-11.3822 6.1383 -6.7205 0.1907 0 1
-11.9480 5.8366 -6.9105 0.1859 0 1
-12.4989 5.4954 -7.0956 0.1781 0 1
-13.0351 5.1168 -7.2774 0.1737 0 1
-13.5402 4.6967 -7.4480 0.1701 0 1
-14.0115 4.2379 -7.6074 0.1668 0 1
-14.4381 3.7411 -7.7511 0.1648 0 1
-14.8168 3.2102 -7.8788 0.1595 0 1
-15.1425 2.6490 -7.9889 0.1585 0 1
-15.3445 2.0531 -8.0454 0.1568 0 24
-15.5959 1.4521 -8.1400 0.1556 0 1
-15.7217 0.8288 -8.1817 0.1553 0 1
-15.7754 0.1971 -8.1989 0.1549 0 1
-15.7602 -0.4364 -8.1935 0.1551 0 1
-15.6748 -1.0653 -8.1648 0.1560 0 1
-15.4595 -1.6766 -8.0812 0.1568 0 24
-15.2423 -2.2757 -8.0090 0.1584 0 24
-15.0176 -2.8630 -7.9450 0.1602 0 1
-14.6793 -3.4147 -7.8323 0.1625 0 1
-14.2855 -3.9341 -7.7003 0.1628 0 1
-13.8359 -4.4153 -7.5476 0.1669 0 1
-13.3063 -4.8432 -7.3589 0.1698 0 24
-12.8189 -5.2581 -7.2005 0.1741 0 1
-12.2262 -5.5987 -6.9883 0.1799 0 24
-11.7093 -5.9420 -6.8238 0.1886 0 1
-11.1359 -6.2257 -6.6302 0.1944 0 1
-10.5557 -6.4710 -6.4344 0.2003 0 1
-9.9760 -6.6813 -6.2397 0.2141 0 1
-9.4135 -6.8678 -6.0556 0.2206 0 1
-8.8540 -7.0214 -5.8725 0.2255 0 1
-8.3002 -7.1436 -5.6911 0.2327 0 1
-7.7553 -7.2367 -5.5124 0.2375 0 1
-7.2176 -7.2989 -5.3345 0.2454 0 1
-6.6942 -7.3368 -5.1614 0.2537 0 1
-6.1867 -7.3532 -4.9940 0.2641 0 1
-5.6963 -7.3505 -4.8328 0.2729 0 1
-5.2207 -7.3267 -4.6753 0.2801 0 1
-4.7622 -7.2856 -4.5234 0.2895 0 1
-4.3217 -7.2300 -4.3774 0.2992 0 1
-3.8887 -7.1423 -4.2263 0.3109 0 24
-3.4964 -7.0853 -4.1061 0.3216 0 1
-3.1087 -6.9943 -3.9777 0.3296 0 1
-2.7375 -6.8926 -3.8542 0.3402 0 1
-2.3835 -6.7835 -3.7366 0.3539 0 1
-2.0465 -6.6698 -3.6257 0.3647 0 1
-1.7252 -6.5502 -3.5202 0.3756 0 1
-1.4191 -6.4254 -3.4197 0.3867 0 1
-1.1274 -6.2962 -3.3241 0.3978 0 1
-0.8495 -6.1610 -3.2321 0.4080 0 1
-0.5851 -6.0226 -3.1446 0.4192 0 1
-0.3337 -5.8815 -3.0615 0.4291 0 1
-0.0944 -5.7256 -2.9759 0.4426 0 24
0.1322 -5.5802 -2.9008 0.4540 0 24
0.3482 -5.4458 -2.8359 0.4632 0 1
0.5531 -5.2980 -2.7682 0.4747 0 1
0.7478 -5.1494 -2.7042 0.4860 0 1
0.9325 -5.0003 -2.6434 0.4971 0 1
1.1079 -4.8508 -2.5858 0.5082 0 1
1.2741 -4.6999 -2.5307 0.5195 0 1
1.4316 -4.5488 -2.4782 0.5305 0 1
1.5808 -4.3978 -2.4286 0.5413 0 1
1.7209 -4.2438 -2.3799 0.5329 0 1
1.8443 -4.0705 -2.3224 0.5616 0 24
1.9686 -3.9180 -2.2787 0.5735 0 24
2.0893 -3.7725 -2.2411 0.5892 0 1
2.2005 -3.6220 -2.2025 0.5996 0 1
2.3055 -3.4725 -2.1661 0.6096 0 1
2.4046 -3.3238 -2.1320 0.6194 0 1
2.4980 -3.1760 -2.0999 0.6289 0 1
2.5859 -3.0290 -2.0697 0.6380 0 1
2.6685 -2.8828 -2.0415 0.6469 0 1
2.7461 -2.7374 -2.0151 0.6553 0 1
2.8188 -2.5926 -1.9903 0.6597 0 1
2.8865 -2.4484 -1.9670 0.6675 0 1
2.9497 -2.3049 -1.9454 0.6749 0 1
3.0086 -2.1620 -1.9254 0.6819 0 1
3.0645 -2.0207 -1.9077 0.6929 0 1
3.1167 -1.8800 -1.8916 0.6988 0 1
3.1649 -1.7396 -1.8769 0.7043 0 1
3.2093 -1.5997 -1.8635 0.7093 0 1
3.2499 -1.4601 -1.8516 0.7139 0 1
3.2869 -1.3207 -1.8409 0.7181 0 1
3.3203 -1.1816 -1.8315 0.7217 0 1
3.3501 -1.0426 -1.8234 0.7250 0 1
3.3765 -0.9038 -1.8165 0.7277 0 1
3.3998 -0.7651 -1.8110 0.7220 0 1
3.4197 -0.6265 -1.8068 0.7237 0 1
3.4362 -0.4878 -1.8037 0.7249 0 1
3.4494 -0.3490 -1.8018 0.7257 0 1
3.4592 -0.2101 -1.8010 0.7260 0 1
3.4656 -0.0710 -1.8014 0.7259 0 1
3.4704 0.0683 -1.8039 0.7241 0 1
3.4693 0.2079 -1.8062 0.7124 0 1
3.4647 0.3477 -1.8096 0.7111 0 1
3.4566 0.4878 -1.8141 0.7093 0 1
3.4450 0.6282 -1.8198 0.7071 0 1
3.4299 0.7690 -1.8267 0.7044 0 1
3.4111 0.9101 -1.8347 0.7014 0 1
3.3888 1.0516 -1.8440 0.6979 0 1
3.3627 1.1936 -1.8544 0.6939 0 1
3.3330 1.3360 -1.8661 0.7014 0 1
3.3000 1.4793 -1.8794 0.6964 0 1
3.2632 1.6232 -1.8941 0.6910 0 1
3.2224 1.7678 -1.9101 0.6852 0 1
3.1776 1.9131 -1.9276 0.6790 0 1
3.1279 2.0587 -1.9460 0.6724 0 1
3.0729 2.2044 -1.9653 0.6593 0 1
3.0150 2.3519 -1.9872 0.6521 0 1
2.9524 2.5001 -2.0106 0.6445 0 1
2.8851 2.6493 -2.0356 0.6366 0 1
2.8128 2.7992 -2.0623 0.6283 0 1
2.7353 2.9501 -2.0907 0.6198 0 1
2.6525 3.1019 -2.1210 0.6109 0 1
2.5641 3.2545 -2.1532 0.6018 0 1
2.4698 3.4081 -2.1873 0.5924 0 1
2.3690 3.5617 -2.2230 0.5875 0 1
2.2602 3.7133 -2.2591 0.5782 0 1
2.1449 3.8655 -2.2974 0.5685 0 1
2.0103 3.9930 -2.3233 0.5605 0 24
1.8939 4.1709 -2.3805 0.5487 0 1
1.7479 4.3002 -2.4123 0.5398 0 24
1.6053 4.4545 -2.4607 0.5291 0 24
1.4614 4.6304 -2.5234 0.5182 0 1
1.3010 4.7835 -2.5762 0.5079 0 1
1.1317 4.9361 -2.6318 0.4972 0 1
0.9534 5.0889 -2.6906 0.4865 0 1
0.7656 5.2420 -2.7531 0.4755 0 1
0.5677 5.3945 -2.8189 0.4644 0 1
0.3592 5.5460 -2.8882 0.4533 0 1
0.1396 5.6963 -2.9612 0.4421 0 1
-0.0915 5.8384 -3.0345 0.4287 0 24
-0.3346 5.9846 -3.1150 0.4198 0 24
-0.5909 6.1346 -3.2028 0.4095 0 1
-0.8600 6.2755 -3.2918 0.3985 0 1
-1.1429 6.4129 -3.3852 0.3875 0 1
-1.4397 6.5440 -3.4822 0.3778 0 1
-1.7503 6.6675 -3.5824 0.3696 0 1
-2.0758 6.7850 -3.6874 0.3590 0 1
-2.4166 6.8959 -3.7974 0.3483 0 1
-2.7732 6.9991 -3.9124 0.3381 0 1
-3.1458 7.0936 -4.0327 0.3280 0 1
-3.5348 7.1781 -4.1581 0.3184 0 1
-3.9403 7.2511 -4.2887 0.3087 0 1
-4.3624 7.3117 -4.4247 0.2992 0 1
-4.8011 7.3583 -4.5660 0.2899 0 1
-5.2568 7.3902 -4.7131 0.2780 0 1
-5.7299 7.4064 -4.8664 0.2716 0 1
-6.2152 7.3994 -5.0219 0.2632 0 1
-6.7146 7.3713 -5.1818 0.2550 0 1
-13.1595 -3.8517 -7.3199 0.1749 0 1
-12.7442 -4.2929 -7.1790 0.1792 0 1
-12.2877 -4.6967 -7.0226 0.1878 0 1
-11.8160 -5.0692 -6.8639 0.1921 0 1
-11.3212 -5.4052 -6.6972 0.1962 0 1
-10.8071 -5.7036 -6.5235 0.2014 0 1
-10.2823 -5.9665 -6.3464 0.2071 0 1
-9.7598 -6.2003 -6.1727 0.2191 0 1
-9.2400 -6.4050 -6.0019 0.2253 0 1
-8.7200 -6.5784 -5.8312 0.2319 0 1
-8.2032 -6.7220 -5.6617 0.2388 0 1
-7.6656 -6.8140 -5.4753 0.2468 0 24
-7.1833 -6.9214 -5.3252 0.2511 0 1
-6.6868 -6.9822 -5.1611 0.2610 0 1
-6.2036 -7.0217 -5.0019 0.2693 0 1
-5.7140 -7.0164 -4.8306 0.2767 0 24
-5.2760 -7.0381 -4.6957 0.2848 0 1
-4.8328 -7.0175 -4.5487 0.2940 0 1
-4.4058 -6.9819 -4.4073 0.3060 0 1
-3.9955 -6.9341 -4.2723 0.3157 0 1
-3.6010 -6.8737 -4.1425 0.3256 0 1
-3.2216 -6.8008 -4.0173 0.3333 0 1
-2.8567 -6.7152 -3.8958 0.3437 0 1
-2.5079 -6.6215 -3.7799 0.3572 0 1
-2.1749 -6.5220 -3.6702 0.3679 0 1
-1.8567 -6.4156 -3.5655 0.3787 0 1
-1.5527 -6.3034 -3.4656 0.3896 0 1
-1.2627 -6.1859 -3.3704 0.4007 0 1
-0.9858 -6.0630 -3.2792 0.4107 0 1
-0.7217 -5.9349 -3.1916 0.4218 0 1
-0.4701 -5.8033 -3.1082 0.4316 0 1
-0.2306 -5.6689 -3.0288 0.4429 0 1
-0.0027 -5.5211 -2.9474 0.4564 0 24
0.2142 -5.3935 -2.8816 0.4656 0 1
0.4205 -5.2533 -2.8134 0.4768 0 1
0.6166 -5.1119 -2.7487 0.4883 0 1
0.8031 -4.9694 -2.6873 0.4994 0 1
0.9803 -4.8262 -2.6291 0.5105 0 1
1.1487 -4.6824 -2.5738 0.5214 0 1
1.3082 -4.5368 -2.5206 0.5326 0 1
1.4596 -4.3910 -2.4702 0.5435 0 1
1.6032 -4.2452 -2.4225 0.5542 0 1
1.7353 -4.0900 -2.3718 0.5461 0 1
1.8560 -3.9277 -2.3191 0.5752 0 24
1.9757 -3.7802 -2.2770 0.5861 0 24
2.0927 -3.6400 -2.2414 0.6017 0 1
2.2001 -3.4940 -2.2042 0.6118 0 1
2.3015 -3.3487 -2.1692 0.6217 0 1
2.3971 -3.2041 -2.1362 0.6313 0 1
2.4872 -3.0602 -2.1052 0.6406 0 1
2.5721 -2.9169 -2.0761 0.6496 0 1
2.6519 -2.7744 -2.0489 0.6582 0 1
2.7266 -2.6322 -2.0232 0.6627 0 1
2.7965 -2.4907 -1.9991 0.6707 0 1
2.8618 -2.3497 -1.9767 0.6783 0 1
2.9228 -2.2093 -1.9559 0.6855 0 1
2.9801 -2.0700 -1.9371 0.6969 0 1
3.0342 -1.9317 -1.9202 0.7030 0 1
3.0844 -1.7937 -1.9048 0.7087 0 1
3.1307 -1.6561 -1.8907 0.7140 0 1
3.1732 -1.5188 -1.8780 0.7188 0 1
3.2120 -1.3817 -1.8666 0.7232 0 1
3.2473 -1.2448 -1.8565 0.7271 0 1
3.2790 -1.1080 -1.8477 0.7306 0 1
3.3072 -0.9715 -1.8401 0.7336 0 1
3.3320 -0.8350 -1.8338 0.7362 0 1
3.3534 -0.6985 -1.8286 0.7382 0 1
3.3715 -0.5620 -1.8247 0.7398 0 1
3.3865 -0.4256 -1.8221 0.7329 0 1
3.3981 -0.2890 -1.8206 0.7335 0 1
3.4065 -0.1522 -1.8203 0.7336 0 1
3.4118 -0.0153 -1.8214 0.7324 0 1
3.4133 0.1219 -1.8233 0.7208 0 1
3.4107 0.2592 -1.8260 0.7197 0 1
3.4047 0.3969 -1.8299 0.7182 0 1
3.3952 0.5347 -1.8348 0.7162 0 1
3.3822 0.6729 -1.8409 0.7139 0 1
3.3657 0.8114 -1.8482 0.7110 0 1
3.3456 0.9502 -1.8567 0.7078 0 1
3.3223 1.0896 -1.8665 0.7161 0 1
3.2954 1.2294 -1.8777 0.7118 0 1
3.2649 1.3698 -1.8901 0.7072 0 1
3.2306 1.5108 -1.9039 0.7020 0 1
3.1924 1.6523 -1.9190 0.6965 0 1
3.1503 1.7945 -1.9355 0.6906 0 1
3.1041 1.9373 -1.9534 0.6843 0 1
3.0521 2.0797 -1.9716 0.6778 0 1
2.9960 2.2228 -1.9915 0.6645 0 1
2.9367 2.3674 -2.0137 0.6572 0 1
2.8728 2.5128 -2.0375 0.6495 0 1
2.8042 2.6590 -2.0630 0.6415 0 1
2.7305 2.8058 -2.0901 0.6332 0 1
2.6517 2.9534 -2.1189 0.6245 0 1
2.5676 3.1018 -2.1496 0.6156 0 1
2.4779 3.2509 -2.1821 0.6064 0 1
2.3824 3.4007 -2.2166 0.5970 0 1
2.2797 3.5495 -2.2520 0.5923 0 1
2.1699 3.6970 -2.2885 0.5829 0 1
2.0537 3.8449 -2.3270 0.5732 0 1
1.9193 3.9691 -2.3536 0.5650 0 24
1.7909 4.1178 -2.3972 0.5547 0 24
1.6639 4.2892 -2.4560 0.5431 0 1
1.5119 4.4158 -2.4917 0.5337 0 24
1.3667 4.5849 -2.5541 0.5228 0 1
1.2060 4.7321 -2.6070 0.5126 0 1
1.0366 4.8786 -2.6625 0.5019 0 1
0.8585 5.0256 -2.7218 0.4912 0 1
0.6710 5.1719 -2.7841 0.4802 0 1
0.4736 5.3171 -2.8497 0.4692 0 1
0.2659 5.4609 -2.9187 0.4581 0 1
0.0476 5.6031 -2.9913 0.4470 0 1
-0.1820 5.7428 -3.0673 0.4367 0 1
-0.4233 5.8799 -3.1471 0.4256 0 1
-0.6753 6.0028 -3.2248 0.4164 0 24
-0.9426 6.1446 -3.3186 0.4036 0 1
-1.2216 6.2712 -3.4108 0.3939 0 1
-1.5135 6.3903 -3.5058 0.3833 0 1
-1.8187 6.5023 -3.6044 0.3751 0 1
-2.1377 6.6074 -3.7073 0.3647 0 1
-2.4710 6.7052 -3.8149 0.3544 0 1
-2.8189 6.7947 -3.9271 0.3443 0 1
-3.1816 6.8749 -4.0441 0.3340 0 1
-3.5591 6.9446 -4.1658 0.3245 0 1
-3.9515 7.0022 -4.2922 0.3150 0 1
-4.3589 7.0469 -4.4234 0.3056 0 1
-4.7809 7.0771 -4.5594 0.2965 0 1
-5.2173 7.0914 -4.6999 0.2877 0 1
-5.6686 7.0897 -4.8459 0.2761 0 1
-6.1304 7.0656 -4.9938 0.2703 0 1
-6.6037 7.0204 -5.1453 0.2623 0 1
-7.0873 6.9526 -5.3001 0.2547 0 1
-7.5795 6.8602 -5.4575 0.2473 0 1
-8.0845 6.7469 -5.6214 0.2369 0 1
-8.6074 6.6154 -5.7954 0.2298 0 1
-9.1350 6.4543 -5.9711 0.2230 0 1
-9.6641 6.2618 -6.1474 0.2172 0 1
-10.1871 6.0340 -6.3207 0.2071 0 1
-10.7130 5.7774 -6.4977 0.2014 0 1
-11.2283 5.4851 -6.6712 0.1967 0 1
-11.7253 5.1553 -6.8378 0.1919 0 1
-12.2014 4.7895 -6.9975 0.1875 0 1
-12.6088 4.3736 -7.1246 0.1812 0 24
-13.0779 3.9555 -7.2939 0.1776 0 1
-13.4107 3.4749 -7.3956 0.1751 0 24
-13.7993 2.9898 -7.5376 0.1731 0 1
-14.0851 2.4641 -7.6334 0.1709 0 1
-14.3161 1.9155 -7.7107 0.1690 0 1
-14.4880 1.3489 -7.7678 0.1678 0 1
-14.5998 0.7696 -7.8048 0.1658 0 1
-14.6493 0.1830 -7.8210 0.1654 0 1
-14.6363 -0.4053 -7.8165 0.1660 0 1
-14.5607 -0.9896 -7.7911 0.1666 0 1
-14.4233 -1.5643 -7.7450 0.1677 0 1
-14.2256 -2.1239 -7.6784 0.1693 0 1
-13.9707 -2.6634 -7.5925 0.1686 0 1
-13.6654 -3.1788 -7.4900 0.1709 0 1
-13.2662 -3.6534 -7.3457 0.1743 0 24
-12.9151 -4.1214 -7.2372 0.1778 0 1
-12.4735 -4.5401 -7.0862 0.1806 0 1
-12.0069 -4.9250 -6.9281 0.1903 0 1
-11.4681 -5.2515 -6.7335 0.1901 0 24
-10.9511 -5.5573 -6.5558 0.1993 0 24
-10.4925 -5.8659 -6.4173 0.2048 0 1
-9.9663 -6.1097 -6.2406 0.2167 0 1
-9.4474 -6.3272 -6.0700 0.2228 0 1
-8.9271 -6.5129 -5.8992 0.2292 0 1
-8.4087 -6.6682 -5.7291 0.2360 0 1
-7.8950 -6.7948 -5.5607 0.2432 0 1
-7.3844 -6.8906 -5.3918 0.2480 0 1
-6.8832 -6.9606 -5.2259 0.2559 0 1
-6.3947 -7.0085 -5.0648 0.2660 0 1
-5.9193 -7.0354 -4.9083 0.2744 0 1
-5.4570 -7.0416 -4.7558 0.2812 0 1
-5.0076 -7.0276 -4.6067 0.2903 0 1
-4.5739 -6.9975 -4.4628 0.2997 0 1
-4.1571 -6.9547 -4.3254 0.3118 0 1
-3.7564 -6.8992 -4.1936 0.3216 0 1
-3.3714 -6.8320 -4.0671 0.3316 0 1
-3.0003 -6.7504 -3.9436 0.3395 0 1
-2.6449 -6.6595 -3.8252 0.3501 0 1
-2.3058 -6.5625 -3.7133 0.3637 0 1
-1.9751 -6.4372 -3.5946 0.3734 0 24
-1.6722 -6.3488 -3.5048 0.3853 0 1
-1.3766 -6.2333 -3.4078 0.3963 0 1
-1.0946 -6.1130 -3.3153 0.4062 0 1
-0.8254 -5.9864 -3.2260 0.4173 0 1
-0.5689 -5.8562 -3.1410 0.4271 0 1
-0.3246 -5.7227 -3.0600 0.4384 0 1
-0.0920 -5.5758 -2.9770 0.4520 0 24
0.1291 -5.4490 -2.9097 0.4611 0 1
0.3395 -5.3093 -2.8401 0.4723 0 1
0.5396 -5.1684 -2.7741 0.4838 0 1
0.7299 -5.0263 -2.7114 0.4950 0 1
0.9107 -4.8834 -2.6519 0.5061 0 1
1.0826 -4.7398 -2.5955 0.5171 0 1
1.2456 -4.5948 -2.5415 0.5283 0 1
1.4002 -4.4491 -2.4900 0.5392 0 1
1.5468 -4.3033 -2.4412 0.5500 0 1
1.6836 -4.1519 -2.3918 0.5415 0 1
1.8063 -3.9865 -2.3365 0.5709 0 24
1.9288 -3.8389 -2.2935 0.5819 0 24
2.0482 -3.6984 -2.2569 0.5975 0 1
2.1580 -3.5521 -2.2188 0.6078 0 1
2.2618 -3.4065 -2.1829 0.6178 0 1
2.3596 -3.2616 -2.1491 0.6275 0 1
2.4519 -3.1175 -2.1173 0.6369 0 1
2.5389 -2.9740 -2.0875 0.6461 0 1
2.6207 -2.8311 -2.0595 0.6548 0 1
2.6974 -2.6889 -2.0332 0.6595 0 1
2.7692 -2.5470 -2.0085 0.6676 0 1
2.8363 -2.4058 -1.9855 0.6753 0 1
2.8990 -2.2652 -1.9640 0.6827 0 1
2.9574 -2.1253 -1.9442 0.6944 0 1
3.0132 -1.9868 -1.9268 0.7006 0 1
3.0649 -1.8487 -1.9108 0.7065 0 1
3.1127 -1.7109 -1.8962 0.7119 0 1
3.1567 -1.5735 -1.8829 0.7170 0 1
3.1970 -1.4363 -1.8710 0.7215 0 1
3.2337 -1.2993 -1.8604 0.7256 0 1
3.2668 -1.1625 -1.8511 0.7293 0 1
3.2964 -1.0259 -1.8430 0.7325 0 1
3.3225 -0.8893 -1.8361 0.7352 0 1
3.3453 -0.7529 -1.8305 0.7375 0 1
3.3647 -0.6164 -1.8261 0.7393 0 1
3.3809 -0.4800 -1.8230 0.7325 0 1
3.3939 -0.3434 -1.8211 0.7333 0 1
3.4035 -0.2068 -1.8203 0.7336 0 1
3.4099 -0.0699 -1.8207 0.7334 0 1
3.4133 0.0672 -1.8225 0.7211 0 1
3.4121 0.2045 -1.8248 0.7202 0 1
3.4075 0.3420 -1.8282 0.7188 0 1
3.3994 0.4797 -1.8327 0.7171 0 1
3.3878 0.6178 -1.8384 0.7149 0 1
3.3727 0.7561 -1.8452 0.7122 0 1
3.3540 0.8948 -1.8532 0.7091 0 1
3.3320 1.0340 -1.8624 0.7177 0 1
3.3066 1.1736 -1.8731 0.7136 0 1
3.2775 1.3138 -1.8850 0.7091 0 1
3.2447 1.4545 -1.8982 0.7041 0 1
3.2081 1.5958 -1.9128 0.6988 0 1
3.1676 1.7377 -1.9287 0.6930 0 1
3.1230 1.8803 -1.9461 0.6868 0 1
3.0734 2.0229 -1.9642 0.6803 0 1
3.0185 2.1654 -1.9832 0.6738 0 1
2.9609 2.3097 -2.0047 0.6601 0 1
2.8989 2.4548 -2.0279 0.6526 0 1
2.8321 2.6006 -2.0526 0.6447 0 1
2.7605 2.7472 -2.0791 0.6365 0 1
2.6838 2.8945 -2.1072 0.6280 0 1
2.6018 3.0426 -2.1371 0.6192 0 1
2.5143 3.1914 -2.1689 0.6101 0 1
2.4212 3.3409 -2.2026 0.6008 0 1
2.3218 3.4907 -2.2381 0.5960 0 1
2.2144 3.6382 -2.2737 0.5867 0 1
2.1008 3.7859 -2.3114 0.5771 0 1
1.9685 3.9099 -2.3369 0.5690 0 24
1.8429 4.0585 -2.3795 0.5588 0 24
1.7194 4.2302 -2.4377 0.5472 0 1
1.5778 4.3783 -2.4845 0.5369 0 1
1.4220 4.5054 -2.5221 0.5273 0 24
1.2711 4.6736 -2.5856 0.5164 0 1
1.1051 4.8203 -2.6400 0.5062 0 1
0.9306 4.9671 -2.6978 0.4956 0 1
0.7469 5.1137 -2.7589 0.4846 0 1
0.5535 5.2594 -2.8232 0.4736 0 1
0.3500 5.4038 -2.8908 0.4625 0 1
0.1359 5.5466 -2.9619 0.4514 0 1
-0.0890 5.6804 -3.0328 0.4381 0 24
-0.3257 5.8256 -3.1148 0.4300 0 1
-0.5732 5.9515 -3.1919 0.4200 0 24
-0.8350 6.0930 -3.2831 0.4080 0 1
-1.1088 6.2213 -3.3735 0.3971 0 1
-1.3955 6.3435 -3.4674 0.3875 0 1
-1.6954 6.4585 -3.5647 0.3793 0 1
-2.0089 6.5664 -3.6658 0.3688 0 1
-2.3365 6.6672 -3.7715 0.3585 0 1
-2.6785 6.7601 -3.8818 0.3483 0 1
-3.0352 6.8441 -3.9969 0.3380 0 1
-3.4069 6.9182 -4.1168 0.3282 0 1
-3.7933 6.9807 -4.2413 0.3188 0 1
-4.1947 7.0307 -4.3706 0.3093 0 1
-4.6110 7.0669 -4.5046 0.3001 0 1
-5.0417 7.0877 -4.6433 0.2912 0 1
-5.4868 7.0921 -4.7869 0.2795 0 1
-5.9449 7.0777 -4.9344 0.2735 0 1
-6.4138 7.0411 -5.0845 0.2655 0 1
-12.2758 -3.5931 -7.0115 0.1868 0 24
-11.9530 -4.0264 -6.9140 0.1947 0 1
-11.4960 -4.3940 -6.7464 0.1931 0 24
-11.1219 -4.7714 -6.6341 0.2029 0 1
-10.6695 -5.0941 -6.4811 0.2070 0 1
-10.2003 -5.3833 -6.3224 0.2122 0 1
-9.6962 -5.6264 -6.1452 0.2243 0 24
-9.2527 -5.8781 -6.0090 0.2299 0 1
-8.7722 -6.0807 -5.8510 0.2359 0 1
-8.2906 -6.2544 -5.6928 0.2424 0 1
-7.8102 -6.4000 -5.5351 0.2466 0 1
-7.3296 -6.5154 -5.3757 0.2539 0 1
-6.8568 -6.6068 -5.2196 0.2634 0 1
-6.3928 -6.6752 -5.0665 0.2714 0 1
-5.9389 -6.7221 -4.9169 0.2796 0 1
-5.4956 -6.7483 -4.7707 0.2862 0 1
-5.0628 -6.7537 -4.6269 0.2950 0 1
-4.6439 -6.7430 -4.4881 0.3067 0 1
-4.2395 -6.7185 -4.3548 0.3161 0 1
-3.8376 -6.6600 -4.2135 0.3252 0 24
-3.4730 -6.6294 -4.1025 0.3356 0 1
-3.1098 -6.5648 -3.9820 0.3432 0 1
-2.7605 -6.4890 -3.8656 0.3566 0 1
-2.4264 -6.4065 -3.7553 0.3670 0 1
-2.1063 -6.3161 -3.6497 0.3776 0 1
-1.7997 -6.2188 -3.5488 0.3884 0 1
-1.5064 -6.1152 -3.4524 0.3992 0 1
-1.2260 -6.0062 -3.3603 0.4102 0 1
-0.9578 -5.8911 -3.2717 0.4185 0 1
-0.7017 -5.7706 -3.1866 0.4297 0 1
-0.4574 -5.6466 -3.1054 0.4409 0 1
-0.2241 -5.5088 -3.0223 0.4551 0 24
-0.0026 -5.3900 -2.9547 0.4634 0 1
0.2088 -5.2583 -2.8847 0.4747 0 1
0.4102 -5.1246 -2.8181 0.4861 0 1
0.6018 -4.9895 -2.7549 0.4972 0 1
0.7843 -4.8531 -2.6948 0.5083 0 1
0.9578 -4.7156 -2.6377 0.5193 0 1
1.1229 -4.5772 -2.5835 0.5302 0 1
1.2795 -4.4372 -2.5314 0.5413 0 1
1.4282 -4.2965 -2.4819 0.5521 0 1
1.5685 -4.1533 -2.4336 0.5432 0 1
1.6984 -4.0030 -2.3836 0.5546 0 1
1.8184 -3.8481 -2.3330 0.5838 0 24
1.9365 -3.7051 -2.2917 0.5953 0 24
2.0522 -3.5695 -2.2570 0.6099 0 1
2.1582 -3.4275 -2.2203 0.6200 0 1
2.2583 -3.2859 -2.1856 0.6298 0 1
2.3528 -3.1449 -2.1530 0.6394 0 1
2.4420 -3.0045 -2.1223 0.6486 0 1
2.5259 -2.8646 -2.0935 0.6575 0 1
2.6047 -2.7250 -2.0664 0.6623 0 1
2.6785 -2.5859 -2.0409 0.6706 0 1
2.7478 -2.4473 -2.0170 0.6785 0 1
2.8125 -2.3092 -1.9948 0.6861 0 1
2.8729 -2.1717 -1.9742 0.6933 0 1
2.9301 -2.0353 -1.9557 0.7046 0 1
2.9838 -1.8996 -1.9389 0.7107 0 1
3.0335 -1.7641 -1.9236 0.7163 0 1
3.0794 -1.6290 -1.9097 0.7215 0 1
3.1216 -1.4940 -1.8970 0.7264 0 1
3.1601 -1.3593 -1.8857 0.7307 0 1
3.1950 -1.2247 -1.8757 0.7346 0 1
3.2265 -1.0903 -1.8669 0.7381 0 1
3.2544 -0.9560 -1.8594 0.7411 0 1
3.2790 -0.8217 -1.8530 0.7436 0 1
3.3003 -0.6874 -1.8479 0.7457 0 1
3.3182 -0.5531 -1.8440 0.7472 0 1
3.3328 -0.4188 -1.8413 0.7483 0 1
3.3441 -0.2844 -1.8397 0.7490 0 1
3.3521 -0.1498 -1.8394 0.7491 0 1
3.3567 -0.0151 -1.8401 0.7414 0 1
3.3574 0.1199 -1.8416 0.7408 0 1
3.3548 0.2550 -1.8443 0.7397 0 1
3.3488 0.3903 -1.8481 0.7382 0 1
3.3395 0.5259 -1.8532 0.7362 0 1
3.3267 0.6619 -1.8594 0.7337 0 1
3.3106 0.7981 -1.8668 0.7308 0 1
3.2910 0.9347 -1.8754 0.7275 0 1
3.2678 1.0717 -1.8852 0.7237 0 1
3.2411 1.2092 -1.8963 0.7195 0 1
3.2107 1.3471 -1.9086 0.7148 0 1
3.1766 1.4855 -1.9223 0.7097 0 1
3.1386 1.6245 -1.9373 0.7042 0 1
3.0968 1.7640 -1.9536 0.6983 0 1
3.0509 1.9041 -1.9714 0.6920 0 1
2.9991 2.0436 -1.9894 0.6856 0 1
2.9430 2.1834 -2.0088 0.6724 0 1
2.8842 2.3251 -2.0308 0.6651 0 1
2.8208 2.4673 -2.0543 0.6575 0 1
2.7528 2.6102 -2.0795 0.6495 0 1
2.6798 2.7537 -2.1063 0.6413 0 1
2.6018 2.8979 -2.1349 0.6327 0 1
2.5186 3.0426 -2.1652 0.6238 0 1
2.4299 3.1880 -2.1973 0.6147 0 1
2.3356 3.3339 -2.2314 0.6053 0 1
2.2344 3.4789 -2.2665 0.6007 0 1
2.1261 3.6224 -2.3024 0.5913 0 1
1.9991 3.7427 -2.3259 0.5835 0 24
1.8905 3.9095 -2.3805 0.5719 0 1
1.7530 4.0307 -2.4094 0.5633 0 24
1.6279 4.1964 -2.4673 0.5518 0 1
1.4858 4.3394 -2.5143 0.5415 0 1
1.3303 4.4625 -2.5526 0.5318 0 24
1.1783 4.6237 -2.6156 0.5215 0 1
1.0124 4.7647 -2.6702 0.5111 0 1
0.8380 4.9058 -2.7282 0.5002 0 1
0.6546 5.0458 -2.7891 0.4893 0 1
0.4618 5.1845 -2.8532 0.4783 0 1
0.2592 5.3215 -2.9205 0.4673 0 1
0.0463 5.4566 -2.9912 0.4562 0 1
-0.1772 5.5892 -3.0654 0.4460 0 1
-0.4117 5.7186 -3.1429 0.4350 0 1
-0.6576 5.8448 -3.2241 0.4241 0 1
-0.9130 5.9520 -3.3008 0.4155 0 24
-1.1854 6.0853 -3.3985 0.4023 0 1
-1.4675 6.1960 -3.4904 0.3929 0 1
-1.7622 6.3003 -3.5862 0.3848 0 1
-2.0695 6.3965 -3.6853 0.3745 0 1
-2.3899 6.4851 -3.7887 0.3643 0 1
-2.7237 6.5654 -3.8963 0.3542 0 1
-3.0711 6.6362 -4.0084 0.3443 0 1
-3.4320 6.6965 -4.1248 0.3346 0 1
-3.8063 6.7449 -4.2455 0.3264 0 1
-4.1939 6.7802 -4.3702 0.3171 0 1
-4.5946 6.8013 -4.4992 0.3080 0 1
-5.0079 6.8068 -4.6323 0.2991 0 1
-5.4334 6.7954 -4.7694 0.2905 0 1
-5.8699 6.7653 -4.9099 0.2858 0 1
-6.3158 6.7143 -5.0530 0.2777 0 1
-6.7706 6.6419 -5.1991 0.2699 0 1
-7.2329 6.5465 -5.3477 0.2624 0 1
-7.7009 6.4267 -5.4983 0.2552 0 1
-8.1804 6.2871 -5.6556 0.2403 0 1
-8.6687 6.1248 -5.8183 0.2336 0 1
-9.1131 5.9048 -5.9525 0.2277 0 24
-9.5964 5.6842 -6.1140 0.2219 0 24
-10.1119 5.4532 -6.2977 0.2164 0 1
-10.5824 5.1695 -6.4561 0.2069 0 1
-11.0358 4.8521 -6.6084 0.2026 0 1
-11.4682 4.5017 -6.7535 0.1983 0 1
-11.8787 4.1204 -6.8921 0.1950 0 1
-12.2539 3.7063 -7.0177 0.1928 0 1
-12.5985 3.2644 -7.1342 0.1854 0 1
-12.9055 2.7961 -7.2385 0.1827 0 1
-13.1621 2.3026 -7.3246 0.1818 0 1
-13.3682 1.7887 -7.3933 0.1799 0 1
-13.5222 1.2590 -7.4445 0.1787 0 1
-13.6220 0.7181 -7.4775 0.1779 0 1
-13.6660 0.1707 -7.4918 0.1776 0 1
-13.6531 -0.3781 -7.4871 0.1777 0 1
-13.5842 -0.9232 -7.4636 0.1776 0 1
-13.4123 -1.4546 -7.3953 0.1792 0 24
-13.2852 -1.9835 -7.3632 0.1800 0 1
-13.0551 -2.4888 -7.2853 0.1821 0 1
-12.7783 -2.9725 -7.1917 0.1844 0 1
-12.4590 -3.4311 -7.0839 0.1873 0 1
-12.1037 -3.8625 -6.9645 0.1926 0 1
-11.7141 -4.2637 -6.8334 0.1970 0 1
-11.2954 -4.6331 -6.6924 0.2011 0 1
-10.8524 -4.9696 -6.5430 0.2050 0 1
-10.3889 -5.2720 -6.3862 0.2100 0 1
-9.9164 -5.5439 -6.2277 0.2219 0 1
-9.4432 -5.7890 -6.0717 0.2276 0 1
-8.9640 -6.0035 -5.9140 0.2336 0 1
-8.4825 -6.1886 -5.7558 0.2398 0 1
-8.0014 -6.3453 -5.5979 0.2466 0 1
-7.5204 -6.4725 -5.4390 0.2509 0 1
-7.0443 -6.5732 -5.2815 0.2603 0 1
-6.5766 -6.6506 -5.1272 0.2682 0 1
-6.1185 -6.7059 -4.9761 0.2763 0 1
-5.6712 -6.7405 -4.8288 0.2847 0 1
-5.2338 -6.7537 -4.6837 0.2915 0 1
-4.8090 -6.7489 -4.5426 0.3005 0 1
-4.3990 -6.7300 -4.4074 0.3123 0 1
-4.0031 -6.6970 -4.2769 0.3219 0 1
-3.6213 -6.6510 -4.1513 0.3316 0 1
-3.2532 -6.5924 -4.0298 0.3392 0 1
-2.8980 -6.5203 -3.9114 0.3494 0 1
-2.5579 -6.4404 -3.7987 0.3628 0 1
-2.2322 -6.3530 -3.6913 0.3734 0 1
-1.9137 -6.2370 -3.5762 0.3832 0 24
-1.6217 -6.1572 -3.4903 0.3949 0 1
-1.3362 -6.0502 -3.3965 0.4058 0 1
-1.0633 -5.9380 -3.3068 0.4156 0 1
-0.8023 -5.8191 -3.2200 0.4252 0 1
-0.5534 -5.6964 -3.1373 0.4365 0 1
-0.3154 -5.5590 -3.0522 0.4506 0 24
-0.0896 -5.4320 -2.9780 0.4613 0 24
0.1258 -5.3110 -2.9122 0.4702 0 1
0.3311 -5.1781 -2.8443 0.4814 0 1
0.5266 -5.0435 -2.7797 0.4928 0 1
0.7126 -4.9076 -2.7184 0.5039 0 1
0.8897 -4.7705 -2.6601 0.5150 0 1
1.0581 -4.6325 -2.6048 0.5259 0 1
1.2180 -4.4931 -2.5519 0.5370 0 1
1.3698 -4.3526 -2.5013 0.5479 0 1
1.5139 -4.2118 -2.4534 0.5586 0 1
1.6475 -4.0628 -2.4032 0.5501 0 1
1.7694 -3.9052 -2.3502 0.5796 0 24
1.8937 -3.7691 -2.3122 0.5953 0 1
2.0044 -3.6192 -2.2679 0.6016 0 24
2.1167 -3.4840 -2.2347 0.6160 0 1
2.2191 -3.3423 -2.1992 0.6259 0 1
2.3158 -3.2011 -2.1658 0.6356 0 1
2.4071 -3.0604 -2.1343 0.6449 0 1
2.4931 -2.9203 -2.1048 0.6540 0 1
2.5739 -2.7806 -2.0770 0.6589 0 1
2.6497 -2.6412 -2.0508 0.6673 0 1
2.7207 -2.5025 -2.0263 0.6754 0 1
2.7872 -2.3642 -2.0035 0.6831 0 1
2.8494 -2.2264 -1.9822 0.6904 0 1
2.9076 -2.0895 -1.9627 0.7020 0 1
2.9629 -1.9536 -1.9454 0.7083 0 1
3.0141 -1.8181 -1.9296 0.7141 0 1
3.0615 -1.6828 -1.9151 0.7195 0 1
3.1052 -1.5478 -1.9019 0.7245 0 1
3.1452 -1.4130 -1.8901 0.7290 0 1
3.1815 -1.2784 -1.8795 0.7331 0 1
3.2143 -1.1439 -1.8702 0.7368 0 1
3.2437 -1.0095 -1.8622 0.7399 0 1
3.2696 -0.8752 -1.8554 0.7426 0 1
3.2922 -0.7409 -1.8498 0.7449 0 1
3.3114 -0.6067 -1.8454 0.7467 0 1
3.3273 -0.4724 -1.8422 0.7480 0 1
3.3400 -0.3380 -1.8402 0.7488 0 1
3.3493 -0.2035 -1.8394 0.7491 0 1
3.3554 -0.0688 -1.8397 0.7490 0 1
3.3575 0.0661 -1.8408 0.7411 0 1
3.3562 0.2011 -1.8431 0.7402 0 1
3.3516 0.3364 -1.8465 0.7389 0 1
3.3436 0.4719 -1.8510 0.7370 0 1
3.3322 0.6076 -1.8567 0.7348 0 1
3.3174 0.7438 -1.8637 0.7320 0 1
3.2992 0.8802 -1.8718 0.7289 0 1
3.2775 1.0171 -1.8811 0.7252 0 1
3.2522 1.1543 -1.8917 0.7212 0 1
3.2232 1.2921 -1.9035 0.7167 0 1
3.1906 1.4303 -1.9167 0.7118 0 1
3.1542 1.5690 -1.9311 0.7065 0 1
3.1139 1.7083 -1.9469 0.7007 0 1
3.0697 1.8482 -1.9641 0.6946 0 1
3.0203 1.9879 -1.9821 0.6882 0 1
2.9658 2.1276 -2.0009 0.6817 0 1
2.9082 2.2685 -2.0218 0.6681 0 1
2.8466 2.4106 -2.0448 0.6606 0 1
2.7805 2.5532 -2.0693 0.6528 0 1
2.7095 2.6965 -2.0954 0.6446 0 1
2.6335 2.8404 -2.1233 0.6362 0 1
2.5524 2.9849 -2.1529 0.6274 0 1
2.4659 3.1300 -2.1843 0.6184 0 1
2.3739 3.2757 -2.2176 0.6091 0 1
2.2759 3.4217 -2.2527 0.6044 0 1
2.1700 3.5652 -2.2879 0.5951 0 1
2.0579 3.7087 -2.3250 0.5856 0 1
1.9279 3.8292 -2.3501 0.5775 0 24
1.8042 3.9733 -2.3921 0.5674 0 24
1.6825 4.1393 -2.4493 0.5559 0 1
1.5433 4.2824 -2.4953 0.5456 0 1
1.3967 4.4252 -2.5437 0.5352 0 1
1.2422 4.5673 -2.5946 0.5253 0 1
1.0795 4.7085 -2.6480 0.5151 0 1
0.9086 4.8497 -2.7047 0.5045 0 1
0.7288 4.9902 -2.7645 0.4936 0 1
0.5398 5.1294 -2.8273 0.4827 0 1
0.3411 5.2671 -2.8933 0.4716 0 1
0.1324 5.4030 -2.9626 0.4606 0 1
-0.0867 5.5290 -3.0312 0.4472 0 24
-0.3168 5.6674 -3.1115 0.4394 0 1
-0.5582 5.7949 -3.1913 0.4284 0 1
-0.8093 5.9055 -3.2675 0.4185 0 24
-1.0730 6.0207 -3.3523 0.4091 0 24
-1.3535 6.1526 -3.4533 0.3971 0 1
-1.6432 6.2597 -3.5476 0.3866 0 1
-1.9454 6.3590 -3.6453 0.3786 0 1
-2.2606 6.4508 -3.7470 0.3683 0 1
-2.5891 6.5345 -3.8529 0.3582 0 1
-2.9310 6.6091 -3.9632 0.3482 0 1
-3.2865 6.6737 -4.0779 0.3384 0 1
-3.6556 6.7272 -4.1969 0.3302 0 1
-4.0378 6.7677 -4.3200 0.3207 0 1
-4.4333 6.7946 -4.4473 0.3116 0 1
-4.8417 6.8066 -4.5788 0.3026 0 1
-5.2624 6.8021 -4.7143 0.2939 0 1
-5.6948 6.7799 -4.8536 0.2840 0 1
-6.1369 6.7371 -4.9956 0.2809 0 1
-11.5873 -3.3915 -6.7933 0.2014 0 1
-11.2534 -3.7908 -6.6815 0.2048 0 1
-10.8888 -4.1620 -6.5591 0.2094 0 1
-10.4970 -4.5033 -6.4269 0.2129 0 1
-10.0821 -4.8136 -6.2863 0.2177 0 1
-9.6624 -5.0995 -6.1474 0.2293 0 1
-9.2309 -5.3564 -6.0050 0.2347 0 1
-8.7604 -5.5653 -5.8398 0.2404 0 24
-8.3450 -5.7846 -5.7133 0.2467 0 1
-7.8970 -5.9574 -5.5660 0.2542 0 1
-7.4467 -6.1021 -5.4171 0.2589 0 1
-6.9989 -6.2214 -5.2690 0.2662 0 1
-6.5562 -6.3172 -5.1228 0.2738 0 1
-6.1204 -6.3908 -4.9789 0.2817 0 1
-5.6929 -6.4437 -4.8380 0.2899 0 1
-5.2733 -6.4753 -4.6988 0.2964 0 1
-4.8645 -6.4892 -4.5633 0.3078 0 1
-4.4680 -6.4877 -4.4323 0.3168 0 1
-4.0836 -6.4713 -4.3055 0.3262 0 1
-3.7116 -6.4414 -4.1830 0.3357 0 1
-3.3524 -6.3991 -4.0648 0.3455 0 1
-3.0043 -6.3421 -3.9486 0.3531 0 1
-2.6702 -6.2767 -3.8380 0.3664 0 1
-2.3492 -6.2027 -3.7320 0.3768 0 1
-2.0411 -6.1206 -3.6303 0.3873 0 1
-1.7455 -6.0314 -3.5330 0.3980 0 1
-1.4622 -5.9358 -3.4398 0.4088 0 1
-1.1909 -5.8341 -3.3504 0.4174 0 1
-0.9310 -5.7263 -3.2643 0.4279 0 1
-0.6807 -5.5983 -3.1732 0.4420 0 24
-0.4443 -5.4845 -3.0961 0.4537 0 24
-0.2187 -5.3764 -3.0276 0.4614 0 1
-0.0025 -5.2535 -2.9560 0.4726 0 1
0.2037 -5.1281 -2.8877 0.4837 0 1
0.4002 -5.0007 -2.8227 0.4951 0 1
0.5876 -4.8715 -2.7609 0.5062 0 1
0.7661 -4.7407 -2.7020 0.5172 0 1
0.9361 -4.6087 -2.6461 0.5281 0 1
1.0979 -4.4755 -2.5929 0.5389 0 1
1.2517 -4.3407 -2.5419 0.5500 0 1
1.3977 -4.2049 -2.4932 0.5607 0 1
1.5347 -4.0639 -2.4443 0.5518 0 1
1.6626 -3.9186 -2.3951 0.5631 0 1
1.7818 -3.7708 -2.3466 0.5922 0 24
1.9022 -3.6396 -2.3107 0.6077 0 1
2.0085 -3.4935 -2.2674 0.6150 0 24
2.1174 -3.3627 -2.2359 0.6281 0 1
2.2163 -3.2247 -2.2017 0.6378 0 1
2.3097 -3.0872 -2.1694 0.6473 0 1
2.3978 -2.9501 -2.1391 0.6565 0 1
2.4806 -2.8132 -2.1104 0.6616 0 1
2.5585 -2.6766 -2.0834 0.6701 0 1
2.6316 -2.5405 -2.0581 0.6784 0 1
2.7002 -2.4049 -2.0345 0.6862 0 1
2.7643 -2.2696 -2.0125 0.6938 0 1
2.8242 -2.1348 -1.9920 0.7009 0 1
2.8812 -2.0013 -1.9739 0.7121 0 1
2.9344 -1.8681 -1.9573 0.7182 0 1
2.9837 -1.7352 -1.9421 0.7238 0 1
3.0292 -1.6024 -1.9282 0.7290 0 1
3.0710 -1.4698 -1.9157 0.7338 0 1
3.1092 -1.3374 -1.9044 0.7381 0 1
3.1438 -1.2051 -1.8944 0.7420 0 1
3.1750 -1.0729 -1.8857 0.7454 0 1
3.2027 -0.9408 -1.8782 0.7484 0 1
3.2271 -0.8087 -1.8719 0.7509 0 1
3.2481 -0.6766 -1.8669 0.7530 0 1
3.2659 -0.5444 -1.8630 0.7545 0 1
3.2803 -0.4122 -1.8602 0.7556 0 1
3.2915 -0.2799 -1.8587 0.7563 0 1
3.2994 -0.1474 -1.8583 0.7564 0 1
3.3032 -0.0148 -1.8586 0.7488 0 1
3.3038 0.1180 -1.8601 0.7482 0 1
3.3012 0.2509 -1.8628 0.7471 0 1
3.2952 0.3841 -1.8666 0.7456 0 1
3.2858 0.5175 -1.8716 0.7436 0 1
3.2732 0.6512 -1.8778 0.7412 0 1
3.2571 0.7852 -1.8851 0.7383 0 1
3.2375 0.9195 -1.8937 0.7349 0 1
3.2145 1.0542 -1.9035 0.7312 0 1
3.1878 1.1893 -1.9145 0.7270 0 1
3.1576 1.3248 -1.9267 0.7223 0 1
3.1237 1.4608 -1.9403 0.7173 0 1
3.0860 1.5972 -1.9552 0.7118 0 1
3.0444 1.7341 -1.9714 0.7060 0 1
2.9988 1.8716 -1.9890 0.6996 0 1
2.9473 2.0083 -2.0067 0.6934 0 1
2.8916 2.1453 -2.0259 0.6868 0 1
2.8329 2.2837 -2.0474 0.6730 0 1
2.7701 2.4229 -2.0707 0.6654 0 1
2.7026 2.5627 -2.0956 0.6575 0 1
2.6304 2.7030 -2.1222 0.6493 0 1
2.5532 2.8437 -2.1504 0.6408 0 1
2.4709 2.9850 -2.1803 0.6320 0 1
2.3832 3.1267 -2.2121 0.6229 0 1
2.2900 3.2688 -2.2457 0.6136 0 1
2.1903 3.4103 -2.2805 0.6090 0 1
2.0835 3.5498 -2.3160 0.5997 0 1
1.9586 3.6669 -2.3391 0.5919 0 24
1.8407 3.8066 -2.3791 0.5820 0 24
1.7256 3.9677 -2.4345 0.5705 0 1
1.5930 4.1064 -2.4783 0.5604 0 1
1.4533 4.2446 -2.5244 0.5502 0 1
1.3063 4.3822 -2.5730 0.5398 0 1
1.1472 4.5017 -2.6139 0.5297 0 24
0.9890 4.6547 -2.6775 0.5199 0 1
0.8182 4.7902 -2.7343 0.5091 0 1
0.6388 4.9243 -2.7940 0.4983 0 1
0.4504 5.0568 -2.8566 0.4873 0 1
0.2526 5.1875 -2.9223 0.4764 0 1
0.0451 5.3159 -2.9912 0.4654 0 1
-0.1722 5.4342 -3.0592 0.4525 0 24
-0.4005 5.5641 -3.1389 0.4444 0 1
-0.6394 5.6829 -3.2178 0.4335 0 1
-0.8893 5.7977 -3.3003 0.4226 0 1
-1.1508 5.9079 -3.3867 0.4118 0 1
-1.4186 5.9895 -3.4633 0.4040 0 24
-1.7083 6.1075 -3.5684 0.3921 0 1
-2.0047 6.1963 -3.6644 0.3842 0 1
-2.3131 6.2766 -3.7638 0.3741 0 1
-2.6338 6.3485 -3.8673 0.3641 0 1
-2.9668 6.4108 -3.9747 0.3542 0 1
-3.3122 6.4627 -4.0861 0.3446 0 1
-3.6701 6.5035 -4.2018 0.3346 0 1
-4.0397 6.5309 -4.3209 0.3271 0 1
-4.4208 6.5441 -4.4436 0.3181 0 1
-4.8132 6.5421 -4.5700 0.3093 0 1
-5.2161 6.5237 -4.6997 0.3008 0 1
-5.6287 6.4874 -4.8327 0.2925 0 1
-6.0519 6.4338 -4.9699 0.2880 0 1
-6.4799 6.3567 -5.1075 0.2803 0 1
-6.9139 6.2577 -5.2470 0.2728 0 1
-7.3521 6.1356 -5.3881 0.2657 0 1
-7.7502 5.9565 -5.4999 0.2512 0 24
-8.2428 5.8239 -5.6788 0.2442 0 1
