ply
format ascii 1.0
element vertex 1380
property float32 x
property float32 y
property float32 z
property float32 CosAngle
property uint32 ObjIdx
property uint32 ObjTag
end_header
8.5741 -6.8993 -0.0305 0.2786 0 1
8.6069 -6.3733 -0.0297 0.2863 0 1
6.2171 -4.2277 -0.0208 0.8073 14 6
8.3280 -5.1863 -0.0272 0.2724 0 25
8.3299 -4.7339 -0.0265 0.2790 0 25
8.3316 -4.3015 -0.0260 0.2851 0 25
8.3331 -3.8864 -0.0255 0.2907 0 25
8.3344 -3.4864 -0.0250 0.2959 0 25
8.3356 -3.0995 -0.0246 0.3006 0 25
8.3366 -2.7238 -0.0243 0.3048 0 25
8.3421 -2.3591 -0.0240 0.3007 0 2
8.6375 -2.0716 -0.0246 0.3121 0 1
8.6232 -1.7049 -0.0244 0.3142 0 24
4.1046 -0.6414 -0.0115 0.2625 25 14
3.9525 -0.4558 -0.0110 0.9684 25 14
3.9351 -0.2941 -0.0109 0.9692 25 14
3.9092 -0.1345 -0.0108 0.9778 25 14
3.8865 0.0225 -0.0108 0.9841 25 14
3.9115 0.1800 -0.0108 0.9768 25 14
3.9370 0.3402 -0.0109 0.9679 25 14
3.9548 0.5025 -0.0110 0.9665 25 14
4.4616 0.7502 -0.0125 0.0895 25 14
8.8769 1.8623 -0.0251 0.3056 0 1
8.9113 2.2468 -0.0255 0.3008 0 1
8.9489 2.6431 -0.0259 0.2962 0 1
8.9877 3.0523 -0.0263 0.2912 0 1
9.0237 3.4749 -0.0268 0.2836 0 1
9.0586 3.9133 -0.0273 0.2779 0 1
9.0727 4.3600 -0.0279 0.2870 0 1
9.0591 4.8108 -0.0284 0.2816 0 1
9.0447 5.2798 -0.0290 0.2758 0 1
9.0256 5.7670 -0.0297 0.2693 0 1
8.9794 6.2595 -0.0303 0.2980 0 1
8.8691 6.7280 -0.0308 0.2930 0 1
8.7680 7.2243 -0.0315 0.2853 0 1
-35.3794 -32.8060 -0.6684 0.9496 0 20
-34.3294 -34.4998 -0.6742 0.9414 0 20
6.4865 -45.4876 -0.6365 0.0580 0 2
6.8255 -37.1206 -0.5228 0.0706 0 2
5.5672 -24.6592 -0.3502 0.9938 0 6
7.2323 -26.9439 -0.3865 0.0955 0 2
7.3635 -23.6003 -0.3425 0.1078 0 2
7.4668 -20.9325 -0.3079 0.1199 0 2
7.5500 -18.7481 -0.2800 0.1319 0 2
7.6183 -16.9214 -0.2571 0.1436 0 2
8.0931 -16.2030 -0.2509 0.1711 0 2
8.0112 -14.5455 -0.2300 0.1501 0 1
7.9871 -13.2155 -0.2139 0.1746 0 24
8.0788 -12.2285 -0.2030 0.1864 0 1
8.1213 -11.2795 -0.1925 0.1955 0 1
8.1575 -10.4196 -0.1833 0.2053 0 1
8.1705 -9.6137 -0.1748 0.2053 0 1
8.1783 -8.8740 -0.1672 0.2298 0 1
8.1878 -8.1972 -0.1605 0.2393 0 1
8.1978 -7.5726 -0.1546 0.2519 0 1
8.2356 -7.0156 -0.1499 0.2834 0 1
8.2772 -6.4956 -0.1458 0.2914 0 1
8.3014 -5.9916 -0.1418 0.2510 0 1
6.2380 -4.1315 -0.1036 0.9222 14 6
8.0215 -4.8606 -0.1299 0.2850 0 25
8.0300 -4.4347 -0.1271 0.2914 0 25
8.0376 -4.0262 -0.1245 0.2973 0 25
8.0444 -3.6329 -0.1223 0.3028 0 25
8.0503 -3.2527 -0.1203 0.3078 0 25
8.0555 -2.8839 -0.1185 0.3124 0 25
8.0601 -2.5250 -0.1170 0.3164 0 25
8.2630 -2.2282 -0.1186 0.3226 0 2
8.3607 -1.8977 -0.1188 0.3235 0 1
8.3766 -1.5502 -0.1180 0.3256 0 1
3.9501 -0.5679 -0.0553 0.9654 25 14
3.9413 -0.4058 -0.0549 0.9724 25 14
3.9235 -0.2451 -0.0545 0.9728 25 14
3.8977 -0.0865 -0.0540 0.9809 25 14
3.8907 0.0700 -0.0539 0.9828 25 14
3.9159 0.2281 -0.0543 0.9750 25 14
3.9399 0.3889 -0.0548 0.9731 25 14
3.9492 0.5509 -0.0552 0.9662 25 14
8.5625 1.5474 -0.1205 0.3185 0 1
8.5900 1.9118 -0.1219 0.3149 0 1
8.6200 2.2856 -0.1235 0.3099 0 1
8.6520 2.6706 -0.1254 0.3052 0 1
8.6820 3.0671 -0.1276 0.2978 0 1
8.7090 3.4763 -0.1299 0.2924 0 1
8.7364 3.9013 -0.1325 0.2866 0 1
8.7459 4.3352 -0.1352 0.2959 0 1
8.7265 4.7716 -0.1378 0.2904 0 1
8.7038 5.2242 -0.1406 0.2841 0 1
8.6775 5.6949 -0.1438 0.2779 0 1
8.6402 6.1811 -0.1472 0.3071 0 1
8.5275 6.6343 -0.1497 0.3019 0 1
8.4268 7.1176 -0.1528 0.2938 0 1
8.3236 7.6243 -0.1564 0.2871 0 1
8.3207 8.2606 -0.1624 0.7931 0 2
7.9053 8.5057 -0.1609 0.2295 0 2
7.8845 9.1985 -0.1678 0.2200 0 2
7.8610 9.9544 -0.1757 0.2101 0 2
6.5457 9.0110 -0.1543 0.8244 22 6
7.8038 11.7050 -0.1949 0.1894 0 2
7.7688 12.7330 -0.2066 0.1787 0 2
7.7282 13.8932 -0.2202 0.1676 0 2
7.6808 15.2171 -0.2361 0.1563 0 2
7.6247 16.7473 -0.2549 0.1448 0 2
7.5577 18.5421 -0.2774 0.1331 0 2
7.4761 20.6834 -0.3047 0.1212 0 2
7.3752 23.2930 -0.3385 0.1091 0 2
7.2475 26.5540 -0.3813 0.0968 0 2
7.0808 30.7612 -0.4373 0.0844 0 2
2.6978 14.3329 -0.2020 0.0604 0 9
6.8019 46.3062 -0.6483 0.0677 0 24
2.5472 24.0205 -0.3346 0.3081 0 9
0.9737 14.8565 -0.2062 0.7429 0 9
-31.4706 37.4906 -0.6781 0.6088 0 3
-16.4425 16.6636 -0.3243 0.5764 0 6
-29.5484 27.6310 -0.5604 0.9576 0 3
-31.4314 27.1081 -0.5750 0.7179 0 3
-34.8051 27.6584 -0.6158 0.6271 0 3
-31.4141 22.9662 -0.5391 0.7657 0 3
-33.7717 22.6650 -0.5634 0.5625 0 3
-36.4483 22.3910 -0.5926 0.8087 0 3
-31.7379 17.7814 -0.5040 0.4943 0 3
-32.5620 16.5603 -0.5061 0.2804 0 3
-38.6456 17.7372 -0.5890 0.4229 0 3
-40.4400 16.6273 -0.6057 0.2808 0 3
-37.0651 -33.5372 -0.6924 0.3878 0 20
-34.6501 -33.9825 -0.6723 0.9441 0 20
-33.5865 -35.6983 -0.6790 0.9318 0 20
-16.8552 -27.2503 -0.4439 0.4950 0 6
6.3518 -48.7962 -0.6817 0.0542 0 2
6.7364 -39.3280 -0.5527 0.0668 0 2
6.9971 -32.8542 -0.4653 0.0793 0 2
7.1852 -28.1352 -0.4023 0.0918 0 2
7.3271 -24.5326 -0.3547 0.1041 0 2
7.4379 -21.6840 -0.3176 0.1163 0 2
7.5265 -19.3686 -0.2879 0.1283 0 2
7.5989 -17.4438 -0.2636 0.1401 0 2
7.8803 -16.2707 -0.2504 0.9566 0 2
8.0200 -14.9916 -0.2355 0.1466 0 1
8.0185 -13.6408 -0.2192 0.1726 0 1
8.0657 -12.5387 -0.2065 0.1832 0 1
8.1095 -11.5579 -0.1956 0.1925 0 1
8.1470 -10.6719 -0.1860 0.2024 0 1
8.1735 -9.8585 -0.1774 0.2100 0 1
8.1751 -9.0906 -0.1694 0.2268 0 1
8.1851 -8.3970 -0.1624 0.2365 0 1
8.1935 -7.7561 -0.1563 0.2458 0 1
8.2223 -7.1793 -0.1512 0.2809 0 1
8.2649 -6.6505 -0.1470 0.2890 0 1
8.3045 -6.1494 -0.1431 0.2967 0 1
6.2335 -4.2389 -0.1044 0.8051 14 6
6.5564 -4.0831 -0.1070 0.5662 14 6
8.0275 -4.5621 -0.1279 0.2895 0 25
8.0354 -4.1485 -0.1253 0.2955 0 25
8.0424 -3.7508 -0.1229 0.3012 0 25
8.0486 -3.3668 -0.1209 0.3063 0 25
8.0540 -2.9948 -0.1190 0.3110 0 25
8.0588 -2.6330 -0.1174 0.3152 0 25
8.0628 -2.2801 -0.1161 0.3190 0 2
8.3560 -2.0041 -0.1190 0.3226 0 1
8.3719 -1.6552 -0.1182 0.3250 0 1
4.0359 -0.6306 -0.0566 0.3049 25 14
3.9440 -0.4548 -0.0550 0.9704 25 14
3.9314 -0.2938 -0.0546 0.9701 25 14
3.9055 -0.1344 -0.0541 0.9786 25 14
3.8832 0.0225 -0.0538 0.9848 25 14
3.9082 0.1799 -0.0542 0.9775 25 14
3.9336 0.3399 -0.0547 0.9686 25 14
3.9463 0.5015 -0.0551 0.9685 25 14
4.1425 0.6966 -0.0582 0.2596 25 14
8.5497 1.7936 -0.1210 0.3155 0 24
8.6103 2.1710 -0.1230 0.3112 0 1
8.6423 2.5525 -0.1248 0.3067 0 1
8.6739 2.9457 -0.1269 0.2994 0 1
8.7008 3.3505 -0.1292 0.2941 0 1
8.7280 3.7705 -0.1317 0.2884 0 1
8.7516 4.2057 -0.1345 0.2975 0 1
8.7325 4.6374 -0.1370 0.2921 0 1
8.7114 5.0852 -0.1397 0.2859 0 1
8.6857 5.5498 -0.1428 0.2798 0 1
8.6581 6.0355 -0.1462 0.2733 0 1
8.5622 6.4951 -0.1489 0.3035 0 1
8.4571 6.9682 -0.1518 0.2957 0 1
-35.2700 -32.7045 -1.1995 0.9524 0 20
-34.1940 -34.3637 -1.2090 0.9735 0 20
2.3835 -38.8676 -0.9711 0.5115 0 6
4.8342 -47.4893 -1.1904 0.0558 0 2
5.4914 -38.5096 -0.9701 0.0685 0 2
5.9412 -32.3113 -0.8193 0.0811 0 2
5.5955 -24.7849 -0.6337 0.7825 0 6
6.5155 -24.2734 -0.6268 0.1060 0 2
6.7094 -21.5038 -0.5618 0.1183 0 2
6.8651 -19.2457 -0.5096 0.1304 0 2
6.9926 -17.3641 -0.4668 0.1423 0 2
7.3711 -16.3724 -0.4478 0.9823 0 2
7.4661 -14.9477 -0.4167 0.1441 0 1
7.5033 -13.6233 -0.3879 0.1759 0 1
7.5425 -12.4798 -0.3637 0.1902 0 24
7.6192 -11.5328 -0.3447 0.1974 0 24
7.6840 -10.6721 -0.3280 0.2077 0 24
7.7339 -9.8785 -0.3129 0.2158 0 24
7.7660 -9.1378 -0.2991 0.2268 0 24
7.7901 -8.4528 -0.2867 0.2393 0 24
7.8154 -7.8244 -0.2758 0.2542 0 24
7.8428 -7.2447 -0.2663 0.2682 0 24
7.9433 -6.7666 -0.2602 0.2938 0 1
7.9033 -6.2022 -0.2505 0.2881 0 24
7.7026 -5.5594 -0.2369 0.2824 0 2
6.2501 -4.1395 -0.1870 0.9294 14 6
7.7362 -4.6877 -0.2256 0.2954 0 25
7.7505 -4.2803 -0.2208 0.3018 0 25
7.7632 -3.8888 -0.2165 0.3077 0 25
7.7745 -3.5110 -0.2127 0.3132 0 25
7.7845 -3.1453 -0.2094 0.3183 0 25
7.7933 -2.7901 -0.2064 0.3228 0 25
7.8010 -2.4438 -0.2039 0.3269 0 25
8.0800 -2.1788 -0.2087 0.3312 0 1
8.0974 -1.8379 -0.2071 0.3340 0 1
8.1145 -1.5017 -0.2058 0.3360 0 1
3.9416 -0.5667 -0.0993 0.9673 25 14
3.9328 -0.4049 -0.0986 0.9743 25 14
3.9198 -0.2449 -0.0979 0.9735 25 14
3.8941 -0.0865 -0.0971 0.9816 25 14
3.8875 0.0700 -0.0970 0.9834 25 14
3.9126 0.2280 -0.0977 0.9756 25 14
3.9316 0.3881 -0.0985 0.9750 25 14
3.9408 0.5497 -0.0992 0.9681 25 14
4.7309 0.8550 -0.1199 0.0111 25 14
8.2817 1.8432 -0.2116 0.3257 0 24
8.3372 2.2106 -0.2151 0.3204 0 1
8.3639 2.5817 -0.2183 0.3157 0 1
8.3855 2.9624 -0.2218 0.3083 0 1
8.4063 3.3555 -0.2257 0.3029 0 1
8.4268 3.7630 -0.2302 0.2971 0 1
8.4453 4.1861 -0.2351 0.3064 0 1
8.4211 4.6046 -0.2394 0.3009 0 1
8.3924 5.0373 -0.2441 0.2946 0 1
8.3604 5.4868 -0.2494 0.2883 0 1
8.3257 5.9561 -0.2553 0.2817 0 1
8.2407 6.4112 -0.2604 0.3124 0 1
8.1364 6.8723 -0.2656 0.3042 0 1
8.0303 7.3556 -0.2716 0.2975 0 1
8.0171 7.9591 -0.2817 0.2620 0 2
7.7453 8.3336 -0.2837 0.8530 0 2
7.5250 8.7791 -0.2884 0.2304 0 2
7.4865 9.4802 -0.3013 0.2206 0 2
6.5350 8.9964 -0.2773 0.9423 22 6
7.3936 11.0897 -0.3324 0.1999 0 2
7.3372 12.0256 -0.3513 0.1891 0 2
7.2722 13.0735 -0.3731 0.1781 0 2
7.1970 14.2586 -0.3983 0.1668 0 2
7.1089 15.6142 -0.4279 0.1553 0 2
7.0046 17.1851 -0.4628 0.1436 0 2
6.8796 19.0332 -0.5047 0.1317 0 2
6.7273 21.2466 -0.5558 0.1196 0 2
6.5380 23.9546 -0.6192 0.1073 0 2
6.2969 27.3559 -0.7001 0.0949 0 2
5.9802 31.7717 -0.8063 0.0824 0 2
5.8696 39.9588 -1.0072 0.0710 0 1
1.6663 15.7129 -0.3941 0.4670 0 9
0.9991 15.2432 -0.3810 0.2508 0 9
0.4306 17.0478 -0.4253 0.7872 0 9
-31.2895 37.2748 -1.2137 0.6122 0 3
-31.5284 34.6320 -1.1680 0.6410 0 3
-31.2844 31.7051 -1.1108 0.6689 0 3
-34.9201 32.6541 -1.1923 0.6875 0 3
-31.2779 26.9757 -1.0301 0.7213 0 3
-34.8038 27.6574 -1.1086 0.6270 0 3
-31.2702 22.8610 -0.9660 0.7691 0 3
-33.7703 22.6641 -1.0143 0.5624 0 3
-36.2902 22.2939 -1.0622 0.8120 0 3
-31.4423 17.6158 -0.8988 0.8729 0 3
-31.4415 15.9904 -0.8797 0.8536 0 3
-36.6233 16.8090 -1.0049 0.8330 0 3
-41.4165 17.0288 -1.1168 0.8877 0 3
-34.5893 -33.9228 -1.2082 0.9741 0 20
-33.2847 -35.3775 -1.2114 0.9716 0 20
5.3195 -40.8659 -1.0277 0.0647 0 2
5.8205 -33.9810 -0.8598 0.0773 0 2
6.1786 -29.0111 -0.7397 0.0898 0 2
6.4469 -25.2443 -0.6498 0.1023 0 2
6.6552 -22.2827 -0.5800 0.1146 0 2
6.8212 -19.8862 -0.5243 0.1267 0 2
6.9564 -17.9016 -0.4790 0.1387 0 2
7.1570 -16.4295 -0.4469 0.9948 0 2
7.4633 -15.4096 -0.4270 0.1369 0 1
7.4761 -13.9749 -0.3952 0.1737 0 1
7.5151 -12.7844 -0.3698 0.1869 0 24
7.5980 -11.8117 -0.3502 0.1943 0 24
7.6652 -10.9247 -0.3328 0.2047 0 24
7.7209 -10.1138 -0.3173 0.2153 0 24
7.7575 -9.3568 -0.3031 0.2233 0 24
7.7830 -8.6546 -0.2903 0.2349 0 24
7.8075 -8.0096 -0.2789 0.2498 0 24
7.8342 -7.4159 -0.2690 0.2642 0 24
7.9280 -6.9223 -0.2625 0.2913 0 1
7.9770 -6.4189 -0.2553 0.2994 0 1
7.9927 -5.9185 -0.2480 0.2583 0 1
6.2500 -4.2501 -0.1885 0.8028 14 6
6.5409 -4.0734 -0.1922 0.5675 14 6
7.7463 -4.4022 -0.2222 0.2999 0 25
7.7595 -4.0061 -0.2178 0.3060 0 25
7.7712 -3.6243 -0.2138 0.3116 0 25
7.7816 -3.2551 -0.2104 0.3168 0 25
7.7908 -2.8969 -0.2073 0.3215 0 25
7.7988 -2.5481 -0.2046 0.3257 0 25
7.9112 -2.2372 -0.2050 0.3358 0 2
8.0921 -1.9408 -0.2075 0.3330 0 1
8.1095 -1.6034 -0.2062 0.3355 0 1
3.9744 -0.6210 -0.1003 0.3095 25 14
3.9355 -0.4538 -0.0988 0.9723 25 14
3.9268 -0.2935 -0.0982 0.9782 25 14
3.9018 -0.1343 -0.0974 0.9793 25 14
3.8799 0.0225 -0.0968 0.9854 25 14
3.9049 0.1797 -0.0975 0.9781 25 14
3.9288 0.3395 -0.0983 0.9768 25 14
3.9380 0.5004 -0.0990 0.9703 25 14
4.0741 0.6851 -0.1030 0.3015 25 14
8.2740 1.7358 -0.2108 0.3266 0 24
8.3290 2.1000 -0.2142 0.3217 0 1
8.3558 2.4679 -0.2173 0.3172 0 1
8.3791 2.8456 -0.2207 0.3098 0 1
8.4000 3.2347 -0.2245 0.3046 0 1
8.4206 3.6377 -0.2288 0.2989 0 1
8.4409 4.0564 -0.2335 0.2928 0 1
8.4286 4.4760 -0.2380 0.3026 0 1
8.4017 4.9044 -0.2426 0.2964 0 1
8.3704 5.3483 -0.2477 0.2903 0 1
8.3365 5.8113 -0.2534 0.2837 0 1
8.2757 6.2778 -0.2590 0.3140 0 1
8.1675 6.7295 -0.2639 0.3062 0 1
-35.3971 -32.8223 -1.7393 0.9789 0 20
-34.0998 -34.2690 -1.7419 0.9775 0 20
2.3769 -38.7596 -1.3991 0.9855 0 6
4.0680 -39.9624 -1.4473 0.0663 0 2
4.7607 -33.3854 -1.2151 0.0790 0 2
5.2594 -28.6034 -1.0479 0.0916 0 2
4.1795 -18.5126 -0.6838 0.6302 0 6
5.9277 -22.0835 -0.8238 0.1165 0 2
6.1617 -19.7485 -0.7454 0.1288 0 2
6.3529 -17.8098 -0.6813 0.1409 0 2
6.6751 -16.5757 -0.6438 0.9973 0 2
6.9092 -15.3464 -0.6064 0.1392 0 1
6.9655 -13.9455 -0.5617 0.1765 0 1
7.0792 -12.8534 -0.5287 0.1864 0 1
7.1757 -11.8730 -0.4998 0.1997 0 1
7.2639 -10.9950 -0.4748 0.2093 0 1
7.3385 -10.1923 -0.4525 0.2196 0 1
7.3971 -9.4484 -0.4323 0.2236 0 1
7.4419 -8.7564 -0.4140 0.2334 0 1
7.4814 -8.1178 -0.3978 0.2430 0 1
7.5365 -7.5452 -0.3842 0.2761 0 1
7.5485 -6.9728 -0.3703 0.2799 0 24
7.5890 -6.4648 -0.3592 0.2893 0 24
7.7143 -6.0539 -0.3533 0.2582 0 1
7.4249 -5.3590 -0.3299 0.2917 0 25
6.2654 -4.1496 -0.2708 0.8071 14 6
7.4703 -4.5266 -0.3147 0.3058 0 25
7.4895 -4.1362 -0.3083 0.3122 0 25
7.5067 -3.7603 -0.3025 0.3182 0 25
7.5220 -3.3970 -0.2974 0.3236 0 25
7.5356 -3.0447 -0.2928 0.3287 0 25
7.5475 -2.7021 -0.2888 0.3332 0 25
7.5589 -2.3680 -0.2854 0.3387 0 2
7.8312 -2.1117 -0.2922 0.3416 0 1
7.8228 -1.7756 -0.2890 0.3444 0 24
4.5344 -0.8392 -0.1661 0.0256 25 14
3.9331 -0.5655 -0.1432 0.9691 25 14
3.9244 -0.4041 -0.1421 0.9760 25 14
3.9158 -0.2447 -0.1414 0.9814 25 14
3.8904 -0.0864 -0.1402 0.9822 25 14
3.8842 0.0699 -0.1400 0.9839 25 14
3.9092 0.2278 -0.1411 0.9761 25 14
3.9233 0.3873 -0.1420 0.9767 25 14
3.9324 0.5485 -0.1431 0.9698 25 14
4.1595 0.7517 -0.1523 0.2579 25 14
8.0219 1.7854 -0.2961 0.3351 0 24
8.0722 2.1404 -0.3009 0.3308 0 1
8.0922 2.4978 -0.3051 0.3236 0 1
8.1084 2.8645 -0.3098 0.3187 0 1
8.1238 3.2427 -0.3152 0.3133 0 1
8.1382 3.6341 -0.3211 0.3075 0 1
8.1517 4.0406 -0.3278 0.3012 0 1
8.1362 4.4488 -0.3341 0.3113 0 1
8.1024 4.8632 -0.3405 0.3050 0 1
8.0654 5.2932 -0.3476 0.2988 0 1
8.0253 5.7412 -0.3555 0.2921 0 1
7.9724 6.2024 -0.3639 0.3228 0 1
7.8651 6.6432 -0.3709 0.3146 0 1
7.7567 7.1050 -0.3790 0.3079 0 1
7.6420 7.5867 -0.3880 0.3008 0 1
7.6402 8.2205 -0.4044 0.2643 0 2
7.2301 8.4351 -0.4003 0.9039 0 2
7.1459 9.0489 -0.4154 0.2310 0 2
6.5198 8.9754 -0.3997 0.6349 22 6
7.0242 10.5356 -0.4562 0.2103 0 2
6.9508 11.3924 -0.4808 0.1996 0 2
6.8669 12.3448 -0.5090 0.1886 0 2
6.7703 13.4133 -0.5414 0.1773 0 2
6.6581 14.6242 -0.5790 0.1658 0 2
6.5267 16.0126 -0.6230 0.1540 0 2
6.3708 17.6257 -0.6753 0.1421 0 2
6.1835 19.5292 -0.7381 0.1300 0 2
5.9546 21.8170 -0.8148 0.1178 0 2
5.6690 24.6280 -0.9106 0.1054 0 2
5.3036 28.1773 -1.0331 0.0929 0 2
2.3013 15.6669 -0.5705 0.8437 0 9
1.7008 16.0384 -0.5811 0.6627 0 9
1.1106 16.9444 -0.6118 0.2974 0 9
-0.2163 14.4697 -0.5214 0.7788 0 9
-31.1104 37.0615 -1.7434 0.6155 0 3
-31.1161 34.1791 -1.6654 0.6443 0 3
-31.1205 31.5389 -1.5964 0.6722 0 3
-34.9189 32.6530 -1.7225 0.6873 0 3
-31.1258 26.8445 -1.4809 0.7246 0 3
-34.8025 27.6564 -1.6017 0.6268 0 3
-30.9711 22.6423 -1.3823 0.7343 0 3
-33.7689 22.6631 -1.4653 0.5623 0 3
-36.1334 22.1975 -1.5279 0.8153 0 3
-31.7348 17.7797 -1.3106 0.4941 0 3
-35.1743 17.8889 -1.4218 0.8529 0 3
-35.2182 16.1641 -1.3962 0.2440 0 3
-43.0651 17.7066 -1.6777 0.3860 0 3
-34.4941 -33.8294 -1.7408 0.9781 0 20
-32.9814 -35.0551 -1.7342 0.9813 0 20
3.8012 -42.4811 -1.5367 0.0625 0 2
4.5755 -35.1502 -1.2772 0.0751 0 2
5.1235 -29.9120 -1.0934 0.0878 0 2
5.5312 -25.9714 -0.9567 0.1003 0 2
5.8460 -22.8910 -0.8512 0.1127 0 2
6.0958 -20.4099 -0.7675 0.1250 0 2
6.2987 -18.3629 -0.6995 0.1372 0 2
6.4732 -16.6581 -0.6439 0.8047 0 2
6.9833 -16.0308 -0.6300 0.1776 0 2
6.9420 -14.3333 -0.5738 0.1512 0 1
7.0475 -13.1736 -0.5383 0.1831 0 1
7.1472 -12.1585 -0.5082 0.1939 0 1
7.2394 -11.2541 -0.4821 0.2061 0 1
7.3168 -10.4282 -0.4590 0.2165 0 1
7.3824 -9.6704 -0.4384 0.2205 0 1
7.4289 -8.9605 -0.4194 0.2305 0 1
7.4700 -8.3065 -0.4025 0.2401 0 1
7.5163 -7.7109 -0.3880 0.2642 0 1
7.5361 -7.1337 -0.3739 0.2761 0 24
7.5771 -6.6159 -0.3624 0.2868 0 24
7.7039 -6.1991 -0.3563 0.2978 0 1
7.4172 -5.4923 -0.3325 0.2894 0 25
6.2666 -4.2614 -0.2730 0.8004 14 6
6.5254 -4.0638 -0.2770 0.5686 14 6
7.4839 -4.2531 -0.3102 0.3103 0 25
7.5017 -3.8730 -0.3042 0.3164 0 25
7.5176 -3.5060 -0.2989 0.3220 0 25
7.5317 -3.1506 -0.2942 0.3272 0 25
7.5440 -2.8051 -0.2900 0.3319 0 25
7.5549 -2.4684 -0.2864 0.3361 0 25
7.8252 -2.2129 -0.2930 0.3407 0 1
7.8444 -1.8814 -0.2907 0.3437 0 1
7.8629 -1.5546 -0.2888 0.3459 0 1
3.9357 -0.6150 -0.1435 0.9666 25 14
3.9270 -0.4528 -0.1424 0.9741 25 14
3.9184 -0.2929 -0.1416 0.9800 25 14
3.8982 -0.1342 -0.1405 0.9799 25 14
3.8767 0.0225 -0.1397 0.9859 25 14
3.9016 0.1796 -0.1407 0.9786 25 14
3.9206 0.3388 -0.1418 0.9785 25 14
3.9296 0.4993 -0.1427 0.9721 25 14
4.0175 0.6755 -0.1468 0.3056 25 14
8.0465 1.6880 -0.2962 0.3379 0 1
8.0656 2.0336 -0.2997 0.3330 0 1
8.0871 2.3885 -0.3038 0.3250 0 1
8.1036 2.7520 -0.3084 0.3203 0 1
8.1192 3.1266 -0.3135 0.3150 0 1
8.1339 3.5138 -0.3192 0.3093 0 1
8.1477 3.9155 -0.3257 0.3032 0 1
8.1450 4.3254 -0.3323 0.3130 0 1
8.1131 4.7359 -0.3385 0.3068 0 1
8.0770 5.1609 -0.3454 0.3007 0 1
8.0378 5.6031 -0.3530 0.2942 0 1
7.9953 6.0651 -0.3616 0.2872 0 1
7.8969 6.5066 -0.3687 0.3165 0 1
-35.3016 -32.7338 -2.2690 0.9811 0 20
-33.9683 -34.1368 -2.2697 0.9803 0 20
1.6074 -26.2116 -1.2377 0.1886 0 20
3.5110 -34.4912 -1.6340 0.0768 0 2
4.2013 -29.4619 -1.4026 0.0895 0 2
4.7176 -25.6568 -1.2295 0.1021 0 2
4.1820 -18.5236 -0.8950 0.1512 0 6
5.4368 -20.2546 -0.9884 0.1269 0 2
5.6964 -18.2570 -0.9014 0.1392 0 2
6.0068 -16.8396 -0.8427 0.9911 0 2
6.3471 -15.7611 -0.8008 0.1378 0 1
6.4300 -14.2820 -0.7382 0.1537 0 1
6.5727 -13.1591 -0.6933 0.1870 0 1
6.7002 -12.1652 -0.6546 0.1968 0 1
6.8160 -11.2778 -0.6211 0.2102 0 1
6.9158 -10.4681 -0.5913 0.2197 0 1
7.0006 -9.7230 -0.5647 0.2238 0 1
7.0643 -9.0232 -0.5401 0.2340 0 1
7.1214 -8.3793 -0.5183 0.2586 0 1
7.1870 -7.7984 -0.4998 0.2681 0 1
7.2604 -7.2688 -0.4842 0.2865 0 1
7.3322 -6.7731 -0.4705 0.2949 0 1
7.3945 -6.2991 -0.4578 0.2606 0 1
7.1343 -5.5987 -0.4274 0.2920 0 2
7.1665 -5.1725 -0.4166 0.3021 0 25
6.2820 -4.1606 -0.3551 0.8046 14 6
6.6908 -4.0543 -0.3687 0.9000 14 6
7.2454 -4.0014 -0.3901 0.3226 0 25
7.2665 -3.6400 -0.3830 0.3285 0 25
7.2853 -3.2901 -0.3768 0.3340 0 25
7.3019 -2.9503 -0.3712 0.3390 0 25
7.3165 -2.6194 -0.3663 0.3436 0 25
7.3334 -2.2974 -0.3622 0.3557 0 2
7.5960 -2.0483 -0.3708 0.3495 0 1
7.5908 -1.7229 -0.3669 0.3548 0 24
4.1512 -0.7682 -0.1990 0.2947 25 14
3.9246 -0.5643 -0.1869 0.9707 25 14
3.9160 -0.4032 -0.1855 0.9777 25 14
3.9074 -0.2441 -0.1845 0.9831 25 14
3.8868 -0.0863 -0.1832 0.9827 25 14
3.8809 0.0699 -0.1829 0.9843 25 14
3.9059 0.2276 -0.1844 0.9765 25 14
3.9150 0.3865 -0.1854 0.9783 25 14
3.9240 0.5474 -0.1867 0.9714 25 14
4.0954 0.7401 -0.1961 0.2990 25 14
7.7778 1.7310 -0.3755 0.3463 0 24
7.8233 2.0744 -0.3815 0.3411 0 1
7.8370 2.4190 -0.3866 0.3340 0 1
7.8489 2.7728 -0.3923 0.3291 0 1
7.8594 3.1372 -0.3988 0.3237 0 1
7.8685 3.5137 -0.4061 0.3179 0 1
7.8762 3.9040 -0.4143 0.3116 0 1
7.8695 4.3030 -0.4227 0.3212 0 1
7.8316 4.7007 -0.4305 0.3154 0 1
7.7904 5.1127 -0.4392 0.3092 0 1
7.7456 5.5411 -0.4489 0.3025 0 1
7.6968 5.9880 -0.4596 0.2954 0 1
7.6119 6.4293 -0.4696 0.3293 0 1
7.5026 6.8722 -0.4795 0.3225 0 1
7.3867 7.3333 -0.4906 0.3152 0 1
7.2212 8.4247 -0.5230 0.9040 0 2
6.8355 8.6558 -0.5198 0.2419 0 2
6.5004 8.9486 -0.5213 0.9557 22 6
6.6897 10.0339 -0.5684 0.2208 0 2
6.6028 10.8221 -0.5975 0.2100 0 2
6.5041 11.6926 -0.6306 0.1990 0 2
6.3911 12.6620 -0.6685 0.1877 0 2
6.2609 13.7516 -0.7121 0.1762 0 2
6.1095 14.9891 -0.7629 0.1645 0 2
5.9318 16.4111 -0.8224 0.1526 0 2
5.7207 18.0677 -0.8932 0.1405 0 2
5.4664 20.0284 -0.9785 0.1282 0 2
5.1546 22.3932 -1.0830 0.1159 0 2
4.7642 25.3114 -1.2139 0.1034 0 2
2.2929 15.6099 -0.7436 0.4553 0 9
2.8942 27.2927 -1.2935 0.7313 0 20
1.1240 17.1492 -0.8100 0.3192 0 9
0.4322 17.1104 -0.8067 0.3274 0 9
-29.0774 37.6112 -2.2406 0.8939 0 3
-29.2888 34.8915 -2.1471 0.1622 0 3
-29.9687 32.9187 -2.0981 0.9512 0 3
-30.9581 31.3743 -2.0774 0.6754 0 3
-30.9674 28.9579 -1.9982 0.7021 0 3
-30.9751 26.7145 -1.9278 0.7278 0 3
-29.1917 23.1977 -1.7574 0.6980 0 3
-30.9835 22.6514 -1.8089 0.7755 0 3
-30.9871 20.7962 -1.7589 0.7976 0 3
-30.9896 19.0376 -1.7142 0.8184 0 3
-29.1251 16.3176 -1.5735 0.9181 0 3
-35.0295 17.8153 -1.8522 0.8561 0 3
-36.8897 16.9313 -1.9130 0.2533 0 3
-43.0624 17.7055 -2.1944 0.3858 0 3
-45.4415 16.5818 -2.2798 0.2427 0 3
-34.4339 -33.7704 -2.2731 0.9789 0 20
-32.9046 -34.9735 -2.2632 0.9832 0 20
1.9966 -40.6776 -1.9195 0.9972 0 20
3.2533 -36.3576 -1.7204 0.0729 0 2
4.0137 -30.8341 -1.4655 0.0856 0 2
4.5752 -26.7109 -1.2772 0.0982 0 2
5.0063 -23.5065 -1.1327 0.1108 0 2
5.3471 -20.9376 -1.0185 0.1232 0 2
5.6229 -18.8263 -0.9260 0.1355 0 2
5.8502 -17.0554 -0.8498 0.1477 0 2
6.3779 -16.4129 -0.8299 0.1764 0 2
6.4018 -14.6959 -0.7555 0.1501 0 1
6.5291 -13.4808 -0.7060 0.1836 0 1
6.6637 -12.4563 -0.6658 0.1935 0 1
6.7820 -11.5373 -0.6308 0.2070 0 1
6.8873 -10.7068 -0.6000 0.2165 0 1
6.9773 -9.9443 -0.5725 0.2269 0 1
7.0458 -9.2295 -0.5473 0.2309 0 1
7.1042 -8.5688 -0.5246 0.2409 0 1
7.1678 -7.9705 -0.5052 0.2652 0 1
7.2374 -7.4248 -0.4887 0.2839 0 1
7.3111 -6.9207 -0.4745 0.2924 0 1
7.3789 -6.4429 -0.4617 0.3005 0 1
7.4060 -5.9594 -0.4480 0.2663 0 1
7.1571 -5.2997 -0.4197 0.2998 0 25
6.2833 -4.2727 -0.3581 0.7979 14 6
6.5100 -4.0542 -0.3615 0.5697 14 6
7.2386 -4.1137 -0.3924 0.3207 0 25
7.2604 -3.7484 -0.3851 0.3268 0 25
7.2798 -3.3951 -0.3786 0.3324 0 25
7.2971 -3.0524 -0.3728 0.3375 0 25
7.3123 -2.7190 -0.3677 0.3422 0 25
7.3278 -2.3942 -0.3633 0.3463 0 2
7.5895 -2.1462 -0.3717 0.3487 0 1
7.6115 -1.8256 -0.3689 0.3548 0 1
7.6308 -1.5087 -0.3666 0.3571 0 1
3.9272 -0.6136 -0.1873 0.9683 25 14
3.9186 -0.4518 -0.1859 0.9757 25 14
3.9100 -0.2922 -0.1848 0.9816 25 14
3.8945 -0.1340 -0.1837 0.9804 25 14
3.8734 0.0224 -0.1826 0.9863 25 14
3.8983 0.1794 -0.1839 0.9790 25 14
3.9123 0.3381 -0.1851 0.9801 25 14
3.9213 0.4983 -0.1863 0.9737 25 14
3.9623 0.6663 -0.1894 0.3097 25 14
7.8035 1.6371 -0.3758 0.3483 0 1
7.8187 1.9714 -0.3800 0.3444 0 1
7.8331 2.3135 -0.3849 0.3354 0 1
7.8454 2.6643 -0.3905 0.3306 0 1
7.8564 3.0254 -0.3968 0.3254 0 1
7.8659 3.3980 -0.4038 0.3197 0 1
7.8740 3.7840 -0.4117 0.3136 0 1
7.8797 4.1845 -0.4205 0.3234 0 1
7.8434 4.5785 -0.4280 0.3172 0 1
7.8033 4.9860 -0.4364 0.3111 0 1
7.7596 5.4092 -0.4458 0.3046 0 1
7.7120 5.8502 -0.4562 0.2976 0 1
7.6438 6.2981 -0.4668 0.3313 0 1
-35.4279 -32.8509 -2.8140 0.9784 0 20
-33.8248 -33.9926 -2.7930 0.9539 0 20
0.9496 -45.1079 -2.6278 0.0580 0 1
1.6016 -26.1168 -1.5240 0.9924 0 20
3.0879 -30.3339 -1.7759 0.0873 0 2
3.7590 -26.3608 -1.5509 0.0999 0 2
4.2766 -23.2584 -1.3774 0.1125 0 2
4.1919 -18.5678 -1.1087 0.7759 0 6
5.0206 -18.7040 -1.1279 0.1374 0 2
5.3589 -17.1754 -1.0479 0.9685 0 2
5.8958 -14.6405 -0.9193 0.1483 0 1
6.0580 -13.4558 -0.8595 0.1862 0 1
6.2209 -12.4547 -0.8109 0.1962 0 1
6.3625 -11.5521 -0.7681 0.2099 0 1
6.4903 -10.7389 -0.7308 0.2206 0 1
6.5992 -9.9889 -0.6973 0.2301 0 1
6.6858 -9.2857 -0.6664 0.2342 0 1
6.7628 -8.6382 -0.6390 0.2590 0 1
6.8433 -8.0521 -0.6155 0.2689 0 1
6.9205 -7.5091 -0.5948 0.2880 0 1
7.0036 -7.0116 -0.5772 0.2968 0 1
7.0779 -6.5381 -0.5612 0.2625 0 1
7.1057 -6.0531 -0.5437 0.2710 0 1
6.8879 -5.4054 -0.5100 0.3048 0 25
6.9253 -4.9984 -0.4974 0.3124 0 25
6.2986 -4.1716 -0.4400 0.8020 14 6
6.5920 -3.9944 -0.4489 0.5850 14 6
7.0165 -3.8750 -0.4668 0.3329 0 25
7.0409 -3.5270 -0.4587 0.3388 0 25
7.0627 -3.1896 -0.4514 0.3443 0 25
7.0821 -2.8615 -0.4449 0.3493 0 25
7.0991 -2.5415 -0.4392 0.3539 0 25
7.2559 -2.2731 -0.4429 0.5004 0 2
7.3740 -1.9884 -0.4448 0.3607 0 1
7.3983 -1.6792 -0.4419 0.3643 0 1
4.0857 -0.7561 -0.2420 0.2993 25 14
3.9161 -0.5630 -0.2304 0.9722 25 14
3.9076 -0.4023 -0.2288 0.9792 25 14
3.8991 -0.2436 -0.2275 0.9846 25 14
3.8832 -0.0862 -0.2262 0.9830 25 14
3.8777 0.0698 -0.2259 0.9845 25 14
3.8979 0.2271 -0.2274 0.9852 25 14
3.9068 0.3857 -0.2287 0.9798 25 14
3.9157 0.5462 -0.2303 0.9729 25 14
4.0380 0.7297 -0.2390 0.3031 25 14
7.5816 1.6874 -0.4524 0.3624 0 1
7.5931 2.0133 -0.4575 0.3584 0 1
7.6026 2.3467 -0.4634 0.3540 0 1
7.6103 2.6885 -0.4701 0.3489 0 1
7.6163 3.0401 -0.4776 0.3434 0 1
7.6205 3.4029 -0.4861 0.3374 0 1
7.6228 3.7784 -0.4955 0.3310 0 1
7.6191 4.1661 -0.5058 0.3210 0 1
7.5792 4.5492 -0.5148 0.3278 0 1
7.5346 4.9448 -0.5249 0.3215 0 1
7.4860 5.3554 -0.5361 0.3148 0 1
7.4331 5.7829 -0.5485 0.3077 0 1
7.3770 6.2309 -0.5624 0.3396 0 1
7.2664 6.6558 -0.5739 0.3328 0 1
7.1489 7.0973 -0.5867 0.3255 0 1
7.0304 7.5644 -0.6015 0.3119 0 1
6.9906 8.1556 -0.6256 0.2764 0 2
6.7532 8.5516 -0.6347 0.9430 0 2
6.4719 8.9095 -0.6414 0.2416 0 2
6.3853 9.5773 -0.6704 0.2312 0 2
6.2877 10.3056 -0.7031 0.2204 0 2
6.1774 11.1052 -0.7401 0.2094 0 2
6.0518 11.9898 -0.7822 0.1981 0 2
5.9080 12.9766 -0.8304 0.1866 0 2
5.7421 14.0877 -0.8861 0.1749 0 2
5.5490 15.3521 -0.9508 0.1630 0 2
5.3220 16.8084 -1.0269 0.1509 0 2
5.0518 18.5093 -1.1175 0.1387 0 2
4.7254 20.5285 -1.2269 0.1263 0 2
4.3239 22.9725 -1.3615 0.1138 0 2
2.2912 15.5978 -0.9182 0.9580 0 9
1.9845 18.7138 -1.0961 0.1241 0 20
1.5208 23.2029 -1.3543 0.9959 0 20
1.1081 43.8736 -2.5562 0.0708 0 1
-0.2167 14.4989 -0.8446 0.4606 0 9
-30.7578 36.6414 -2.7863 0.6219 0 3
-30.7790 33.8089 -2.6629 0.6507 0 3
-30.4300 30.8391 -2.5234 0.1677 0 3
-29.8362 27.9001 -2.3792 0.9700 0 3
-29.7219 25.6337 -2.2860 0.1852 0 3
-29.4349 23.3909 -2.1898 0.1933 0 3
-29.1761 21.3300 -2.1050 0.1955 0 3
-29.1630 19.5721 -2.0456 0.8007 0 3
-30.8566 18.9559 -2.1092 0.8215 0 3
-31.7318 17.7780 -2.1185 0.4936 0 3
-34.9156 17.7573 -2.2815 0.4583 0 3
-41.1153 18.8707 -2.6349 0.8759 0 3
-43.3523 17.8247 -2.7301 0.2384 0 3
-34.3571 -33.6950 -2.8028 0.9823 0 20
-32.7887 -34.8503 -2.7870 0.2213 0 20
0.4228 -47.7964 -2.7839 0.0580 0 1
1.8454 -37.5969 -2.1924 0.0707 0 2
2.8431 -31.7728 -1.8579 0.0834 0 2
3.5743 -27.4589 -1.6128 0.0961 0 2
4.1325 -24.1263 -1.4257 0.1087 0 2
4.5719 -21.4670 -1.2784 0.1212 0 2
4.9263 -19.2898 -1.1596 0.1336 0 2
5.2176 -17.4695 -1.0619 0.1459 0 2
5.7622 -16.7989 -1.0344 0.1746 0 2
5.8601 -15.0803 -0.9423 0.1446 0 1
5.9688 -13.7018 -0.8705 0.1783 0 24
6.1742 -12.7479 -0.8250 0.1940 0 1
6.3205 -11.8148 -0.7804 0.2066 0 1
6.4531 -10.9778 -0.7417 0.2174 0 1
6.5676 -10.2098 -0.7071 0.2269 0 1
6.6615 -9.4942 -0.6755 0.2311 0 1
6.7382 -8.8266 -0.6468 0.2413 0 1
6.8198 -8.2257 -0.6223 0.2659 0 1
6.8948 -7.6669 -0.6006 0.2756 0 1
6.9791 -7.1598 -0.5823 0.2942 0 1
7.0575 -6.6807 -0.5660 0.3027 0 1
7.0977 -6.1973 -0.5488 0.2685 0 1
6.8795 -5.5357 -0.5143 0.3010 0 2
6.9143 -5.1200 -0.5011 0.3101 0 25
6.3001 -4.2841 -0.4437 0.7953 14 6
6.4862 -4.0393 -0.4450 0.5330 14 6
7.0086 -3.9830 -0.4695 0.3310 0 25
7.0338 -3.6314 -0.4611 0.3371 0 25
7.0564 -3.2909 -0.4535 0.3427 0 25
7.0764 -2.9601 -0.4468 0.3479 0 25
7.0941 -2.6378 -0.4408 0.3526 0 25
7.1114 -2.3235 -0.4357 0.3566 0 2
7.3668 -2.0833 -0.4459 0.3598 0 1
7.3911 -1.7727 -0.4427 0.3636 0 1
4.2972 -0.8496 -0.2551 0.0159 25 14
3.9187 -0.6123 -0.2310 0.9698 25 14
3.9102 -0.4509 -0.2293 0.9772 25 14
3.9017 -0.2916 -0.2279 0.9831 25 14
3.8909 -0.1339 -0.2268 0.9807 25 14
3.8702 0.0224 -0.2254 0.9866 25 14
3.8950 0.1793 -0.2271 0.9793 25 14
3.9041 0.3373 -0.2282 0.9816 25 14
3.9130 0.4972 -0.2297 0.9752 25 14
3.9220 0.6595 -0.2316 0.9672 25 14
7.5777 1.5897 -0.4510 0.3636 0 1
7.5898 1.9136 -0.4559 0.3596 0 1
7.5999 2.2446 -0.4615 0.3554 0 1
7.6081 2.5838 -0.4680 0.3505 0 1
7.6147 2.9323 -0.4753 0.3451 0 1
7.6194 3.2915 -0.4834 0.3393 0 1
7.6223 3.6630 -0.4926 0.3330 0 1
7.6232 4.0483 -0.5027 0.3230 0 1
7.5920 4.4317 -0.5120 0.3296 0 1
7.5485 4.8232 -0.5217 0.3235 0 1
7.5012 5.2291 -0.5326 0.3169 0 1
7.4497 5.6512 -0.5446 0.3099 0 1
7.3975 6.0951 -0.5583 0.3021 0 1
-35.5452 -32.9597 -3.3627 0.9430 0 20
-33.7619 -33.9294 -3.3204 0.9558 0 20
-33.6429 -36.6440 -3.4509 0.2113 0 20
-0.8760 -45.7360 -3.1733 0.0533 0 24
0.8079 -38.3759 -2.6627 0.0725 0 1
1.6030 -26.1396 -1.8167 0.9312 0 20
2.7553 -27.0673 -1.8874 0.0977 0 2
3.4006 -23.8474 -1.6710 0.1104 0 2
3.9106 -21.2676 -1.5001 0.1230 0 2
4.2001 -18.6039 -1.3230 0.9813 0 6
4.7207 -17.5870 -1.2632 0.9321 0 2
5.2296 -16.7609 -1.2180 0.1762 0 2
5.3537 -15.0087 -1.1054 0.1460 0 1
5.5365 -13.7483 -1.0282 0.1867 0 1
5.7329 -12.7337 -0.9687 0.1967 0 1
5.9046 -11.8215 -0.9167 0.2093 0 1
6.0579 -10.9990 -0.8711 0.2203 0 1
6.1932 -10.2473 -0.8306 0.2299 0 1
6.3050 -9.5436 -0.7935 0.2341 0 1
6.4029 -8.8928 -0.7602 0.2591 0 1
6.4991 -8.3013 -0.7314 0.2693 0 1
6.5859 -7.7492 -0.7055 0.2792 0 1
6.6768 -7.2447 -0.6834 0.2984 0 1
6.7632 -6.7710 -0.6639 0.2641 0 1
6.8032 -6.2844 -0.6425 0.2729 0 1
6.8382 -5.8252 -0.6232 0.2814 0 1
6.6578 -5.2248 -0.5871 0.3151 0 25
6.6994 -4.8354 -0.5731 0.3227 0 25
6.2966 -4.1703 -0.5239 0.3300 14 6
6.5905 -3.9935 -0.5346 0.5223 14 6
6.8014 -3.7562 -0.5390 0.3432 0 25
6.8287 -3.4206 -0.5298 0.3491 0 25
6.8531 -3.0949 -0.5216 0.3546 0 25
6.8748 -2.7777 -0.5144 0.3596 0 25
6.8956 -2.4687 -0.5081 0.3618 0 2
7.1390 -2.2365 -0.5190 0.3679 0 1
7.1651 -1.9321 -0.5148 0.3722 0 1
7.1902 -1.6320 -0.5115 0.3746 0 1
4.0222 -0.7444 -0.2838 0.3038 25 14
3.9077 -0.5618 -0.2739 0.9736 25 14
3.8993 -0.4015 -0.2719 0.9806 25 14
3.8908 -0.2431 -0.2704 0.9860 25 14
3.8795 -0.0861 -0.2692 0.9832 25 14
3.8744 0.0697 -0.2688 0.9846 25 14
3.8898 0.2266 -0.2703 0.9865 25 14
3.8986 0.3848 -0.2718 0.9812 25 14
3.9074 0.5450 -0.2737 0.9743 25 14
3.9820 0.7196 -0.2807 0.3072 25 14
7.3678 1.6398 -0.5236 0.3727 0 1
7.3766 1.9559 -0.5294 0.3686 0 1
7.3832 2.2790 -0.5360 0.3642 0 1
7.3877 2.6099 -0.5435 0.3592 0 1
7.3900 2.9498 -0.5520 0.3537 0 1
7.3902 3.3001 -0.5615 0.3477 0 1
7.3881 3.6621 -0.5720 0.3413 0 1
7.3765 4.0335 -0.5832 0.3314 0 1
7.3428 4.4073 -0.5941 0.3381 0 1
7.2952 4.7877 -0.6053 0.3319 0 1
7.2432 5.1817 -0.6178 0.3251 0 1
7.1866 5.5911 -0.6316 0.3180 0 1
7.1319 6.0239 -0.6476 0.3100 0 1
7.0443 6.4524 -0.6627 0.3430 0 1
6.9257 6.8757 -0.6770 0.3358 0 1
6.8022 7.3189 -0.6931 0.3222 0 1
6.6853 7.7995 -0.7126 0.3133 0 1
6.6342 8.4010 -0.7426 0.2775 0 2
6.3203 8.7008 -0.7460 0.9733 0 2
6.1071 9.1600 -0.7637 0.2415 0 2
6.0010 9.8356 -0.7993 0.2308 0 2
5.8815 10.5734 -0.8393 0.2198 0 2
5.7463 11.3846 -0.8846 0.2085 0 2
5.5924 12.2833 -0.9363 0.1970 0 2
5.4160 13.2876 -0.9954 0.1853 0 2
5.2123 14.4204 -1.0637 0.1734 0 2
4.9749 15.7120 -1.1433 0.1613 0 2
4.6952 17.2029 -1.2370 0.1491 0 2
4.3617 18.9485 -1.3488 0.1367 0 2
3.9577 21.0270 -1.4843 0.1243 0 2
2.2939 15.6163 -1.0949 0.6354 0 9
2.1995 20.7418 -1.4469 0.6750 0 20
1.5208 23.2023 -1.6130 0.9952 0 20
0.9583 37.9413 -2.6328 0.0714 0 1
-0.6759 45.2184 -3.1372 0.0681 0 1
-30.5841 36.4346 -3.2999 0.6250 0 3
-29.6897 32.6123 -3.0594 0.2538 0 3
-30.6377 31.0497 -3.0260 0.6815 0 3
-30.6591 28.6696 -2.9118 0.7083 0 3
-19.1582 16.5230 -1.7550 0.9833 0 6
-28.8487 22.9250 -2.5562 0.9782 0 3
-30.7039 22.4470 -2.6384 0.7816 0 3
-30.3622 20.3769 -2.5366 0.1977 0 3
-30.1124 18.4987 -2.4516 0.2050 0 3
-29.9581 16.7843 -2.3821 0.2190 0 3
-34.9138 17.7564 -2.7172 0.4580 0 3
-40.9502 18.7949 -3.1256 0.8788 0 3
-40.8779 16.8073 -3.0660 0.8019 0 3
-34.2985 -33.6376 -3.3326 0.9523 0 20
-32.9883 -35.0625 -3.3396 0.3880 0 20
-18.5422 -27.4472 -2.2978 0.8102 0 22
-1.5555 -49.5963 -3.4422 0.0501 0 1
0.3573 -40.3951 -2.8023 0.0689 0 1
1.6061 -32.7216 -2.2726 0.0812 0 2
2.5243 -28.2108 -1.9648 0.0939 0 2
3.2213 -24.7466 -1.7312 0.1065 0 2
3.7675 -21.9953 -1.5480 0.1191 0 2
4.2065 -19.7511 -1.4009 0.1317 0 2
5.1337 -17.1884 -1.2444 0.1725 0 2
5.3025 -15.4587 -1.1337 0.1424 0 1
5.4718 -14.0810 -1.0480 0.1832 0 1
5.6759 -13.0296 -0.9859 0.1932 0 1
5.8547 -12.0883 -0.9317 0.2033 0 1
6.0133 -11.2405 -0.8843 0.2170 0 1
6.1543 -10.4694 -0.8425 0.2278 0 1
6.2746 -9.7544 -0.8046 0.2309 0 1
6.3716 -9.0810 -0.7695 0.2560 0 1
6.4709 -8.4764 -0.7398 0.2663 0 1
6.5605 -7.9130 -0.7130 0.2762 0 1
6.6488 -7.3934 -0.6898 0.2956 0 1
6.7383 -6.9128 -0.6697 0.3045 0 1
6.7916 -6.4290 -0.6487 0.2703 0 1
6.8281 -5.9619 -0.6288 0.2789 0 1
6.6455 -5.3474 -0.5917 0.3128 0 2
6.6873 -4.9518 -0.5772 0.3205 0 25
6.2864 -4.2748 -0.5274 0.3278 14 6
6.4144 -3.9946 -0.5242 0.5326 14 6
6.7925 -3.8602 -0.5420 0.3413 0 25
6.8207 -3.5214 -0.5325 0.3474 0 25
6.8460 -3.1928 -0.5240 0.3530 0 25
6.8685 -2.8732 -0.5165 0.3581 0 25
6.8884 -2.5613 -0.5098 0.3628 0 25
7.0665 -2.3088 -0.5157 0.5760 0 2
7.1570 -2.0239 -0.5160 0.3713 0 1
7.1828 -1.7228 -0.5124 0.3739 0 1
4.1576 -0.8220 -0.2940 0.2723 25 14
3.9103 -0.6110 -0.2745 0.9712 25 14
3.9018 -0.4499 -0.2725 0.9787 25 14
3.8934 -0.2910 -0.2708 0.9845 25 14
3.8850 -0.1337 -0.2697 0.9888 25 14
3.8669 0.0224 -0.2683 0.9867 25 14
3.8871 0.1789 -0.2699 0.9878 25 14
3.8959 0.3366 -0.2713 0.9830 25 14
3.9047 0.4962 -0.2730 0.9766 25 14
3.9136 0.6581 -0.2753 0.9686 25 14
7.3648 1.5450 -0.5220 0.3738 0 1
7.3742 1.8593 -0.5276 0.3699 0 1
7.3815 2.1801 -0.5339 0.3656 0 1
7.3865 2.5085 -0.5411 0.3608 0 1
7.3895 2.8456 -0.5493 0.3554 0 1
7.3904 3.1926 -0.5585 0.3496 0 1
7.3890 3.5509 -0.5687 0.3433 0 1
7.3819 3.9202 -0.5798 0.3333 0 1
7.3565 4.2943 -0.5909 0.3399 0 1
7.3101 4.6708 -0.6018 0.3338 0 1
7.2595 5.0605 -0.6139 0.3272 0 1
7.2043 5.4651 -0.6273 0.3202 0 1
7.1483 5.8898 -0.6425 0.3124 0 1
-35.4809 -32.9001 -3.8958 0.9447 0 20
-33.6141 -33.7809 -3.8369 0.8977 0 20
-33.1836 -36.1438 -3.9505 0.3790 0 20
-19.6634 -27.4196 -2.7167 0.2899 0 6
-2.8586 -48.1098 -3.8803 0.0484 0 1
-0.7490 -39.1076 -3.1493 0.0735 0 1
0.7046 -33.4680 -2.6952 0.0828 0 1
1.6064 -26.1960 -2.1131 0.8048 0 20
2.4871 -24.4321 -1.9773 0.1082 0 2
3.1042 -21.7686 -1.7704 0.1208 0 2
3.6018 -19.5884 -1.6036 0.1334 0 2
4.0840 -18.0896 -1.4931 0.8845 0 2
4.6011 -17.1412 -1.4290 0.1738 0 2
4.7946 -15.3668 -1.2961 0.1444 0 1
5.0075 -14.0381 -1.2000 0.1880 0 1
5.2402 -13.0125 -1.1295 0.1971 0 1
5.4418 -12.0871 -1.0673 0.2086 0 1
5.6210 -11.2536 -1.0128 0.2197 0 1
5.7807 -10.4957 -0.9647 0.2307 0 1
5.9208 -9.7966 -0.9216 0.2338 0 1
6.0403 -9.1429 -0.8823 0.2589 0 1
6.1531 -8.5458 -0.8479 0.2694 0 1
6.2548 -7.9892 -0.8169 0.2796 0 1
6.3507 -7.4724 -0.7896 0.2995 0 1
6.4493 -6.9979 -0.7662 0.2654 0 1
6.5021 -6.5096 -0.7408 0.2745 0 1
6.5487 -6.0493 -0.7178 0.2833 0 1
6.5863 -5.6106 -0.6966 0.2852 0 1
6.4423 -5.0557 -0.6593 0.3253 0 25
6.4876 -4.6824 -0.6442 0.3330 0 25
6.2919 -4.1672 -0.6076 0.7587 14 6
6.5654 -3.9783 -0.6181 0.3471 0 25
6.5987 -3.6443 -0.6069 0.3534 0 25
6.6286 -3.3204 -0.5969 0.3594 0 25
6.6553 -3.0056 -0.5880 0.3648 0 25
6.6790 -2.6986 -0.5800 0.3699 0 25
6.7467 -2.4154 -0.5770 0.6626 0 2
6.9399 -2.1741 -0.5855 0.3782 0 1
6.9675 -1.8788 -0.5810 0.3824 0 1
6.9932 -1.5873 -0.5774 0.3848 0 1
3.9606 -0.7330 -0.3243 0.3082 25 14
3.8993 -0.5606 -0.3172 0.9749 25 14
3.8909 -0.4006 -0.3149 0.9819 25 14
3.8826 -0.2426 -0.3132 0.9873 25 14
3.8742 -0.0860 -0.3120 0.9911 25 14
3.8711 0.0697 -0.3117 0.9847 25 14
3.8816 0.2262 -0.3131 0.9878 25 14
3.8904 0.3840 -0.3148 0.9824 25 14
3.8991 0.5439 -0.3170 0.9756 25 14
3.9275 0.7098 -0.3213 0.3112 25 14
7.1655 1.5947 -0.5910 0.3829 0 1
7.1719 1.9017 -0.5974 0.3788 0 1
7.1759 2.2150 -0.6047 0.3744 0 1
7.1774 2.5356 -0.6129 0.3694 0 1
7.1765 2.8646 -0.6221 0.3639 0 1
7.1731 3.2032 -0.6325 0.3579 0 1
7.1671 3.5526 -0.6440 0.3515 0 1
7.1486 3.9088 -0.6560 0.3416 0 1
7.1204 4.2738 -0.6686 0.3484 0 1
7.0701 4.6400 -0.6809 0.3421 0 1
7.0154 5.0187 -0.6945 0.3354 0 1
6.9556 5.4114 -0.7095 0.3283 0 1
6.8974 5.8258 -0.7269 0.3202 0 1
6.8351 6.2608 -0.7463 0.3532 0 1
6.7158 6.6672 -0.7619 0.3460 0 1
6.5887 7.0892 -0.7792 0.3383 0 1
6.4691 7.5472 -0.8003 0.3236 0 1
6.3408 8.0294 -0.8238 0.3144 0 1
6.2780 8.6425 -0.8600 0.2782 0 2
5.9103 8.8648 -0.8578 0.9816 0 2
5.7389 9.4060 -0.8871 0.2411 0 2
5.6123 10.0894 -0.9296 0.2301 0 2
5.4698 10.8367 -0.9774 0.2189 0 2
5.3084 11.6595 -1.0315 0.2074 0 2
5.1245 12.5724 -1.0931 0.1957 0 2
4.9136 13.5940 -1.1638 0.1838 0 2
4.6698 14.7484 -1.2456 0.1717 0 2
4.3852 16.0671 -1.3409 0.1595 0 2
4.0495 17.5925 -1.4535 0.1472 0 2
3.6483 19.3829 -1.5880 0.1347 0 2
1.9929 13.5670 -1.1041 0.2568 0 20
2.5584 24.1261 -1.9534 0.1095 0 2
1.5207 23.2018 -1.8721 0.9944 0 20
0.8368 33.1315 -2.6684 0.0806 0 1
-0.5832 39.0140 -3.1415 0.0689 0 1
-2.5784 46.7089 -3.7664 0.0669 0 1
-31.6186 37.6669 -3.9596 0.7677 0 3
-30.4484 33.4456 -3.6416 0.6568 0 3
-30.4797 30.8895 -3.4939 0.6845 0 3
-29.5424 27.6254 -3.2565 0.9723 0 3
-30.5305 26.3310 -3.2460 0.7368 0 3
-30.5508 24.2777 -3.1419 0.7612 0 3
-30.5658 22.3460 -3.0485 0.7845 0 3
-30.5807 20.5235 -2.9653 0.8065 0 3
-30.5934 18.7942 -2.8909 0.8272 0 3
-31.3207 17.5477 -2.8906 0.5310 0 3
-34.9120 17.7555 -3.1535 0.4577 0 3
-40.7862 18.7196 -3.6132 0.8816 0 3
-45.9293 18.8843 -3.9983 0.8970 0 3
-45.8760 16.7404 -3.9319 0.7953 0 3
-34.2299 -33.5704 -3.8602 0.8923 0 20
-32.6970 -34.7529 -3.8418 0.3912 0 20
-20.1878 -27.4376 -2.7426 0.7796 0 22
-18.5472 -27.4546 -2.6676 0.8094 0 22
-1.2934 -41.2384 -3.3219 0.0675 0 1
0.3097 -35.0052 -2.8185 0.0792 0 1
1.4215 -28.9604 -2.3345 0.0916 0 2
2.2695 -25.3630 -2.0502 0.1043 0 2
2.9313 -22.5188 -1.8284 0.1170 0 2
3.4613 -20.2076 -1.6507 0.1296 0 2
3.8947 -18.2872 -1.5054 0.1421 0 2
4.4898 -17.5809 -1.4609 0.1700 0 2
4.7218 -15.8095 -1.3284 0.1471 0 1
4.9360 -14.3901 -1.2249 0.1528 0 1
5.1736 -13.3137 -1.1500 0.1936 0 1
5.3834 -12.3579 -1.0853 0.2051 0 1
5.5689 -11.4982 -1.0286 0.2175 0 1
5.7342 -10.7187 -0.9787 0.2274 0 1
5.8811 -10.0047 -0.9344 0.2370 0 1
6.0037 -9.3331 -0.8935 0.2557 0 1
6.1201 -8.7225 -0.8579 0.2663 0 1
6.2250 -8.1542 -0.8260 0.2766 0 1
6.3198 -7.6227 -0.7972 0.2865 0 1
6.4203 -7.1393 -0.7731 0.3059 0 1
6.4867 -6.6547 -0.7482 0.2718 0 1
6.5352 -6.1862 -0.7245 0.2807 0 1
6.5779 -5.7434 -0.7031 0.2892 0 1
6.4289 -5.1731 -0.6644 0.3223 0 2
6.4743 -4.7941 -0.6486 0.3307 0 25
6.2945 -4.2803 -0.6129 0.7522 14 6
6.4146 -3.9948 -0.6084 0.5321 14 6
6.5890 -3.7445 -0.6102 0.3516 0 25
6.6198 -3.4177 -0.5998 0.3576 0 25
6.6475 -3.1002 -0.5906 0.3632 0 25
6.6721 -2.7910 -0.5823 0.3684 0 25
6.6948 -2.4894 -0.5751 0.3708 0 2
6.9314 -2.2647 -0.5871 0.3772 0 1
6.9592 -1.9680 -0.5823 0.3816 0 1
6.9857 -1.6755 -0.5784 0.3841 0 1
4.0985 -0.8103 -0.3364 0.2760 25 14
3.9018 -0.6097 -0.3180 0.9725 25 14
3.8935 -0.4489 -0.3156 0.9799 25 14
3.8851 -0.2904 -0.3137 0.9858 25 14
3.8768 -0.1334 -0.3123 0.9901 25 14
3.8637 0.0224 -0.3111 0.9867 25 14
3.8790 0.1785 -0.3126 0.9891 25 14
3.8877 0.3359 -0.3142 0.9842 25 14
3.8965 0.4951 -0.3162 0.9778 25 14
3.9053 0.6567 -0.3188 0.9698 25 14
4.6427 0.9740 -0.3819 0.0055 25 14
7.1702 1.8079 -0.5954 0.3801 0 1
7.1750 2.1191 -0.6024 0.3759 0 1
7.1772 2.4374 -0.6103 0.3710 0 1
7.1770 2.7638 -0.6192 0.3656 0 1
7.1744 3.0993 -0.6292 0.3598 0 1
7.1692 3.4453 -0.6404 0.3535 0 1
7.1551 3.7997 -0.6523 0.3436 0 1
7.1324 4.1635 -0.6649 0.3370 0 1
7.0858 4.5276 -0.6770 0.3441 0 1
7.0325 4.9023 -0.6902 0.3375 0 1
6.9743 5.2906 -0.7048 0.3305 0 1
6.9150 5.6976 -0.7214 0.3227 0 1
-35.6237 -33.0325 -4.4539 0.8802 0 20
-33.5705 -33.7371 -4.3633 0.8985 0 20
-32.9040 -35.8393 -4.4604 0.5364 0 20
-18.0553 -27.4425 -3.0116 0.8228 0 22
-2.3855 -40.1472 -3.6871 0.0704 0 1
-0.6513 -34.0087 -3.1184 0.0807 0 1
0.6246 -29.6689 -2.7206 0.0936 0 1
1.5336 -25.0077 -2.2969 0.1059 0 2
2.2661 -22.2610 -2.0514 0.1186 0 2
2.8549 -20.0203 -1.8540 0.1312 0 2
3.4430 -18.7247 -1.7454 0.7665 0 2
3.9001 -17.2750 -1.6236 0.1288 0 1
4.2098 -15.6834 -1.4887 0.1493 0 1
4.4673 -14.3177 -1.3750 0.1548 0 1
4.7398 -13.2876 -1.2934 0.1958 0 1
4.9736 -12.3504 -1.2206 0.2075 0 1
5.1809 -11.5075 -1.1570 0.2200 0 1
5.3644 -10.7398 -1.1006 0.2313 0 1
5.5278 -10.0366 -1.0505 0.2423 0 1
5.6741 -9.3883 -1.0057 0.2584 0 1
5.8042 -8.7856 -0.9653 0.2692 0 1
5.9216 -8.2244 -0.9291 0.2797 0 1
6.0278 -7.6993 -0.8964 0.2899 0 1
6.1349 -7.2186 -0.8685 0.3097 0 1
6.2012 -6.7287 -0.8389 0.2758 0 1
6.2599 -6.2672 -0.8121 0.2849 0 1
6.3121 -5.8307 -0.7878 0.2937 0 1
6.3502 -5.4096 -0.7648 0.2956 0 1
6.2400 -4.8969 -0.7272 0.3356 0 25
6.2883 -4.5386 -0.7110 0.3432 0 25
6.3214 -4.1867 -0.6951 0.7544 14 6
6.3717 -3.8609 -0.6830 0.3573 0 25
6.4074 -3.5386 -0.6710 0.3636 0 25
6.4395 -3.2257 -0.6603 0.3696 0 25
6.4682 -2.9211 -0.6507 0.3750 0 25
6.4948 -2.6242 -0.6422 0.3773 0 2
6.7213 -2.4063 -0.6545 0.3849 0 1
6.7513 -2.1150 -0.6486 0.3897 0 1
6.7802 -1.8283 -0.6438 0.3926 0 1
6.8063 -1.5449 -0.6399 0.3950 0 1
3.9007 -0.7219 -0.3637 0.3127 25 14
3.8909 -0.5594 -0.3604 0.9761 25 14
3.8826 -0.3998 -0.3578 0.9830 25 14
3.8743 -0.2421 -0.3559 0.9884 25 14
3.8660 -0.0858 -0.3545 0.9922 25 14
3.8648 0.0696 -0.3544 0.9926 25 14
3.8735 0.2257 -0.3557 0.9889 25 14
3.8822 0.3832 -0.3576 0.9836 25 14
3.8909 0.5427 -0.3602 0.9767 25 14
3.8996 0.7047 -0.3633 0.9683 25 14
6.9736 1.5521 -0.6550 0.3931 0 1
6.9779 1.8502 -0.6618 0.3890 0 1
6.9795 2.1543 -0.6697 0.3846 0 1
6.9784 2.4653 -0.6785 0.3796 0 1
6.9746 2.7840 -0.6885 0.3741 0 1
6.9680 3.1116 -0.6996 0.3681 0 1
6.9574 3.4486 -0.7119 0.3581 0 1
6.9340 3.7915 -0.7245 0.3519 0 1
6.9068 4.1456 -0.7385 0.3452 0 1
6.8582 4.5009 -0.7521 0.3524 0 1
6.8010 4.8653 -0.7666 0.3457 0 1
6.7386 5.2426 -0.7827 0.3386 0 1
6.6774 5.6400 -0.8013 0.3305 0 1
6.6119 6.0564 -0.8220 0.3221 0 1
6.5178 6.4707 -0.8420 0.3561 0 1
6.3902 6.8756 -0.8605 0.3485 0 1
6.2661 7.3104 -0.8827 0.3337 0 1
6.1362 7.7703 -0.9077 0.3245 0 1
5.9959 8.2542 -0.9353 0.3150 0 1
5.9061 8.8585 -0.9761 0.9814 0 2
5.5243 9.0543 -0.9724 0.9960 0 2
5.3663 9.6471 -1.0120 0.2404 0 2
5.2182 10.3383 -1.0617 0.2292 0 2
5.0514 11.0950 -1.1176 0.2177 0 2
4.8623 11.9292 -1.1810 0.2060 0 2
4.6468 12.8560 -1.2532 0.1942 0 2
4.3995 13.8948 -1.3362 0.1821 0 2
4.1132 15.0703 -1.4321 0.1699 0 2
3.7786 16.4156 -1.5443 0.1576 0 2
3.3833 17.9750 -1.6768 0.1451 0 2
1.9751 13.4461 -1.2459 0.9867 0 20
2.3336 22.0058 -2.0288 0.1199 0 2
1.6184 24.6916 -2.2685 0.1073 0 2
0.7472 29.5836 -2.7130 0.1011 0 1
-0.5077 33.9642 -3.1141 0.0878 0 1
-2.2100 40.0351 -3.6759 0.0723 0 1
-4.5908 48.0037 -4.4209 0.0662 0 24
-28.4022 39.9590 -4.4945 0.4206 0 3
-31.6176 37.6657 -4.5084 0.7670 0 3
-30.2853 33.2665 -4.1243 0.6597 0 3
-32.2314 32.6648 -4.2070 0.7135 0 3
-30.3559 28.3861 -3.8101 0.7141 0 3
-19.1396 16.5070 -2.3171 0.7891 0 6
-30.4095 24.1654 -3.5609 0.7640 0 3
-30.4286 22.2457 -3.4556 0.7873 0 3
-30.4472 20.4339 -3.3617 0.8093 0 3
-30.4631 18.7142 -3.2777 0.8300 0 3
-31.7272 17.7754 -3.3341 0.4925 0 3
-33.0040 16.7851 -3.3946 0.1956 0 3
-40.6233 18.6448 -4.0978 0.8843 0 3
-40.8595 16.7998 -4.0502 0.8074 0 3
-44.0524 16.0749 -4.2991 0.3475 0 3
-34.1850 -33.5263 -4.3897 0.8931 0 20
-32.7497 -34.8089 -4.3816 0.5461 0 20
-20.2183 -27.4791 -3.1276 0.6843 0 22
-18.5562 -27.4679 -3.0390 0.8594 0 22
-3.0474 -42.5171 -3.9079 0.0636 0 1
-1.1175 -35.6300 -3.2681 0.0756 0 1
0.2731 -30.8689 -2.8301 0.0900 0 1
1.3443 -27.3869 -2.5138 0.1023 0 2
2.0611 -23.0337 -2.1201 0.1148 0 2
2.6888 -20.6560 -1.9097 0.1274 0 2
3.2468 -18.9555 -1.7631 0.7588 0 2
3.8282 -17.9751 -1.6849 0.1665 0 2
4.1175 -16.1228 -1.5255 0.1457 0 1
4.3965 -14.7202 -1.4084 0.1512 0 1
4.6610 -13.5886 -1.3170 0.1948 0 1
4.9058 -12.6245 -1.2417 0.2039 0 1
5.1205 -11.7545 -1.1754 0.2170 0 1
5.3109 -10.9656 -1.1170 0.2279 0 1
5.4801 -10.2439 -1.0651 0.2390 0 1
5.6317 -9.5804 -1.0188 0.2551 0 1
5.7662 -8.9639 -0.9771 0.2659 0 1
5.8872 -8.3907 -0.9397 0.2765 0 1
5.9966 -7.8552 -0.9060 0.2868 0 1
6.1024 -7.3604 -0.8765 0.3069 0 1
6.1819 -6.8742 -0.8476 0.2729 0 1
6.2428 -6.4045 -0.8199 0.2821 0 1
6.2969 -5.9607 -0.7949 0.2910 0 1
6.3415 -5.5370 -0.7718 0.2929 0 1
6.2255 -5.0095 -0.7326 0.3364 0 2
6.2741 -4.6459 -0.7157 0.3409 0 25
6.3193 -4.2972 -0.7006 0.3483 0 25
6.3601 -3.9608 -0.6869 0.3552 0 25
6.3970 -3.6354 -0.6745 0.3618 0 25
6.4301 -3.3198 -0.6634 0.3678 0 25
6.4599 -3.0127 -0.6535 0.3734 0 25
6.4880 -2.7140 -0.6447 0.3758 0 2
6.6347 -2.4670 -0.6489 0.7358 0 2
6.7425 -2.2030 -0.6503 0.3874 0 1
6.7718 -1.9150 -0.6452 0.3918 0 1
6.7987 -1.6306 -0.6410 0.3943 0 1
4.0409 -0.7989 -0.3776 0.2797 25 14
3.8934 -0.6084 -0.3613 0.9737 25 14
3.8851 -0.4480 -0.3585 0.9811 25 14
3.8769 -0.2898 -0.3564 0.9870 25 14
3.8685 -0.1331 -0.3549 0.9913 25 14
3.8604 0.0224 -0.3539 0.9866 25 14
3.8709 0.1782 -0.3552 0.9902 25 14
3.8796 0.3352 -0.3570 0.9854 25 14
3.8883 0.4941 -0.3593 0.9789 25 14
3.8970 0.6553 -0.3623 0.9710 25 14
4.1845 0.8778 -0.3920 0.3259 25 14
6.9768 1.7591 -0.6596 0.3903 0 1
6.9794 2.0614 -0.6672 0.3859 0 1
6.9790 2.3701 -0.6757 0.3811 0 1
6.9760 2.6864 -0.6853 0.3758 0 1
6.9703 3.0112 -0.6961 0.3700 0 1
6.9618 3.3456 -0.7081 0.3637 0 1
6.9415 3.6863 -0.7205 0.3538 0 1
6.9155 4.0368 -0.7341 0.3473 0 1
6.8746 4.3926 -0.7479 0.3543 0 1
6.8189 4.7534 -0.7620 0.3477 0 1
6.7581 5.1266 -0.7777 0.3408 0 1
6.6961 5.5172 -0.7954 0.3329 0 1
-35.5794 -32.9914 -4.9911 0.8804 0 20
-33.4112 -33.5770 -4.8725 0.8117 0 20
-32.6948 -35.6114 -4.9728 0.5379 0 20
-18.0609 -27.4511 -3.3801 0.7968 0 22
-4.1278 -41.3286 -4.2724 0.0636 0 1
-2.0694 -34.8270 -3.5888 0.0796 0 1
-0.5759 -30.0681 -3.0935 0.0877 0 1
0.5604 -26.6215 -2.7390 0.0981 0 1
1.4250 -23.2370 -2.3947 0.1714 0 2
2.1133 -20.7606 -2.1466 0.5143 0 2
2.7860 -19.5374 -2.0300 0.1529 0 2
3.2335 -17.5853 -1.8392 0.1275 0 1
3.6072 -15.9778 -1.6849 0.1479 0 1
3.9273 -14.6311 -1.5583 0.1531 0 1
4.2259 -13.5441 -1.4594 0.1971 0 1
4.4968 -12.6065 -1.3768 0.2061 0 1
4.7331 -11.7534 -1.3033 0.2193 0 1
4.9432 -10.9797 -1.2386 0.2303 0 1
5.1298 -10.2702 -1.1809 0.2416 0 1
5.2975 -9.6184 -1.1295 0.2543 0 1
5.4485 -9.0150 -1.0835 0.2646 0 1
5.5845 -8.4529 -1.0421 0.2751 0 1
5.7065 -7.9257 -1.0046 0.2899 0 1
5.8196 -7.4334 -0.9711 0.2670 0 1
5.8996 -6.9417 -0.9371 0.2767 0 1
5.9710 -6.4789 -0.9063 0.2861 0 1
6.0347 -6.0417 -0.8784 0.2952 0 1
6.0916 -5.6270 -0.8530 0.3040 0 1
6.1368 -5.2277 -0.8292 0.3379 0 1
6.0502 -4.7479 -0.7911 0.3461 0 2
6.1006 -4.4031 -0.7739 0.3534 0 25
6.1469 -4.0711 -0.7584 0.3606 0 25
6.1888 -3.7501 -0.7444 0.3674 0 25
6.2266 -3.4387 -0.7317 0.3738 0 25
6.2606 -3.1361 -0.7203 0.3797 0 25
6.2925 -2.8417 -0.7102 0.3862 0 2
6.4274 -2.5969 -0.7131 0.8684 0 2
6.5415 -2.3419 -0.7147 0.3950 0 1
6.5729 -2.0591 -0.7085 0.3998 0 1
6.6024 -1.7804 -0.7034 0.4027 0 1
4.2713 -0.9695 -0.4505 0.3177 25 14
3.8868 -0.7193 -0.4066 0.9509 25 14
3.8784 -0.5576 -0.4030 0.9544 25 14
3.8710 -0.3986 -0.4003 0.9610 25 14
3.8635 -0.2414 -0.3982 0.9661 25 14
3.8559 -0.0856 -0.3967 0.9696 25 14
3.8554 0.0694 -0.3966 0.9699 25 14
3.8647 0.2252 -0.3982 0.9660 25 14
3.8739 0.3824 -0.4004 0.9607 25 14
3.8827 0.5416 -0.4033 0.9777 25 14
3.8913 0.7032 -0.4068 0.9693 25 14
6.7914 1.5115 -0.7157 0.4032 0 1
6.7937 1.8014 -0.7230 0.3991 0 1
6.7933 2.0969 -0.7313 0.3947 0 1
6.7898 2.3986 -0.7407 0.3897 0 1
6.7834 2.7077 -0.7513 0.3842 0 1
6.7740 3.0249 -0.7631 0.3783 0 1
6.7577 3.3496 -0.7758 0.3683 0 1
6.7314 3.6807 -0.7892 0.3621 0 1
6.7013 4.0222 -0.8040 0.3554 0 1
6.6582 4.3697 -0.8192 0.3626 0 1
6.5990 4.7208 -0.8346 0.3559 0 1
6.5344 5.0837 -0.8516 0.3488 0 1
6.4706 5.4654 -0.8712 0.3407 0 1
6.4021 5.8641 -0.8930 0.3323 0 1
6.3268 6.2810 -0.9170 0.3236 0 1
6.2029 6.6741 -0.9372 0.3586 0 1
6.0750 7.0875 -0.9602 0.3438 0 1
5.9440 7.5269 -0.9866 0.3347 0 1
5.8025 7.9880 -1.0156 0.3251 0 1
5.7043 8.5558 -1.0578 0.2886 0 2
5.5219 9.0504 -1.0906 0.9953 0 2
5.1513 9.2607 -1.0900 0.8603 0 2
4.9883 9.8829 -1.1388 0.2395 0 2
4.8176 10.5817 -1.1960 0.2280 0 2
4.6252 11.3475 -1.2605 0.2164 0 2
4.4071 12.1928 -1.3336 0.2045 0 2
4.1583 13.1331 -1.4170 0.1925 0 2
3.8724 14.1883 -1.5128 0.1803 0 2
3.5413 15.3844 -1.6239 0.1679 0 2
3.0489 16.1982 -1.6955 0.1517 0 9
1.9774 13.4618 -1.3996 0.9512 0 20
2.1447 20.2248 -2.0921 0.1304 0 2
1.4733 22.4782 -2.3172 0.1177 0 2
0.6746 26.7086 -2.7482 0.1116 0 1
-0.4513 30.1898 -3.1058 0.0967 0 1
-1.9155 34.6992 -3.5747 0.0804 0 1
-3.9239 41.0301 -4.2398 0.0700 0 1
-29.0760 37.6094 -4.8900 0.9934 0 3
-29.1158 34.6854 -4.6583 0.6349 0 3
-28.4742 31.2771 -4.3508 0.6625 0 3
-32.2304 32.6637 -4.7202 0.7127 0 3
-30.2062 28.2460 -4.2540 0.7168 0 3
-32.0805 27.6678 -4.3577 0.6547 0 3
-30.1124 23.9293 -3.9564 0.9749 0 3
-30.2923 22.1461 -3.8599 0.7899 0 3
-30.1853 20.2581 -3.7394 0.2910 0 3
-30.3337 18.6347 -3.6620 0.8326 0 3
-31.7257 17.7746 -3.7407 0.4920 0 3
-34.9084 17.7537 -4.0285 0.4568 0 3
-38.6282 17.7292 -4.3720 0.4209 0 3
-45.5695 18.7364 -5.0682 0.9023 0 3
-45.9524 16.7683 -5.0317 0.2000 0 3
-34.1186 -33.4611 -4.9157 0.8046 0 20
-32.5376 -34.5834 -4.8844 0.5476 0 20
-20.1919 -27.4431 -3.5047 0.6826 0 22
-18.5372 -27.4398 -3.4063 0.8599 0 22
-4.9302 -43.9346 -4.5476 0.0594 0 1
-2.6220 -36.5830 -3.7727 0.0780 0 1
-0.9783 -31.1926 -3.2102 0.0885 0 24
0.2439 -27.5690 -2.8360 0.1005 0 1
1.2191 -24.8372 -2.5579 0.1127 0 2
1.9017 -21.2521 -2.1948 0.4446 0 2
2.5878 -19.8802 -2.0622 0.6055 0 2
3.4978 -16.4235 -1.7273 0.1442 0 1
3.8378 -15.0278 -1.5954 0.1562 0 1
