ply
format ascii 1.0
element vertex 1379
property float32 x
property float32 y
property float32 z
property float32 CosAngle
property uint32 ObjIdx
property uint32 ObjTag
end_header
-35.6941 -32.6409 -2.8171 0.9773 0 20
-34.1297 -33.8272 -2.7988 0.9519 0 20
-33.3473 -35.8210 -2.8505 0.2164 0 20
0.6569 -46.5223 -2.7099 0.0601 0 1
1.4238 -26.1858 -1.5274 0.8073 0 20
2.9516 -31.1349 -1.8215 0.0851 0 2
3.6559 -26.9738 -1.5854 0.0977 0 2
4.1960 -23.7439 -1.4044 0.1104 0 2
4.6226 -21.1569 -1.2613 0.1229 0 2
4.9676 -19.0326 -1.1457 0.1353 0 2
5.2519 -17.2521 -1.0503 0.1475 0 2
5.7979 -16.6169 -1.0250 0.1762 0 2
5.8757 -14.8875 -0.9322 0.1462 0 1
6.0275 -13.6397 -0.8685 0.1843 0 1
6.1948 -12.6204 -0.8188 0.1955 0 1
6.3388 -11.7002 -0.7750 0.2080 0 1
6.4693 -10.8736 -0.7369 0.2188 0 1
6.5813 -10.1136 -0.7028 0.2283 0 1
6.6720 -9.4034 -0.6715 0.2324 0 1
6.7480 -8.7434 -0.6433 0.2573 0 1
6.8300 -8.1502 -0.6193 0.2672 0 1
6.9053 -7.5977 -0.5980 0.2865 0 1
6.9897 -7.0954 -0.5801 0.2953 0 1
7.0672 -6.6196 -0.5640 0.3038 0 1
7.1011 -6.1346 -0.5466 0.2696 0 1
6.8816 -5.4779 -0.5123 0.3022 0 2
6.9190 -5.0672 -0.4995 0.3111 0 25
6.2995 -4.2353 -0.4421 0.7982 14 6
6.5276 -4.0176 -0.4464 0.3254 14 6
7.0119 -3.9362 -0.4683 0.3318 0 25
7.0368 -3.5862 -0.4600 0.3379 0 25
7.0591 -3.2470 -0.4526 0.3434 0 25
7.0788 -2.9174 -0.4459 0.3485 0 25
7.0962 -2.5961 -0.4401 0.3531 0 25
7.1548 -2.2960 -0.4377 0.5063 0 2
7.3698 -2.0423 -0.4454 0.3602 0 1
7.3941 -1.7323 -0.4423 0.3639 0 1
4.1635 -0.8004 -0.2469 0.2933 25 14
3.9176 -0.5910 -0.2308 0.9709 25 14
3.9091 -0.4299 -0.2291 0.9781 25 14
3.9006 -0.2709 -0.2277 0.9838 25 14
3.8876 -0.1133 -0.2265 0.9817 25 14
3.8734 0.0428 -0.2256 0.9857 25 14
3.8964 0.1999 -0.2272 0.9859 25 14
3.9053 0.3582 -0.2284 0.9809 25 14
3.9142 0.5183 -0.2300 0.9742 25 14
3.9633 0.6879 -0.2343 0.3092 25 14
7.5793 1.6318 -0.4516 0.3631 0 1
7.5911 1.9566 -0.4566 0.3591 0 1
7.6010 2.2885 -0.4623 0.3548 0 1
7.6090 2.6288 -0.4689 0.3498 0 1
7.6153 2.9787 -0.4763 0.3444 0 1
7.6198 3.3394 -0.4846 0.3385 0 1
7.6224 3.7126 -0.4938 0.3322 0 1
7.6213 4.0989 -0.5040 0.3221 0 1
7.5864 4.4822 -0.5132 0.3289 0 1
7.5425 4.8754 -0.5231 0.3227 0 1
7.4946 5.2833 -0.5341 0.3160 0 1
7.4425 5.7077 -0.5463 0.3090 0 1
7.3910 6.1554 -0.5602 0.3010 0 1
7.2858 6.5813 -0.5718 0.3340 0 1
7.1696 7.0197 -0.5844 0.3268 0 1
7.0492 7.4799 -0.5986 0.3134 0 1
7.0061 8.0599 -0.6220 0.2780 0 2
6.8292 8.5255 -0.6362 0.9407 0 2
6.5808 8.9284 -0.6460 0.9146 22 6
6.4009 9.4578 -0.6652 0.2330 0 2
6.3054 10.1750 -0.6972 0.2223 0 2
6.1973 10.9613 -0.7334 0.2113 0 2
6.0746 11.8301 -0.7746 0.2001 0 2
5.9342 12.7978 -0.8216 0.1886 0 2
5.7724 13.8856 -0.8758 0.1769 0 2
5.5845 15.1210 -0.9388 0.1651 0 2
5.3640 16.5409 -1.0128 0.1530 0 2
5.1020 18.1950 -1.1006 0.1408 0 2
4.7864 20.1527 -1.2064 0.1285 0 2
4.3996 22.5137 -1.3361 0.1160 0 2
2.4069 15.6303 -0.9211 0.9582 0 9
2.3349 20.6500 -1.2104 0.8448 0 20
1.6313 22.4947 -1.3136 0.9957 0 6
1.3704 42.5526 -2.4797 0.0730 0 1
-30.3882 37.9153 -3.3707 0.7492 0 3
-30.5972 35.1800 -3.2343 0.6376 0 3
-30.6242 32.4775 -3.0966 0.6660 0 3
-30.6474 29.9903 -2.9746 0.6933 0 3
-30.6674 27.6867 -2.8661 0.7196 0 3
-30.6846 25.5407 -2.7695 0.7447 0 3
-30.6992 23.5304 -2.6832 0.7686 0 3
-30.7091 21.6358 -2.6059 0.7913 0 3
-30.2490 19.5413 -2.4982 0.2011 0 3
-30.0242 17.7279 -2.4187 0.2128 0 3
-30.0450 16.1483 -2.3662 0.4780 0 3
-36.4605 17.7464 -2.8130 0.4425 0 3
-40.4633 17.7203 -3.0643 0.4062 0 3
-45.2601 17.6890 -3.3710 0.3692 0 3
-46.0466 15.8946 -3.3792 0.7835 0 3
-35.3072 -33.0891 -3.3567 0.9447 0 20
-33.5297 -34.0555 -3.3153 0.9573 0 20
-0.6191 -44.7055 -3.1015 0.0629 0 1
0.9989 -37.9001 -2.6300 0.0726 0 1
1.7399 -26.1067 -1.8150 0.9956 0 20
2.8500 -26.5969 -1.8556 0.0994 0 2
3.4746 -23.4750 -1.6462 0.1120 0 2
3.9698 -20.9646 -1.4802 0.1246 0 2
4.2819 -18.5092 -1.3179 0.7769 0 6
4.8042 -17.5266 -1.2607 0.9340 0 2
5.1940 -16.3416 -1.1895 0.1276 0 1
5.3750 -14.8197 -1.0936 0.1476 0 1
5.5637 -13.6073 -1.0198 0.1882 0 1
5.7569 -12.6080 -0.9615 0.1982 0 1
5.9259 -11.7084 -0.9103 0.2108 0 1
6.0767 -10.8961 -0.8655 0.2217 0 1
6.2093 -10.1520 -0.8255 0.2313 0 1
6.3178 -9.4536 -0.7888 0.2355 0 1
6.4161 -8.8122 -0.7562 0.2605 0 1
6.5109 -8.2263 -0.7278 0.2707 0 1
6.5966 -7.6790 -0.7023 0.2805 0 1
6.6886 -7.1809 -0.6808 0.2995 0 1
6.7687 -6.7051 -0.6609 0.2653 0 1
6.8080 -6.2223 -0.6398 0.2741 0 1
6.8418 -5.7661 -0.6207 0.2760 0 1
6.6635 -5.1724 -0.5852 0.3161 0 25
6.2793 -4.4817 -0.5352 0.7995 14 6
6.3009 -4.1253 -0.5224 0.3309 14 6
6.6691 -3.9930 -0.5392 0.5178 14 6
6.8050 -3.7113 -0.5377 0.3440 0 25
6.8320 -3.3771 -0.5287 0.3499 0 25
6.8560 -3.0526 -0.5206 0.3553 0 25
6.8774 -2.7365 -0.5135 0.3602 0 25
6.8976 -2.4283 -0.5073 0.3628 0 2
7.1424 -2.1961 -0.5184 0.3684 0 1
7.1684 -1.8924 -0.5143 0.3725 0 1
7.1932 -1.5927 -0.5111 0.3749 0 1
3.9667 -0.7124 -0.2796 0.3083 25 14
3.9066 -0.5406 -0.2736 0.9746 25 14
3.8982 -0.3805 -0.2717 0.9814 25 14
3.8897 -0.2224 -0.2703 0.9866 25 14
3.8762 -0.0655 -0.2689 0.9842 25 14
3.8777 0.0903 -0.2691 0.9837 25 14
3.8909 0.2474 -0.2705 0.9859 25 14
3.8997 0.4058 -0.2720 0.9804 25 14
3.9086 0.5663 -0.2740 0.9733 25 14
4.0393 0.7521 -0.2850 0.3025 25 14
7.3690 1.6810 -0.5243 0.3722 0 1
7.3776 1.9980 -0.5302 0.3680 0 1
7.3838 2.3220 -0.5369 0.3636 0 1
7.3880 2.6540 -0.5446 0.3585 0 1
7.3901 2.9953 -0.5532 0.3529 0 1
7.3900 3.3470 -0.5628 0.3469 0 1
7.3875 3.7107 -0.5735 0.3404 0 1
7.3740 4.0829 -0.5847 0.3305 0 1
7.3367 4.4566 -0.5955 0.3373 0 1
7.2885 4.8387 -0.6069 0.3310 0 1
7.2360 5.2346 -0.6195 0.3242 0 1
7.1787 5.6462 -0.6336 0.3171 0 1
7.1246 6.0826 -0.6499 0.3089 0 1
7.0290 6.5072 -0.6645 0.3421 0 1
6.9095 6.9325 -0.6790 0.3348 0 1
6.7872 7.3807 -0.6956 0.3210 0 1
6.6692 7.8646 -0.7153 0.3122 0 1
6.6203 8.4751 -0.7460 0.2763 0 2
6.2665 8.7234 -0.7451 0.9745 0 2
6.0937 9.2456 -0.7681 0.2401 0 2
5.9860 9.9288 -0.8043 0.2293 0 2
5.8646 10.6755 -0.8449 0.2183 0 2
5.7271 11.4973 -0.8910 0.2070 0 2
5.5705 12.4088 -0.9436 0.1955 0 2
5.3908 13.4285 -1.0038 0.1837 0 2
5.1830 14.5803 -1.0734 0.1718 0 2
4.9406 15.8955 -1.1547 0.1597 0 2
4.6547 17.4164 -1.2506 0.1475 0 2
4.3129 19.2007 -1.3651 0.1351 0 2
3.8982 21.3303 -1.5042 0.1226 0 2
2.2196 15.6872 -1.0991 0.9246 0 9
2.1162 21.0148 -1.4652 0.2766 0 20
1.3975 23.2015 -1.6124 0.9955 0 20
0.7755 38.8393 -2.6948 0.0697 0 1
-0.9381 46.3574 -3.2165 0.0664 0 1
-29.6232 37.9016 -3.3370 0.6580 0 3
-30.5881 36.0508 -3.2797 0.6288 0 3
-30.6164 33.2753 -3.1367 0.6575 0 3
-30.6407 30.7262 -3.0102 0.6851 0 3
-30.6617 28.3698 -2.8978 0.7117 0 3
-30.6797 26.1783 -2.7977 0.7371 0 3
-28.8442 22.6740 -2.5451 0.8681 0 3
-30.7055 22.2002 -2.6285 0.7846 0 3
-30.3270 20.1216 -2.5247 0.1986 0 3
-30.0823 18.2620 -2.4412 0.2058 0 3
-29.9447 16.5696 -2.3741 0.2181 0 3
-35.3692 17.7535 -2.7453 0.4534 0 3
-40.9509 18.5340 -3.1182 0.8809 0 3
-39.5284 16.0089 -2.9584 0.1896 0 3
-35.8572 -32.7901 -3.3706 0.9408 0 20
-34.0659 -33.7641 -3.3272 0.9538 0 20
-33.1981 -35.6606 -3.3798 0.3834 0 20
-18.3286 -27.4421 -2.2892 0.8205 0 22
-1.2510 -47.9567 -3.3279 0.0519 0 1
0.5577 -39.4973 -2.7402 0.0705 0 1
1.4301 -26.3027 -1.8273 0.4022 0 20
2.6264 -27.7053 -1.9305 0.0955 0 2
3.3003 -24.3502 -1.7046 0.1082 0 2
3.8304 -21.6752 -1.5269 0.1208 0 2
4.2576 -19.4866 -1.3837 0.1333 0 2
4.6122 -17.6710 -1.2669 0.7527 0 2
5.1756 -17.0014 -1.2328 0.1741 0 2
5.3249 -15.2614 -1.1213 0.1439 0 1
5.4698 -13.8591 -1.0336 0.1783 0 24
5.7008 -12.9004 -0.9784 0.1947 0 1
5.8762 -11.9714 -0.9251 0.2074 0 1
6.0327 -11.1352 -0.8785 0.2184 0 1
6.1715 -10.3732 -0.8373 0.2292 0 1
6.2878 -9.6625 -0.7997 0.2323 0 1
6.3851 -8.9991 -0.7654 0.2573 0 1
6.4831 -8.4002 -0.7361 0.2676 0 1
6.5715 -7.8417 -0.7097 0.2775 0 1
6.6609 -7.3288 -0.6870 0.2968 0 1
6.7494 -6.8515 -0.6672 0.3056 0 1
6.7966 -6.3662 -0.6460 0.2715 0 1
6.8324 -5.9025 -0.6263 0.2800 0 1
6.6502 -5.2937 -0.5896 0.3137 0 25
6.6925 -4.9013 -0.5754 0.3214 0 25
6.2907 -4.2295 -0.5258 0.3288 14 6
6.4895 -3.9941 -0.5286 0.5282 14 6
6.7962 -3.8151 -0.5407 0.3421 0 25
6.8241 -3.4778 -0.5313 0.3481 0 25
6.8490 -3.1504 -0.5230 0.3537 0 25
6.8712 -2.8318 -0.5155 0.3588 0 25
7.1344 -2.2895 -0.5198 0.3665 0 1
7.1604 -1.9842 -0.5154 0.3717 0 1
7.1859 -1.6835 -0.5120 0.3742 0 1
4.0975 -0.7877 -0.2895 0.2978 25 14
3.9092 -0.5897 -0.2742 0.9723 25 14
3.9007 -0.4290 -0.2722 0.9795 25 14
3.8923 -0.2703 -0.2707 0.9852 25 14
3.8839 -0.1132 -0.2695 0.9893 25 14
3.8701 0.0428 -0.2685 0.9858 25 14
3.8882 0.1995 -0.2701 0.9873 25 14
3.8971 0.3574 -0.2715 0.9822 25 14
3.9059 0.5172 -0.2733 0.9756 25 14
3.9148 0.6795 -0.2756 0.9674 25 14
7.3660 1.5858 -0.5227 0.3733 0 1
7.3752 1.9009 -0.5283 0.3693 0 1
7.3822 2.2227 -0.5348 0.3650 0 1
7.3870 2.5521 -0.5422 0.3601 0 1
7.3897 2.8904 -0.5504 0.3547 0 1
7.3902 3.2388 -0.5597 0.3488 0 1
7.3885 3.5987 -0.5701 0.3424 0 1
7.3795 3.9688 -0.5813 0.3325 0 1
7.3505 4.3428 -0.5923 0.3392 0 1
7.3036 4.7210 -0.6033 0.3330 0 1
7.2524 5.1126 -0.6155 0.3263 0 1
7.1967 5.5192 -0.6291 0.3193 0 1
7.1412 5.9473 -0.6447 0.3114 0 1
7.0640 6.3809 -0.6603 0.3442 0 1
6.9467 6.8014 -0.6744 0.3370 0 1
6.8218 7.2386 -0.6900 0.3294 0 1
6.7061 7.7147 -0.7091 0.3149 0 1
6.6521 8.3045 -0.7381 0.2792 0 2
6.3911 8.6711 -0.7472 0.9717 0 2
6.1241 9.0488 -0.7580 0.2433 0 2
6.0201 9.7147 -0.7928 0.2326 0 2
5.9031 10.4409 -0.8320 0.2217 0 2
5.7708 11.2385 -0.8764 0.2105 0 2
5.6204 12.1210 -0.9268 0.1990 0 2
5.4482 13.1055 -0.9846 0.1873 0 2
5.2496 14.2141 -1.0511 0.1755 0 2
5.0185 15.4758 -1.1286 0.1634 0 2
4.7469 16.9288 -1.2196 0.1512 0 2
4.4237 18.6256 -1.3280 0.1389 0 2
4.0334 20.6396 -1.4589 0.1264 0 2
2.4066 15.6283 -1.0969 0.9813 0 9
2.1262 18.8040 -1.3127 0.1098 0 20
1.6261 22.4230 -1.5596 0.8691 0 6
1.1857 36.8171 -2.5553 0.0702 0 1
-0.3510 43.8444 -3.0416 0.0686 0 1
-30.3893 37.9167 -3.9123 0.6113 0 3
-28.6215 32.9085 -3.5115 0.8669 0 3
-30.4626 32.3061 -3.5751 0.6690 0 3
-30.4920 29.8382 -3.4349 0.6963 0 3
-30.5176 27.5514 -3.3103 0.7225 0 3
-30.5397 25.4200 -3.1992 0.7476 0 3
-29.5883 22.6789 -3.0016 0.6373 0 3
-30.5726 21.5396 -3.0111 0.7942 0 3
-30.5865 19.7594 -2.9318 0.8157 0 3
-30.5982 18.0668 -2.8610 0.8359 0 3
-31.4002 16.8766 -2.8702 0.4777 0 3
-36.4586 17.7454 -3.2647 0.4421 0 3
-40.4609 17.7192 -3.5564 0.4058 0 3
-40.7385 15.9218 -3.5216 0.5381 0 3
-46.1297 15.9233 -3.9291 0.8344 0 3
-35.2435 -33.0294 -3.8889 0.9464 0 20
-33.3486 -33.8716 -3.8271 0.9000 0 20
-33.4061 -36.7759 -4.0002 0.3743 0 20
-2.5140 -46.4695 -3.7469 0.0473 0 1
-0.5302 -38.2851 -3.0828 0.0750 0 1
0.8655 -32.8398 -2.6450 0.0844 0 1
1.7409 -26.1212 -2.1078 0.9438 0 20
2.5767 -24.0469 -1.9472 0.1098 0 2
3.1758 -21.4564 -1.7464 0.1225 0 2
3.6602 -19.3296 -1.5840 0.1350 0 2
4.1685 -18.0188 -1.4891 0.8869 0 2
4.5789 -16.7044 -1.3945 0.1262 0 1
4.8227 -15.1735 -1.2819 0.1460 0 1
5.0408 -13.8982 -1.1903 0.1895 0 1
5.2682 -12.8847 -1.1208 0.1986 0 1
5.4667 -11.9724 -1.0597 0.2116 0 1
5.6431 -11.1496 -1.0061 0.2212 0 1
5.8003 -10.4005 -0.9588 0.2321 0 1
5.9363 -9.7056 -0.9160 0.2352 0 1
6.0558 -9.0616 -0.8775 0.2603 0 1
6.1670 -8.4702 -0.8436 0.2708 0 1
6.2673 -7.9185 -0.8131 0.2809 0 1
6.3641 -7.4083 -0.7863 0.3007 0 1
6.4565 -6.9317 -0.7627 0.2666 0 1
6.5085 -6.4473 -0.7376 0.2757 0 1
6.5543 -5.9904 -0.7149 0.2845 0 1
6.5890 -5.5530 -0.6938 0.2864 0 1
6.4485 -5.0055 -0.6573 0.3264 0 25
6.3022 -4.4981 -0.6234 0.5634 14 6
6.2908 -4.1187 -0.6054 0.7615 14 6
6.5699 -3.9336 -0.6165 0.3479 0 25
6.6027 -3.6010 -0.6055 0.3542 0 25
6.6322 -3.2784 -0.5957 0.3601 0 25
6.6585 -2.9646 -0.5868 0.3655 0 25
6.6819 -2.6587 -0.5790 0.3705 0 25
6.8001 -2.3939 -0.5804 0.6581 0 2
6.9434 -2.1349 -0.5849 0.3786 0 1
6.9710 -1.8402 -0.5805 0.3828 0 1
6.9963 -1.5491 -0.5769 0.3851 0 1
3.9068 -0.7016 -0.3196 0.3128 25 14
3.8982 -0.5394 -0.3168 0.9759 25 14
3.8898 -0.3797 -0.3147 0.9827 25 14
3.8815 -0.2219 -0.3130 0.9879 25 14
3.8726 -0.0655 -0.3118 0.9843 25 14
3.8740 0.0902 -0.3120 0.9911 25 14
3.8828 0.2469 -0.3132 0.9872 25 14
3.8915 0.4050 -0.3150 0.9816 25 14
3.9003 0.5651 -0.3173 0.9745 25 14
3.9832 0.7416 -0.3262 0.3065 25 14
7.1664 1.6348 -0.5918 0.3824 0 1
7.1725 1.9425 -0.5983 0.3782 0 1
7.1761 2.2567 -0.6057 0.3738 0 1
7.1773 2.5783 -0.6140 0.3687 0 1
7.1761 2.9086 -0.6234 0.3631 0 1
7.1724 3.2485 -0.6339 0.3571 0 1
7.1660 3.5994 -0.6457 0.3506 0 1
7.1456 3.9564 -0.6576 0.3408 0 1
7.1139 4.3213 -0.6702 0.3476 0 1
7.0631 4.6890 -0.6826 0.3413 0 1
7.0077 5.0695 -0.6964 0.3345 0 1
6.9473 5.4642 -0.7116 0.3273 0 1
6.8895 5.8819 -0.7294 0.3192 0 1
6.8197 6.3134 -0.7482 0.3523 0 1
6.6994 6.7217 -0.7641 0.3450 0 1
6.5728 7.1475 -0.7818 0.3312 0 1
6.4527 7.6092 -0.8033 0.3224 0 1
6.3231 8.0947 -0.8270 0.3131 0 1
6.2620 8.7172 -0.8642 0.9744 0 2
5.8579 8.8878 -0.8570 0.9933 0 2
5.7230 9.4925 -0.8924 0.2397 0 2
5.5945 10.1838 -0.9355 0.2286 0 2
5.4496 10.9402 -0.9841 0.2174 0 2
5.2855 11.7740 -1.0391 0.2058 0 2
5.0983 12.7000 -1.1018 0.1941 0 2
4.8835 13.7375 -1.1739 0.1822 0 2
4.6348 14.9115 -1.2572 0.1701 0 2
4.3442 16.2547 -1.3547 0.1579 0 2
4.0008 17.8112 -1.4698 0.1455 0 2
3.5896 19.6418 -1.6076 0.1331 0 2
1.9658 13.8930 -1.1297 0.6047 0 20
2.4683 24.5120 -1.9835 0.1078 0 2
1.3975 23.2010 -1.8714 0.9947 0 20
0.6758 33.8444 -2.7255 0.0881 0 1
-0.8074 39.8966 -3.2129 0.0727 0 1
-2.8974 47.8854 -3.8625 0.0671 0 1
-29.4123 37.6318 -3.8455 0.7446 0 3
-30.2783 35.6856 -3.7680 0.4017 0 3
-30.2802 32.9099 -3.6006 0.9592 0 3
-30.4835 30.5686 -3.4758 0.6881 0 3
-30.5102 28.2296 -3.3467 0.7146 0 3
-30.5333 26.0534 -3.2317 0.7401 0 3
-30.5533 24.0174 -3.1290 0.7643 0 3
-30.5679 22.1007 -3.0370 0.7874 0 3
-30.5825 20.2912 -2.9550 0.8093 0 3
-30.5949 18.5732 -2.8817 0.8299 0 3
-31.5679 17.4677 -2.9048 0.2011 0 3
-35.3674 17.7525 -3.1862 0.4530 0 3
-40.7873 18.4599 -3.6046 0.8837 0 3
-45.9301 18.6016 -3.9898 0.8989 0 3
-35.7921 -32.7305 -3.9050 0.9425 0 20
-33.9627 -33.6617 -3.8500 0.8946 0 20
-32.9015 -35.3420 -3.8877 0.3865 0 20
-19.9773 -27.4539 -2.7337 0.7311 0 22
-18.3312 -27.4460 -2.6573 0.8043 0 22
-1.0499 -40.2495 -3.2417 0.0704 0 1
0.4847 -34.3242 -2.7638 0.0808 0 1
1.5460 -28.4343 -2.2927 0.0933 0 2
2.3655 -24.9524 -2.0180 0.1060 0 2
3.0074 -22.1887 -1.8028 0.1186 0 2
3.5230 -19.9356 -1.6300 0.1312 0 2
3.9732 -18.1845 -1.4986 0.8467 0 2
4.5385 -17.3885 -1.4469 0.1716 0 2
4.7551 -15.6200 -1.3146 0.1486 0 1
4.9390 -14.1554 -1.2071 0.1750 0 24
5.2026 -13.1822 -1.1410 0.1951 0 1
5.4088 -12.2397 -1.0774 0.2066 0 1
5.5915 -11.3914 -1.0217 0.2190 0 1
5.7544 -10.6215 -0.9726 0.2288 0 1
5.8986 -9.9144 -0.9288 0.2384 0 1
6.0196 -9.2503 -0.8886 0.2571 0 1
6.1344 -8.6456 -0.8535 0.2676 0 1
6.2379 -8.0825 -0.8220 0.2779 0 1
6.3327 -7.5568 -0.7938 0.2979 0 1
6.4328 -7.0779 -0.7701 0.3071 0 1
6.4933 -6.5916 -0.7450 0.2730 0 1
6.5410 -6.1267 -0.7216 0.2818 0 1
6.5823 -5.6865 -0.7003 0.2837 0 1
6.4340 -5.1216 -0.6621 0.3240 0 25
6.4800 -4.7457 -0.6467 0.3317 0 25
6.2934 -4.2312 -0.6106 0.7550 14 6
6.4898 -3.9943 -0.6136 0.5277 14 6
6.5931 -3.7011 -0.6088 0.3524 0 25
6.6236 -3.3755 -0.5985 0.3584 0 25
6.6508 -3.0592 -0.5894 0.3639 0 25
6.6751 -2.7510 -0.5813 0.3690 0 25
6.6974 -2.4502 -0.5742 0.3787 0 2
6.9350 -2.2255 -0.5864 0.3776 0 1
6.9627 -1.9295 -0.5817 0.3819 0 1
6.9888 -1.6373 -0.5779 0.3844 0 1
4.0335 -0.7754 -0.3307 0.3023 25 14
3.9008 -0.5885 -0.3176 0.9736 25 14
3.8924 -0.4281 -0.3153 0.9808 25 14
3.8840 -0.2697 -0.3135 0.9865 25 14
3.8757 -0.1130 -0.3122 0.9905 25 14
3.8669 0.0428 -0.3114 0.9858 25 14
3.8801 0.1991 -0.3128 0.9885 25 14
3.8889 0.3567 -0.3144 0.9835 25 14
3.8976 0.5161 -0.3166 0.9769 25 14
3.9064 0.6780 -0.3192 0.9687 25 14
7.1641 1.5424 -0.5900 0.3835 0 1
7.1708 1.8482 -0.5962 0.3796 0 1
7.1753 2.1604 -0.6033 0.3752 0 1
7.1772 2.4796 -0.6114 0.3703 0 1
7.1767 2.8071 -0.6205 0.3649 0 1
7.1738 3.1440 -0.6306 0.3590 0 1
7.1682 3.4914 -0.6420 0.3527 0 1
7.1522 3.8466 -0.6539 0.3427 0 1
7.1285 4.2117 -0.6666 0.3494 0 1
7.0790 4.5759 -0.6787 0.3432 0 1
7.0251 4.9523 -0.6920 0.3366 0 1
6.9662 5.3425 -0.7068 0.3296 0 1
6.9074 5.7526 -0.7238 0.3216 0 1
6.8466 6.1845 -0.7428 0.3134 0 1
6.7368 6.5959 -0.7591 0.3473 0 1
6.6112 7.0150 -0.7761 0.3396 0 1
6.4902 7.4664 -0.7965 0.3251 0 1
6.3636 7.9443 -0.8195 0.3160 0 1
6.2983 8.5451 -0.8547 0.2800 0 2
5.9798 8.8356 -0.8590 0.9803 0 2
5.7592 9.2936 -0.8803 0.2430 0 2
5.6352 9.9670 -0.9219 0.2320 0 2
5.4956 10.7025 -0.9687 0.2208 0 2
5.3377 11.5113 -1.0216 0.2094 0 2
5.1580 12.4074 -1.0819 0.1977 0 2
4.9521 13.4087 -1.1509 0.1859 0 2
4.7145 14.5381 -1.2305 0.1738 0 2
4.4376 15.8257 -1.3233 0.1616 0 2
4.1117 17.3118 -1.4326 0.1493 0 2
3.7230 19.0513 -1.5629 0.1369 0 2
2.0720 13.4552 -1.0961 0.2603 0 20
2.1810 19.2886 -1.5629 0.9579 0 20
1.6418 22.6396 -1.8276 0.5282 0 6
1.0382 32.2360 -2.5968 0.0828 0 1
-0.3028 37.8305 -3.0460 0.0716 0 1
-2.1787 45.1641 -3.6406 0.0681 0 1
-30.2145 37.6986 -4.4292 0.6143 0 3
-28.8957 33.2236 -4.0367 0.9062 0 3
-30.3023 32.1361 -4.0494 0.6719 0 3
-28.5254 27.9138 -3.6589 0.9715 0 3
-18.3136 16.5336 -2.2619 0.6873 0 22
-30.3959 25.3003 -3.6256 0.7504 0 3
-30.4193 23.3158 -3.5137 0.7743 0 3
-30.4370 21.4441 -3.4134 0.7970 0 3
-30.4544 19.6741 -3.3239 0.8184 0 3
-30.4693 17.9907 -3.2439 0.8386 0 3
-30.3156 16.2937 -3.1553 0.8732 0 3
-36.4566 17.7445 -3.7171 0.4417 0 3
-40.4585 17.7182 -4.0492 0.4055 0 3
-45.2542 17.6867 -4.4544 0.3686 0 3
-35.3479 -33.1272 -4.4413 0.8827 0 20
-33.1327 -33.6523 -4.3295 0.8151 0 20
-32.9727 -36.2988 -4.4958 0.5322 0 20
-19.4629 -27.4463 -3.0847 0.7460 0 6
-4.5929 -48.5886 -4.4743 0.0458 0 1
-2.1222 -39.2266 -3.6015 0.0702 0 1
-0.4621 -33.3658 -3.0592 0.0833 0 1
0.7689 -29.1744 -2.6756 0.0952 0 1
1.6402 -24.6098 -2.2612 0.1076 0 2
2.3509 -21.9397 -2.0229 0.1203 0 2
2.9239 -19.7547 -1.8308 0.1329 0 2
3.5281 -18.6316 -1.7385 0.8035 0 2
3.9438 -17.0476 -1.6042 0.1304 0 1
4.2483 -15.4984 -1.4733 0.1509 0 1
4.5040 -14.1707 -1.3632 0.1882 0 1
4.7723 -13.1581 -1.2832 0.1973 0 1
5.0021 -12.2338 -1.2117 0.2090 0 1
5.2063 -11.4021 -1.1491 0.2215 0 1
5.3869 -10.6435 -1.0936 0.2327 0 1
5.5480 -9.9481 -1.0443 0.2437 0 1
5.6919 -9.3061 -1.0001 0.2598 0 1
5.8203 -8.7093 -0.9603 0.2706 0 1
5.9361 -8.1531 -0.9246 0.2810 0 1
6.0409 -7.6324 -0.8924 0.2912 0 1
6.1441 -7.1523 -0.8644 0.2676 0 1
6.2092 -6.6662 -0.8352 0.2770 0 1
6.2671 -6.2082 -0.8087 0.2861 0 1
6.3184 -5.7749 -0.7848 0.2948 0 1
6.3538 -5.3548 -0.7618 0.2967 0 1
6.2465 -4.8488 -0.7249 0.3366 0 25
6.2943 -4.4924 -0.7089 0.3442 0 25
6.3202 -4.1379 -0.6926 0.7572 14 6
6.3766 -3.8178 -0.6814 0.3581 0 25
6.4118 -3.4968 -0.6696 0.3645 0 25
6.4434 -3.1851 -0.6589 0.3703 0 25
6.4717 -2.8815 -0.6495 0.3757 0 25
6.4980 -2.5855 -0.6411 0.3783 0 2
6.7253 -2.3676 -0.6537 0.3854 0 1
6.7552 -2.0770 -0.6479 0.3901 0 1
6.7837 -1.7908 -0.6432 0.3929 0 1
6.8095 -1.5077 -0.6394 0.3953 0 1
3.8981 -0.7001 -0.3631 0.9688 25 14
3.8898 -0.5383 -0.3600 0.9771 25 14
3.8815 -0.3789 -0.3575 0.9838 25 14
3.8732 -0.2214 -0.3557 0.9890 25 14
3.8649 -0.0653 -0.3544 0.9926 25 14
3.8659 0.0901 -0.3545 0.9922 25 14
3.8747 0.2463 -0.3559 0.9883 25 14
3.8833 0.4041 -0.3579 0.9828 25 14
3.8920 0.5639 -0.3605 0.9757 25 14
3.9285 0.7315 -0.3663 0.3105 25 14
6.9742 1.5910 -0.6558 0.3925 0 1
6.9781 1.8899 -0.6628 0.3884 0 1
6.9794 2.1948 -0.6708 0.3840 0 1
6.9779 2.5067 -0.6797 0.3789 0 1
6.9738 2.8266 -0.6899 0.3733 0 1
6.9669 3.1554 -0.7012 0.3673 0 1
6.9544 3.4931 -0.7135 0.3573 0 1
6.9305 3.8374 -0.7263 0.3510 0 1
6.9029 4.1931 -0.7404 0.3443 0 1
6.8509 4.5482 -0.7539 0.3515 0 1
6.7930 4.9142 -0.7686 0.3448 0 1
6.7299 5.2932 -0.7850 0.3376 0 1
6.6691 5.6937 -0.8039 0.3294 0 1
6.6028 6.1125 -0.8249 0.3210 0 1
6.5014 6.5231 -0.8443 0.3552 0 1
6.3727 6.9299 -0.8631 0.3474 0 1
6.2494 7.3696 -0.8858 0.3325 0 1
6.1183 7.8324 -0.9112 0.3233 0 1
6.0327 8.3979 -0.9480 0.2871 0 2
5.8554 8.8840 -0.9755 0.9928 0 2
5.4817 9.0923 -0.9733 0.2500 0 2
5.3477 9.7346 -1.0182 0.2390 0 2
5.1973 10.4338 -1.0686 0.2277 0 2
5.0278 11.1999 -1.1255 0.2162 0 2
4.8355 12.0453 -1.1899 0.2045 0 2
4.6162 12.9857 -1.2635 0.1926 0 2
4.3641 14.0408 -1.3480 0.1805 0 2
4.0721 15.2366 -1.4459 0.1683 0 2
3.7304 16.6072 -1.5604 0.1559 0 2
3.3259 18.1987 -1.6960 0.1435 0 2
1.9055 13.4674 -1.2470 0.9701 0 20
2.2484 22.3275 -2.0573 0.1183 0 2
1.5113 25.0902 -2.3044 0.1056 0 2
0.5975 29.9223 -2.7438 0.0920 0 1
-0.7006 34.6217 -3.1747 0.0800 0 1
-2.4782 40.9578 -3.7618 0.0705 0 1
-4.9874 49.3934 -4.5513 0.0650 0 1
-28.8804 36.9512 -4.2995 0.9955 0 3
-31.9565 37.6635 -4.5283 0.7636 0 3
-30.2905 32.9211 -4.1013 0.6634 0 3
-32.5717 32.6626 -4.2289 0.7098 0 3
-30.1823 27.9262 -3.7698 0.8366 0 3
-30.4110 25.9490 -3.6650 0.1542 0 3
-29.9940 23.5778 -3.4977 0.5605 0 3
-30.4312 22.0018 -3.4427 0.7902 0 3
-30.4494 20.2029 -3.3501 0.8121 0 3
-30.4650 18.4944 -3.2673 0.8326 0 3
-29.5142 16.3313 -3.0924 0.7404 0 3
-32.9653 16.5468 -3.3815 0.1963 0 3
-39.5867 17.9166 -3.9836 0.8864 0 3
-45.7501 18.5287 -4.5252 0.9016 0 3
-45.2017 16.2243 -4.4028 0.5892 0 3
-35.9862 -32.9080 -4.4706 0.8769 0 20
-33.9184 -33.6178 -4.3781 0.8955 0 20
-32.8158 -35.2500 -4.4152 0.5419 0 20
-19.9714 -27.4457 -3.1118 0.8339 0 22
-18.3370 -27.4547 -3.0268 0.7939 0 22
-2.7514 -41.4526 -3.8086 0.0652 0 1
-0.9066 -34.7546 -3.1873 0.0781 0 24
0.4284 -30.3388 -2.7817 0.0916 0 1
1.3889 -25.5454 -2.3454 0.1037 0 2
2.1513 -22.6935 -2.0898 0.1164 0 2
2.7618 -20.3767 -1.8852 0.1291 0 2
3.3321 -18.8552 -1.7554 0.7622 0 2
3.8841 -17.7769 -1.6682 0.1688 0 2
4.1579 -15.9302 -1.5094 0.1473 0 1
4.3964 -14.4417 -1.3840 0.1714 0 24
4.6958 -13.4583 -1.3068 0.1964 0 1
4.9353 -12.5049 -1.2325 0.2055 0 1
5.1469 -11.6470 -1.1674 0.2185 0 1
5.3342 -10.8672 -1.1098 0.2293 0 1
5.5009 -10.1536 -1.0587 0.2404 0 1
5.6501 -9.4967 -1.0131 0.2565 0 1
5.7827 -8.8863 -0.9720 0.2673 0 1
5.9021 -8.3184 -0.9351 0.2779 0 1
6.0101 -7.7874 -0.9018 0.2881 0 1
6.1165 -7.2988 -0.8730 0.3081 0 1
6.1902 -6.8110 -0.8438 0.2742 0 1
6.2502 -6.3448 -0.8165 0.2833 0 1
6.3035 -5.9043 -0.7918 0.2922 0 1
6.3452 -5.4817 -0.7687 0.2940 0 1
6.2317 -4.9606 -0.7302 0.3336 0 2
6.2802 -4.5994 -0.7136 0.3419 0 25
6.3230 -4.2511 -0.6985 0.7508 14 6
6.3651 -3.9175 -0.6852 0.3561 0 25
6.4014 -3.5935 -0.6730 0.3626 0 25
6.4341 -3.2790 -0.6621 0.3686 0 25
6.4634 -2.9730 -0.6522 0.3741 0 25
6.4909 -2.6751 -0.6436 0.3764 0 2
6.6800 -2.4439 -0.6521 0.7314 0 2
6.7462 -2.1649 -0.6495 0.3878 0 1
6.7754 -1.8775 -0.6446 0.3921 0 1
6.8019 -1.5936 -0.6405 0.3946 0 1
3.9778 -0.7647 -0.3714 0.2844 25 14
3.8924 -0.5872 -0.3609 0.9747 25 14
3.8841 -0.4271 -0.3582 0.9820 25 14
3.8758 -0.2692 -0.3562 0.9876 25 14
3.8675 -0.1127 -0.3547 0.9917 25 14
3.8633 0.0427 -0.3542 0.9931 25 14
3.8720 0.1987 -0.3554 0.9897 25 14
3.8807 0.3559 -0.3573 0.9846 25 14
3.8894 0.5150 -0.3597 0.9780 25 14
3.8981 0.6766 -0.3627 0.9698 25 14
4.2398 0.9128 -0.3976 0.3213 25 14
6.9772 1.7983 -0.6606 0.3897 0 1
6.9794 2.1014 -0.6682 0.3854 0 1
6.9787 2.4110 -0.6769 0.3805 0 1
6.9754 2.7284 -0.6867 0.3751 0 1
6.9693 3.0543 -0.6976 0.3692 0 1
6.9603 3.3901 -0.7098 0.3628 0 1
6.9382 3.7315 -0.7222 0.3530 0 1
6.9117 4.0835 -0.7360 0.3464 0 1
6.8675 4.4391 -0.7497 0.3535 0 1
6.8111 4.8015 -0.7640 0.3469 0 1
6.7497 5.1764 -0.7798 0.3398 0 1
6.6880 5.5699 -0.7979 0.3319 0 1
6.6236 5.9831 -0.8183 0.3236 0 1
6.5389 6.4022 -0.8390 0.3574 0 1
6.4127 6.8045 -0.8572 0.3498 0 1
6.2874 7.2331 -0.8786 0.3353 0 1
6.1593 7.6892 -0.9032 0.3261 0 1
6.0208 8.1687 -0.9303 0.3166 0 1
5.9432 8.7816 -0.9721 0.2800 0 2
5.5900 9.0205 -0.9729 0.9954 0 2
5.3901 9.5335 -1.0040 0.2423 0 2
5.2450 10.2145 -1.0527 0.2311 0 2
5.0816 10.9591 -1.1075 0.2197 0 2
4.8967 11.7789 -1.1695 0.2081 0 2
4.6861 12.6884 -1.2400 0.1962 0 2
4.4447 13.7062 -1.3210 0.1842 0 2
4.1657 14.8560 -1.4145 0.1720 0 2
3.8403 16.1692 -1.5236 0.1597 0 2
3.4565 17.6878 -1.6522 0.1473 0 2
2.0706 13.4459 -1.2472 0.9592 0 20
2.4418 21.5954 -1.9924 0.1221 0 2
1.7539 24.1850 -2.2230 0.1095 0 2
0.9328 28.9636 -2.6567 0.0946 0 2
-0.2654 33.1503 -3.0392 0.0899 0 1
-1.8745 38.8567 -3.5664 0.0695 0 1
-4.1326 46.6267 -4.2914 0.0686 0 1
-30.0413 37.4826 -4.9411 0.6171 0 3
-28.6551 32.9470 -4.4915 0.7550 0 3
-30.1435 31.9677 -4.5197 0.6747 0 3
-33.3718 32.6563 -4.8029 0.7005 0 3
-18.3080 16.5286 -2.5372 0.6868 0 22
-19.8482 16.5208 -2.6564 0.6457 0 22
-30.2808 23.2097 -3.9245 0.7770 0 3
-32.1738 22.6678 -4.0484 0.5783 0 3
-30.1831 19.4988 -3.6963 0.2226 0 3
-30.3412 17.9151 -3.6245 0.8413 0 3
-33.0546 17.7659 -3.8601 0.4767 0 3
-34.6266 16.8537 -3.9613 0.4413 0 3
-40.4561 17.7172 -4.5430 0.4051 0 3
-40.7298 15.9184 -4.4982 0.5384 0 3
-35.3040 -33.0861 -4.9770 0.8829 0 20
-33.1075 -33.6267 -4.8541 0.8148 0 20
-32.6671 -35.9623 -4.9976 0.6722 0 20
-3.8087 -40.2930 -4.1632 0.0674 0 1
-1.8447 -34.0979 -3.5126 0.0789 0 1
-0.4093 -29.5505 -3.0400 0.0892 0 1
0.6911 -26.2208 -2.6981 0.1067 0 1
1.5095 -22.6500 -2.3350 0.2275 0 2
2.2043 -20.5717 -2.1282 0.5187 0 2
2.8574 -19.3052 -2.0074 0.1546 0 2
3.2863 -17.3546 -1.8169 0.1290 0 1
3.6529 -15.7902 -1.6671 0.1494 0 1
3.9632 -14.4585 -1.5421 0.1547 0 1
4.2641 -13.4160 -1.4481 0.1986 0 1
4.5295 -12.4886 -1.3665 0.2077 0 1
4.7623 -11.6473 -1.2944 0.2208 0 1
4.9690 -10.8825 -1.2306 0.2318 0 1
5.1528 -10.1809 -1.1737 0.2430 0 1
5.3184 -9.5364 -1.1232 0.2553 0 1
5.4671 -8.9386 -1.0778 0.2660 0 1
5.6013 -8.3816 -1.0370 0.2765 0 1
5.7215 -7.8584 -0.9999 0.2913 0 1
5.8306 -7.3667 -0.9664 0.2683 0 1
5.9094 -6.8790 -0.9328 0.2780 0 1
5.9797 -6.4198 -0.9025 0.2873 0 1
6.0425 -5.9857 -0.8749 0.2964 0 1
6.0985 -5.5739 -0.8499 0.3051 0 1
6.1439 -5.1779 -0.8265 0.3390 0 1
6.0571 -4.7017 -0.7887 0.3471 0 2
6.1069 -4.3587 -0.7718 0.3544 0 25
6.1526 -4.0282 -0.7565 0.3616 0 25
6.1939 -3.7085 -0.7426 0.3683 0 25
6.2312 -3.3983 -0.7301 0.3746 0 25
6.2647 -3.0967 -0.7188 0.3805 0 25
6.2966 -2.8035 -0.7090 0.3869 0 2
6.4620 -2.5712 -0.7154 0.8126 0 2
6.5457 -2.3044 -0.7138 0.3955 0 1
6.5769 -2.0222 -0.7078 0.4002 0 1
6.6060 -1.7439 -0.7028 0.4031 0 1
4.2160 -0.9335 -0.4442 0.3223 25 14
3.8855 -0.6978 -0.4061 0.9521 25 14
3.8774 -0.5365 -0.4026 0.9554 25 14
3.8700 -0.3778 -0.4000 0.9618 25 14
3.8625 -0.2208 -0.3980 0.9666 25 14
3.8548 -0.0652 -0.3966 0.9700 25 14
3.8566 0.0898 -0.3968 0.9694 25 14
3.8659 0.2458 -0.3985 0.9654 25 14
3.8751 0.4032 -0.4008 0.9599 25 14
3.8838 0.5627 -0.4037 0.9767 25 14
3.8924 0.7247 -0.4073 0.9681 25 14
6.7918 1.5494 -0.7166 0.4027 0 1
6.7937 1.8399 -0.7240 0.3985 0 1
6.7929 2.1362 -0.7325 0.3941 0 1
6.7890 2.4389 -0.7420 0.3890 0 1
6.7822 2.7489 -0.7528 0.3835 0 1
6.7724 3.0674 -0.7648 0.3774 0 1
6.7543 3.3926 -0.7775 0.3675 0 1
6.7276 3.7250 -0.7910 0.3612 0 1
6.6969 4.0680 -0.8060 0.3545 0 1
6.6506 4.4152 -0.8211 0.3617 0 1
6.5907 4.7678 -0.8367 0.3550 0 1
6.5254 5.1323 -0.8540 0.3478 0 1
6.4619 5.5168 -0.8740 0.3396 0 1
6.3925 5.9179 -0.8961 0.3312 0 1
6.3143 6.3354 -0.9201 0.3653 0 1
6.1854 6.7263 -0.9400 0.3576 0 1
6.0582 7.1441 -0.9635 0.3427 0 1
5.9259 7.5862 -0.9902 0.3334 0 1
5.7830 8.0503 -1.0196 0.3238 0 1
5.6860 8.6270 -1.0628 0.2872 0 2
5.4719 9.0761 -1.0901 0.9957 0 2
5.1213 9.3225 -1.0941 0.2493 0 2
4.9669 9.9713 -1.1459 0.2380 0 2
4.7936 10.6782 -1.2040 0.2265 0 2
4.5980 11.4537 -1.2696 0.2148 0 2
4.3762 12.3105 -1.3439 0.2029 0 2
4.1229 13.2647 -1.4288 0.1909 0 2
3.8316 14.3368 -1.5265 0.1787 0 2
3.4937 15.5537 -1.6398 0.1663 0 2
3.0978 16.9508 -1.7725 0.1539 0 2
1.9092 13.4930 -1.4018 0.8456 0 20
2.0640 20.4971 -2.1191 0.1287 0 2
1.3739 22.8087 -2.3504 0.1160 0 2
0.5375 26.9219 -2.7698 0.1107 0 1
-0.6220 30.7357 -3.1622 0.0950 0 1
-2.1426 35.4119 -3.6493 0.0788 0 1
-4.2426 42.0173 -4.3440 0.0684 0 1
-29.7719 38.0919 -4.9731 0.4513 0 3
-28.3441 33.4060 -4.5065 0.6463 0 3
-28.4800 30.9533 -4.3267 0.6662 0 3
-32.5706 32.6615 -4.7447 0.7091 0 3
-30.2108 27.9526 -4.2338 0.7202 0 3
-19.3519 16.5126 -2.6168 0.9866 0 6
-30.2728 23.7969 -3.9609 0.7699 0 3
-30.2954 21.9037 -3.8455 0.7929 0 3
-30.1701 20.0176 -3.7244 0.8015 0 3
-30.3360 18.4161 -3.6505 0.8353 0 3
-32.1178 17.7720 -3.7758 0.4874 0 3
-34.8769 17.5064 -4.0142 0.1856 0 3
-35.3489 15.9986 -3.9912 0.5080 0 3
-45.5711 18.4562 -5.0575 0.9042 0 3
-46.2332 16.5945 -5.0528 0.2006 0 3
-35.9412 -32.8669 -5.0098 0.8771 0 20
-33.8111 -33.5115 -4.8968 0.8077 0 20
-32.6049 -35.0235 -4.9222 0.5434 0 20
-19.9686 -27.4418 -3.4910 0.7099 0 22
-18.3322 -27.4475 -3.3952 0.8523 0 22
-4.5699 -42.7572 -4.4232 0.0624 0 1
-2.3760 -35.7962 -3.6902 0.0752 0 1
-0.8026 -30.7687 -3.1661 0.0902 0 1
0.3834 -27.1522 -2.7933 0.1020 0 1
1.3294 -24.4506 -2.5188 0.1144 0 2
1.9930 -21.0235 -2.1723 0.4492 0 2
2.6751 -19.7376 -2.0488 0.6742 0 2
3.1623 -17.8946 -1.8692 0.1254 0 1
3.5457 -16.2282 -1.7087 0.1458 0 1
3.8408 -14.7153 -1.5644 0.1693 0 24
4.1748 -13.7140 -1.4746 0.1950 0 1
4.4531 -12.7627 -1.3904 0.2041 0 1
4.6941 -11.8938 -1.3153 0.2173 0 1
4.9088 -11.1083 -1.2492 0.2283 0 1
5.0990 -10.3881 -1.1904 0.2396 0 1
5.2695 -9.7265 -1.1379 0.2524 0 1
5.4235 -9.1158 -1.0911 0.2628 0 1
5.5619 -8.5471 -1.0489 0.2733 0 1
5.6864 -8.0143 -1.0108 0.2881 0 1
5.7993 -7.5142 -0.9764 0.3088 0 1
5.8864 -7.0242 -0.9427 0.2750 0 1
5.9592 -6.5567 -0.9114 0.2845 0 1
6.0242 -6.1153 -0.8830 0.2936 0 1
6.0822 -5.6970 -0.8572 0.3025 0 1
6.1270 -5.2932 -0.8329 0.3364 0 1
6.0413 -4.8090 -0.7943 0.3436 0 2
6.0921 -4.4616 -0.7767 0.3521 0 25
6.1391 -4.1275 -0.7610 0.3594 0 25
6.1817 -3.8047 -0.7467 0.3663 0 25
6.2202 -3.4918 -0.7338 0.3727 0 25
6.2549 -3.1877 -0.7221 0.3787 0 25
6.2871 -2.8919 -0.7118 0.3823 0 2
6.3848 -2.6314 -0.7104 0.8717 0 2
6.5358 -2.3911 -0.7159 0.3944 0 1
6.5675 -2.1076 -0.7095 0.3993 0 1
6.5974 -1.8282 -0.7042 0.4023 0 1
6.6244 -1.5520 -0.6999 0.4048 0 1
3.9235 -0.7543 -0.4110 0.2880 25 14
3.8796 -0.5853 -0.4036 0.9532 25 14
3.8723 -0.4259 -0.4007 0.9600 25 14
3.8648 -0.2684 -0.3985 0.9653 25 14
3.8572 -0.1124 -0.3969 0.9691 25 14
3.8538 0.0426 -0.3964 0.9704 25 14
3.8631 0.1982 -0.3979 0.9668 25 14
3.8723 0.3551 -0.4000 0.9617 25 14
3.8812 0.5140 -0.4027 0.9790 25 14
3.8898 0.6751 -0.4061 0.9708 25 14
4.1850 0.9010 -0.4404 0.3252 25 14
6.7934 1.7509 -0.7216 0.3998 0 1
6.7935 2.0454 -0.7298 0.3954 0 1
6.7905 2.3460 -0.7390 0.3906 0 1
6.7846 2.6537 -0.7494 0.3852 0 1
6.7757 2.9695 -0.7610 0.3793 0 1
6.7617 3.2934 -0.7737 0.3693 0 1
6.7361 3.6228 -0.7868 0.3632 0 1
6.7067 3.9624 -0.8013 0.3566 0 1
6.6679 4.3101 -0.8167 0.3637 0 1
6.6095 4.6593 -0.8318 0.3571 0 1
6.5458 5.0201 -0.8485 0.3500 0 1
6.4818 5.3981 -0.8677 0.3421 0 1
6.4143 5.7940 -0.8891 0.3338 0 1
6.3402 6.2076 -0.9127 0.3252 0 1
6.2255 6.6059 -0.9337 0.3600 0 1
6.0966 7.0136 -0.9559 0.3454 0 1
5.9672 7.4494 -0.9818 0.3363 0 1
5.8277 7.9066 -1.0104 0.3268 0 1
5.6767 8.3878 -1.0418 0.3169 0 1
5.5861 9.0143 -1.0909 0.2799 0 2
5.2132 9.2206 -1.0896 0.9955 0 2
5.0158 9.7681 -1.1295 0.2414 0 2
4.8485 10.4564 -1.1856 0.2300 0 2
4.6601 11.2098 -1.2488 0.2184 0 2
4.4467 12.0403 -1.3203 0.2066 0 2
4.2037 12.9629 -1.4018 0.1946 0 2
3.9247 13.9966 -1.4953 0.1824 0 2
3.6021 15.1662 -1.6035 0.1701 0 2
3.1314 16.0238 -1.6795 0.6682 0 9
2.0702 13.4439 -1.3992 0.9893 0 20
2.2474 19.8764 -2.0576 0.1325 0 2
1.5995 22.0566 -2.2748 0.1199 0 2
0.8412 26.1197 -2.6882 0.1072 0 2
-0.2360 29.4883 -3.0334 0.0934 0 1
-1.6316 33.8219 -3.4831 0.0880 0 1
-3.5297 39.8249 -4.1126 0.0723 0 1
-6.2017 47.9590 -4.9743 0.0660 0 1
-29.8697 37.2685 -5.4484 0.6199 0 3
-29.9859 31.8006 -4.9861 0.6774 0 3
-28.2301 27.6247 -4.5057 0.9746 0 3
-18.3021 16.5232 -2.8128 0.6770 0 22
-19.8430 16.5165 -2.9452 0.6875 0 22
-30.1433 23.1043 -4.3325 0.7796 0 3
-32.1725 22.6669 -4.4895 0.5777 0 3
-35.0449 22.6395 -4.7594 0.9850 0 3
-30.2139 17.8399 -4.0027 0.8438 0 3
-33.0530 17.7650 -4.2806 0.4762 0 3
-36.4527 17.7425 -4.6248 0.4408 0 3
-40.4538 17.7161 -5.0379 0.4046 0 3
-45.2484 17.6844 -5.5420 0.3678 0 3
-26.3407 -17.7201 -3.6215 0.9122 15 6
-35.4432 -33.2165 -5.5413 0.7906 0 20
-32.8549 -33.3701 -5.3421 0.7037 0 20
-32.4948 -35.7726 -5.5131 0.6736 0 20
-17.8473 -27.4424 -3.7343 0.8583 0 22
-5.6084 -41.4642 -4.7731 0.0624 0 1
-3.3011 -34.9226 -4.0016 0.0795 0 1
-1.6246 -30.0291 -3.4306 0.0855 0 1
-0.3659 -26.4171 -3.0138 0.0987 0 1
0.6278 -23.8198 -2.7182 0.1096 0 1
1.4478 -21.7241 -2.4837 0.1337 0 2
2.1242 -19.8241 -2.2744 0.0905 0 1
2.6108 -17.6390 -2.0341 0.1271 0 1
3.0476 -16.0941 -1.8686 0.1511 0 1
3.4104 -14.7417 -1.7261 0.1599 0 1
3.7441 -13.6591 -1.6157 0.1972 0 1
4.0477 -12.7353 -1.5244 0.2062 0 1
4.3103 -11.8841 -1.4421 0.2195 0 1
4.5444 -11.1142 -1.3698 0.2311 0 1
4.7520 -10.4071 -1.3051 0.2421 0 1
4.9380 -9.7566 -1.2474 0.2550 0 1
5.1066 -9.1567 -1.1960 0.2655 0 1
5.2579 -8.5965 -1.1495 0.2763 0 1
5.3948 -8.0725 -1.1076 0.2867 0 1
5.5190 -7.5802 -1.0696 0.2969 0 1
5.6166 -7.0963 -1.0324 0.3023 0 1
5.6982 -6.6332 -0.9976 0.3128 0 1
5.7715 -6.1963 -0.9660 0.3231 0 1
5.8375 -5.7826 -0.9373 0.3329 0 1
5.8980 -5.3905 -0.9115 0.3405 0 1
5.9584 -5.0215 -0.8889 0.3492 0 1
5.9480 -4.6171 -0.8590 0.5398 0 2
5.9309 -4.2330 -0.8312 0.3673 0 2
5.9783 -3.9141 -0.8151 0.3691 0 2
6.0214 -3.6052 -0.8006 0.3755 0 2
6.0607 -3.3054 -0.7875 0.3879 0 2
6.0952 -3.0129 -0.7756 0.3896 0 2
6.2356 -2.7764 -0.7787 0.9270 0 2
6.3407 -2.5229 -0.7785 0.4017 0 1
6.3750 -2.2443 -0.7710 0.4056 0 1
6.4074 -1.9701 -0.7647 0.4103 0 1
6.4369 -1.6992 -0.7594 0.4132 0 1
4.1558 -0.9202 -0.4856 0.3266 25 14
3.8719 -0.6954 -0.4488 0.9543 25 14
3.8629 -0.5345 -0.4449 0.9627 25 14
3.8552 -0.3763 -0.4419 0.9643 25 14
3.8478 -0.2200 -0.4397 0.9692 25 14
3.8402 -0.0649 -0.4381 0.9725 25 14
3.8420 0.0895 -0.4384 0.9719 25 14
3.8512 0.2448 -0.4402 0.9679 25 14
3.8603 0.4017 -0.4427 0.9624 25 14
3.8692 0.5606 -0.4460 0.9554 25 14
3.8793 0.7223 -0.4501 0.9514 25 14
4.2591 0.9716 -0.4983 0.3183 25 14
6.6184 1.7924 -0.7822 0.4086 0 1
6.6156 2.0804 -0.7911 0.4041 0 1
6.6096 2.3744 -0.8012 0.3991 0 1
6.6005 2.6753 -0.8125 0.3935 0 1
6.5882 2.9839 -0.8250 0.3875 0 1
6.5650 3.2975 -0.8381 0.3777 0 1
6.5358 3.6188 -0.8522 0.3714 0 1
6.5025 3.9499 -0.8679 0.3647 0 1
6.4613 4.2896 -0.8847 0.3719 0 1
6.3996 4.6296 -0.9010 0.3651 0 1
6.3325 4.9806 -0.9191 0.3577 0 1
6.2668 5.3502 -0.9400 0.3497 0 1
6.1947 5.7348 -0.9630 0.3414 0 1
6.1157 6.1361 -0.9883 0.3326 0 1
6.0084 6.5338 -1.0126 0.3676 0 1
5.8780 6.9315 -1.0368 0.3527 0 1
5.7449 7.3544 -1.0646 0.3435 0 1
5.6013 7.7973 -1.0952 0.3339 0 1
5.4460 8.2628 -1.1289 0.3239 0 1
5.3367 8.8519 -1.1791 0.2868 0 2
5.1019 9.2872 -1.2088 0.9939 0 2
4.7556 9.5471 -1.2167 0.2483 0 2
4.5798 10.2020 -1.2757 0.2368 0 2
4.3823 10.9163 -1.3419 0.2251 0 2
4.1594 11.7008 -1.4166 0.2132 0 2
3.9065 12.5683 -1.5014 0.2012 0 2
3.6175 13.5356 -1.5983 0.1890 0 2
3.2849 14.6239 -1.7098 0.1767 0 2
2.7965 15.3021 -1.7745 0.6816 0 9
1.9165 13.5447 -1.5605 0.6813 0 20
1.9073 18.9408 -2.1716 0.1391 0 2
1.2591 20.9033 -2.3889 0.1264 0 2
0.4879 24.4344 -2.7879 0.1141 0 1
-0.5589 27.6203 -3.1515 0.1049 0 1
-1.8981 31.3708 -3.5852 0.0958 0 1
-3.6546 36.1943 -4.1499 0.0754 0 1
-6.1104 43.1015 -4.9660 0.0658 0 1
-29.8491 38.1906 -5.5294 0.6109 0 3
-31.9545 37.6611 -5.6343 0.7619 0 3
-29.9702 32.5730 -5.0493 0.6689 0 3
-29.7836 29.8667 -4.8116 0.1155 0 3
-17.8757 16.5396 -2.7782 0.7030 0 22
-32.4215 27.6646 -4.8619 0.6500 0 3
-29.1778 22.9362 -4.2338 0.8784 0 3
-30.1606 21.8062 -4.2457 0.7955 0 3
-34.1436 22.6539 -4.6743 0.5548 0 3
-30.2078 18.3382 -4.0313 0.8378 0 3
-30.4278 16.8369 -3.9670 0.6447 0 3
-35.3618 17.7497 -4.5136 0.4516 0 3
-36.5575 16.5456 -4.5776 0.1803 0 3
-45.3932 18.3841 -5.5868 0.9066 0 3
-36.1892 -33.0937 -5.5942 0.7831 0 20
-33.6737 -33.3753 -5.4085 0.6951 0 20
-32.5215 -34.9339 -5.4447 0.6834 0 20
-19.9713 -27.4456 -3.8721 0.8969 0 22
-18.3186 -27.4270 -3.7625 0.7913 0 22
-6.5185 -44.1231 -5.0880 0.0585 0 1
-3.9162 -36.6411 -4.2037 0.0771 0 1
-2.0841 -31.3985 -3.5897 0.0868 0 1
-0.7140 -27.3729 -3.1237 0.0952 0 1
0.3469 -24.5667 -2.8028 0.1138 0 1
1.2190 -22.4201 -2.5614 0.1288 0 2
1.9240 -20.2959 -2.3257 0.1456 0 2
2.4645 -18.1835 -2.0933 0.1297 0 1
2.9182 -16.5134 -1.9130 0.1676 0 1
3.3048 -15.1255 -1.7662 0.1563 0 1
3.6436 -13.9599 -1.6458 0.1936 0 1
3.9596 -13.0069 -1.5510 0.2054 0 1
4.2334 -12.1332 -1.4659 0.2144 0 1
4.4760 -11.3411 -1.3909 0.2276 0 1
4.6913 -10.6160 -1.3240 0.2386 0 1
4.8833 -9.9486 -1.2642 0.2499 0 1
5.0574 -9.3350 -1.2111 0.2627 0 1
5.2135 -8.7629 -1.1632 0.2730 0 1
5.3546 -8.2284 -1.1199 0.2836 0 1
5.4825 -7.7269 -1.0808 0.2938 0 1
5.5899 -7.2429 -1.0437 0.2990 0 1
5.6743 -6.7711 -1.0078 0.3097 0 1
5.7501 -6.3266 -0.9753 0.3200 0 1
5.8181 -5.9062 -0.9458 0.3300 0 1
5.8794 -5.5071 -0.9190 0.3428 0 1
5.9406 -5.1321 -0.8956 0.3466 0 1
5.9970 -4.7738 -0.8744 0.3550 0 1
5.9147 -4.3317 -0.8363 0.3651 0 2
5.9642 -4.0099 -0.8198 0.3677 0 2
6.0088 -3.6982 -0.8049 0.3738 0 2
6.0489 -3.3956 -0.7913 0.3799 0 2
6.0853 -3.1013 -0.7791 0.3853 0 2
6.1809 -2.8431 -0.7761 0.9591 0 2
6.3295 -2.6086 -0.7810 0.4004 0 1
6.3649 -2.3286 -0.7731 0.4045 0 1
6.3978 -2.0531 -0.7665 0.4094 0 1
6.4282 -1.7813 -0.7609 0.4124 0 1
4.2821 -1.0032 -0.5017 0.3161 25 14
3.8747 -0.7449 -0.4501 0.9515 25 14
3.8657 -0.5832 -0.4460 0.9603 25 14
3.8574 -0.4242 -0.4427 0.9625 25 14
3.8500 -0.2674 -0.4403 0.9679 25 14
3.8425 -0.1120 -0.4385 0.9717 25 14
3.8392 0.0425 -0.4380 0.9729 25 14
3.8485 0.1974 -0.4396 0.9693 25 14
3.8575 0.3538 -0.4419 0.9643 25 14
3.8665 0.5120 -0.4449 0.9577 25 14
3.8762 0.6728 -0.4488 0.9543 25 14
4.1315 0.8895 -0.4821 0.3290 25 14
6.6186 1.7059 -0.7797 0.4099 0 1
6.6168 1.9922 -0.7883 0.4054 0 1
6.6118 2.2843 -0.7980 0.4007 0 1
6.6036 2.5829 -0.8089 0.3953 0 1
6.5923 2.8891 -0.8211 0.3894 0 1
6.5731 3.2015 -0.8340 0.3795 0 1
6.5451 3.5201 -0.8478 0.3733 0 1
6.5131 3.8481 -0.8630 0.3668 0 1
6.4767 4.1866 -0.8798 0.3598 0 1
6.4190 4.5250 -0.8959 0.3672 0 1
6.3535 4.8726 -0.9134 0.3602 0 1
6.2874 5.2363 -0.9334 0.3522 0 1
6.2173 5.6161 -0.9558 0.3440 0 1
6.1405 6.0121 -0.9803 0.3353 0 1
6.0485 6.4181 -1.0060 0.3700 0 1
5.9166 6.8065 -1.0288 0.3555 0 1
5.7864 7.2237 -1.0558 0.3464 0 1
5.6461 7.6603 -1.0856 0.3369 0 1
5.4945 8.1186 -1.1183 0.3270 0 1
5.3832 8.6869 -1.1658 0.2901 0 2
5.2122 9.2190 -1.2081 0.9945 0 2
4.8490 9.4434 -1.2110 0.9921 0 2
4.6354 9.9968 -1.2570 0.2403 0 2
4.4449 10.6921 -1.3209 0.2287 0 2
4.2302 11.4539 -1.3929 0.2169 0 2
3.9870 12.2946 -1.4744 0.2049 0 2
3.7097 13.2296 -1.5674 0.1927 0 2
3.3912 14.2784 -1.6741 0.1804 0 2
2.9651 15.1729 -1.7636 0.8417 0 9
2.0712 13.4499 -1.5524 0.9877 0 20
2.0814 18.4078 -2.1133 0.1429 0 2
1.4699 20.2688 -2.3183 0.1303 0 2
0.7703 23.9178 -2.7299 0.1171 0 1
-0.2126 26.5559 -3.0295 0.1043 0 1
-1.4571 30.2043 -3.4496 0.0995 0 1
-3.0582 34.5051 -3.9516 0.0806 0 1
-5.2723 40.7718 -4.6898 0.0674 0 1
-29.6997 37.0563 -5.9512 0.6227 0 3
-29.8563 31.6631 -5.4537 0.7265 0 3
-33.3696 32.6540 -5.8508 0.6988 0 3
-18.3038 16.5247 -3.0902 0.6211 0 22
-19.8546 16.5262 -3.2372 0.7399 0 22
-28.2743 21.6717 -4.4643 0.7412 0 3
-28.4048 20.0124 -4.3543 0.8047 0 3
-34.9024 22.5475 -5.2071 0.8261 0 3
-30.1226 17.7860 -4.3838 0.7952 0 3
-34.9542 18.7868 -4.9729 0.8650 0 3
-36.4507 17.7416 -5.0802 0.4402 0 3
-40.0805 17.5527 -5.4833 0.9717 0 3
-45.2454 17.6833 -6.0876 0.3673 0 3
-26.2642 -17.6686 -3.9668 0.9094 15 6
-35.6246 -33.3866 -6.1184 0.6740 0 20
-32.8539 -33.3691 -5.8683 0.7028 0 20
-32.2639 -35.5185 -6.0133 0.7939 0 20
-19.4750 -27.4634 -4.2191 0.6874 0 22
-7.5331 -42.6952 -5.4330 0.0599 0 1
-4.8189 -35.6271 -4.5053 0.0769 0 1
-2.8991 -30.6696 -3.8605 0.0796 0 1
-1.4430 -26.6728 -3.3474 0.0912 0 1
-0.3310 -23.9031 -2.9957 0.1091 0 1
0.5715 -21.6832 -2.7182 0.1163 0 24
1.3118 -19.6832 -2.4721 0.1218 0 1
1.9162 -17.8824 -2.2538 0.1321 0 1
2.4190 -16.3435 -2.0704 0.1699 0 1
2.8482 -15.0410 -1.9184 0.1615 0 1
3.2158 -13.9007 -1.7880 0.1988 0 1
3.5528 -12.9613 -1.6842 0.2075 0 1
3.8498 -12.1124 -1.5927 0.2181 0 1
4.1117 -11.3365 -1.5112 0.2298 0 1
4.3448 -10.6261 -1.4386 0.2410 0 1
4.5526 -9.9705 -1.3736 0.2524 0 1
4.7409 -9.3672 -1.3156 0.2653 0 1
4.9106 -8.8052 -1.2634 0.2758 0 1
5.0636 -8.2789 -1.2162 0.2865 0 1
5.2025 -7.7848 -1.1734 0.2969 0 1
5.3304 -7.3211 -1.1349 0.3098 0 1
5.4275 -6.8574 -1.0959 0.3124 0 1
5.5126 -6.4171 -1.0602 0.3229 0 1
5.5893 -6.0007 -1.0277 0.3332 0 1
5.6585 -5.6053 -0.9981 0.3430 0 1
5.7234 -5.2310 -0.9717 0.3556 0 1
5.7833 -4.8740 -0.9478 0.3593 0 1
5.8403 -4.5335 -0.9265 0.3675 0 1
5.8757 -4.1937 -0.9046 0.7549 0 2
5.8669 -3.8412 -0.8788 0.8192 0 2
5.8975 -3.5310 -0.8614 0.9107 0 2
5.9665 -3.2540 -0.8517 0.9484 0 2
6.0801 -3.0055 -0.8499 0.9732 0 2
6.1392 -2.7335 -0.8422 0.4077 0 1
6.1776 -2.4580 -0.8332 0.4118 0 1
6.2129 -2.1872 -0.8254 0.4171 0 1
6.2460 -1.9205 -0.8189 0.4204 0 1
6.2758 -1.6567 -0.8134 0.4232 0 1
4.0972 -0.9072 -0.5259 0.3308 25 14
3.8584 -0.6929 -0.4913 0.9564 25 14
3.8495 -0.5327 -0.4870 0.9647 25 14
3.8406 -0.3749 -0.4836 0.9716 25 14
3.8331 -0.2191 -0.4811 0.9716 25 14
3.8256 -0.0647 -0.4795 0.9750 25 14
3.8276 0.0892 -0.4798 0.9743 25 14
3.8367 0.2439 -0.4818 0.9703 25 14
3.8456 0.4002 -0.4845 0.9648 25 14
3.8556 0.5586 -0.4882 0.9623 25 14
3.8658 0.7198 -0.4928 0.9534 25 14
4.2034 0.9589 -0.5403 0.3220 25 14
6.4515 1.7472 -0.8376 0.4186 0 1
6.4469 2.0274 -0.8469 0.4140 0 1
6.4390 2.3131 -0.8574 0.4091 0 1
6.4278 2.6053 -0.8692 0.4036 0 1
6.4128 2.9045 -0.8822 0.3936 0 1
6.3855 3.2074 -0.8955 0.3878 0 1
6.3542 3.5183 -0.9102 0.3815 0 1
6.3186 3.8382 -0.9265 0.3748 0 1
6.2784 4.1681 -0.9444 0.3677 0 1
6.2189 4.4989 -0.9619 0.3752 0 1
6.1504 4.8374 -0.9806 0.3678 0 1
6.0826 5.1930 -1.0023 0.3598 0 1
6.0084 5.5623 -1.0261 0.3515 0 1
5.9271 5.9468 -1.0522 0.3428 0 1
5.8381 6.3485 -1.0808 0.3337 0 1
5.7077 6.7307 -1.1059 0.3628 0 1
5.5741 7.1358 -1.1347 0.3536 0 1
5.4301 7.5591 -1.1664 0.3440 0 1
5.2728 8.0000 -1.2007 0.3272 0 1
5.1042 8.4661 -1.2388 0.3090 0 1
4.9838 9.0722 -1.2972 0.2860 0 2
4.7401 9.5159 -1.3323 0.9771 0 2
4.3892 9.7775 -1.3431 0.8398 0 2
4.1854 10.4259 -1.4079 0.2354 0 2
3.9627 11.1472 -1.4826 0.2235 0 2
3.7112 11.9400 -1.5669 0.2115 0 2
3.4256 12.8175 -1.6626 0.1993 0 2
3.0991 13.7970 -1.7721 0.1870 0 2
2.4828 13.5857 -1.7307 0.9602 0 20
1.9214 13.5798 -1.7187 0.6761 0 20
1.7724 17.6010 -2.2168 0.1495 0 2
1.2095 20.0792 -2.5208 0.0455 0 2
0.4455 22.3140 -2.7969 0.1246 0 1
-0.5070 25.0550 -3.1404 0.1138 0 1
-1.7079 28.2269 -3.5438 0.1061 0 1
-3.2158 31.8487 -4.0115 0.0939 0 1
-5.2412 36.9704 -4.6793 0.0719 0 1
-8.0163 43.7972 -5.5797 0.0628 0 24
-16.5331 46.4690 -6.1809 0.9016 0 15
-29.6767 37.9700 -6.0392 0.6136 0 3
-27.9562 32.9489 -5.4150 0.4823 0 3
-29.8120 32.4011 -5.5176 0.6716 0 3
-32.5684 32.6593 -5.7800 0.7073 0 3
-17.8713 16.5355 -3.0512 0.7022 0 22
-32.4203 27.6636 -5.3408 0.6491 0 3
-28.2873 22.2361 -4.5090 0.2787 0 3
-28.3961 20.5305 -4.3912 0.7980 0 3
-34.1421 22.6529 -5.1347 0.5541 0 3
-30.0804 18.2609 -4.4098 0.8402 0 3
-34.9473 19.3377 -5.0052 0.8594 0 3
-35.0491 17.5928 -4.9145 0.9800 0 3
-35.3115 15.9817 -4.8572 0.7957 0 3
-43.6882 17.6936 -5.9068 0.3786 0 3
-33.6727 -33.3743 -5.9412 0.6942 0 20
-32.4187 -34.8234 -5.9623 0.8007 0 20
-19.9798 -27.4573 -4.2554 0.8194 0 22
-8.5798 -45.3769 -5.7872 0.0511 0 1
-5.5269 -37.4106 -4.7390 0.0728 0 1
-3.4286 -32.0787 -4.0429 0.0817 0 1
-1.8426 -27.7607 -3.4865 0.0912 0 1
-0.6431 -24.6517 -3.0903 0.1067 0 1
0.3154 -22.3338 -2.7991 0.1175 0 1
1.1020 -20.2672 -2.5436 0.1184 0 1
1.7438 -18.3948 -2.3155 0.1286 0 1
2.2688 -16.7398 -2.1169 0.1340 0 1
2.7290 -15.4426 -1.9652 0.1577 0 1
3.1051 -14.2118 -1.8230 0.2001 0 1
3.4542 -13.2341 -1.7140 0.2039 0 1
3.7642 -12.3651 -1.6198 0.2129 0 1
4.0352 -11.5651 -1.5350 0.2263 0 1
4.2768 -10.8363 -1.4599 0.2379 0 1
4.4917 -10.1644 -1.3926 0.2489 0 1
4.6856 -9.5459 -1.3326 0.2619 0 1
4.8610 -8.9724 -1.2788 0.2725 0 1
5.0187 -8.4354 -1.2300 0.2833 0 1
5.1616 -7.9320 -1.1859 0.2938 0 1
5.2924 -7.4589 -1.1461 0.3068 0 1
5.3997 -6.9965 -1.1075 0.3091 0 1
5.4877 -6.5484 -1.0707 0.3198 0 1
5.5668 -6.1250 -1.0372 0.3301 0 1
5.6382 -5.7235 -1.0068 0.3401 0 1
5.7041 -5.3429 -0.9794 0.3528 0 1
5.7655 -4.9808 -0.9548 0.3619 0 1
5.8236 -4.6357 -0.9328 0.3650 0 1
5.8780 -4.3048 -0.9130 0.3711 0 1
5.8652 -3.9433 -0.8857 0.8129 0 2
5.8841 -3.6215 -0.8658 0.8721 0 2
5.9419 -3.3355 -0.8539 0.9460 0 2
6.0394 -3.0778 -0.8495 0.9704 0 2
6.1270 -2.8183 -0.8451 0.4062 0 1
6.1662 -2.5413 -0.8358 0.4105 0 1
6.2023 -2.2691 -0.8276 0.4145 0 1
6.2363 -2.0013 -0.8208 0.4194 0 1
6.2671 -1.7367 -0.8150 0.4224 0 1
4.2088 -0.9860 -0.5417 0.3344 25 14
3.8611 -0.7423 -0.4927 0.9536 25 14
3.8522 -0.5811 -0.4882 0.9623 25 14
3.8433 -0.4227 -0.4845 0.9697 25 14
3.8353 -0.2664 -0.4818 0.9703 25 14
3.8279 -0.1116 -0.4799 0.9741 25 14
3.8248 0.0423 -0.4793 0.9752 25 14
3.8339 0.1967 -0.4811 0.9717 25 14
3.8429 0.3525 -0.4836 0.9667 25 14
3.8525 0.5101 -0.4870 0.9648 25 14
3.8627 0.6704 -0.4913 0.9563 25 14
4.0793 0.8782 -0.5229 0.3327 25 14
6.4522 1.6630 -0.8350 0.4199 0 1
6.4486 1.9416 -0.8440 0.4155 0 1
6.4418 2.2256 -0.8541 0.4107 0 1
6.4316 2.5157 -0.8654 0.4053 0 1
6.4180 2.8127 -0.8781 0.3995 0 1
6.3942 3.1144 -0.8913 0.3896 0 1
6.3642 3.4228 -0.9056 0.3834 0 1
6.3299 3.7398 -0.9213 0.3769 0 1
6.2911 4.0666 -0.9387 0.3699 0 1
6.2387 4.3980 -0.9565 0.3773 0 1
6.1717 4.7331 -0.9747 0.3703 0 1
6.1039 5.0835 -0.9955 0.3623 0 1
6.0317 5.4484 -1.0186 0.3541 0 1
5.9526 5.8281 -1.0440 0.3455 0 1
5.8660 6.2244 -1.0718 0.3365 0 1
5.7465 6.6108 -1.0977 0.3655 0 1
5.6158 7.0107 -1.1257 0.3564 0 1
5.4751 7.4283 -1.1564 0.3469 0 1
5.3223 7.8642 -1.1900 0.3301 0 1
5.1549 8.3185 -1.2264 0.3203 0 1
5.0351 8.9057 -1.2821 0.2894 0 2
4.8482 9.4417 -1.3301 0.9910 0 2
4.4956 9.6953 -1.3392 0.9720 0 2
4.2482 10.2190 -1.3869 0.2390 0 2
4.0333 10.9207 -1.4589 0.2272 0 2
3.7910 11.6905 -1.5401 0.2152 0 2
3.5165 12.5406 -1.6322 0.2030 0 2
3.2033 13.4870 -1.7372 0.1908 0 2
2.8433 14.5498 -1.8578 0.1784 0 2
2.0734 13.4645 -1.7072 0.9476 0 20
1.9378 17.1382 -2.1614 0.1533 0 2
1.3594 18.7456 -2.3553 0.1407 0 2
0.7043 21.8687 -2.7419 0.1272 0 1
-0.1936 24.1800 -3.0302 0.1142 0 1
-1.3157 27.2728 -3.4217 0.1054 0 1
-2.7165 30.6492 -3.8559 0.0962 0 1
-4.5528 35.2078 -4.4488 0.0771 0 1
-7.0911 41.6099 -5.2896 0.0645 0 1
-29.5311 36.8459 -6.4496 0.6253 0 3
-29.8553 31.6621 -5.9440 0.7255 0 3
-33.3684 32.6529 -6.3769 0.6978 0 3
-18.3291 16.5476 -3.3729 0.6918 0 22
-19.8975 16.5619 -3.5360 0.5857 0 22
-29.8709 22.8955 -5.1406 0.7845 0 3
-29.6520 20.8911 -4.9544 0.8168 0 3
-34.7528 22.4509 -5.6512 0.8285 0 3
-28.2378 16.6731 -4.4791 0.7849 0 3
-34.8111 18.7099 -5.3980 0.8673 0 3
-36.4487 17.7406 -5.5368 0.4396 0 3
-40.4490 17.7140 -6.0314 0.4035 0 3
-45.2362 17.6797 -6.6338 0.3668 0 3
-35.6279 -33.3896 -6.6694 0.6726 0 20
-32.6173 -33.1287 -6.3501 0.8182 0 20
-32.1257 -35.3664 -6.5260 0.7952 0 20
-9.5479 -43.7560 -6.1172 0.0659 0 1
-6.4059 -36.3064 -5.0356 0.0746 0 1
-4.2125 -31.1440 -4.2926 0.0846 0 24
-2.5592 -27.0744 -3.7145 0.0895 0 1
-1.2979 -23.9902 -3.2816 0.1067 0 1
-0.3014 -21.7654 -2.9732 0.1204 0 1
0.5215 -19.7857 -2.7034 0.1210 0 1
1.2040 -18.0649 -2.4729 0.1311 0 1
1.7716 -16.5333 -2.2712 0.1686 0 1
2.2705 -15.3398 -2.1181 0.1592 0 1
2.6804 -14.1551 -1.9678 0.2018 0 1
3.0534 -13.1988 -1.8504 0.2091 0 1
3.3797 -12.3296 -1.7462 0.2178 0 1
3.6710 -11.5499 -1.6553 0.2284 0 1
3.9301 -10.8358 -1.5744 0.2401 0 1
4.1614 -10.1776 -1.5018 0.2512 0 1
4.3697 -9.5700 -1.4370 0.2644 0 1
4.5585 -9.0067 -1.3788 0.2755 0 1
4.7286 -8.4789 -1.3260 0.2860 0 1
4.8827 -7.9831 -1.2782 0.2967 0 1
5.0234 -7.5168 -1.2349 0.3099 0 1
5.1527 -7.0770 -1.1957 0.3116 0 1
5.2502 -6.6334 -1.1555 0.3225 0 1
5.3383 -6.2142 -1.1190 0.3330 0 1
5.4178 -5.8166 -1.0857 0.3432 0 1
5.4905 -5.4389 -1.0556 0.3563 0 1
5.5586 -5.0804 -1.0286 0.3657 0 1
5.6204 -4.7366 -1.0039 0.3746 0 1
5.6768 -4.4066 -0.9816 0.3775 0 1
5.7314 -4.0907 -0.9618 0.3834 0 1
5.7860 -3.7882 -0.9446 0.4004 0 1
5.8429 -3.4983 -0.9302 0.4066 0 1
5.8943 -3.2146 -0.9170 0.4075 0 1
5.9409 -2.9367 -0.9052 0.4128 0 1
5.9834 -2.6641 -0.8946 0.4177 0 1
6.0223 -2.3962 -0.8853 0.4218 0 1
6.0587 -2.1329 -0.8773 0.4271 0 1
6.0922 -1.8732 -0.8706 0.4304 0 1
6.1223 -1.6162 -0.8649 0.4332 0 1
4.0319 -0.8927 -0.5641 0.3495 25 14
3.8449 -0.6905 -0.5336 0.9584 25 14
3.8362 -0.5308 -0.5290 0.9667 25 14
3.8273 -0.3736 -0.5253 0.9735 25 14
3.8185 -0.2183 -0.5224 0.9739 25 14
3.8111 -0.0644 -0.5206 0.9772 25 14
3.8131 0.0888 -0.5210 0.9766 25 14
3.8221 0.2430 -0.5231 0.9726 25 14
3.8321 0.3988 -0.5263 0.9717 25 14
3.8423 0.5567 -0.5303 0.9643 25 14
3.8524 0.7173 -0.5352 0.9554 25 14
4.1466 0.9459 -0.5809 0.3394 25 14
6.2923 1.7041 -0.8904 0.4286 0 1
6.2862 1.9768 -0.9001 0.4240 0 1
6.2766 2.2548 -0.9109 0.4191 0 1
6.2635 2.5387 -0.9231 0.4136 0 1
6.2442 2.8281 -0.9363 0.4036 0 1
