ply
format ascii 1.0
element vertex 1366
property float32 x
property float32 y
property float32 z
property float32 CosAngle
property uint32 ObjIdx
property uint32 ObjTag
end_header
-28.8311 21.4654 -8.2041 0.8082 0 3
-28.8913 19.7555 -7.9885 0.8300 0 3
-28.9445 18.1282 -7.7952 0.8506 0 3
-31.0839 17.7692 -8.1721 0.4897 0 3
-31.0669 16.1379 -7.9904 0.4554 0 3
-34.0622 15.9888 -8.5884 0.8053 0 3
-43.6426 18.3821 -10.8087 0.9200 0 3
-27.3416 9.0061 -6.5704 0.9327 0 22
-27.3325 7.7997 -6.4875 0.9596 0 22
-21.9544 -4.5581 -5.1178 0.4117 16 6
-30.9684 -16.3701 -7.9951 0.9303 0 22
-30.8928 -17.9554 -8.1555 0.8071 0 22
-32.0458 -33.5321 -10.5865 0.9624 0 20
-30.3760 -34.4584 -10.4845 0.9732 0 20
-22.4206 -39.0319 -10.2739 0.6937 0 9
-17.8011 -34.0951 -8.7788 0.0676 0 2
-14.5904 -30.9158 -7.8027 0.0714 0 1
-11.5244 -27.2027 -6.7430 0.0887 0 1
-9.1787 -24.3482 -5.9391 0.0930 0 1
-7.2486 -21.8529 -5.2550 0.1121 0 24
-5.7542 -20.0066 -4.7515 0.1234 0 1
-4.5096 -18.4414 -4.3332 0.1415 0 1
-3.4728 -17.1661 -3.9974 0.1592 0 1
-2.5808 -16.0549 -3.7115 0.1711 0 1
-1.8039 -15.0666 -3.4634 0.1841 0 1
-1.1224 -14.1885 -3.2485 0.2026 0 1
-0.5188 -13.3926 -3.0591 0.2140 0 1
0.0191 -12.6524 -2.8878 0.2263 0 24
0.5001 -11.9765 -2.7359 0.2283 0 1
0.9304 -11.3266 -2.5939 0.2400 0 1
1.3162 -10.7189 -2.4649 0.2527 0 1
1.6635 -10.1531 -2.3483 0.2675 0 1
1.9724 -9.6007 -2.2371 0.2782 0 24
2.2640 -9.1385 -2.1489 0.2919 0 1
2.5247 -8.6795 -2.0631 0.3054 0 1
2.7632 -8.2471 -1.9852 0.3174 0 1
2.9816 -7.8375 -1.9139 0.3292 0 1
3.1830 -7.4507 -1.8493 0.3432 0 1
3.3680 -7.0810 -1.7897 0.3547 0 1
3.5399 -6.7305 -1.7357 0.3625 0 1
3.6991 -6.3949 -1.6862 0.3731 0 1
3.8462 -6.0721 -1.6406 0.3835 0 1
3.9724 -5.7463 -1.5944 0.3843 0 1
4.0858 -5.4298 -1.5510 0.3987 0 1
4.1910 -5.1267 -1.5114 0.4092 0 1
4.2867 -4.8333 -1.4745 0.4089 0 1
4.3723 -4.5476 -1.4399 0.4188 0 1
4.4506 -4.2711 -1.4079 0.4283 0 1
4.5221 -4.0032 -1.3785 0.4374 0 1
4.5942 -3.7485 -1.3534 0.4636 0 1
4.6655 -3.5038 -1.3317 0.4712 0 1
4.7312 -3.2641 -1.3119 0.4783 0 1
4.7931 -3.0298 -1.2942 0.4849 0 1
4.8501 -2.7994 -1.2782 0.4910 0 1
4.9025 -2.5726 -1.2637 0.4966 0 1
4.9504 -2.3489 -1.2506 0.5018 0 1
4.9941 -2.1280 -1.2390 0.5066 0 1
5.0338 -1.9096 -1.2288 0.5108 0 1
5.0695 -1.6933 -1.2199 0.5145 0 1
5.1014 -1.4787 -1.2123 0.5177 0 1
4.1099 -1.0141 -0.9662 0.9725 25 14
3.8305 -0.7832 -0.8924 0.9617 25 14
3.8289 -0.6237 -0.8854 0.9693 25 14
3.8238 -0.4659 -0.8792 0.9843 25 14
3.8186 -0.3101 -0.8744 0.9897 25 14
3.8132 -0.1557 -0.8711 0.9936 25 14
3.8081 -0.0022 -0.8692 0.9957 25 14
3.8137 0.1513 -0.8711 0.9935 25 14
3.8191 0.3057 -0.8745 0.9897 25 14
3.8244 0.4615 -0.8792 0.9843 25 14
3.8260 0.6187 -0.8846 0.9702 25 14
3.8268 0.7779 -0.8913 0.9629 25 14
4.1165 1.0107 -0.9675 0.9712 25 14
5.2337 1.5106 -1.2433 0.5069 0 1
5.2196 1.7368 -1.2556 0.5020 0 1
5.1936 1.9634 -1.2673 0.4900 0 1
5.1633 2.1931 -1.2804 0.4846 0 1
5.1288 2.4264 -1.2950 0.4792 0 1
5.0898 2.6635 -1.3112 0.4733 0 1
5.0461 2.9048 -1.3289 0.4669 0 1
4.9973 3.1509 -1.3484 0.4602 0 1
4.9433 3.4021 -1.3697 0.4531 0 1
4.8837 3.6589 -1.3928 0.4455 0 1
4.8189 3.9226 -1.4182 0.4376 0 1
4.7479 4.1933 -1.4458 0.4292 0 1
4.6653 4.4669 -1.4742 0.4330 0 1
4.5724 4.7448 -1.5040 0.4245 0 1
4.4718 5.0304 -1.5362 0.4156 0 1
4.3629 5.3246 -1.5712 0.4063 0 1
4.2481 5.6321 -1.6102 0.3947 0 1
4.1243 5.9515 -1.6527 0.3846 0 1
3.9900 6.2831 -1.6988 0.3741 0 1
3.8389 6.6191 -1.7465 0.4025 0 1
3.6622 6.9436 -1.7918 0.3923 0 1
3.4818 7.2986 -1.8457 0.3711 0 1
3.2882 7.6725 -1.9052 0.3595 0 1
3.0777 8.0622 -1.9697 0.3395 0 1
2.8445 8.4577 -2.0367 0.3284 0 1
2.6024 8.9083 -2.1182 0.3222 0 1
2.3321 9.3674 -2.2033 0.3098 0 1
2.0363 9.8545 -2.2967 0.2972 0 1
1.7125 10.3774 -2.4006 0.2822 0 1
1.3562 10.9413 -2.5164 0.2692 0 1
0.9585 11.5072 -2.6355 0.2579 0 24
0.5246 12.2265 -2.7932 0.2337 0 1
0.0342 12.8904 -2.9421 0.2239 0 24
-0.5169 13.7516 -3.1409 0.2078 0 1
-1.1445 14.6829 -3.3614 0.1785 0 1
-1.8640 15.7210 -3.6134 0.1695 0 1
-2.6897 16.8556 -3.8958 0.1573 0 1
-3.6428 18.1135 -4.2171 0.1488 0 1
-4.7399 19.4797 -4.5758 0.1371 0 1
-6.0317 21.0624 -5.0006 0.1294 0 1
-7.5437 22.8302 -5.4879 0.1195 0 1
-9.3999 25.0218 -6.1008 0.1032 0 1
-11.7156 27.7426 -6.8735 0.0891 0 1
-14.6185 31.0675 -7.8367 0.0874 0 1
-15.5858 29.9356 -7.7032 0.4860 0 15
-15.7502 27.4924 -7.2317 0.5253 0 15
-16.3459 26.0448 -7.0183 0.8651 0 15
-23.6762 34.5556 -9.5608 0.2586 0 21
-28.1029 37.6726 -10.7274 0.6182 0 3
-30.5244 37.6586 -11.0643 0.7618 0 3
-26.7358 30.3992 -9.2401 0.6620 0 3
-31.1396 32.6587 -10.2995 0.7103 0 3
-28.5845 27.6611 -9.0788 0.7304 0 3
-30.9894 27.6638 -9.4814 0.6544 0 3
-27.8483 22.9158 -8.2315 0.9530 0 3
-28.8177 21.8307 -8.2517 0.8036 0 3
-28.8794 20.1023 -8.0312 0.8256 0 3
-28.9340 18.4588 -7.8335 0.8465 0 3
-30.4986 17.7732 -8.0569 0.4967 0 3
-31.1599 16.5171 -8.0495 0.0650 0 3
-33.5345 16.0832 -8.4888 0.4277 0 3
-38.9705 16.7977 -9.6859 0.9759 0 3
-43.6072 16.7507 -10.6621 0.9720 0 3
-27.3156 9.2503 -6.5824 0.9903 0 22
-27.3419 8.0491 -6.5054 0.9661 0 22
-30.9953 -16.0556 -7.9673 0.8671 0 22
-30.8766 -17.6038 -8.1123 0.9286 0 22
-32.3980 -33.3403 -10.6108 0.9602 0 20
-30.7187 -34.2678 -10.5040 0.9714 0 20
-23.0025 -39.2840 -10.3903 0.6668 0 9
-18.7167 -35.1325 -9.0857 0.0653 0 2
-15.3737 -31.8848 -8.0793 0.0687 0 1
-12.0694 -27.8415 -6.9260 0.0864 0 1
-9.5983 -24.8328 -6.0766 0.0908 0 24
-7.6007 -22.2915 -5.3755 0.1088 0 24
-6.0448 -20.3768 -4.8512 0.1208 0 1
-4.7485 -18.7404 -4.4126 0.1389 0 1
-3.6742 -17.4147 -4.0623 0.1567 0 1
-2.7553 -16.2744 -3.7674 0.1686 0 1
-1.9563 -15.2621 -3.5120 0.1816 0 1
-1.2561 -14.3578 -3.2896 0.2000 0 1
-0.6379 -13.5515 -3.0965 0.2115 0 1
-0.0873 -12.7996 -2.9215 0.2234 0 24
0.4049 -12.1172 -2.7672 0.2257 0 1
0.8451 -11.4571 -2.6221 0.2374 0 1
1.2398 -10.8421 -2.4908 0.2501 0 1
1.5944 -10.2660 -2.3712 0.2650 0 1
1.9157 -9.7349 -2.2645 0.2770 0 1
2.2070 -9.2376 -2.1678 0.2894 0 1
2.4726 -8.7720 -2.0802 0.3029 0 1
2.7156 -8.3346 -2.0008 0.3149 0 1
2.9379 -7.9205 -1.9282 0.3268 0 1
3.1428 -7.5293 -1.8622 0.3417 0 1
3.3309 -7.1562 -1.8016 0.3523 0 1
3.5053 -6.8016 -1.7465 0.3603 0 1
3.6671 -6.4633 -1.6961 0.3710 0 1
3.8167 -6.1379 -1.6497 0.3814 0 1
3.9478 -5.8137 -1.6040 0.3820 0 1
4.0629 -5.4939 -1.5596 0.3965 0 1
4.1699 -5.1885 -1.5193 0.4070 0 1
4.2680 -4.8937 -1.4821 0.4068 0 1
4.3552 -4.6059 -1.4468 0.4168 0 1
4.4350 -4.3276 -1.4143 0.4263 0 1
4.5079 -4.0580 -1.3844 0.4356 0 1
4.5788 -3.7998 -1.3581 0.4620 0 1
4.6512 -3.5540 -1.3360 0.4697 0 1
4.7180 -3.3133 -1.3159 0.4769 0 1
4.7807 -3.0779 -1.2978 0.4836 0 1
4.8387 -2.8468 -1.2814 0.4898 0 1
4.8920 -2.6193 -1.2665 0.4955 0 1
5.0436 2.1920 -1.3195 0.4931 0 1
5.0077 2.4203 -1.3345 0.4876 0 1
4.9672 2.6522 -1.3510 0.4816 0 1
4.9219 2.8882 -1.3692 0.4752 0 1
4.8715 3.1286 -1.3891 0.4684 0 1
4.8159 3.3738 -1.4108 0.4612 0 1
4.7548 3.6246 -1.4345 0.4536 0 1
4.6883 3.8817 -1.4604 0.4456 0 1
4.6154 4.1452 -1.4885 0.4372 0 1
4.5329 4.4130 -1.5179 0.4410 0 1
4.4385 4.6833 -1.5481 0.4324 0 1
4.3365 4.9607 -1.5809 0.4234 0 1
4.2261 5.2461 -1.6163 0.4141 0 1
4.1102 5.5446 -1.6560 0.4024 0 1
3.9848 5.8537 -1.6990 0.3922 0 1
3.8489 6.1739 -1.7456 0.3817 0 1
3.7015 6.5065 -1.7961 0.3710 0 1
3.5265 6.8236 -1.8429 0.3999 0 1
3.3456 7.1661 -1.8975 0.3785 0 1
3.1514 7.5258 -1.9576 0.3669 0 1
2.9366 7.8893 -2.0198 0.3472 0 1
2.7041 8.2672 -2.0870 0.3360 0 1
2.4623 8.6972 -2.1688 0.3059 0 1
2.1963 9.1462 -2.2569 0.3171 0 1
1.9023 9.6090 -2.3502 0.3045 0 1
1.5810 10.1033 -2.4536 0.2895 0 1
1.2285 10.6352 -2.5687 0.2765 0 1
0.8370 11.1721 -2.6880 0.2665 0 24
0.4085 11.8182 -2.8373 0.2359 0 1
-0.0706 12.4463 -2.9863 0.2348 0 24
-0.6077 13.2319 -3.1781 0.2106 0 1
-1.2122 14.0410 -3.3814 0.1872 0 1
-1.9015 14.9706 -3.6208 0.1748 0 1
-2.6790 15.9349 -3.8770 0.1642 0 24
-3.5913 17.1187 -4.1967 0.1553 0 1
-4.6227 18.3325 -4.5363 0.1474 0 1
-5.8219 19.7083 -4.9307 0.1334 0 1
-7.2130 21.2343 -5.3807 0.1254 0 1
-8.8870 23.0712 -5.9320 0.1115 0 1
-10.9523 25.3441 -6.6244 0.1006 0 1
-13.4914 28.0632 -7.4710 0.0902 0 1
-16.7531 31.5339 -8.5675 0.5088 0 2
-15.7025 26.8876 -7.4708 0.6247 0 15
-16.6422 26.0330 -7.4134 0.8209 0 15
-23.8654 34.2173 -10.0095 0.5099 0 21
-27.9719 36.8529 -11.1008 0.6263 0 3
-22.9450 25.6551 -8.2582 0.5658 0 5
-23.0756 23.8014 -7.9540 0.7540 0 5
-23.1408 22.0231 -7.6647 0.5939 0 5
-31.5085 27.6593 -10.0595 0.6467 0 3
-28.6337 23.1649 -8.8369 0.7868 0 3
-30.4464 22.6680 -9.1074 0.5862 0 3
-28.7657 19.6697 -8.3611 0.8315 0 3
-28.8218 18.0513 -8.1596 0.8520 0 3
-31.0823 17.7683 -8.5902 0.4885 0 3
-33.8812 17.5999 -9.1606 0.9608 0 3
-33.9663 15.9438 -9.0028 0.2218 0 3
-42.0078 17.6936 -10.9366 0.3837 0 3
-27.2443 8.9740 -6.8823 0.8843 0 22
-27.2262 7.7693 -6.7932 0.9250 0 22
-30.8616 -16.3137 -8.3756 0.9334 0 22
-30.7526 -17.8739 -8.5343 0.9021 0 22
-32.0089 -33.4934 -11.1158 0.8998 0 20
-30.1114 -34.1583 -10.9254 0.4009 0 20
-28.1101 -37.5923 -11.2624 0.6310 0 20
-27.0609 -39.3987 -11.4680 0.6828 0 9
-22.8200 -36.2677 -10.2810 0.7545 0 9
-19.1935 -33.4139 -9.2456 0.0673 0 2
-16.2104 -31.0482 -8.4037 0.0867 0 2
-12.6955 -26.9005 -7.1370 0.0839 0 1
-10.2500 -24.1944 -6.3045 0.0978 0 1
-8.2127 -21.7857 -5.5862 0.1090 0 24
-6.6301 -19.9882 -5.0528 0.1216 0 1
-5.3024 -18.4358 -4.6027 0.1397 0 1
-4.1982 -17.1679 -4.2405 0.1574 0 1
-3.2514 -16.0718 -3.9343 0.1692 0 1
-2.4277 -15.1022 -3.6700 0.1822 0 1
-1.7042 -14.2333 -3.4394 0.1959 0 1
-1.0653 -13.4669 -3.2412 0.2118 0 1
-0.4938 -12.7487 -3.0611 0.2235 0 1
0.0182 -12.0680 -2.8955 0.2292 0 24
0.4775 -11.4348 -2.7460 0.2377 0 1
0.8903 -10.8387 -2.6093 0.2501 0 1
1.2624 -10.2807 -2.4852 0.2628 0 1
1.5990 -9.7595 -2.3728 0.2772 0 1
1.8987 -9.2420 -2.2638 0.2880 0 24
2.1834 -8.8132 -2.1785 0.3032 0 1
2.4386 -8.3834 -2.0948 0.3154 0 1
2.6724 -7.9760 -2.0183 0.3273 0 1
2.8876 -7.5906 -1.9486 0.3424 0 1
3.0861 -7.2238 -1.8848 0.3531 0 1
3.2686 -6.8722 -1.8259 0.3645 0 1
3.4373 -6.5355 -1.7717 0.3723 0 1
3.5949 -6.2148 -1.7226 0.3830 0 1
3.7407 -5.9056 -1.6773 0.3933 0 1
3.8643 -5.5899 -1.6305 0.3940 0 1
3.9785 -5.2873 -1.5876 0.4084 0 1
4.0828 -4.9944 -1.5478 0.4085 0 1
4.1766 -4.7093 -1.5103 0.4186 0 1
4.2627 -4.4335 -1.4757 0.4284 0 1
4.3414 -4.1663 -1.4437 0.4379 0 1
4.4135 -3.9069 -1.4142 0.4470 0 1
4.4899 -3.6634 -1.3904 0.4732 0 1
4.5612 -3.4255 -1.3686 0.4807 0 1
4.6270 -3.1922 -1.3487 0.4878 0 1
4.6888 -2.9639 -1.3309 0.4944 0 1
4.7459 -2.7393 -1.3148 0.5005 0 1
4.7983 -2.5179 -1.3002 0.5061 0 1
4.8463 -2.2995 -1.2870 0.5112 0 1
4.8901 -2.0837 -1.2754 0.5160 0 1
4.9297 -1.8701 -1.2650 0.5202 0 1
4.9654 -1.6585 -1.2561 0.5239 0 1
4.9973 -1.4486 -1.2484 0.5272 0 1
4.1112 -1.0144 -1.0160 0.9057 25 14
3.8291 -0.7829 -0.9377 0.8945 25 14
3.8227 -0.6227 -0.9293 0.9765 25 14
3.8176 -0.4651 -0.9227 0.9834 25 14
3.8124 -0.3096 -0.9177 0.9888 25 14
3.8070 -0.1554 -0.9142 0.9926 25 14
3.8021 -0.0022 -0.9122 0.9947 25 14
3.8076 0.1511 -0.9143 0.9925 25 14
3.8130 0.3052 -0.9178 0.9887 25 14
3.8182 0.4608 -0.9228 0.9834 25 14
3.8233 0.6183 -0.9292 0.9765 25 14
3.8252 0.7776 -0.9366 0.6469 25 14
4.1038 1.0076 -1.0139 0.9717 25 14
5.1249 1.4792 -1.2798 0.5164 0 1
5.1080 1.6996 -1.2916 0.5041 0 1
5.0813 1.9210 -1.3034 0.4995 0 1
5.0504 2.1452 -1.3165 0.4942 0 1
5.0155 2.3727 -1.3312 0.4887 0 1
4.9759 2.6039 -1.3475 0.4829 0 1
4.9317 2.8390 -1.3653 0.4765 0 1
4.8824 3.0784 -1.3849 0.4698 0 1
4.8278 3.3226 -1.4062 0.4627 0 1
4.7678 3.5721 -1.4294 0.4552 0 1
4.7026 3.8279 -1.4548 0.4472 0 1
4.6311 4.0901 -1.4825 0.4389 0 1
4.5515 4.3579 -1.5119 0.4427 0 1
4.4587 4.6267 -1.5417 0.4342 0 1
4.3582 4.9027 -1.5739 0.4253 0 1
4.2497 5.1864 -1.6088 0.4161 0 1
4.1349 5.4820 -1.6475 0.4045 0 1
4.0116 5.7888 -1.6898 0.3943 0 1
3.8779 6.1067 -1.7357 0.3839 0 1
3.7330 6.4366 -1.7853 0.3733 0 1
3.5642 6.7578 -1.8331 0.4021 0 1
3.3839 7.0935 -1.8857 0.3808 0 1
3.1929 7.4501 -1.9448 0.3693 0 1
2.9825 7.8130 -2.0065 0.3494 0 1
2.7537 8.1876 -2.0726 0.3383 0 1
2.5133 8.6034 -2.1505 0.3085 0 1
2.2540 9.0537 -2.2386 0.3197 0 1
1.9653 9.5109 -2.3302 0.3071 0 1
1.6498 9.9975 -2.4312 0.2922 0 1
1.3043 10.5221 -2.5439 0.2792 0 1
0.9205 11.0509 -2.6607 0.2708 0 24
0.5013 11.6849 -2.8062 0.2385 0 1
0.0327 12.3055 -2.9525 0.2376 0 24
-0.4914 13.0739 -3.1391 0.2132 0 1
-1.0808 13.8655 -3.3369 0.2051 0 1
-1.7512 14.7700 -3.5686 0.1774 0 1
-2.5168 15.7719 -3.8321 0.1675 0 1
-3.3940 16.8764 -4.1303 0.1578 0 1
-4.3972 18.0715 -4.4625 0.1485 0 1
-5.5572 19.4054 -4.8431 0.1359 0 1
-6.9069 20.9030 -5.2820 0.1277 0 1
-8.5093 22.6511 -5.8056 0.1109 0 1
-10.4868 24.8327 -6.4677 0.1006 0 1
-12.9224 27.4629 -7.2823 0.0925 0 1
-15.8482 30.4396 -8.2340 0.0828 0 1
-15.6845 27.3777 -7.5704 0.6230 0 15
-16.3410 26.0370 -7.3755 0.8406 0 15
-23.5225 34.3314 -9.9852 0.9268 0 21
-27.9392 37.4532 -11.2111 0.6202 0 3
-26.4386 32.6179 -10.0741 0.2708 0 3
-22.9283 26.0700 -8.3300 0.6964 0 5
-23.0384 24.1623 -8.0102 0.7156 0 5
-23.1369 22.3894 -7.7249 0.6580 0 5
-30.9883 27.6628 -9.9666 0.6527 0 3
-28.6179 23.5490 -8.8922 0.7819 0 3
-28.6884 21.7327 -8.6354 0.8051 0 3
-32.5449 22.6537 -9.5140 0.5611 0 3
-28.8107 18.3801 -8.1995 0.8479 0 3
-27.9631 16.2956 -7.7654 0.8939 0 3
-33.4893 17.7519 -9.0942 0.4614 0 3
-34.0054 16.3090 -9.0488 0.5492 0 3
-37.1364 16.0071 -9.7027 0.3958 0 3
-43.6941 16.7841 -11.2305 0.5781 0 3
-27.2450 9.2264 -6.9016 0.9829 0 22
-27.2401 8.0192 -6.8131 0.9672 0 22
-30.8676 -15.9894 -8.3408 0.8502 0 22
-30.7811 -17.5493 -8.5014 0.8968 0 22
-32.3370 -33.2776 -11.1332 0.9610 0 20
-30.4967 -34.0201 -10.9621 0.9144 0 20
-30.7852 -37.2534 -11.5953 0.0230 0 20
-28.5242 -37.4911 -11.3029 0.6382 0 20
-23.6801 -36.9486 -10.5296 0.6643 0 9
-20.1376 -34.3912 -9.5621 0.0650 0 2
-16.5462 -31.0584 -8.4434 0.5163 0 2
-13.2927 -27.5688 -7.3434 0.0816 0 1
-10.7088 -24.7028 -6.4600 0.0954 0 1
-8.5885 -22.2202 -5.7157 0.1056 0 24
-6.9389 -20.3506 -5.1588 0.1187 0 1
-5.5557 -18.7281 -4.6870 0.1371 0 1
-4.4116 -17.4107 -4.3094 0.1548 0 1
-3.4361 -16.2862 -3.9936 0.1668 0 1
-2.5893 -15.2937 -3.7217 0.1797 0 1
-1.8465 -14.4055 -3.4846 0.1933 0 1
-1.1916 -13.6205 -3.2805 0.2103 0 1
-0.6069 -12.8929 -3.0968 0.2217 0 1
-0.0832 -12.2063 -2.9288 0.2266 0 24
0.3857 -11.5404 -2.7705 0.2330 0 24
0.8083 -10.9585 -2.6364 0.2475 0 1
1.1886 -10.3944 -2.5102 0.2602 0 1
1.5320 -9.8644 -2.3952 0.2746 0 1
1.8379 -9.3399 -2.2839 0.2855 0 24
2.1278 -8.9058 -2.1969 0.2994 0 1
2.3876 -8.4704 -2.1115 0.3129 0 1
2.6256 -8.0586 -2.0336 0.3248 0 1
2.8444 -7.6685 -1.9624 0.3400 0 1
3.0464 -7.2986 -1.8976 0.3507 0 1
3.2320 -6.9437 -1.8377 0.3622 0 1
3.4033 -6.6037 -1.7825 0.3734 0 1
3.5633 -6.2802 -1.7325 0.3808 0 1
3.7115 -5.9687 -1.6864 0.3912 0 1
3.8398 -5.6546 -1.6400 0.3917 0 1
3.9557 -5.3490 -1.5962 0.4062 0 1
4.0623 -5.0546 -1.5559 0.4063 0 1
4.1579 -4.7675 -1.5178 0.4165 0 1
4.2455 -4.4899 -1.4826 0.4264 0 1
4.3257 -4.2210 -1.4501 0.4360 0 1
4.3991 -3.9600 -1.4201 0.4452 0 1
4.4745 -3.7133 -1.3951 0.4716 0 1
4.5469 -3.4744 -1.3730 0.4792 0 1
4.6138 -3.2402 -1.3527 0.4864 0 1
4.6764 -3.0108 -1.3345 0.4931 0 1
4.7345 -2.7855 -1.3180 0.4992 0 1
4.7879 -2.5635 -1.3031 0.5050 0 1
4.9349 2.1448 -1.3543 0.5026 0 1
4.8985 2.3675 -1.3693 0.4971 0 1
4.8576 2.5937 -1.3859 0.4911 0 1
4.8119 2.8236 -1.4042 0.4847 0 1
4.7611 3.0576 -1.4241 0.4779 0 1
4.7051 3.2962 -1.4459 0.4708 0 1
4.6436 3.5398 -1.4696 0.4632 0 1
4.5768 3.7893 -1.4955 0.4552 0 1
4.5036 4.0448 -1.5235 0.4468 0 1
4.4237 4.3067 -1.5539 0.4381 0 1
4.3298 4.5685 -1.5842 0.4420 0 1
4.2280 4.8367 -1.6169 0.4331 0 1
4.1182 5.1121 -1.6522 0.4238 0 1
4.0024 5.3992 -1.6916 0.4121 0 1
3.8777 5.6963 -1.7343 0.4020 0 1
3.7427 6.0035 -1.7806 0.3915 0 1
3.5965 6.3219 -1.8306 0.3808 0 1
3.4337 6.6439 -1.8823 0.4096 0 1
3.2531 6.9679 -1.9354 0.3882 0 1
3.0591 7.3053 -1.9933 0.3680 0 1
2.8475 7.6500 -2.0544 0.3570 0 1
2.6194 8.0084 -2.1207 0.3459 0 1
2.3785 8.4013 -2.1976 0.3158 0 1
2.1234 8.8427 -2.2888 0.3032 0 1
1.8374 9.2809 -2.3812 0.3144 0 1
1.5243 9.7414 -2.4816 0.2994 0 1
1.1825 10.2371 -2.5936 0.2865 0 1
0.8058 10.7561 -2.7147 0.2734 0 1
0.3906 11.3010 -2.8460 0.2482 0 1
-0.0675 11.9005 -2.9952 0.2459 0 24
-0.5780 12.5857 -3.1710 0.2208 0 1
-1.1492 13.3120 -3.3629 0.2082 0 1
-1.7906 14.0975 -3.5766 0.1852 0 1
-2.5229 15.0063 -3.8298 0.1754 0 1
-3.3440 15.9402 -4.0992 0.1631 0 24
-4.3024 17.0623 -4.4287 0.1554 0 1
-5.3853 18.2304 -4.7843 0.1462 0 1
-6.6339 19.5295 -5.1911 0.1345 0 1
-8.0838 20.9860 -5.6601 0.1190 0 1
-9.8736 22.8480 -6.2644 0.1105 0 1
-12.0513 25.0678 -7.0004 0.0996 0 1
-14.6432 27.5624 -7.8552 0.0957 0 1
-15.6947 26.8743 -7.8328 0.8571 0 15
-16.6526 26.0491 -7.7813 0.8144 0 15
-26.8460 38.4909 -11.8110 0.0551 0 25
-25.9969 34.2509 -10.8223 0.9285 0 21
-27.9635 33.9180 -11.0637 0.6574 0 3
-22.8450 25.5433 -8.6249 0.6229 0 5
-22.9534 23.6753 -8.2994 0.7282 0 5
-23.0011 21.8902 -7.9916 0.7534 0 5
-27.7567 24.3658 -9.2957 0.5902 0 3
-28.3362 22.9242 -9.1734 0.8931 0 3
-30.4451 22.6670 -9.5530 0.5846 0 3
-33.1225 22.6488 -10.0990 0.5530 0 3
-28.6994 17.9747 -8.5229 0.8533 0 3
-31.0808 17.7674 -9.0105 0.4872 0 3
-34.1631 17.7463 -9.6892 0.4530 0 3
-37.7539 17.7217 -10.4968 0.4182 0 3
-38.0925 16.0445 -10.4030 0.3826 0 3
-27.1181 8.9325 -7.1859 0.9354 0 22
-27.1101 7.7362 -7.0955 0.9445 0 22
-46.6383 9.3341 -11.9709 0.9927 0 22
-46.6367 7.3973 -11.8844 0.9877 0 22
-30.7355 -16.2470 -8.7499 0.7745 0 22
-30.6349 -17.8056 -8.9180 0.9206 0 22
-31.9626 -33.4450 -11.6434 0.9006 0 20
-30.2788 -34.3481 -11.5242 0.5538 0 20
-28.1401 -34.6358 -11.2317 0.6619 0 20
-27.9531 -37.3824 -11.7480 0.6328 0 20
-22.8378 -33.2502 -10.1524 0.7873 0 9
-20.4665 -32.5274 -9.6723 0.0673 0 2
-16.5896 -28.8807 -8.3826 0.5440 0 2
-13.8488 -26.5251 -7.5311 0.0832 0 1
-11.2665 -23.8727 -6.6439 0.0965 0 1
-9.1645 -21.6323 -5.9129 0.1060 0 24
-7.5024 -19.9014 -5.3529 0.1197 0 1
-6.0934 -18.3703 -4.8712 0.1385 0 1
-4.9251 -17.1240 -4.4845 0.1557 0 1
-3.9244 -16.0481 -4.1581 0.1676 0 1
-3.0556 -15.1041 -3.8785 0.1796 0 1
-2.2917 -14.2562 -3.6341 0.1939 0 1
-1.6161 -13.4980 -3.4215 0.2110 0 1
-1.0134 -12.8117 -3.2346 0.2220 0 1
-0.4708 -12.1535 -3.0611 0.2238 0 1
0.0174 -11.5093 -2.8967 0.2340 0 24
0.4567 -10.9365 -2.7549 0.2478 0 1
0.8533 -10.3889 -2.6235 0.2602 0 1
1.2127 -9.8766 -2.5044 0.2747 0 1
1.5390 -9.3932 -2.3956 0.2872 0 1
1.8299 -8.9070 -2.2886 0.2974 0 24
2.1082 -8.5097 -2.2065 0.3132 0 1
2.3577 -8.1054 -2.1245 0.3253 0 1
2.5871 -7.7216 -2.0496 0.3406 0 1
2.7992 -7.3582 -1.9814 0.3523 0 1
2.9944 -7.0092 -1.9183 0.3629 0 1
3.1745 -6.6742 -1.8601 0.3743 0 1
3.3410 -6.3523 -1.8064 0.3854 0 1
3.4959 -6.0437 -1.7572 0.3927 0 1
3.6395 -5.7457 -1.7118 0.3926 0 1
3.7623 -5.4424 -1.6652 0.4073 0 1
3.8752 -5.1500 -1.6221 0.4077 0 1
3.9776 -4.8657 -1.5817 0.4181 0 1
4.0716 -4.5908 -1.5444 0.4282 0 1
4.1579 -4.3245 -1.5099 0.4380 0 1
4.2369 -4.0661 -1.4780 0.4475 0 1
4.3127 -3.8178 -1.4496 0.4748 0 1
4.3897 -3.5817 -1.4259 0.4827 0 1
4.4609 -3.3502 -1.4041 0.4902 0 1
4.5267 -3.1231 -1.3841 0.4972 0 1
4.5885 -2.9005 -1.3662 0.5038 0 1
4.6456 -2.6814 -1.3500 0.5099 0 1
4.6980 -2.4653 -1.3353 0.5155 0 1
4.7460 -2.2519 -1.3221 0.5207 0 1
4.7897 -2.0409 -1.3104 0.5254 0 1
4.8294 -1.8321 -1.3000 0.5296 0 1
4.8651 -1.6250 -1.2910 0.5333 0 1
4.8969 -1.4195 -1.2832 0.5365 0 1
4.1177 -1.0160 -1.0674 0.9018 25 14
3.8449 -0.7862 -0.9877 0.6784 25 14
3.8271 -0.6234 -0.9759 0.8991 25 14
3.8180 -0.4652 -0.9680 0.9064 25 14
3.8092 -0.3093 -0.9619 0.9122 25 14
3.8009 -0.1552 -0.9574 0.9915 25 14
3.7960 -0.0022 -0.9554 0.9936 25 14
3.8015 0.1508 -0.9575 0.9914 25 14
3.8069 0.3047 -0.9612 0.9876 25 14
3.8120 0.4600 -0.9664 0.9823 25 14
3.8178 0.6174 -0.9734 0.9015 25 14
3.8284 0.7782 -0.9832 0.6816 25 14
4.1031 1.0074 -1.0634 0.9053 25 14
5.0199 1.4489 -1.3150 0.5257 0 1
5.0003 1.6638 -1.3263 0.5135 0 1
4.9732 1.8801 -1.3381 0.5090 0 1
4.9418 2.0991 -1.3513 0.5040 0 1
4.9064 2.3212 -1.3661 0.4982 0 1
4.8665 2.5466 -1.3824 0.4924 0 1
4.8218 2.7757 -1.4003 0.4861 0 1
4.7721 3.0088 -1.4199 0.4794 0 1
4.7171 3.2464 -1.4412 0.4723 0 1
4.6567 3.4889 -1.4645 0.4648 0 1
4.5911 3.7372 -1.4899 0.4569 0 1
4.5193 3.9914 -1.5175 0.4486 0 1
4.4408 4.2519 -1.5474 0.4399 0 1
4.3499 4.5139 -1.5777 0.4438 0 1
4.2498 4.7806 -1.6099 0.4349 0 1
4.1416 5.0545 -1.6446 0.4258 0 1
4.0270 5.3390 -1.6831 0.4142 0 1
3.9043 5.6340 -1.7252 0.4041 0 1
3.7715 5.9390 -1.7707 0.3937 0 1
3.6277 6.2550 -1.8199 0.3831 0 1
3.4708 6.5808 -1.8725 0.4118 0 1
3.2909 6.8985 -1.9237 0.3905 0 1
3.1009 7.2355 -1.9813 0.3702 0 1
2.8926 7.5775 -2.0414 0.3593 0 1
2.6681 7.9330 -2.1065 0.3482 0 1
2.4285 8.3130 -2.1797 0.3184 0 1
2.1782 8.7492 -2.2692 0.3058 0 1
1.8988 9.1889 -2.3616 0.3170 0 1
1.5914 9.6434 -2.4599 0.3044 0 1
1.2559 10.1319 -2.5695 0.2892 0 1
0.8872 10.6519 -2.6902 0.2759 0 1
0.4797 11.1798 -2.8164 0.2508 0 1
0.0313 11.7725 -2.9630 0.2478 0 24
-0.4677 12.4430 -3.1339 0.2234 0 1
-1.0204 13.0899 -3.3045 0.2150 0 24
-1.6510 13.9244 -3.5291 0.1993 0 1
-2.3636 14.8121 -3.7751 0.1754 0 1
-3.1744 15.7843 -4.0522 0.1657 0 1
-4.0963 16.8349 -4.3607 0.1579 0 1
-5.1484 17.9780 -4.7067 0.1473 0 1
-6.3608 19.2501 -5.1026 0.1368 0 1
-7.7650 20.6697 -5.5572 0.1270 0 1
-9.4763 22.4397 -6.1307 0.1099 0 1
-11.5620 24.5718 -6.8347 0.0996 0 1
-14.0743 27.0325 -7.6705 0.0931 0 1
-15.6621 27.3385 -7.9298 0.5705 0 15
-16.3489 26.0494 -7.7405 0.8343 0 15
-23.4453 34.2186 -10.4398 0.9954 0 21
-25.7824 34.5619 -10.8524 0.9259 0 21
-27.9334 34.4621 -11.1650 0.6515 0 3
-22.8075 25.9327 -8.6920 0.6982 0 5
-22.9195 24.0377 -8.3592 0.7531 0 5
-23.0035 22.2604 -8.0566 0.7146 0 5
-27.6089 24.6460 -9.3146 0.7591 0 3
-28.4855 23.4401 -9.2846 0.7834 0 3
-28.4188 21.5285 -8.9732 0.9870 0 3
-32.5434 22.6527 -9.9796 0.5596 0 3
-28.6879 18.3017 -8.5644 0.8492 0 3
-28.9123 16.8488 -8.4222 0.9968 0 3
-33.4875 17.7509 -9.5391 0.4602 0 3
-36.9622 17.7271 -10.3174 0.4255 0 3
-38.2054 16.4679 -10.4709 0.9044 0 3
-27.1298 9.1874 -7.2090 0.8921 0 22
-27.1345 7.9881 -7.1191 0.9618 0 22
-46.6230 7.7936 -11.8971 0.9912 0 22
-22.8686 -4.5496 -5.8684 0.4462 16 6
-30.7005 -15.9029 -8.7019 0.8209 0 22
-30.6597 -17.4801 -8.8826 0.8887 0 22
-32.3635 -33.3049 -11.6880 0.8952 0 20
-30.4096 -33.9230 -11.4661 0.0243 0 20
-28.5526 -34.5517 -11.2811 0.6689 0 20
-27.9937 -36.7939 -11.6359 0.6389 0 20
-24.4031 -34.9029 -10.7186 0.7412 0 9
-17.6362 -27.5182 -8.2262 0.9777 0 6
-17.2618 -29.4798 -8.5980 0.0757 0 2
-14.4848 -27.1890 -7.7535 0.0740 0 1
-11.7441 -24.3571 -6.8057 0.0948 0 1
-9.5618 -22.0569 -6.0505 0.1029 0 24
-7.8284 -20.2537 -5.4650 0.1175 0 1
-6.3618 -18.6582 -4.9614 0.1297 0 1
-5.1497 -17.3596 -4.5573 0.1532 0 1
-4.1195 -16.2580 -4.2212 0.1618 0 1
-3.2264 -15.2919 -3.9334 0.1771 0 1
-2.4421 -14.4244 -3.6820 0.1914 0 1
-1.7492 -13.6463 -3.4627 0.2085 0 1
-1.1299 -12.9147 -3.2628 0.2182 0 24
-0.5786 -12.2902 -3.0967 0.2213 0 1
-0.0794 -11.6391 -2.9294 0.2298 0 24
0.3694 -11.0547 -2.7838 0.2452 0 1
0.7744 -10.4992 -2.6496 0.2577 0 1
1.1412 -9.9805 -2.5283 0.2721 0 1
1.4740 -9.4908 -2.4173 0.2846 0 1
1.7770 -9.0301 -2.3163 0.2970 0 1
2.0538 -8.5960 -2.2244 0.3107 0 1
2.3078 -8.1874 -2.1409 0.3228 0 1
2.5410 -7.7990 -2.0644 0.3348 0 1
2.7567 -7.4321 -1.9951 0.3499 0 1
2.9553 -7.0803 -1.9310 0.3606 0 1
3.1384 -6.7424 -1.8718 0.3720 0 1
3.3076 -6.4179 -1.8172 0.3831 0 1
3.4646 -6.1063 -1.7670 0.3906 0 1
3.6114 -5.8077 -1.7213 0.4009 0 1
3.7375 -5.5039 -1.6744 0.4051 0 1
3.8529 -5.2101 -1.6309 0.4055 0 1
3.9571 -4.9237 -1.5898 0.4160 0 1
4.0528 -4.6470 -1.5519 0.4262 0 1
4.1406 -4.3790 -1.5168 0.4360 0 1
4.2211 -4.1189 -1.4844 0.4456 0 1
4.2960 -3.8673 -1.4548 0.4731 0 1
4.3743 -3.6301 -1.4307 0.4811 0 1
4.4467 -3.3978 -1.4085 0.4886 0 1
4.5136 -3.1698 -1.3881 0.4958 0 1
4.5761 -2.9462 -1.3698 0.5025 0 1
4.6342 -2.7265 -1.3532 0.5087 0 1
4.6875 -2.5098 -1.3382 0.5144 0 1
4.8302 2.0993 -1.3878 0.5124 0 1
4.7935 2.3168 -1.4029 0.5065 0 1
4.7522 2.5374 -1.4195 0.5006 0 1
4.7061 2.7616 -1.4378 0.4942 0 1
4.6550 2.9895 -1.4578 0.4874 0 1
4.5986 3.2216 -1.4795 0.4803 0 1
4.5370 3.4585 -1.5032 0.4727 0 1
4.4698 3.7008 -1.5291 0.4647 0 1
4.3964 3.9485 -1.5571 0.4564 0 1
4.3164 4.2023 -1.5874 0.4477 0 1
4.2257 4.4587 -1.6187 0.4516 0 1
4.1244 4.7181 -1.6513 0.4427 0 1
4.0150 4.9841 -1.6864 0.4335 0 1
3.8996 5.2605 -1.7255 0.4218 0 1
3.7756 5.5463 -1.7679 0.4116 0 1
3.6416 5.8414 -1.8138 0.4012 0 1
3.4967 6.1465 -1.8633 0.3906 0 1
3.3400 6.4626 -1.9169 0.3797 0 1
3.1645 6.7782 -1.9711 0.3885 0 1
2.9711 7.0953 -2.0269 0.3778 0 1
2.7633 7.4235 -2.0872 0.3669 0 1
2.5395 7.7639 -2.1525 0.3558 0 1
2.2998 8.1233 -2.2246 0.3257 0 1
2.0503 8.5384 -2.3138 0.3131 0 1
1.7764 8.9728 -2.4102 0.3243 0 1
1.4716 9.4044 -2.5082 0.3116 0 1
1.1396 9.8657 -2.6169 0.2964 0 1
0.7749 10.3442 -2.7333 0.2835 0 1
0.3743 10.8279 -2.8549 0.2583 0 1
-0.0646 11.3890 -3.0010 0.2457 0 1
-0.5510 11.9967 -3.1645 0.2310 0 1
-1.0875 12.5969 -3.3316 0.2244 0 24
-1.6962 13.3540 -3.5471 0.2070 0 1
-2.3742 14.1216 -3.7733 0.1832 0 1
-3.1468 15.0001 -4.0386 0.1736 0 1
-4.0089 15.8981 -4.3203 0.1640 0 24
-5.0088 16.9559 -4.6587 0.1554 0 1
-6.1346 18.0596 -5.0258 0.1464 0 1
-7.4249 19.2756 -5.4429 0.1325 0 1
-8.9700 20.7569 -5.9583 0.1182 0 1
-10.8402 22.5485 -6.5925 0.1052 0 1
-13.0830 24.6256 -7.3478 0.0998 0 1
-15.6407 26.7817 -8.1723 0.0989 0 1
-17.2356 26.9611 -8.4319 0.7617 0 15
-22.4226 32.1487 -10.3281 0.0658 0 2
-25.8639 34.0755 -11.2724 0.9306 0 21
-25.4937 30.9223 -10.5601 0.6311 0 21
-22.7257 25.4098 -8.9827 0.7324 0 5
-22.8278 23.5457 -8.6415 0.6984 0 5
-22.9049 21.7986 -8.3318 0.7422 0 5
-23.0146 20.2030 -8.0694 0.7610 0 5
-26.8282 21.7042 -9.0930 0.7897 0 3
-30.4438 22.6661 -10.0011 0.5830 0 3
-33.1019 22.6347 -10.5665 0.9975 0 3
-28.5775 17.8983 -8.8852 0.8545 0 3
-28.4909 16.2869 -8.6475 0.6469 0 3
-34.1613 17.7453 -10.1435 0.4518 0 3
-37.7517 17.7206 -10.9890 0.4170 0 3
-42.0024 17.6913 -12.0093 0.3816 0 3
-44.8370 16.7960 -12.6163 0.3455 0 3
-27.0106 8.8970 -7.4935 0.9435 0 22
-27.0127 7.7084 -7.4020 0.9932 0 22
-46.4445 9.2953 -12.4808 0.9559 0 22
-46.4603 7.3693 -12.3953 0.9900 0 22
-30.5692 -16.1591 -9.1112 0.8894 0 22
-30.4932 -17.7232 -9.2936 0.8199 0 22
-31.9329 -33.4139 -12.1787 0.8073 0 20
-28.1616 -31.9464 -11.2217 0.6916 0 20
-27.9910 -34.4522 -11.6967 0.6638 0 20
-23.2219 -31.0551 -10.2178 0.6793 0 9
-21.5954 -31.4413 -10.0508 0.0676 0 2
-17.6200 -28.0034 -8.7181 0.0779 0 2
-15.0094 -26.1298 -7.9403 0.0735 0 1
-12.2366 -23.4370 -6.9667 0.0965 0 1
-10.0909 -21.3816 -6.2300 0.1039 0 24
-8.3599 -19.7331 -5.6470 0.1172 0 1
-6.8815 -18.2544 -5.1405 0.1307 0 1
-5.6505 -17.0349 -4.7292 0.1489 0 1
-4.5981 -15.9870 -4.3834 0.1627 0 1
-3.6853 -15.0703 -4.0880 0.1780 0 1
-2.8823 -14.2472 -3.8302 0.1921 0 1
-2.1701 -13.4997 -3.6029 0.2091 0 1
-1.5368 -12.8355 -3.4063 0.2212 0 1
-0.9658 -12.2088 -3.2271 0.2217 0 1
-0.4483 -11.5736 -3.0519 0.2326 0 24
0.0166 -10.9977 -2.8979 0.2436 0 24
0.4375 -10.4773 -2.7632 0.2579 0 1
0.8192 -9.9733 -2.6368 0.2723 0 1
1.1621 -9.4640 -2.5125 0.2826 0 24
1.4830 -9.0515 -2.4169 0.2972 0 1
1.7722 -8.6260 -2.3204 0.3096 0 1
2.0376 -8.2248 -2.2328 0.3231 0 1
2.2816 -7.8439 -2.1525 0.3352 0 1
2.5073 -7.4833 -2.0796 0.3504 0 1
2.7156 -7.1384 -2.0125 0.3612 0 1
2.9076 -6.8059 -1.9502 0.3727 0 1
3.0851 -6.4863 -1.8926 0.3840 0 1
3.2496 -6.1785 -1.8395 0.3951 0 1
3.4020 -5.8813 -1.7903 0.4060 0 1
3.5420 -5.5918 -1.7441 0.4023 0 1
3.6638 -5.2999 -1.6977 0.4067 0 1
3.7749 -5.0167 -1.6543 0.4174 0 1
3.8772 -4.7428 -1.6142 0.4277 0 1
3.9712 -4.4776 -1.5770 0.4378 0 1
4.0575 -4.2202 -1.5426 0.4476 0 1
4.1368 -3.9700 -1.5108 0.4570 0 1
4.2165 -3.7326 -1.4838 0.4842 0 1
4.2934 -3.5030 -1.4601 0.4921 0 1
4.3645 -3.2778 -1.4383 0.4996 0 1
4.4302 -3.0565 -1.4182 0.5066 0 1
4.4919 -2.8394 -1.4002 0.5132 0 1
4.5489 -2.6256 -1.3840 0.5192 0 1
4.6012 -2.4145 -1.3692 0.5248 0 1
4.6492 -2.2060 -1.3560 0.5300 0 1
4.6929 -1.9997 -1.3442 0.5347 0 1
4.7325 -1.7953 -1.3337 0.5389 0 1
4.7681 -1.5926 -1.3246 0.5426 0 1
4.7999 -1.3914 -1.3168 0.5458 0 1
4.1243 -1.0176 -1.1193 0.8978 25 14
3.8659 -0.7905 -1.0397 0.6728 25 14
3.8347 -0.6246 -1.0238 0.8948 25 14
3.8255 -0.4661 -1.0155 0.9021 25 14
3.8166 -0.3099 -1.0090 0.9079 25 14
3.8107 -0.1556 -1.0049 0.8598 25 14
3.8058 -0.0022 -1.0028 0.8616 25 14
3.8074 0.1510 -1.0041 0.8605 25 14
3.8125 0.3052 -1.0078 0.9089 25 14
3.8188 0.4608 -1.0136 0.9038 25 14
3.8254 0.6186 -1.0211 0.8971 25 14
3.8504 0.7827 -1.0353 0.6757 25 14
4.1096 1.0090 -1.1151 0.9013 25 14
4.9186 1.4196 -1.3489 0.5350 0 1
4.8964 1.6292 -1.3598 0.5229 0 1
4.8690 1.8407 -1.3716 0.5184 0 1
4.8373 2.0546 -1.3848 0.5134 0 1
4.8014 2.2715 -1.3996 0.5077 0 1
4.7611 2.4915 -1.4160 0.5018 0 1
4.7161 2.7149 -1.4339 0.4956 0 1
4.6660 2.9420 -1.4535 0.4889 0 1
4.6108 3.1732 -1.4749 0.4818 0 1
4.5501 3.4091 -1.4981 0.4743 0 1
4.4842 3.6502 -1.5236 0.4664 0 1
4.4122 3.8968 -1.5511 0.4581 0 1
4.3335 4.1492 -1.5809 0.4495 0 1
4.2458 4.4058 -1.6123 0.4534 0 1
4.1460 4.6639 -1.6443 0.4446 0 1
4.0384 4.9285 -1.6789 0.4354 0 1
3.9241 5.2025 -1.7171 0.4238 0 1
3.8021 5.4864 -1.7589 0.4138 0 1
3.6702 5.7795 -1.8040 0.4034 0 1
3.5276 6.0824 -1.8528 0.3928 0 1
3.3734 6.3962 -1.9054 0.3819 0 1
3.2024 6.7130 -1.9598 0.4002 0 1
3.0123 7.0288 -2.0150 0.3800 0 1
2.8076 7.3546 -2.0744 0.3692 0 1
2.5872 7.6924 -2.1385 0.3581 0 1
2.3497 8.0433 -2.2080 0.3468 0 1
2.1038 8.4506 -2.2947 0.3157 0 1
1.8359 8.8843 -2.3905 0.3031 0 1
1.5369 9.3131 -2.4872 0.3143 0 1
1.2107 9.7676 -2.5935 0.2991 0 1
0.8536 10.2475 -2.7096 0.2860 0 1
0.4601 10.7247 -2.8286 0.2740 0 1
0.0299 11.2696 -2.9696 0.2483 0 1
-0.4460 11.8671 -3.1292 0.2336 0 1
-0.9715 12.4639 -3.2942 0.2269 0 24
-1.5656 13.2047 -3.5038 0.2095 0 1
-2.2262 13.9509 -3.7226 0.1972 0 1
-2.9790 14.8130 -3.9814 0.1761 0 1
-3.8321 15.7492 -4.2710 0.1649 0 1
-4.7934 16.7382 -4.5878 0.1567 0 1
-5.8911 17.8288 -4.9477 0.1487 0 1
-7.1420 19.0115 -5.3514 0.1347 0 1
-8.6245 20.4227 -5.8416 0.1164 0 1
-10.4201 22.1450 -6.4489 0.1076 0 1
-12.5918 24.1851 -7.1848 0.1020 0 1
-15.0947 26.3482 -8.0014 0.1010 0 1
-17.1697 27.3573 -8.5108 0.6148 0 15
-21.4670 31.3313 -10.0077 0.0679 0 2
-26.6602 35.7387 -11.7488 0.0578 0 25
-27.7781 34.2705 -11.6242 0.6532 0 3
-22.6873 25.7960 -9.0521 0.6999 0 5
-22.8033 23.9158 -8.7073 0.7337 0 5
-22.8701 22.1313 -8.3859 0.7820 0 5
-22.9820 20.5157 -8.1176 0.7805 0 5
-26.8119 22.0629 -9.1494 0.7848 0 3
-28.5988 21.6648 -9.4540 0.5894 0 3
-32.5420 22.6517 -10.4477 0.5580 0 3
-28.5653 18.2235 -8.9282 0.8504 0 3
-33.2281 19.3638 -10.1339 0.8698 0 3
-33.4857 17.7500 -9.9865 0.4589 0 3
-36.9601 17.7261 -10.8011 0.4243 0 3
-41.0588 17.6978 -11.7813 0.3890 0 3
-44.8067 17.2115 -12.6477 0.0572 0 3
-27.0137 9.1481 -7.5152 0.9340 0 22
-27.0160 7.9532 -7.4208 0.9272 0 22
-46.4465 7.7641 -12.4085 0.9850 0 22
-23.4384 -4.6630 -6.2971 0.9030 16 6
-30.6023 -15.8520 -9.0813 0.9031 0 22
-30.5344 -17.4087 -9.2616 0.8843 0 22
-32.3958 -33.3381 -12.2490 0.8027 0 20
-28.5745 -31.8758 -11.2800 0.6994 0 20
-28.0278 -33.9166 -11.5937 0.6697 0 20
-25.2311 -33.1628 -10.9800 0.9847 0 9
-22.5586 -32.2648 -10.3737 0.0655 0 2
-17.4886 -27.2879 -8.5404 0.9963 0 6
-15.7212 -26.8488 -8.1983 0.0734 0 1
-12.7485 -23.9297 -7.1445 0.0823 0 1
-10.5071 -21.7915 -6.3747 0.1005 0 24
-8.6998 -20.0686 -5.7636 0.1148 0 1
-7.1675 -18.5440 -5.2386 0.1282 0 1
-5.8895 -17.2729 -4.8087 0.1464 0 1
-4.8040 -16.1941 -4.4509 0.1602 0 1
-3.8645 -15.2516 -4.1458 0.1755 0 1
-3.0404 -14.4104 -3.8807 0.1896 0 1
-2.3108 -13.6488 -3.6476 0.2017 0 1
-1.6579 -12.9339 -3.4360 0.2150 0 24
-1.0797 -12.3418 -3.2645 0.2289 0 1
-0.5515 -11.7150 -3.0903 0.2315 0 1
-0.0758 -11.1157 -2.9291 0.2408 0 24
0.3538 -10.5859 -2.7909 0.2554 0 1
0.7431 -10.0745 -2.6619 0.2678 0 1
1.0932 -9.5601 -2.5355 0.2800 0 24
1.4199 -9.1426 -2.4379 0.2946 0 1
1.7144 -8.7122 -2.3397 0.3070 0 1
1.9779 -8.2785 -2.2428 0.3237 0 24
2.2328 -7.9212 -2.1686 0.3327 0 1
2.4620 -7.5566 -2.0942 0.3480 0 1
2.6739 -7.2086 -2.0259 0.3597 0 1
2.8691 -6.8737 -1.9627 0.3703 0 1
3.0495 -6.5515 -1.9042 0.3817 0 1
3.2165 -6.2413 -1.8501 0.3929 0 1
3.3714 -5.9420 -1.8002 0.4038 0 1
3.5156 -5.6536 -1.7543 0.3999 0 1
3.6396 -5.3598 -1.7072 0.4044 0 1
3.7527 -5.0745 -1.6630 0.4152 0 1
3.8567 -4.7988 -1.6222 0.4256 0 1
3.9523 -4.5318 -1.5845 0.4358 0 1
4.0402 -4.2728 -1.5495 0.4456 0 1
4.1210 -4.0212 -1.5172 0.4551 0 1
4.1999 -3.7807 -1.4890 0.4825 0 1
4.2779 -3.5502 -1.4648 0.4905 0 1
4.3502 -3.3241 -1.4426 0.4981 0 1
4.4170 -3.1020 -1.4222 0.5052 0 1
4.4795 -2.8840 -1.4038 0.5119 0 1
4.5375 -2.6696 -1.3872 0.5180 0 1
4.5908 -2.4580 -1.3721 0.5237 0 1
4.7293 2.0554 -1.4201 0.5217 0 1
4.6923 2.2678 -1.4352 0.5159 0 1
4.6507 2.4832 -1.4519 0.5100 0 1
4.6043 2.7018 -1.4702 0.5036 0 1
4.5530 2.9240 -1.4901 0.4969 0 1
4.4964 3.1500 -1.5119 0.4897 0 1
4.4345 3.3805 -1.5356 0.4822 0 1
4.3672 3.6158 -1.5614 0.4742 0 1
4.2937 3.8562 -1.5893 0.4659 0 1
4.2136 4.1022 -1.6195 0.4572 0 1
4.1260 4.3535 -1.6518 0.4611 0 1
4.0251 4.6045 -1.6842 0.4523 0 1
3.9164 4.8616 -1.7192 0.4431 0 1
3.8013 5.1280 -1.7579 0.4314 0 1
3.6782 5.4033 -1.8000 0.4213 0 1
3.5453 5.6869 -1.8455 0.4109 0 1
3.4018 5.9796 -1.8945 0.4003 0 1
3.2468 6.2822 -1.9474 0.3894 0 1
3.0779 6.5928 -2.0037 0.3982 0 1
2.8877 6.8959 -2.0588 0.3876 0 1
2.6834 7.2089 -2.1183 0.3767 0 1
2.4638 7.5327 -2.1825 0.3656 0 1
2.2276 7.8682 -2.2519 0.3543 0 1
1.9818 8.2528 -2.3373 0.3230 0 1
1.7154 8.6647 -2.4325 0.3104 0 1
1.4222 9.0886 -2.5333 0.3215 0 1
1.0995 9.5183 -2.6386 0.3063 0 1
0.7462 9.9605 -2.7507 0.2935 0 1
0.3598 10.4082 -2.8680 0.2815 0 1
-0.0618 10.9062 -3.0035 0.2558 0 1
-0.5262 11.4573 -3.1585 0.2412 0 1
-1.0370 12.0117 -3.3202 0.2340 0 24
-1.6114 12.6863 -3.5217 0.2172 0 1
-2.2471 13.3658 -3.7324 0.2050 0 1
-2.9603 14.1108 -3.9705 0.1814 0 1
-3.7694 14.9485 -4.2455 0.1729 0 1
-4.6781 15.8362 -4.5474 0.1659 0 1
-5.7055 16.7962 -4.8850 0.1544 0 1
-6.8609 17.8113 -5.2563 0.1458 0 1
-8.1926 18.9580 -5.6874 0.1245 0 1
-9.8301 20.4475 -6.2479 0.1175 0 1
-11.7721 22.1582 -6.9098 0.1046 0 1
-14.0446 24.0488 -7.6694 0.0993 0 1
-16.7356 26.1790 -8.5566 0.5798 0 2
-19.2348 27.5781 -9.2594 0.0764 0 2
-23.3766 30.7985 -10.6479 0.0665 0 25
-25.3726 30.7754 -10.9841 0.9547 0 21
-22.6020 25.2715 -9.3368 0.7140 0 5
-22.6801 23.3935 -8.9729 0.7021 0 5
-22.7893 21.6886 -8.6637 0.7302 0 5
-22.8795 20.0844 -8.3839 0.7726 0 5
-22.9819 18.5926 -8.1407 0.8164 0 5
-23.0318 17.1476 -7.9075 0.7403 0 5
-32.9615 22.5387 -10.9964 0.8353 0 3
-28.4572 17.8229 -9.2469 0.9159 0 3
-30.8624 17.6426 -9.7898 0.9334 0 3
-34.1594 17.7444 -10.6005 0.4504 0 3
-37.7495 17.7196 -11.4840 0.4158 0 3
-41.9997 17.6902 -12.5502 0.3805 0 3
-26.9066 8.8628 -7.8013 0.9443 0 22
-26.9522 7.6912 -7.7186 0.9888 0 22
-46.2487 9.2561 -12.9888 0.9647 0 22
-46.2742 7.3398 -12.9026 0.9891 0 22
-32.5911 -31.4660 -12.4756 0.6662 0 20
-29.6620 -31.0377 -11.8229 0.6922 0 20
-28.0207 -31.7866 -11.6692 0.6933 0 20
-25.1407 -30.9440 -10.9795 0.8870 0 9
-22.5584 -30.1679 -10.3736 0.0682 0 2
-18.5961 -27.0746 -9.0453 0.0782 0 2
-16.3192 -25.9361 -8.4387 0.0988 0 2
-13.0801 -22.7710 -7.2317 0.0973 0 24
-10.9912 -21.0517 -6.5400 0.1075 0 1
-9.1845 -19.4611 -5.9262 0.1164 0 1
-7.6619 -18.0855 -5.4090 0.1294 0 1
-6.3708 -16.8998 -4.9737 0.1448 0 1
-5.2690 -15.8847 -4.6088 0.1612 0 1
-4.3133 -14.9968 -4.2973 0.1764 0 1
-3.4733 -14.2033 -4.0266 0.1908 0 1
-2.7274 -13.4816 -3.7879 0.2024 0 1
-2.0624 -12.8298 -3.5785 0.2194 0 1
-1.4642 -12.2289 -3.3917 0.2254 0 1
-0.9205 -11.6368 -3.2146 0.2319 0 1
-0.4290 -11.0753 -3.0523 0.2442 0 1
0.0159 -10.5274 -2.8991 0.2538 0 24
0.4198 -10.0529 -2.7708 0.2700 0 1
0.7848 -9.5548 -2.6401 0.2797 0 24
1.1238 -9.1518 -2.5392 0.2946 0 1
1.4307 -8.7320 -2.4367 0.3072 0 1
1.7121 -8.3336 -2.3429 0.3209 0 1
1.9655 -7.9339 -2.2509 0.3358 0 24
2.2105 -7.5994 -2.1795 0.3484 0 1
2.4318 -7.2580 -2.1080 0.3602 0 1
2.6363 -6.9298 -2.0418 0.3709 0 1
2.8252 -6.6130 -1.9804 0.3824 0 1
3.0002 -6.3077 -1.9235 0.3937 0 1
3.1625 -6.0130 -1.8710 0.4048 0 1
3.3132 -5.7279 -1.8223 0.4156 0 1
3.4483 -5.4439 -1.7746 0.4054 0 1
3.5685 -5.1620 -1.7282 0.4163 0 1
3.6792 -4.8894 -1.6851 0.4269 0 1
3.7811 -4.6254 -1.6452 0.4373 0 1
3.8750 -4.3692 -1.6082 0.4473 0 1
3.9614 -4.1202 -1.5740 0.4571 0 1
4.0414 -3.8784 -1.5425 0.4854 0 1
4.1240 -3.6507 -1.5167 0.4936 0 1
4.2006 -3.4274 -1.4930 0.5015 0 1
4.2716 -3.2080 -1.4711 0.5089 0 1
4.3372 -2.9923 -1.4511 0.5159 0 1
4.3987 -2.7805 -1.4331 0.5225 0 1
4.4556 -2.5717 -1.4167 0.5285 0 1
4.5078 -2.3655 -1.4019 0.5341 0 1
4.5557 -2.1616 -1.3886 0.5393 0 1
4.5994 -1.9598 -1.3768 0.5439 0 1
4.6389 -1.7598 -1.3663 0.5481 0 1
4.6745 -1.5613 -1.3572 0.5518 0 1
4.7062 -1.3642 -1.3494 0.5550 0 1
4.1574 -1.0258 -1.1792 0.6777 25 14
3.8816 -0.7937 -1.0911 0.7446 25 14
3.8440 -0.6261 -1.0725 0.8394 25 14
3.8369 -0.4675 -1.0644 0.8458 25 14
3.8304 -0.3110 -1.0583 0.8507 25 14
3.8245 -0.1561 -1.0541 0.8541 25 14
3.8196 -0.0022 -1.0519 0.8559 25 14
3.8213 0.1516 -1.0532 0.8549 25 14
3.8235 0.3060 -1.0563 0.8523 25 14
3.8264 0.4618 -1.0614 0.8993 25 14
3.8331 0.6198 -1.0693 0.8926 25 14
3.8728 0.7872 -1.0883 0.6698 25 14
4.1162 1.0107 -1.1672 0.8971 25 14
4.8199 1.3911 -1.3815 0.5363 0 1
4.7962 1.5959 -1.3920 0.5322 0 1
4.7685 1.8027 -1.4039 0.5277 0 1
4.7365 2.0118 -1.4172 0.5228 0 1
4.7003 2.2236 -1.4319 0.5171 0 1
4.6597 2.4384 -1.4483 0.5112 0 1
4.6143 2.6563 -1.4662 0.5050 0 1
4.5640 2.8777 -1.4858 0.4983 0 1
4.5085 3.1029 -1.5072 0.4912 0 1
4.4477 3.3323 -1.5305 0.4838 0 1
4.3816 3.5667 -1.5559 0.4759 0 1
4.3094 3.8060 -1.5833 0.4677 0 1
4.2308 4.0508 -1.6130 0.4590 0 1
4.1452 4.3014 -1.6451 0.4501 0 1
4.0466 4.5521 -1.6773 0.4541 0 1
3.9396 4.8079 -1.7117 0.4450 0 1
3.8257 5.0720 -1.7495 0.4334 0 1
3.7045 5.3456 -1.7910 0.4234 0 1
3.5736 5.6274 -1.8358 0.4131 0 1
3.4324 5.9182 -1.8841 0.4025 0 1
3.2798 6.2187 -1.9361 0.3917 0 1
3.1142 6.5282 -1.9919 0.3783 0 1
2.9282 6.8324 -2.0471 0.3898 0 1
2.7269 7.1433 -2.1056 0.3789 0 1
2.5106 7.4647 -2.1688 0.3679 0 1
2.2779 7.7977 -2.2371 0.3567 0 1
2.0340 8.1702 -2.3186 0.3256 0 1
1.7725 8.5776 -2.4121 0.3130 0 1
1.4857 9.0029 -2.5128 0.3241 0 1
1.1685 9.4267 -2.6158 0.3090 0 1
0.8222 9.8706 -2.7276 0.2960 0 1
0.4425 10.3136 -2.8428 0.2840 0 1
0.0287 10.7967 -2.9733 0.2584 0 1
-0.4262 11.3399 -3.1251 0.2459 0 1
-0.9270 11.8923 -3.2849 0.2374 0 24
-1.4883 12.5522 -3.4809 0.2198 0 1
-2.1097 13.2207 -3.6869 0.2075 0 1
-2.8046 13.9455 -3.9173 0.1953 0 1
-3.5943 14.7716 -4.1866 0.1753 0 1
-4.4816 15.6494 -4.4829 0.1683 0 1
-5.4820 16.5907 -4.8118 0.1568 0 1
-6.6096 17.5942 -5.1758 0.1481 0 1
-7.8598 18.6119 -5.5637 0.1293 0 24
-9.4683 20.1222 -6.1242 0.1157 0 1
-11.3391 21.7790 -6.7618 0.1069 0 1
-13.5443 23.6420 -7.5034 0.1015 0 1
-15.9781 25.4587 -8.2774 0.1014 0 1
-18.4965 26.9959 -9.0119 0.0785 0 2
-22.4312 30.0697 -10.3310 0.0685 0 2
-27.5332 33.9683 -12.0414 0.0588 0 25
-22.5687 25.6611 -9.4109 0.6875 0 5
-22.6592 23.7646 -9.0425 0.6967 0 5
-22.7791 22.0433 -8.7293 0.7382 0 5
-22.8939 20.4371 -8.4513 0.7180 0 5
-22.9582 18.8917 -8.1877 0.7978 0 5
-23.0367 17.4513 -7.9588 0.7386 0 5
-32.5406 22.6507 -10.9185 0.5564 0 3
-28.4431 18.1456 -9.2911 0.8515 0 3
-33.0892 19.2828 -10.5467 0.8709 0 3
-33.2228 17.6106 -10.3550 0.7827 0 3
-33.2826 15.9624 -10.1652 0.9881 0 3
-41.0563 17.6967 -12.3119 0.3878 0 3
-26.9063 9.1117 -7.8230 0.9417 0 22
-26.9303 7.9280 -7.7309 0.9538 0 22
-46.2813 7.7365 -12.9221 0.9907 0 22
-23.4436 -4.6640 -6.5826 0.3946 16 6
-33.1474 -31.4741 -12.5878 0.6603 0 20
-30.1631 -31.0405 -11.9192 0.6866 0 20
-28.0546 -31.2958 -11.5744 0.6990 0 20
-25.6488 -31.0378 -11.0882 0.6716 0 9
-22.8816 -30.0747 -10.4067 0.5812 0 9
-19.3393 -27.6603 -9.2944 0.0761 0 2
-16.5760 -25.8639 -8.4598 0.6203 0 2
-13.6850 -23.3714 -7.4583 0.0821 0 1
-11.3764 -21.3542 -6.6631 0.1067 0 24
-9.5363 -19.7782 -6.0467 0.1140 0 1
-7.9578 -18.3570 -5.5098 0.1287 0 1
-6.6205 -17.1286 -5.0571 0.1451 0 1
-5.4838 -16.0831 -4.6794 0.1588 0 1
-4.5005 -15.1710 -4.3578 0.1740 0 1
-3.6385 -14.3596 -4.0794 0.1861 0 1
-2.8750 -13.6263 -3.8351 0.1999 0 1
-2.1884 -12.9257 -3.6102 0.2124 0 24
-1.5833 -12.3520 -3.4294 0.2290 0 1
-1.0287 -11.7580 -3.2504 0.2293 0 1
-0.5267 -11.1884 -3.0845 0.2416 0 1
-0.0725 -10.6355 -2.9289 0.2512 0 24
0.3393 -10.1528 -2.7975 0.2655 0 1
0.7143 -9.6833 -2.6739 0.2798 0 1
1.0566 -9.2405 -2.5613 0.2921 0 1
1.3694 -8.8172 -2.4572 0.3046 0 1
1.6558 -8.4142 -2.3616 0.3169 0 1
1.9135 -8.0091 -2.2677 0.3333 0 24
2.1625 -7.6718 -2.1950 0.3459 0 1
2.3874 -7.3275 -2.1223 0.3578 0 1
2.5953 -6.9969 -2.0551 0.3685 0 1
2.7872 -6.6776 -1.9927 0.3801 0 1
2.9650 -6.3700 -1.9349 0.3914 0 1
3.1299 -6.0732 -1.8815 0.4025 0 1
3.2830 -5.7862 -1.8320 0.4134 0 1
3.4223 -5.5037 -1.7848 0.4091 0 1
3.5444 -5.2196 -1.7375 0.4141 0 1
3.6570 -4.9451 -1.6937 0.4248 0 1
3.7607 -4.6794 -1.6532 0.4352 0 1
3.8562 -4.4216 -1.6157 0.4453 0 1
3.9441 -4.1711 -1.5809 0.4551 0 1
4.0249 -3.9274 -1.5486 0.4646 0 1
4.1074 -3.6975 -1.5219 0.4919 0 1
4.1852 -3.4733 -1.4978 0.4999 0 1
4.2574 -3.2531 -1.4755 0.5074 0 1
4.3241 -3.0367 -1.4551 0.5145 0 1
4.3863 -2.8240 -1.4366 0.5212 0 1
4.4442 -2.6147 -1.4200 0.5273 0 1
4.4974 -2.4080 -1.4049 0.5330 0 1
4.6320 2.0132 -1.4513 0.5310 0 1
4.5947 2.2207 -1.4664 0.5252 0 1
4.5528 2.4310 -1.4830 0.5193 0 1
4.5063 2.6443 -1.5013 0.5130 0 1
4.4547 2.8609 -1.5213 0.5063 0 1
4.3979 3.0810 -1.5430 0.4991 0 1
4.3360 3.3054 -1.5667 0.4916 0 1
4.2686 3.5342 -1.5924 0.4837 0 1
4.1951 3.7677 -1.6202 0.4754 0 1
4.1150 4.0062 -1.6502 0.4667 0 1
4.0281 4.2502 -1.6826 0.4577 0 1
3.9299 4.4957 -1.7158 0.4618 0 1
3.8219 4.7443 -1.7506 0.4526 0 1
3.7074 5.0012 -1.7889 0.4409 0 1
3.5852 5.2666 -1.8307 0.4309 0 1
3.4534 5.5395 -1.8757 0.4205 0 1
3.3113 5.8206 -1.9242 0.4099 0 1
3.1576 6.1096 -1.9762 0.3962 0 1
2.9909 6.4064 -2.0316 0.3858 0 1
2.8083 6.7063 -2.0892 0.3973 0 1
2.6075 7.0052 -2.1478 0.3864 0 1
2.3921 7.3135 -2.2111 0.3754 0 1
2.1608 7.6322 -2.2793 0.3641 0 1
1.9172 7.9840 -2.3594 0.3328 0 1
1.6573 8.3715 -2.4522 0.3202 0 1
1.3738 8.7793 -2.5534 0.3076 0 1
1.0618 9.1927 -2.6590 0.3162 0 1
0.7194 9.6021 -2.7669 0.3036 0 1
0.3463 10.0183 -2.8804 0.2916 0 1
-0.0593 10.4602 -3.0057 0.2659 0 1
-0.5036 10.9653 -3.1541 0.2534 0 1
-0.9908 11.4765 -3.3100 0.2452 0 24
-1.5342 12.0787 -3.4986 0.2274 0 1
-2.1334 12.6893 -3.6974 0.2152 0 1
-2.8000 13.3468 -3.9186 0.2031 0 1
-3.5449 14.0582 -4.1660 0.1832 0 1
-4.3857 14.8465 -4.4483 0.1716 0 1
-5.3266 15.6808 -4.7587 0.1649 0 1
-6.3803 16.5636 -5.1004 0.1563 0 1
-7.5641 17.5036 -5.4791 0.1450 0 1
-8.9570 18.6312 -5.9401 0.1214 0 1
-10.6436 20.0342 -6.5187 0.1060 0 1
-12.6411 21.6456 -7.2027 0.1080 0 1
-14.8784 23.2738 -7.9374 0.1109 0 1
-16.8277 24.1269 -8.4524 0.0871 0 2
-20.0745 26.4480 -9.5409 0.0771 0 2
-24.1365 29.2760 -10.9027 0.0675 0 25
-22.4791 25.1342 -9.6893 0.6977 0 5
-22.5679 23.2777 -9.3162 0.7276 0 5
-22.6773 21.5820 -8.9955 0.7395 0 5
-22.8142 20.0271 -8.7230 0.7550 0 5
-22.8577 18.4920 -8.4483 0.7257 0 5
-22.9244 17.0677 -8.2124 0.8311 0 5
-32.8175 22.4403 -11.4238 0.8363 0 3
-26.7959 16.7825 -9.0852 0.8566 0 3
-32.9641 18.8440 -10.9105 0.8757 0 3
-34.1576 17.7434 -11.0602 0.4491 0 3
-37.7472 17.7185 -11.9820 0.4145 0 3
-41.9970 17.6890 -13.0944 0.3793 0 3
-26.8334 7.6573 -8.0182 0.9558 0 22
-46.1207 9.2305 -13.5154 0.9786 0 22
-46.0839 7.3096 -13.4075 0.9925 0 22
-30.9398 -25.4002 -11.5026 0.9671 0 20
-35.3336 -31.4690 -13.5959 0.6358 0 20
-32.1665 -31.0560 -12.8478 0.6626 0 20
-29.6662 -31.0421 -12.3381 0.6899 0 20
-24.9499 -28.3031 -10.8416 0.8818 0 9
-22.4241 -27.6003 -10.2184 0.7745 0 9
-19.4426 -26.0011 -9.3291 0.0789 0 2
-16.7425 -24.3759 -8.4973 0.7633 0 2
-13.9847 -22.2259 -7.5456 0.0845 0 1
-11.8012 -20.5447 -6.8080 0.1069 0 1
-9.9766 -19.1085 -6.1941 0.1177 0 1
-8.4152 -17.8310 -5.6656 0.1302 0 1
-7.0777 -16.7064 -5.2135 0.1437 0 1
-5.9311 -15.7334 -4.8315 0.1601 0 1
-4.9364 -14.8820 -4.5054 0.1750 0 1
-4.0616 -14.1218 -4.2223 0.1871 0 1
-3.2847 -13.4321 -3.9734 0.2007 0 1
-2.5887 -12.7962 -3.7514 0.2177 0 1
-1.9569 -12.1736 -3.5429 0.2231 0 24
-1.3954 -11.6548 -3.3729 0.2305 0 1
-0.8791 -11.1130 -3.2032 0.2420 0 1
-0.4106 -10.6003 -3.0482 0.2534 0 1
0.0153 -10.1158 -2.9067 0.2658 0 1
0.4034 -9.6618 -2.7787 0.2800 0 1
0.7583 -9.2323 -2.6618 0.2923 0 1
1.0836 -8.8245 -2.5547 0.3046 0 1
1.3816 -8.4326 -2.4554 0.3171 0 1
1.6558 -8.0595 -2.3642 0.3307 0 1
1.9090 -7.7058 -2.2811 0.3462 0 1
2.1434 -7.3686 -2.2051 0.3582 0 1
2.3603 -7.0446 -2.1348 0.3700 0 1
2.5610 -6.7318 -2.0696 0.3806 0 1
2.7468 -6.4296 -2.0091 0.3921 0 1
2.9193 -6.1377 -1.9530 0.4034 0 1
3.0796 -5.8552 -1.9010 0.4144 0 1
3.2285 -5.5814 -1.8528 0.4249 0 1
3.3594 -5.3035 -1.8039 0.4210 0 1
3.4774 -5.0303 -1.7572 0.4259 0 1
3.5876 -4.7677 -1.7145 0.4365 0 1
3.6892 -4.5129 -1.6749 0.4468 0 1
3.7828 -4.2652 -1.6382 0.4568 0 1
3.8691 -4.0242 -1.6041 0.4665 0 1
3.9526 -3.7932 -1.5742 0.4947 0 1
4.0349 -3.5718 -1.5484 0.5029 0 1
4.1113 -3.3545 -1.5247 0.5108 0 1
4.1820 -3.1408 -1.5028 0.5182 0 1
4.2475 -2.9304 -1.4828 0.5252 0 1
4.3087 -2.7236 -1.4647 0.5318 0 1
4.3655 -2.5197 -1.4484 0.5378 0 1
4.4176 -2.3182 -1.4335 0.5433 0 1
4.4654 -2.1188 -1.4202 0.5485 0 1
4.5089 -1.9213 -1.4083 0.5531 0 1
4.5484 -1.7255 -1.3978 0.5573 0 1
4.5839 -1.5311 -1.3887 0.5610 0 1
4.6155 -1.3379 -1.3808 0.5641 0 1
4.1927 -1.0345 -1.2409 0.6698 25 14
3.8922 -0.7958 -1.1415 0.7402 25 14
3.8674 -0.6299 -1.1259 0.7480 25 14
3.8577 -0.4700 -1.1167 0.7542 25 14
3.8491 -0.3125 -1.1097 0.7590 25 14
3.8415 -0.1568 -1.1048 0.7624 25 14
3.8349 -0.0022 -1.1020 0.8021 25 14
3.8366 0.1522 -1.1033 0.7634 25 14
3.8387 0.3073 -1.1066 0.7611 25 14
3.8418 0.4636 -1.1119 0.7575 25 14
3.8458 0.6219 -1.1194 0.7524 25 14
3.8877 0.7903 -1.1400 0.7413 25 14
4.1469 1.0182 -1.2270 0.6774 25 14
4.7233 1.3633 -1.4126 0.5455 0 1
4.6994 1.5637 -1.4231 0.5415 0 1
4.6714 1.7660 -1.4350 0.5370 0 1
4.6392 1.9705 -1.4483 0.5321 0 1
4.6027 2.1775 -1.4631 0.5264 0 1
4.5619 2.3872 -1.4795 0.5206 0 1
4.5163 2.5999 -1.4974 0.5143 0 1
4.4658 2.8158 -1.5170 0.5077 0 1
4.4101 3.0352 -1.5383 0.5006 0 1
4.3492 3.2585 -1.5616 0.4932 0 1
4.2830 3.4864 -1.5869 0.4854 0 1
4.2108 3.7189 -1.6143 0.4771 0 1
4.1321 3.9564 -1.6438 0.4685 0 1
4.0467 4.1992 -1.6757 0.4596 0 1
3.9513 4.4449 -1.7089 0.4636 0 1
3.8449 4.6924 -1.7432 0.4545 0 1
3.7315 4.9472 -1.7806 0.4430 0 1
3.6112 5.2110 -1.8218 0.4330 0 1
3.4815 5.4823 -1.8661 0.4227 0 1
3.3416 5.7617 -1.9139 0.4121 0 1
3.1905 6.0494 -1.9652 0.3985 0 1
3.0265 6.3442 -2.0198 0.3877 0 1
2.8481 6.6456 -2.0776 0.3995 0 1
2.6502 6.9425 -2.1353 0.3887 0 1
2.4380 7.2488 -2.1976 0.3777 0 1
2.2100 7.5653 -2.2647 0.3665 0 1
1.9683 7.9062 -2.3412 0.3354 0 1
1.7130 8.2897 -2.4323 0.3229 0 1
1.4346 8.6931 -2.5317 0.3102 0 1
1.1289 9.1077 -2.6371 0.3212 0 1
0.7928 9.5184 -2.7445 0.3060 0 1
0.4261 9.9306 -2.8561 0.2941 0 1
0.0275 10.3628 -2.9777 0.2821 0 1
-0.4081 10.8581 -3.1222 0.2560 0 1
-0.8862 11.3684 -3.2766 0.2478 0 24
-1.4178 11.9576 -3.4600 0.2300 0 1
-1.9933 12.4914 -3.6348 0.2183 0 24
-2.6560 13.2065 -3.8708 0.2056 0 1
-3.3834 13.9050 -4.1121 0.1898 0 1
-4.2033 14.6776 -4.3871 0.1740 0 1
-5.1229 15.5037 -4.6918 0.1672 0 1
-6.1531 16.3792 -5.0276 0.1586 0 1
-7.3065 17.3019 -5.3967 0.1472 0 1
-8.6430 18.3683 -5.8332 0.1237 0 1
-10.2597 19.7058 -6.3839 0.1083 0 1
-12.2091 21.3112 -7.0574 0.1064 0 1
-14.3787 22.9103 -7.7723 0.1129 0 24
-16.7506 24.4477 -8.5157 0.6059 0 2
-19.3440 25.9311 -9.2960 0.0792 0 2
-23.2148 28.6406 -10.5937 0.0695 0 25
-27.6252 31.4105 -12.0197 0.6847 0 3
-22.5450 23.6449 -9.3877 0.7168 0 5
-22.6627 21.9306 -9.0619 0.7173 0 5
-22.7708 20.3272 -8.7709 0.8372 0 5
-22.8401 18.7946 -8.4993 0.7070 0 5
-22.9015 17.3489 -8.2557 0.8426 0 5
-32.5391 22.6497 -11.3921 0.5547 0 3
-26.7834 17.0868 -9.1288 0.8525 0 3
-32.9505 19.2020 -10.9586 0.8718 0 3
-33.4821 17.7481 -10.8890 0.4561 0 3
-36.9737 17.7326 -11.7829 0.9881 0 3
-42.7791 18.4393 -13.3856 0.9220 0 3
-26.8080 7.8919 -8.0300 0.3414 0 22
-46.1071 9.6277 -13.5344 0.9850 0 22
-46.1094 7.7077 -13.4332 0.9878 0 22
-23.3300 -4.6414 -6.8351 0.7165 16 6
-35.9406 -31.4770 -13.7281 0.6297 0 20
-32.7103 -31.0590 -12.9612 0.6568 0 20
-30.1674 -31.0449 -12.4386 0.6844 0 20
-27.0434 -30.1679 -11.6417 0.9506 0 9
-23.0275 -27.8657 -10.3873 0.6484 0 9
-20.1777 -26.5209 -9.5755 0.0769 0 2
-16.9111 -24.1874 -8.4804 0.0868 0 2
-14.5588 -22.7165 -7.7530 0.0731 0 1
-12.1727 -20.7886 -6.9222 0.1066 0 24
-10.3291 -19.3884 -6.3124 0.1153 0 1
-8.7190 -18.0832 -5.7686 0.1279 0 1
-7.3373 -16.9256 -5.3008 0.1413 0 1
-6.1538 -15.9212 -4.9047 0.1577 0 1
