ply
format ascii 1.0
element vertex 1410
property float32 x
property float32 y
property float32 z
property float32 CosAngle
property uint32 ObjIdx
property uint32 ObjTag
end_header
15.2897 -12.2069 2.1221 0.1457 0 1
14.9408 -10.9762 2.0109 0.1402 0 1
14.6157 -9.8593 1.9123 0.1474 0 1
14.2442 -8.7981 1.8160 0.1480 0 1
13.9137 -7.8406 1.7323 0.1551 0 1
13.6989 -7.0106 1.6691 0.1724 0 1
8.6889 -4.0151 1.0382 0.9388 0 9
12.9409 -5.3606 1.5193 0.1897 0 25
12.8332 -4.7219 1.4832 0.1943 0 25
12.7409 -4.1153 1.4523 0.1985 0 25
12.6625 -3.5355 1.4260 0.2021 0 25
12.5969 -2.9778 1.4040 0.2053 0 25
12.5431 -2.4381 1.3860 0.2080 0 25
12.9984 -1.9889 1.4263 0.2106 0 1
12.9974 -1.4577 1.4186 0.2133 0 1
5.3018 -0.3799 0.5765 0.1618 25 14
5.1919 -0.1630 0.5634 0.2391 25 14
5.1264 0.0449 0.5561 0.2351 25 14
5.2673 0.2578 0.5720 0.1631 25 14
5.4390 0.4856 0.5923 0.1822 25 14
13.4074 1.7419 1.4665 0.1972 0 1
13.5561 2.3179 1.4917 0.1952 0 1
13.7059 2.9141 1.5199 0.1907 0 1
13.8771 3.5381 1.5533 0.1866 0 1
14.0689 4.1951 1.5924 0.1820 0 1
14.1229 4.8365 1.6192 0.1967 0 1
14.1795 5.5011 1.6497 0.1930 0 1
13.6658 5.9434 1.6164 0.3592 0 14
11.8544 5.7319 1.4282 0.3776 0 14
10.6332 5.6788 1.3075 0.4959 0 14
9.9876 5.8610 1.2561 0.9485 0 14
9.8306 6.3125 1.2672 0.8942 0 14
9.8116 6.8717 1.2993 0.7508 0 14
14.1343 10.7699 1.9274 0.1491 0 2
14.4555 11.9614 2.0351 0.1412 0 2
14.8337 13.3127 2.1619 0.1329 0 2
14.9875 14.5783 2.2678 0.6884 0 3
13.9299 14.6829 2.1953 0.1153 0 3
12.7262 14.5410 2.0959 0.7437 0 3
11.8599 14.7022 2.0489 0.7696 0 3
10.8900 14.6678 1.9815 0.6076 0 3
6.2148 9.1135 1.1965 0.6905 22 6
9.1729 14.6847 1.8780 0.8396 0 3
8.3700 14.6795 1.8329 0.8603 0 3
7.6995 14.8598 1.8153 0.4739 0 3
7.6424 16.3219 1.9548 0.4400 0 3
7.5746 18.0279 2.1210 0.4056 0 3
7.3458 19.6578 2.2762 0.3705 0 3
7.9210 24.1067 2.7523 0.9423 0 3
7.2728 25.5495 2.8814 0.2988 0 3
2.9171 24.8768 2.7168 0.8245 0 9
0.5215 14.3055 1.5527 0.4591 0 9
-0.0564 15.1788 1.6464 0.3048 0 9
-1.0575 24.0958 2.6161 0.3705 0 9
-2.0741 24.6309 2.6811 0.6203 0 9
-2.0934 16.7747 1.8336 0.1657 0 9
1.3130 -38.8657 4.2180 0.9995 0 22
2.8449 -18.3016 2.0090 0.6387 0 22
6.4204 -32.6162 3.6057 0.9770 0 3
12.0642 -3.6296 1.2254 0.2112 0 25
12.0060 -3.0925 1.2059 0.2146 0 25
11.9577 -2.5731 1.1897 0.2175 0 25
12.3880 -2.1495 1.2230 0.2206 0 1
12.3292 -1.6326 1.2097 0.2222 0 24
5.0878 -0.4669 0.4970 0.2433 25 14
5.0113 -0.2576 0.4881 0.2478 25 14
4.9358 -0.0553 0.4801 0.2444 25 14
4.9681 0.1438 0.4834 0.2427 25 14
5.0817 0.3516 0.4955 0.2441 25 14
5.2018 0.5705 0.5090 0.2376 25 14
12.7927 1.9253 1.2583 0.2063 0 1
12.9222 2.4788 1.2798 0.2042 0 1
13.0587 3.0531 1.3044 0.2004 0 1
13.2122 3.6540 1.3334 0.1951 0 1
13.3647 4.2806 1.3650 0.2037 0 1
13.4155 4.8988 1.3892 0.2001 0 1
13.4677 5.5401 1.4165 0.2018 0 1
12.6673 5.8158 1.3558 0.2587 0 14
11.2635 5.7294 1.2292 0.6484 0 14
10.2118 5.7216 1.1386 0.6136 0 14
9.9182 6.0926 1.1322 0.9745 0 14
9.8367 6.6005 1.1522 0.8199 0 14
9.9100 7.2430 1.1939 0.4930 0 14
13.3209 10.5816 1.6547 0.1559 0 2
13.5912 11.7162 1.7454 0.1478 0 2
13.9082 12.9982 1.8516 0.1393 0 2
14.2831 14.4653 1.9773 0.1305 0 2
13.2716 14.5666 1.9167 0.7312 0 3
12.3548 14.7050 1.8681 0.7577 0 3
11.3751 14.6986 1.8078 0.7830 0 3
10.4553 14.6926 1.7540 0.8070 0 3
6.1266 9.3855 1.0902 0.5522 0 8
8.7642 14.6817 1.6631 0.8511 0 3
7.9803 14.6766 1.6249 0.8711 0 3
7.7319 15.6894 1.7013 0.4539 0 3
7.6740 17.2896 1.8399 0.4197 0 3
7.5774 19.1053 1.9992 0.9226 0 3
8.4590 24.1096 2.4852 0.9368 0 3
7.3843 24.1026 2.4520 0.9496 0 3
7.2888 27.7181 2.7877 0.2772 0 3
2.5377 14.1997 1.4031 0.8502 0 9
1.9007 13.8174 1.3566 0.2319 0 9
1.4872 15.3553 1.5006 0.5510 0 9
1.4965 26.5038 2.5821 0.1612 0 9
0.3974 24.4472 2.3782 0.6322 0 9
-0.6431 26.9135 2.6186 0.4317 0 9
-1.7834 17.0555 1.6680 0.4582 0 9
2.0998 -38.8834 3.7876 0.9896 0 22
2.4150 -17.8811 1.7550 0.5888 0 22
3.2842 -18.6407 1.8411 0.7097 0 6
9.2284 -42.3529 4.2162 0.5945 0 3
7.9173 -30.4115 3.0567 0.2620 0 3
8.9966 -29.6248 3.0115 0.9544 0 3
10.3291 -29.6727 3.0561 0.9423 0 3
11.6588 -29.6076 3.0951 0.9286 0 3
12.9065 -29.2717 3.1117 0.4054 0 3
13.5621 -27.6913 2.9992 0.6673 0 3
9.9847 -18.4709 2.0423 0.8785 0 9
16.3428 -27.5305 3.1141 0.8255 0 3
11.1915 -17.2369 1.9990 0.2751 0 20
16.8425 -23.7920 2.8354 0.0910 0 2
15.9889 -20.7655 2.5492 0.1012 0 2
15.3110 -18.3147 2.3219 0.1111 0 2
14.7629 -16.2836 2.1379 0.6111 0 2
14.9586 -15.2240 2.0760 0.1405 0 1
14.6847 -13.7916 1.9595 0.1416 0 1
14.4554 -12.5231 1.8603 0.1541 0 1
14.1834 -11.3237 1.7653 0.1421 0 1
13.8857 -10.2010 1.6759 0.1508 0 1
13.5909 -9.1680 1.5946 0.1502 0 1
13.2937 -8.2111 1.5198 0.1587 0 1
13.0587 -7.3588 1.4580 0.1765 0 1
12.9047 -6.6041 1.4100 0.1825 0 1
8.7184 -4.0287 0.9342 0.9770 0 9
12.2587 -5.0780 1.2906 0.2005 0 25
12.1720 -4.4786 1.2615 0.2051 0 25
12.0974 -3.9075 1.2365 0.2093 0 25
12.0340 -3.3600 1.2153 0.2129 0 25
11.9808 -2.8321 1.1975 0.2161 0 25
11.9372 -2.3203 1.1828 0.2188 0 2
12.3792 -1.8941 1.2181 0.2231 0 1
5.1839 -0.5814 0.5074 0.0103 25 14
5.0490 -0.3618 0.4924 0.2456 25 14
4.9753 -0.1562 0.4842 0.2498 25 14
4.9100 0.0430 0.4776 0.2457 25 14
5.0248 0.2459 0.4893 0.2471 25 14
5.1403 0.4590 0.5020 0.2409 25 14
12.7248 1.6532 1.2481 0.2080 0 1
12.8589 2.1987 1.2689 0.2060 0 1
12.9882 2.7615 1.2916 0.2024 0 1
13.1323 3.3482 1.3182 0.1983 0 1
13.2958 3.9646 1.3495 0.1928 0 1
13.3885 4.5849 1.3765 0.2020 0 1
13.4430 5.2153 1.4025 0.2038 0 1
13.4952 5.8692 1.4314 0.1997 0 1
11.8616 5.7354 1.2815 0.3774 0 14
10.7191 5.7247 1.1820 0.6984 0 14
10.0059 5.8717 1.1284 0.8800 0 14
9.8636 6.3337 1.1402 0.8841 0 14
9.8462 6.8959 1.1692 0.7634 0 14
13.1998 10.0579 1.6142 0.1598 0 2
13.4501 11.1295 1.6981 0.1520 0 2
10.2105 9.1636 1.3345 0.9466 0 20
14.0866 13.7020 1.9114 0.1350 0 2
13.8231 14.5702 1.9535 0.7175 0 3
12.7236 14.5380 1.8792 0.7446 0 3
11.8595 14.7018 1.8373 0.7705 0 3
10.8735 14.6456 1.7742 0.8968 0 3
6.1400 9.0037 1.0600 0.9804 0 8
9.1726 14.6843 1.6841 0.8406 0 3
8.3697 14.6791 1.6436 0.8613 0 3
7.7575 14.9717 1.6401 0.4709 0 3
7.7044 16.4542 1.7672 0.4370 0 3
7.6412 18.1866 1.9188 0.4025 0 3
7.4166 19.8474 2.0609 0.3674 0 3
7.9208 24.1061 2.4681 0.9434 0 3
7.3600 25.8558 2.6148 0.2956 0 3
2.8539 14.2969 1.4181 0.9355 0 9
2.6617 22.6982 2.2229 0.0661 0 9
1.2570 16.3810 1.5980 0.5904 0 9
0.5222 14.3262 1.3944 0.5001 0 9
-0.0922 24.8273 2.4149 0.0177 0 9
-0.6903 15.7284 1.5313 0.8265 0 9
-2.0713 24.5983 2.4011 0.2139 0 9
-0.2481 -38.9010 3.7839 0.9946 0 22
1.3146 -38.9134 3.7872 0.9950 0 22
8.3854 -42.5987 4.2230 0.9782 0 3
11.4904 -3.4570 1.0330 0.2219 0 25
11.4436 -2.9476 1.0174 0.2254 0 25
11.4048 -2.4541 1.0043 0.2283 0 25
11.8185 -2.0507 1.0327 0.2291 0 1
11.8149 -1.5645 1.0261 0.2312 0 1
4.8793 -0.4477 0.4218 0.2540 25 14
4.8080 -0.2471 0.4145 0.2508 25 14
4.7341 -0.0531 0.4076 0.2551 25 14
4.7650 0.1379 0.4104 0.2533 25 14
4.8753 0.3373 0.4207 0.2547 25 14
4.9850 0.5467 0.4317 0.2482 25 14
12.1788 1.8329 1.0603 0.2185 0 1
12.2863 2.3569 1.0770 0.2150 0 1
12.4043 2.9001 1.0967 0.2112 0 1
12.5350 3.4667 1.1197 0.2068 0 1
12.6806 4.0615 1.1463 0.2011 0 1
12.7419 4.6528 1.1678 0.2109 0 1
12.7885 5.2607 1.1905 0.2069 0 1
12.8393 5.8948 1.2163 0.2082 0 1
11.2508 5.7229 1.0867 0.5269 0 14
10.2226 5.7276 1.0088 0.6480 0 14
9.8701 6.0630 0.9973 0.9602 0 14
9.7879 6.5677 1.0148 0.7684 0 14
9.8637 7.2091 1.0518 0.5126 0 14
12.4771 9.9113 1.3719 0.1666 0 2
12.6863 10.9361 1.4420 0.1585 0 2
12.9297 12.0838 1.5236 0.1500 0 2
13.2151 13.3838 1.6193 0.1412 0 2
13.2505 14.5434 1.6938 0.7320 0 3
12.3544 14.7046 1.6535 0.7585 0 3
11.3748 14.6982 1.6001 0.7838 0 3
10.4550 14.6922 1.5525 0.8079 0 3
6.1661 9.4460 0.9712 0.5492 0 8
8.7640 14.6813 1.4720 0.8520 0 3
7.9801 14.6762 1.4382 0.8720 0 3
7.7926 15.8125 1.5177 0.4508 0 3
7.7392 17.4364 1.6424 0.4166 0 3
7.5772 19.1048 1.7694 0.9236 0 3
8.4587 24.1090 2.1997 0.9378 0 3
7.3841 24.1020 2.1702 0.9505 0 3
7.3830 28.0761 2.4993 0.2740 0 3
3.1605 14.3356 1.2638 0.1923 0 9
1.3977 14.4307 1.2482 0.2360 0 9
1.2891 22.8299 1.9686 0.1279 0 9
-0.3954 16.5478 1.4251 0.4483 0 9
-1.0866 16.9441 1.4618 0.6414 0 9
-35.2503 -34.9869 4.2759 0.2164 0 20
0.5370 -38.9068 3.3499 0.9964 0 22
2.1009 -38.9037 3.3542 0.9983 0 22
9.2287 -42.3543 3.7320 0.9749 0 3
8.0256 -30.8274 2.7425 0.2588 0 3
8.9968 -29.6255 2.6656 0.9553 0 3
10.3294 -29.6734 2.7050 0.9432 0 3
11.6813 -29.6647 2.7448 0.9295 0 3
13.0200 -29.5293 2.7784 0.4022 0 3
13.5599 -27.6867 2.6542 0.5284 0 3
10.0148 -18.5266 1.8131 0.6159 0 9
9.8390 -16.5744 1.6594 0.9290 0 20
15.8680 -24.4395 2.5087 0.0911 0 2
15.0935 -21.3213 2.2490 0.1017 0 2
14.4802 -18.8062 2.0434 0.1119 0 2
13.9840 -16.7273 1.8771 0.1218 0 2
14.3368 -15.8136 1.8377 0.1440 0 2
13.9007 -14.1473 1.7075 0.1386 0 1
13.6926 -12.8598 1.6172 0.1570 0 1
13.4689 -11.6685 1.5342 0.1448 0 1
13.2019 -10.5401 1.4544 0.1540 0 1
12.9574 -9.5191 1.3842 0.1533 0 1
6.2012 -4.1831 0.6440 0.3945 14 6
12.4639 -7.6985 1.2612 0.1695 0 1
12.3210 -6.9431 1.2176 0.1873 0 1
12.1491 -6.2174 1.1750 0.1956 0 24
8.7500 -4.0433 0.8299 0.8262 0 9
11.6462 -4.8243 1.0853 0.2113 0 25
11.5768 -4.2596 1.0620 0.2159 0 25
11.5170 -3.7200 1.0420 0.2200 0 25
11.4661 -3.2014 1.0249 0.2237 0 25
11.4234 -2.7004 1.0106 0.2269 0 25
11.3918 -2.2143 0.9991 0.3031 0 2
11.8148 -1.8078 1.0290 0.2312 0 1
4.9164 -0.5514 0.4259 0.2516 25 14
4.8440 -0.3471 0.4181 0.2563 25 14
4.7706 -0.1498 0.4109 0.2530 25 14
4.7116 0.0413 0.4057 0.2563 25 14
4.8197 0.2359 0.4154 0.2503 25 14
4.9288 0.4401 0.4260 0.2515 25 14
12.1284 1.5758 1.0529 0.2200 0 1
12.2312 2.0914 1.0683 0.2173 0 1
12.3435 2.6244 1.0864 0.2132 0 1
12.4676 3.1788 1.1077 0.2091 0 1
12.6051 3.7586 1.1324 0.2045 0 1
12.7221 4.3567 1.1577 0.2128 0 1
12.7638 4.9519 1.1787 0.2090 0 1
12.8154 5.5735 1.2031 0.2047 0 1
11.9727 5.7891 1.1449 0.2693 0 14
10.6700 5.6985 1.0414 0.3607 0 14
9.9847 5.8592 0.9967 0.9599 0 14
9.8149 6.3024 1.0042 0.6733 0 14
9.7885 6.8555 1.0288 0.6798 0 14
12.3829 9.4354 1.3403 0.1706 0 2
12.5772 10.4072 1.4054 0.1627 0 2
10.2464 9.1958 1.1853 0.7379 0 20
13.0659 12.7091 1.5693 0.1457 0 2
13.3758 14.0987 1.6731 0.1366 0 2
12.7232 14.5375 1.6632 0.7453 0 3
11.8591 14.7013 1.6262 0.7713 0 3
10.9103 14.6952 1.5757 0.7960 0 3
6.1779 9.0594 0.9440 0.5650 0 8
9.1724 14.6839 1.4906 0.8414 0 3
8.3695 14.6787 1.4547 0.8622 0 3
7.8162 15.0849 1.4627 0.4678 0 3
7.7672 16.5884 1.5769 0.4339 0 3
7.7090 18.3478 1.7134 0.3994 0 3
8.3999 22.4788 2.0660 0.9157 0 3
7.9206 24.1055 2.1845 0.9443 0 3
7.4491 26.1688 2.3425 0.2923 0 3
2.7054 23.0717 1.9999 0.1068 0 9
1.8939 24.6814 2.1311 0.1398 0 9
0.9120 25.0184 2.1553 0.2326 0 9
-0.0606 16.3176 1.4048 0.6248 0 9
-2.1083 25.0368 2.1631 0.1260 0 9
-35.8455 -34.1699 4.2635 0.9263 0 20
-0.2481 -38.9015 3.3492 0.9946 0 22
1.3141 -38.8983 3.3508 0.9848 0 22
4.4355 -38.7161 3.3550 0.8043 0 6
6.6237 -42.6105 3.7125 0.9857 0 3
8.8631 -45.0255 3.9508 0.2031 0 3
10.9696 -3.3003 0.8585 0.2327 0 25
10.9325 -2.8160 0.8460 0.2361 0 25
10.9016 -2.3458 0.8357 0.2390 0 2
11.2997 -1.9606 0.8594 0.2407 0 1
11.3010 -1.4965 0.8543 0.2426 0 1
4.6876 -0.4302 0.3528 0.2646 25 14
4.6165 -0.2373 0.3464 0.2615 25 14
4.5486 -0.0510 0.3409 0.2657 25 14
4.5782 0.1325 0.3432 0.2639 25 14
4.6811 0.3239 0.3516 0.2576 25 14
4.7859 0.5249 0.3608 0.2587 25 14
6.1973 0.9327 0.4697 0.2380 25 14
11.7102 2.2463 0.8936 0.2263 0 1
11.8104 2.7613 0.9089 0.2205 0 1
11.9236 3.2977 0.9271 0.2162 0 1
12.0482 3.8590 0.9481 0.2114 0 1
12.1353 4.4313 0.9681 0.2239 0 1
12.1680 5.0055 0.9860 0.2199 0 1
12.2085 5.6051 1.0067 0.2153 0 1
11.2681 5.7317 0.9474 0.3727 0 14
10.2340 5.7340 0.8791 0.6479 0 14
9.9133 6.0895 0.8719 0.9065 0 14
9.8525 6.6111 0.8892 0.8344 0 14
9.9286 7.2566 0.9216 0.3293 0 14
11.7351 9.3220 1.1231 0.1773 0 2
11.8957 10.2546 1.1770 0.1692 0 2
12.0814 11.2909 1.2392 0.1607 0 2
12.2974 12.4543 1.3116 0.1519 0 2
12.5507 13.7754 1.3965 0.1426 0 2
12.3119 14.6540 1.4343 0.7592 0 3
11.3744 14.6977 1.3928 0.7846 0 3
10.4547 14.6918 1.3513 0.8086 0 3
9.0159 13.8117 1.2361 0.8370 0 21
8.7637 14.6808 1.2813 0.8528 0 3
7.9798 14.6758 1.2519 0.8729 0 3
7.8541 15.9374 1.3315 0.4477 0 3
7.8054 17.5855 1.4418 0.4135 0 3
7.5949 19.1495 1.5438 0.3786 0 3
8.4585 24.1083 1.9146 0.9387 0 3
7.4381 24.2785 1.9029 0.3071 0 3
7.4794 28.4427 2.2040 0.2707 0 3
7.9856 36.2219 2.7796 0.8750 0 6
2.6225 14.6742 1.1171 0.9267 0 9
1.5197 15.6904 1.1813 0.8138 0 9
1.5778 27.9445 2.0975 0.6068 0 9
0.2589 15.9267 1.1937 0.5752 0 9
-1.6629 15.9032 1.1983 0.1225 0 9
-30.6458 18.5043 2.6828 0.7821 0 3
-30.6183 16.8492 2.6190 0.5467 0 3
-36.7008 -33.6123 3.7295 0.9225 0 20
-35.3841 -35.1198 3.7360 0.3750 0 20
0.5370 -38.9073 2.9160 0.9973 0 22
2.1010 -38.9061 2.9199 0.9955 0 22
6.2885 -46.5621 3.5210 0.8861 0 3
9.2290 -42.3559 3.2486 0.9757 0 3
8.2909 -31.8465 2.4661 0.2555 0 3
8.3838 -27.6070 2.1622 0.9562 0 3
10.0671 -28.9200 2.2948 0.3076 0 3
11.6816 -29.6655 2.3893 0.9303 0 3
13.0409 -29.5767 2.4224 0.9152 0 3
13.5961 -27.7607 2.3165 0.5225 0 3
14.6263 -27.0573 2.3050 0.8460 0 3
9.8482 -16.5899 1.4458 0.9828 0 20
14.2236 -21.9068 1.9574 0.1018 0 2
13.6760 -19.3189 1.7738 0.1123 0 2
13.2339 -17.1876 1.6256 0.1225 0 2
13.4725 -16.1155 1.5741 0.7823 0 2
13.1678 -14.5241 1.4692 0.1404 0 1
12.9161 -13.1453 1.3811 0.1547 0 24
12.7839 -12.0064 1.3143 0.1589 0 1
12.5555 -10.8772 1.2449 0.1567 0 1
12.3533 -9.8626 1.1846 0.1647 0 1
12.1201 -8.9040 1.1270 0.1632 0 1
6.1724 -4.1637 0.5580 0.5631 14 7
11.7633 -7.2658 1.0361 0.1880 0 1
11.6511 -6.5656 1.0022 0.1944 0 1
11.5646 -5.9183 0.9735 0.2049 0 1
8.7781 -4.0563 0.7247 0.8885 0 9
11.0929 -4.5951 0.8998 0.2220 0 25
11.0381 -4.0614 0.8814 0.2266 0 25
10.9907 -3.5500 0.8655 0.2308 0 25
10.9504 -3.0574 0.8520 0.2344 0 25
10.9164 -2.5805 0.8406 0.2376 0 25
11.2799 -2.1925 0.8611 0.2397 0 2
6.0730 -0.9292 0.4604 0.9630 25 14
4.7214 -0.5295 0.3560 0.2622 25 14
4.6522 -0.3334 0.3495 0.2592 25 14
4.5822 -0.1439 0.3436 0.2637 25 14
4.5290 0.0397 0.3394 0.2669 25 14
4.6285 0.2265 0.3473 0.2608 25 14
4.7345 0.4227 0.3562 0.2621 25 14
4.8386 0.6287 0.3657 0.2553 25 14
11.6633 1.9942 0.8867 0.2276 0 1
11.7579 2.4999 0.9008 0.2245 0 1
11.8654 3.0252 0.9176 0.2184 0 1
11.9841 3.5735 0.9372 0.2139 0 1
12.1148 4.1488 0.9596 0.2089 0 1
12.1506 4.7140 0.9767 0.2220 0 1
12.1871 5.3003 0.9959 0.2177 0 1
12.2317 5.9143 1.0182 0.2129 0 1
10.6929 5.7107 0.9084 0.3461 0 14
10.0235 5.8820 0.8709 0.9478 0 14
9.8751 6.3411 0.8795 0.8961 0 14
9.8527 6.9005 0.9014 0.7691 0 14
11.6625 8.8865 1.0988 0.1813 0 2
11.8121 9.7741 1.1489 0.1734 0 2
11.9846 10.7558 1.2068 0.1650 0 2
12.1847 11.8520 1.2738 0.1564 0 2
12.4182 13.0894 1.3521 0.1473 0 2
12.6933 14.5033 1.4443 0.1379 0 2
11.8588 14.7009 1.4154 0.7720 0 3
10.9100 14.6947 1.3715 0.7967 0 3
6.2403 9.1508 0.8300 0.9229 22 6
8.6371 13.8269 1.2217 0.8468 0 21
8.3693 14.6783 1.2662 0.8629 0 3
7.8756 15.1997 1.2829 0.4647 0 3
7.8309 16.7245 1.3839 0.4308 0 3
7.7777 18.5115 1.5047 0.3962 0 3
8.4227 22.5398 1.8032 0.9141 0 3
7.9204 24.1049 1.9014 0.9452 0 3
7.4972 26.3380 2.0522 0.9556 0 3
1.6052 13.6888 1.0329 0.0162 0 9
0.5385 14.7742 1.1079 0.2285 0 9
-0.0555 14.9570 1.1209 0.9585 0 9
-1.1355 25.8722 1.9407 0.8512 0 9
-1.3282 15.7736 1.1863 0.2262 0 9
-30.6289 17.6693 2.6499 0.7919 0 3
-35.6137 -33.9489 3.6872 0.8745 0 20
-0.2481 -38.9046 2.9156 0.9954 0 22
4.8534 -24.6558 1.8832 0.9943 0 6
10.4948 -3.1574 0.6993 0.2434 0 25
10.4658 -2.6957 0.6896 0.2468 0 25
10.4417 -2.2469 0.6815 0.2497 0 2
10.8264 -1.8785 0.7011 0.2519 0 1
6.9753 -0.9237 0.4489 0.2749 25 14
4.5062 -0.4135 0.2887 0.2673 25 14
4.4399 -0.2282 0.2837 0.2721 25 14
4.3657 -0.0489 0.2786 0.3181 25 14
4.4017 0.1274 0.2810 0.2005 25 14
4.5006 0.3114 0.2878 0.2681 25 14
4.6020 0.5047 0.2954 0.2613 25 14
6.0961 0.9175 0.3933 0.9604 25 14
11.1885 2.1463 0.7269 0.2370 0 1
11.2737 2.6358 0.7387 0.2333 0 1
11.3685 3.1441 0.7526 0.2270 0 1
11.4752 3.6754 0.7688 0.2222 0 1
11.5814 4.2291 0.7867 0.2308 0 1
11.6106 4.7762 0.8010 0.2306 0 1
11.6381 5.3433 0.8171 0.2261 0 1
11.6718 5.9371 0.8355 0.2211 0 1
10.2840 5.7620 0.7521 0.5964 0 14
9.9486 6.1112 0.7450 0.8428 0 14
9.8786 6.6286 0.7591 0.7258 0 14
10.0413 7.3389 0.7936 0.2793 0 14
11.0775 8.7996 0.9027 0.1880 0 2
11.1990 9.6540 0.9434 0.1799 0 2
11.3387 10.5968 0.9902 0.1714 0 2
11.5001 11.6468 1.0443 0.1625 0 2
11.6879 12.8284 1.1073 0.1533 0 2
11.9082 14.1734 1.1811 0.1437 0 2
11.3741 14.6973 1.1858 0.7852 0 3
10.4544 14.6914 1.1505 0.8093 0 3
8.9972 13.7831 1.0502 0.8393 0 21
8.7635 14.6804 1.0909 0.8535 0 3
7.9796 14.6754 1.0658 0.8735 0 3
7.9165 16.0640 1.1427 0.4445 0 3
7.8726 17.7369 1.2382 0.4102 0 3
7.6664 19.3297 1.3268 0.3753 0 3
8.4583 24.1077 1.6301 0.9394 0 3
7.5222 24.5528 1.6385 0.3038 0 3
7.5782 28.8185 1.9013 0.2674 0 3
1.9750 14.3579 0.9247 0.2351 0 9
1.4036 14.4926 0.9290 0.4209 0 9
1.4284 25.2983 1.6167 0.8455 0 9
0.4066 25.0128 1.5961 0.1886 0 9
-0.3573 14.9517 0.9543 0.1068 0 9
-0.9510 14.8302 0.9482 0.9799 0 9
-30.7617 28.3121 2.6675 0.5441 0 3
-30.7413 26.0938 2.5728 0.3022 0 3
-31.1157 24.3321 2.5203 0.3103 0 3
-31.2518 22.4771 2.4562 0.5877 0 3
-31.2914 20.6520 2.3922 0.3251 0 3
-31.4376 18.9824 2.3432 0.3319 0 3
-31.7479 17.4708 2.3121 0.3383 0 3
-36.6286 -33.5462 3.1691 0.8669 0 20
-35.2479 -34.9846 3.1687 0.2861 0 20
0.5370 -38.9053 2.4826 0.9963 0 22
5.7657 -42.6909 2.7486 0.9895 0 3
9.2289 -42.3552 2.7659 0.9734 0 3
8.3796 -32.1870 2.1221 0.9675 0 3
8.3840 -27.6077 1.8409 0.9569 0 3
10.2106 -29.3322 1.9817 0.6943 0 3
11.6609 -29.6131 2.0307 0.9310 0 3
13.0530 -29.6041 2.0643 0.9158 0 3
13.2491 -27.0520 1.9219 0.8717 0 3
13.9802 -25.8622 1.8758 0.0905 0 2
9.8617 -16.6126 1.2327 0.9891 0 20
12.8899 -19.8527 1.5103 0.1124 0 2
12.5037 -17.6628 1.3808 0.1229 0 2
12.4267 -16.1391 1.2996 0.8073 0 2
12.4620 -14.9068 1.2397 0.1417 0 1
12.2613 -13.5243 1.1648 0.1568 0 1
12.1181 -12.3332 1.1032 0.1656 0 1
11.9390 -11.2128 1.0450 0.1590 0 1
11.7612 -10.1891 0.9929 0.1658 0 1
11.5706 -9.2377 0.9447 0.1659 0 1
11.3847 -8.3637 0.9013 0.1773 0 1
6.1728 -4.1640 0.4751 0.9648 14 7
11.1374 -6.8792 0.8352 0.1987 0 1
11.0167 -6.2081 0.8068 0.2078 0 24
10.6956 -5.4736 0.7666 0.2220 0 25
8.8026 -4.0676 0.6187 0.9838 0 9
10.5907 -4.3870 0.7314 0.2327 0 25
10.5480 -3.8811 0.7171 0.2373 0 25
10.5112 -3.3951 0.7048 0.2415 0 25
10.4797 -2.9260 0.6942 0.2452 0 25
10.4532 -2.4710 0.6853 0.2483 0 25
10.8276 -2.1046 0.7038 0.2505 0 1
6.0948 -0.9326 0.3934 0.9603 25 14
4.5411 -0.5093 0.2916 0.2647 25 14
4.4728 -0.3205 0.2861 0.2698 25 14
4.4029 -0.1383 0.2811 0.2005 25 14
4.3633 0.0382 0.2784 0.3183 25 14
4.4522 0.2179 0.2844 0.2714 25 14
4.5502 0.4063 0.2915 0.2648 25 14
4.6507 0.6042 0.2992 0.2658 25 14
6.0593 1.0360 0.3922 0.9631 25 14
11.2299 2.3876 0.7325 0.2352 0 1
11.3189 2.8859 0.7453 0.2312 0 1
11.4204 3.4054 0.7604 0.2246 0 1
11.5320 3.9492 0.7777 0.2196 0 1
11.5955 4.4986 0.7936 0.2288 0 1
11.6235 5.0552 0.8087 0.2284 0 1
11.6540 5.6350 0.8259 0.2236 0 1
10.7066 5.7180 0.7744 0.4645 0 14
10.0638 5.9056 0.7445 0.8806 0 14
9.8975 6.3554 0.7505 0.7990 0 14
9.9007 6.9341 0.7712 0.4998 0 14
11.0223 8.3987 0.8842 0.1919 0 2
11.1359 9.2145 0.9222 0.1840 0 2
11.2660 10.1108 0.9659 0.1757 0 2
11.4160 11.1043 1.0161 0.1670 0 2
11.5899 12.2163 1.0744 0.1580 0 2
11.7929 13.4746 1.1425 0.1485 0 2
11.8180 14.6503 1.2010 0.7726 0 3
10.9097 14.6943 1.1677 0.7973 0 3
6.2640 9.1856 0.7094 0.7083 22 6
8.6194 13.7986 1.0381 0.8492 0 21
8.3690 14.6779 1.0781 0.8636 0 3
7.9359 15.3160 1.1006 0.4615 0 3
7.8925 16.8561 1.1876 0.4276 0 3
7.8477 18.6779 1.2927 0.3929 0 3
8.4456 22.6011 1.5395 0.9123 0 3
7.9202 24.1043 1.6189 0.9460 0 3
7.6334 26.8163 1.7790 0.2857 0 3
0.5785 15.8691 1.0132 0.9570 0 9
-0.6483 14.7706 0.9433 0.6265 0 9
-30.7353 27.1745 2.6176 0.6842 0 3
-31.0177 25.2804 2.5531 0.3063 0 3
-30.5405 22.9145 2.4361 0.7352 0 3
-31.2869 21.5677 2.4246 0.7550 0 3
-31.4321 19.8554 2.3721 0.7761 0 3
-31.6833 18.2776 2.3338 0.3351 0 3
-31.8085 16.6855 2.2918 0.3413 0 3
-35.3425 -33.6903 3.1154 0.7854 0 20
-0.2481 -38.9100 2.4827 0.9997 0 22
5.4462 -47.5388 3.0530 0.9926 0 3
4.8601 -24.6900 1.6056 0.6153 0 6
10.0599 -3.0266 0.5535 0.2541 0 25
10.0379 -2.5855 0.5461 0.2575 0 25
10.2630 -2.2084 0.5531 0.2628 0 2
10.3921 -1.8032 0.5557 0.2626 0 1
4.3782 -0.5798 0.2327 0.2001 25 14
4.2953 -0.3941 0.2272 0.2048 25 14
4.2430 -0.2181 0.2238 0.3271 25 14
4.2291 -0.0474 0.2228 0.3286 25 14
4.2458 0.1229 0.2238 0.3271 25 14
4.2958 0.2972 0.2269 0.2052 25 14
4.4196 0.4847 0.2342 0.1987 25 14
6.1171 0.9206 0.3259 0.9577 25 14
10.7117 2.0548 0.5746 0.2473 0 1
10.7860 2.5218 0.5836 0.2440 0 1
10.8663 3.0052 0.5940 0.2397 0 1
10.9549 3.5088 0.6060 0.2329 0 1
11.0543 4.0366 0.6200 0.2276 0 1
11.0944 4.5638 0.6320 0.2374 0 1
11.1187 5.1048 0.6446 0.2327 0 1
11.1403 5.6667 0.6585 0.2318 0 1
11.1366 6.2397 0.6726 0.2546 0 1
10.0870 6.1963 0.6237 0.4714 0 14
10.0426 6.7387 0.6372 0.4277 0 14
10.9917 8.0335 0.7173 0.2162 0 2
10.4904 8.3332 0.7059 0.1987 0 2
10.5802 9.1206 0.7360 0.1905 0 2
10.6829 9.9839 0.7704 0.1820 0 2
10.8008 10.9386 0.8099 0.1731 0 2
10.9371 12.0043 0.8556 0.1639 0 2
11.0957 13.2064 0.9088 0.1543 0 2
11.2819 14.5782 0.9712 0.1444 0 2
10.4540 14.6909 0.9500 0.8098 0 3
8.9786 13.7547 0.8654 0.8416 0 21
8.7632 14.6800 0.9007 0.8541 0 3
8.0127 14.7363 0.8837 0.4749 0 3
7.9798 16.1925 0.9511 0.4413 0 3
7.9409 17.8908 1.0313 0.4070 0 3
7.7431 19.5230 1.1065 0.3720 0 3
8.4595 24.1111 1.3462 0.9401 0 3
7.6106 24.8412 1.3688 0.3005 0 3
7.6795 29.2037 1.5909 0.2640 0 3
2.5147 14.0712 0.7531 0.3285 0 9
1.9793 14.3887 0.7652 0.2317 0 9
1.4132 14.5915 0.7724 0.4693 0 9
1.4300 25.3259 1.3364 0.8871 0 9
-0.3553 14.8703 0.7837 0.7096 0 9
-30.8241 39.2079 2.6276 0.5632 0 3
-31.0884 36.4337 2.5234 0.7637 0 3
-31.3732 33.9109 2.4340 0.2654 0 3
-31.4890 31.4075 2.3432 0.6489 0 3
-31.8341 29.2991 2.2794 0.2834 0 3
-32.2994 23.2306 2.0961 0.7480 0 3
-32.2630 21.2933 2.0366 0.7698 0 3
-32.2323 19.4623 1.9837 0.7903 0 3
-32.3153 17.7830 1.9433 0.4869 0 3
-32.8712 16.4059 1.9356 0.3339 0 3
-36.5467 -33.4712 2.6110 0.7743 0 20
-35.1076 -34.8453 2.6061 0.5312 0 20
5.7658 -42.6919 2.2697 0.9901 0 3
9.2286 -42.3539 2.2838 0.9741 0 3
8.3966 -32.2525 1.7559 0.9681 0 3
8.4115 -27.6982 1.5251 0.2854 0 3
10.3024 -29.5959 1.6510 0.9453 0 3
11.6612 -29.6139 1.6768 0.9316 0 3
12.1623 -27.5841 1.5883 0.9164 0 3
13.0172 -26.5787 1.5592 0.8997 0 3
12.5239 -23.1680 1.3875 0.1011 0 2
9.8855 -16.6528 1.0203 0.8940 0 20
11.7864 -18.1531 1.1403 0.1230 0 2
11.5177 -16.2701 1.0502 0.1335 0 2
11.7944 -15.3179 1.0185 0.1467 0 1
11.6016 -13.8775 0.9530 0.1584 0 1
11.4884 -12.6718 0.9012 0.1592 0 1
11.3463 -11.5476 0.8529 0.1610 0 1
11.1934 -10.5126 0.8090 0.1681 0 1
11.0444 -9.5681 0.7699 0.1682 0 1
10.8815 -8.6875 0.7336 0.1799 0 1
10.7446 -7.8935 0.7024 0.1879 0 1
6.2078 -4.1876 0.3945 0.9121 14 6
10.5871 -6.5393 0.6556 0.2137 0 1
10.5323 -5.9351 0.6369 0.2215 0 1
10.2117 -5.2260 0.6044 0.2327 0 25
8.8350 -4.0826 0.5128 0.7740 0 9
10.1325 -4.1972 0.5778 0.2434 0 25
10.1003 -3.7163 0.5670 0.2480 0 25
10.0724 -3.2534 0.5577 0.2522 0 25
10.0485 -2.8056 0.5497 0.2558 0 25
10.0481 -2.3753 0.5440 0.3521 0 2
10.3908 -2.0197 0.5577 0.2612 0 1
10.3950 -1.5905 0.5540 0.2634 0 1
4.3363 -0.4863 0.2299 0.2025 25 14
4.2560 -0.3050 0.2248 0.2071 25 14
4.2360 -0.1330 0.2233 0.3279 25 14
4.2273 0.0370 0.2227 0.3287 25 14
4.2646 0.2087 0.2250 0.3255 25 14
4.3561 0.3890 0.2304 0.2020 25 14
4.4758 0.5815 0.2378 0.2682 25 14
6.0801 1.0396 0.3250 0.9605 25 14
10.7481 2.2852 0.5789 0.2459 0 1
10.8251 2.7600 0.5886 0.2419 0 1
10.9087 3.2528 0.5997 0.2374 0 1
11.0033 3.7681 0.6128 0.2303 0 1
11.0840 4.3002 0.6264 0.2395 0 1
11.1059 4.8300 0.6381 0.2351 0 1
11.1292 5.3812 0.6513 0.2343 0 1
10.7837 5.7592 0.6441 0.6992 0 14
10.1356 5.9478 0.6192 0.6747 0 14
10.0507 6.4539 0.6293 0.4672 0 14
10.8744 7.6161 0.6995 0.2577 0 1
10.8535 8.2700 0.7189 0.6248 0 2
10.5336 8.7162 0.7203 0.1947 0 2
10.6295 9.5396 0.7525 0.1863 0 2
10.7395 10.4462 0.7893 0.1776 0 2
10.8661 11.4534 0.8318 0.1686 0 2
11.0129 12.5833 0.8810 0.1592 0 2
11.1845 13.8650 0.9385 0.1494 0 2
10.9026 14.6848 0.9636 0.7979 0 3
6.2859 9.2178 0.5878 0.5557 22 7
8.5915 13.7540 0.8544 0.8514 0 21
8.3688 14.6775 0.8902 0.8642 0 3
7.9970 15.4340 0.9158 0.4583 0 3
7.9613 17.0030 0.9891 0.4243 0 3
7.9187 18.8471 1.0771 0.3897 0 3
8.4686 22.6626 1.2746 0.9104 0 3
7.9200 24.1037 1.3367 0.9466 0 3
7.7288 27.1514 1.4873 0.2824 0 3
2.7724 13.8885 0.7462 0.2404 0 9
2.2172 14.0174 0.7477 0.6348 0 9
1.6242 13.8508 0.7347 0.1871 0 9
1.0616 13.8347 0.7310 0.7258 0 9
0.5824 15.9786 0.8424 0.6715 0 9
-0.0639 17.2124 0.9068 0.2279 0 9
-31.2411 35.1656 2.4783 0.2607 0 3
-31.3602 32.5675 2.3820 0.1236 0 3
-31.7273 30.4059 2.3153 0.2791 0 3
-31.7786 28.0969 2.2348 0.6661 0 3
-32.3175 24.2477 2.1286 0.7366 0 3
-32.2796 22.2520 2.0656 0.7590 0 3
-32.2474 20.3704 2.0096 0.7802 0 3
-32.2180 18.5861 1.9596 0.8000 0 3
-32.6257 17.1141 1.9410 0.3310 0 3
-35.3199 -33.6688 2.5709 0.7952 0 20
1.3127 -38.8561 2.0483 0.9987 0 6
5.4463 -47.5398 2.5210 0.9932 0 3
3.6662 -18.6248 1.0001 0.4582 0 6
9.6601 -2.9063 0.4194 0.2647 0 25
9.6441 -2.4841 0.4141 0.2682 0 25
9.9876 -2.1491 0.4248 0.2708 0 1
9.9553 -1.7274 0.4201 0.2752 0 24
4.1570 -0.5505 0.1744 0.2108 25 14
4.1277 -0.3788 0.1723 0.3354 25 14
4.1107 -0.2113 0.1711 0.2619 25 14
4.0955 -0.0459 0.1703 0.3118 25 14
4.1143 0.1191 0.1711 0.2619 25 14
4.1528 0.2873 0.1731 0.3340 25 14
4.1962 0.4602 0.1755 0.2094 25 14
6.1533 0.9261 0.2587 0.8521 25 14
10.2738 1.9708 0.4350 0.2580 0 1
10.3393 2.4173 0.4415 0.2546 0 1
10.4085 2.8786 0.4490 0.2504 0 1
10.4830 3.3576 0.4577 0.2456 0 1
10.5648 3.8579 0.4677 0.2383 0 1
10.6222 4.3696 0.4776 0.2480 0 1
10.6364 4.8834 0.4866 0.2434 0 1
10.6541 5.4194 0.4970 0.2383 0 1
10.6693 5.9779 0.5085 0.2370 0 1
10.5971 6.5096 0.5171 0.2614 0 1
10.4990 7.0449 0.5257 0.2571 0 1
10.3899 7.5937 0.5351 0.2660 0 1
10.4017 8.2628 0.5523 0.6421 0 2
10.0268 8.6435 0.5504 0.2012 0 2
10.0994 9.4386 0.5748 0.1926 0 2
10.1824 10.3123 0.6026 0.1837 0 2
10.2777 11.2806 0.6345 0.1745 0 2
10.3878 12.3638 0.6714 0.1649 0 2
10.5160 13.5886 0.7144 0.1550 0 2
6.4927 9.1242 0.4656 0.3582 22 6
8.9602 13.7264 0.6816 0.8438 0 21
8.7630 14.6796 0.7109 0.8545 0 3
8.0727 14.8465 0.7027 0.4716 0 3
8.0441 16.3229 0.7566 0.4380 0 3
8.0103 18.0471 0.8210 0.4037 0 3
7.8132 19.6997 0.8812 0.3687 0 3
8.4579 24.1065 1.0622 0.9406 0 3
7.8589 25.6517 1.1155 0.2971 0 3
3.3116 15.0210 0.6396 0.3594 0 9
1.3908 14.3604 0.5999 0.3872 0 9
1.3342 23.6293 0.9841 0.2090 0 9
0.2796 17.1987 0.7152 0.2756 0 9
-32.3940 37.9639 2.0751 0.7015 0 3
-32.3438 34.9600 1.9803 0.6252 0 3
-32.2963 32.2127 1.8966 0.6528 0 3
-30.3281 27.9130 1.7138 0.8006 0 3
-32.2149 27.3446 1.7570 0.7046 0 3
-32.1798 25.1642 1.6985 0.7289 0 3
-32.1479 23.1216 1.6465 0.7519 0 3
-32.1160 21.1962 1.6000 0.7737 0 3
-32.0892 19.3758 1.5586 0.7943 0 3
-32.3137 17.7821 1.5336 0.4872 0 3
-33.8028 16.8708 1.5708 0.4518 0 3
-36.5191 -33.4459 2.0590 0.7839 0 20
-35.0452 -34.7834 2.0530 0.6627 0 20
5.7660 -42.6929 1.7913 0.9906 0 3
9.4968 -43.5847 1.8547 0.2081 0 3
7.8456 -30.1359 1.2948 0.9686 0 20
8.5167 -28.0446 1.2187 0.2820 0 3
10.3235 -29.6566 1.3057 0.8085 0 3
10.4412 -26.5157 1.1849 0.9912 0 3
11.7154 -26.5704 1.2074 0.8874 0 3
11.6779 -23.8440 1.1039 0.1003 0 2
11.3435 -20.9845 0.9918 0.1116 0 2
9.9330 -16.7328 0.8091 0.4909 0 20
10.8579 -16.7230 0.8290 0.1336 0 2
11.2705 -15.9208 0.8111 0.1580 0 2
10.9820 -14.2629 0.7485 0.1449 0 1
10.8720 -13.0048 0.7048 0.1607 0 1
10.7725 -11.8821 0.6669 0.1626 0 1
10.6452 -10.8341 0.6315 0.1701 0 1
10.5317 -9.8912 0.6008 0.1788 0 1
10.3970 -9.0072 0.5720 0.1822 0 1
10.2787 -8.2062 0.5469 0.1906 0 1
10.1860 -7.4831 0.5255 0.2105 0 1
6.2212 -4.1967 0.3120 0.9106 14 6
10.0472 -6.2058 0.4910 0.2307 0 24
9.8082 -5.5271 0.4681 0.5206 0 2
9.7702 -5.0000 0.4563 0.2433 0 25
8.8707 -4.0991 0.4063 0.8372 0 9
9.3409 -3.8693 0.4204 0.1723 0 9
9.6894 -3.5652 0.4293 0.2587 0 25
9.6692 -3.1232 0.4225 0.2628 0 25
9.6518 -2.6949 0.4167 0.2665 0 25
9.6371 -2.2781 0.4117 0.2697 0 2
9.9884 -1.9415 0.4231 0.2718 0 1
9.9957 -1.5294 0.4205 0.2741 0 1
4.1350 -0.4638 0.1730 0.3341 25 14
4.1202 -0.2953 0.1718 0.2610 25 14
4.1016 -0.1288 0.1706 0.2627 25 14
4.0961 0.0359 0.1703 0.3118 25 14
4.1346 0.2024 0.1721 0.3359 25 14
4.1711 0.3724 0.1741 0.3320 25 14
4.2545 0.5528 0.1784 0.2061 25 14
10.2432 1.7514 0.4321 0.2660 0 1
10.3063 2.1913 0.4381 0.2566 0 1
10.3731 2.6447 0.4451 0.2526 0 1
10.4449 3.1145 0.4532 0.2481 0 1
10.5222 3.6034 0.4624 0.2431 0 1
10.6094 4.1160 0.4732 0.2355 0 1
10.6289 4.6226 0.4819 0.2458 0 1
10.6448 5.1470 0.4916 0.2409 0 1
10.6620 5.6942 0.5026 0.2398 0 1
10.6462 6.2474 0.5133 0.2634 0 1
10.5484 6.7734 0.5212 0.2594 0 1
10.4496 7.3185 0.5305 0.2684 0 1
10.4896 7.9928 0.5483 0.2233 0 2
10.0099 8.2828 0.5402 0.5905 0 2
10.0618 9.0301 0.5621 0.1970 0 2
10.1393 9.8625 0.5881 0.1883 0 2
10.2281 10.7809 0.6179 0.1792 0 2
10.3304 11.8035 0.6522 0.1698 0 2
10.4491 12.9533 0.6920 0.1600 0 2
10.5879 14.2608 0.7385 0.1499 0 2
9.3456 13.7045 0.6897 0.6983 0 21
8.7207 13.9609 0.6844 0.8117 0 21
8.3686 14.6771 0.7025 0.8647 0 3
8.0590 15.5536 0.7284 0.4550 0 3
8.0280 17.1454 0.7872 0.4210 0 3
7.9910 19.0191 0.8578 0.3863 0 3
8.4847 22.7058 1.0079 0.9336 0 3
7.9198 24.1031 1.0549 0.9471 0 3
7.8265 27.4946 1.1886 0.2790 0 3
1.6094 13.7244 0.5746 0.4311 0 9
1.0414 13.5720 0.5660 0.6299 0 9
-0.0647 17.4309 0.7248 0.8296 0 9
-32.3698 36.4361 2.0265 0.6109 0 3
-32.3195 33.5638 1.9374 0.6390 0 3
-32.2744 30.9303 1.8587 0.6661 0 3
-31.2299 27.6118 1.7333 0.9386 0 3
-32.1970 26.2416 1.7271 0.7168 0 3
-30.2236 22.6767 1.5711 0.8442 0 3
-32.1303 22.1491 1.6226 0.7629 0 3
-32.1024 20.2788 1.5788 0.7841 0 3
-32.0767 18.5045 1.5397 0.8040 0 3
-31.0614 16.2936 1.4584 0.6211 0 3
-33.8992 16.0816 1.5601 0.4339 0 3
-35.0439 -33.4057 2.0131 0.6801 0 20
5.4465 -47.5408 1.9896 0.9937 0 3
3.6626 -18.6066 0.7885 0.9889 0 6
9.2912 -2.7953 0.2958 0.2754 0 25
9.2803 -2.3904 0.2921 0.2788 0 25
9.6136 -2.0687 0.2998 0.2810 0 1
9.5887 -1.6638 0.2967 0.2848 0 24
4.0446 -0.5356 0.1244 0.2672 25 14
3.9772 -0.3650 0.1217 0.3199 25 14
3.9701 -0.2041 0.1212 0.3214 25 14
3.9636 -0.0444 0.1208 0.3223 25 14
3.9790 0.1152 0.1213 0.3210 25 14
4.0089 0.2774 0.1225 0.3179 25 14
4.0470 0.4438 0.1241 0.2649 25 14
4.3895 0.6606 0.1353 0.0911 25 14
9.8777 1.8948 0.3066 0.2754 0 1
9.9304 2.3217 0.3109 0.2709 0 1
9.9888 2.7625 0.3159 0.2666 0 1
10.0518 3.2195 0.3217 0.2563 0 1
10.1199 3.6954 0.3284 0.2511 0 1
10.1889 4.1913 0.3358 0.2587 0 1
10.1947 4.6806 0.3420 0.2541 0 1
10.2025 5.1897 0.3489 0.2490 0 1
10.2127 5.7220 0.3569 0.2435 0 1
10.1874 6.2579 0.3645 0.2720 0 1
10.0867 6.7682 0.3703 0.2678 0 1
9.9842 7.2972 0.3770 0.2630 0 1
10.0190 7.9588 0.3900 0.2303 0 2
9.5972 8.2732 0.3863 0.6734 0 2
9.5769 8.9503 0.3996 0.2032 0 2
9.6314 9.7543 0.4179 0.1943 0 2
9.6937 10.6397 0.4388 0.1851 0 2
9.7653 11.6229 0.4628 0.1755 0 2
9.8481 12.7255 0.4905 0.1656 0 2
6.4831 9.1106 0.3409 0.9052 22 6
8.9418 13.6982 0.4987 0.8459 0 21
8.7627 14.6792 0.5211 0.8549 0 3
8.1334 14.9582 0.5190 0.4683 0 3
8.1093 16.4553 0.5592 0.4346 0 3
8.0808 18.2060 0.6072 0.4003 0 3
7.8886 19.8898 0.6523 0.3653 0 3
8.4577 24.1059 0.7787 0.9410 0 3
7.9581 25.9757 0.8282 0.2937 0 3
3.3133 15.0285 0.4691 0.4299 0 9
1.8685 13.5833 0.4180 0.3442 0 9
2.5948 26.7911 0.8205 0.4008 0 9
0.7572 13.4111 0.4095 0.9251 0 9
0.2633 16.1974 0.4938 0.9935 0 9
-32.2067 37.7444 1.5125 0.6003 0 3
-32.1625 34.7641 1.4437 0.6290 0 3
-32.1228 32.0397 1.3830 0.6565 0 3
-32.0870 29.5319 1.3293 0.6831 0 3
-32.0546 27.2085 1.2817 0.7085 0 3
-32.0250 25.0431 1.2393 0.7327 0 3
-31.8433 22.9025 1.1957 0.4299 0 3
-31.9704 21.1001 1.1677 0.7776 0 3
-31.9474 19.2902 1.1376 0.7981 0 3
-32.3122 17.7813 1.1243 0.4874 0 3
-32.0891 16.0155 1.0933 0.7311 0 3
-36.4336 -33.3675 1.5060 0.6752 0 20
-34.8645 -34.6040 1.4974 0.6706 0 20
5.2276 -38.7068 1.1906 0.9733 0 6
8.7186 -40.0134 1.2484 0.6875 0 3
7.8458 -30.1366 0.9493 0.9693 0 20
8.6245 -28.3994 0.9048 0.2786 0 3
10.0818 -28.9624 0.9348 0.2209 0 3
10.5201 -26.7160 0.8753 0.0875 0 3
10.8246 -24.5502 0.8179 0.0993 0 2
10.5701 -21.5821 0.7326 0.1109 0 2
9.9895 -18.4797 0.6404 0.2436 0 9
10.2023 -17.1864 0.6093 0.1333 0 2
10.4845 -16.1480 0.5869 0.8554 0 2
10.3772 -14.6590 0.5475 0.1453 0 1
10.2702 -13.3384 0.5132 0.1619 0 1
10.2020 -12.2034 0.4849 0.1713 0 1
10.1123 -11.1540 0.4589 0.1716 0 1
10.0251 -10.2030 0.4360 0.1880 0 1
9.9319 -9.3278 0.4153 0.1900 0 1
9.8354 -8.5207 0.3967 0.1990 0 1
9.7564 -7.7893 0.3806 0.2220 0 1
9.7176 -7.1390 0.3676 0.2330 0 1
6.2348 -4.2058 0.2293 0.9717 14 6
9.6596 -5.9664 0.3461 0.2518 0 1
9.3889 -5.2908 0.3285 0.2479 0 25
9.0323 -4.6224 0.3093 0.2527 0 9
8.8905 -4.1083 0.2986 0.8637 0 9
9.0017 -3.7288 0.2970 0.4730 0 9
9.3111 -3.4260 0.3024 0.2693 0 25
9.2973 -3.0030 0.2978 0.2734 0 25
9.2855 -2.5926 0.2939 0.2771 0 25
9.4092 -2.2242 0.2947 0.2910 0 2
9.6170 -1.8693 0.2986 0.2830 0 1
9.6267 -1.4730 0.2969 0.2852 0 1
3.9811 -0.4465 0.1221 0.3189 25 14
3.9736 -0.2847 0.1214 0.3207 25 14
3.9668 -0.1246 0.1210 0.3219 25 14
3.9643 0.0347 0.1209 0.3223 25 14
3.9937 0.1955 0.1219 0.3195 25 14
4.0242 0.3593 0.1232 0.3162 25 14
4.0711 0.5289 0.1251 0.2627 25 14
9.8539 1.6849 0.3047 0.2771 0 1
9.9024 2.1054 0.3086 0.2729 0 1
9.9590 2.5392 0.3133 0.2688 0 1
10.0193 2.9876 0.3187 0.2587 0 1
10.0851 3.4537 0.3250 0.2537 0 1
10.1555 3.9399 0.3321 0.2483 0 1
10.1915 4.4324 0.3388 0.2564 0 1
10.1983 4.9311 0.3453 0.2516 0 1
10.2073 5.4514 0.3527 0.2463 0 1
10.2176 5.9959 0.3611 0.2447 0 1
10.1375 6.5096 0.3673 0.2700 0 1
10.0359 7.0288 0.3735 0.2655 0 1
9.9325 7.5683 0.3807 0.2611 0 1
9.9772 8.2558 0.3948 0.6589 0 2
9.5520 8.5726 0.3912 0.2076 0 2
9.6031 9.3409 0.4084 0.1989 0 2
9.6614 10.1836 0.4279 0.1898 0 2
9.7281 11.1153 0.4503 0.1804 0 2
9.8050 12.1548 0.4760 0.1706 0 2
9.8942 13.3265 0.5060 0.1605 0 2
9.3186 13.6650 0.5042 0.8356 0 21
8.7389 13.9900 0.5028 0.8103 0 21
8.3683 14.6767 0.5150 0.8651 0 3
8.1219 15.6750 0.5382 0.4516 0 3
8.0958 17.2902 0.5820 0.4176 0 3
8.0272 19.1052 0.6317 0.9189 0 3
9.0093 24.1094 0.7846 0.9340 0 3
7.9196 24.1025 0.7734 0.9475 0 3
7.9266 27.8463 0.8826 0.2756 0 3
2.2388 14.1540 0.4368 0.4102 0 9
1.8362 15.6591 0.4806 0.9802 0 9
1.0624 13.8453 0.4233 0.2347 0 9
0.6357 17.4395 0.5320 0.3541 0 9
-32.1841 36.2272 1.4772 0.6147 0 3
-32.1423 33.3797 1.4126 0.6428 0 3
-32.1046 30.7675 1.3555 0.6699 0 3
-32.0705 28.3550 1.3049 0.6958 0 3
-32.0395 26.1132 1.2600 0.7207 0 3
-32.0112 24.0179 1.2199 0.7443 0 3
-31.9826 22.0473 1.1841 0.7667 0 3
-31.9587 20.1881 1.1523 0.7879 0 3
-31.9367 18.4238 1.1239 0.8078 0 3
-32.1108 16.8440 1.1053 0.8498 0 3
-35.1111 16.6565 1.1846 0.3159 0 3
-35.0038 -33.3675 1.4742 0.6898 0 20
-34.7338 -35.8792 1.5223 0.7661 0 20
5.4466 -47.5418 1.4587 0.9940 0 3
7.8770 -40.0161 1.2432 0.9275 0 3
8.9496 -2.6926 0.1813 0.2859 0 25
8.9459 -2.3043 0.1792 0.2854 0 2
9.2670 -1.9941 0.1838 0.2924 0 1
9.2783 -1.6099 0.1826 0.2945 0 1
3.9749 -0.5264 0.0778 0.3106 25 14
3.9537 -0.3628 0.0770 0.9631 25 14
3.9275 -0.2019 0.0763 0.9724 25 14
3.9017 -0.0437 0.0757 0.9800 25 14
3.9074 0.1131 0.0758 0.9782 25 14
3.9328 0.2721 0.0765 0.9700 25 14
3.9586 0.4341 0.0772 0.9602 25 14
4.1780 0.6288 0.0819 0.0958 25 14
9.4795 1.8184 0.1872 0.2844 0 24
9.5594 2.2350 0.1904 0.2815 0 1
9.6098 2.6577 0.1934 0.2772 0 1
9.6629 3.0950 0.1968 0.2724 0 1
9.7191 3.5490 0.2007 0.2671 0 1
9.7772 4.0220 0.2050 0.2594 0 1
9.7915 4.4955 0.2090 0.2681 0 1
9.7910 4.9804 0.2131 0.2629 0 1
9.7916 5.4861 0.2177 0.2573 0 1
9.7927 6.0155 0.2229 0.2509 0 1
9.7064 6.5131 0.2267 0.2790 0 1
9.6015 7.0175 0.2307 0.2743 0 1
9.5019 7.5480 0.2354 0.2670 0 1
9.5696 8.2494 0.2450 0.6756 0 2
9.1060 8.5102 0.2417 0.2138 0 2
9.1373 9.2539 0.2522 0.2049 0 2
9.1729 10.0680 0.2642 0.1956 0 2
9.2136 10.9663 0.2778 0.1860 0 2
9.2603 11.9659 0.2935 0.1761 0 2
6.4879 9.1173 0.2170 0.9861 22 6
8.9146 13.6565 0.3163 0.5871 0 21
8.7625 14.6788 0.3316 0.8552 0 3
8.1951 15.0716 0.3327 0.4649 0 3
8.1756 16.5898 0.3587 0.4312 0 3
8.1526 18.3677 0.3898 0.3969 0 3
8.9207 22.4923 0.4693 0.9114 0 3
8.4575 24.1053 0.4955 0.9413 0 3
8.0547 26.2910 0.5333 0.2903 0 3
11.5359 43.8691 0.8798 0.0622 0 1
3.3037 14.9853 0.2976 0.5983 0 9
0.2880 17.7154 0.3436 0.3667 0 9
-0.3878 16.2274 0.3148 0.8725 0 9
-32.0189 37.5242 0.9567 0.6040 0 3
-31.9514 31.8687 0.8753 0.6602 0 3
-30.0110 27.6211 0.7911 0.9484 0 3
-31.8960 27.0739 0.8114 0.7122 0 3
-35.3689 27.6580 0.8708 0.6209 0 3
-31.8494 22.9070 0.7609 0.7595 0 3
-34.3405 22.6643 0.7980 0.5560 0 3
-35.9687 21.7183 0.8149 0.2904 0 3
-31.9977 17.6082 0.7084 0.6384 0 3
-35.5837 17.7596 0.7713 0.4521 0 3
-36.3394 16.3493 0.7728 0.3082 0 3
-36.3174 -33.2612 0.9551 0.5343 0 20
-34.7995 -34.5395 0.9509 0.7860 0 20
5.7663 -42.6950 0.8356 0.9923 0 3
7.9184 -44.9446 0.8851 0.9081 0 3
5.3782 -24.6830 0.4900 0.5130 0 6
7.8780 -30.2605 0.6065 0.9868 0 20
8.5307 -28.0906 0.5694 0.8042 0 3
9.6294 -27.6625 0.5681 0.2313 0 3
9.9572 -25.2864 0.5271 0.0981 0 2
9.7886 -22.2005 0.4706 0.1098 0 2
9.6549 -19.7134 0.4257 0.1214 0 2
9.5464 -17.6599 0.3894 0.1327 0 2
9.5987 -16.1696 0.3647 0.8775 0 2
9.7766 -15.0576 0.3482 0.1449 0 1
9.6835 -13.6790 0.3251 0.1629 0 1
9.6456 -12.5272 0.3066 0.1738 0 1
9.6103 -11.4956 0.2906 0.1813 0 1
9.5488 -10.5324 0.2757 0.1892 0 1
9.4886 -9.6570 0.2626 0.1913 0 1
9.4111 -8.8387 0.2504 0.2006 0 1
9.3518 -8.1018 0.2400 0.2241 0 1
9.3209 -7.4416 0.2313 0.2356 0 1
9.2993 -6.8317 0.2238 0.2436 0 1
6.2537 -4.2186 0.1463 0.9691 14 6
9.0223 -5.5728 0.2057 0.2524 0 2
9.0071 -5.0756 0.2005 0.2585 0 25
8.6971 -4.4509 0.1895 0.3470 0 9
8.6640 -4.0036 0.1851 0.2634 0 9
8.7488 -3.6241 0.1837 0.8927 0 9
8.9614 -3.2973 0.1852 0.2799 0 25
8.9533 -2.8919 0.1825 0.2840 0 25
8.9463 -2.4979 0.1801 0.2877 0 25
9.2634 -2.1898 0.1846 0.2903 0 1
9.2725 -1.8023 0.1832 0.2936 0 1
4.4622 -0.6828 0.0876 0.0896 25 14
3.9671 -0.4449 0.0774 0.9579 25 14
3.9406 -0.2824 0.0766 0.9679 25 14
3.9146 -0.1229 0.0760 0.9764 25 14
3.8948 0.0341 0.0755 0.9818 25 14
3.9200 0.1919 0.0761 0.9743 25 14
3.9456 0.3523 0.0768 0.9653 25 14
3.9717 0.5160 0.0777 0.9548 25 14
9.4937 1.6233 0.1868 0.2877 0 1
9.5356 2.0274 0.1891 0.2842 0 1
9.5842 2.4436 0.1918 0.2794 0 1
9.6359 2.8733 0.1950 0.2748 0 1
9.6905 3.3185 0.1987 0.2698 0 1
9.7483 3.7820 0.2028 0.2643 0 1
9.7921 4.2587 0.2071 0.2705 0 1
9.7911 4.7342 0.2109 0.2656 0 1
9.7912 5.2291 0.2153 0.2602 0 1
9.7924 5.7464 0.2202 0.2544 0 1
9.7582 6.2660 0.2249 0.2813 0 1
9.6546 6.7617 0.2286 0.2767 0 1
9.5483 7.2755 0.2328 0.2717 0 1
9.5762 7.9240 0.2411 0.2371 0 2
9.2108 8.2664 0.2400 0.6897 0 2
9.1211 8.8721 0.2468 0.2094 0 2
9.1545 9.6493 0.2580 0.2003 0 2
9.1925 10.5033 0.2707 0.1909 0 2
9.2360 11.4495 0.2853 0.1811 0 2
9.2862 12.5076 0.3021 0.1711 0 2
9.3445 13.7029 0.3217 0.1607 0 2
8.7572 14.0192 0.3206 0.8088 0 21
8.3629 14.6672 0.3275 0.8653 0 3
8.1858 15.7982 0.3451 0.4482 0 3
8.1646 17.4372 0.3734 0.4142 0 3
8.0270 19.1047 0.4019 0.9192 0 3
9.0090 24.1088 0.4992 0.9343 0 3
7.9194 24.1019 0.4920 0.9478 0 3
8.0292 28.2068 0.5688 0.2722 0 3
8.7341 36.1328 0.7210 0.8938 0 6
1.8357 15.6550 0.3057 0.9183 0 9
1.0656 13.8877 0.2701 0.6365 0 9
0.9802 26.8896 0.5219 0.1022 0 9
-0.0541 14.5691 0.2826 0.0942 0 9
-31.0421 37.9024 0.9502 0.8775 0 3
-31.9671 33.1978 0.8939 0.6465 0 3
-34.0835 32.6640 0.9156 0.6963 0 3
-31.9090 28.2122 0.8261 0.6995 0 3
-33.9461 27.6671 0.8494 0.6365 0 3
-31.7313 23.8079 0.7694 0.6226 0 3
-31.8363 21.9464 0.7500 0.7705 0 3
-35.8632 22.6545 0.8227 0.5722 0 3
-31.7980 18.3438 0.7120 0.8116 0 3
-33.8769 17.7705 0.7420 0.4700 0 3
-36.3085 17.2245 0.7794 0.3055 0 3
-35.0206 -33.3835 0.9384 0.7965 0 20
-34.5747 -35.7149 0.9641 0.7753 0 20
8.8733 -45.0774 0.8911 0.8195 0 3
8.6324 -2.5971 0.0749 0.2965 0 25
8.6723 -2.2338 0.0744 0.3085 0 2
8.9454 -1.9249 0.0760 0.3030 0 1
8.9585 -1.5544 0.0756 0.3051 0 1
3.9648 -0.5250 0.0332 0.9634 25 14
3.9499 -0.3625 0.0330 0.9642 25 14
3.9238 -0.2017 0.0327 0.9734 25 14
3.8981 -0.0437 0.0324 0.9811 25 14
3.9041 0.1130 0.0325 0.9792 25 14
3.9294 0.2719 0.0327 0.9710 25 14
3.9552 0.4338 0.0331 0.9612 25 14
4.0609 0.6112 0.0341 0.2656 25 14
9.1430 1.7539 0.0774 0.2961 0 24
9.2153 2.1545 0.0787 0.2921 0 1
9.2587 2.5606 0.0798 0.2877 0 1
9.3039 2.9800 0.0812 0.2829 0 1
9.3511 3.4146 0.0827 0.2776 0 1
9.3958 3.8651 0.0844 0.2699 0 1
9.4214 4.3255 0.0862 0.2786 0 1
9.4140 4.7886 0.0878 0.2735 0 1
9.4067 5.2704 0.0896 0.2679 0 1
9.3980 5.7730 0.0917 0.2615 0 1
9.3542 6.2768 0.0936 0.2896 0 1
9.2473 6.7586 0.0952 0.2848 0 1
9.1429 7.2628 0.0970 0.2776 0 1
9.1583 7.8948 0.1005 0.2438 0 2
8.8383 8.2600 0.1005 0.7057 0 2
8.6916 8.8026 0.1028 0.2154 0 2
8.7054 9.5549 0.1074 0.2062 0 2
8.7211 10.3800 0.1127 0.1966 0 2
8.7390 11.2923 0.1187 0.1867 0 2
6.4531 9.0684 0.0925 0.2145 22 6
8.7833 13.4554 0.1335 0.1659 0 2
8.7324 14.6284 0.1416 0.8553 0 3
8.2576 15.1867 0.1437 0.4614 0 3
8.2429 16.7264 0.1550 0.4278 0 3
8.2256 18.5321 0.1685 0.3934 0 3
8.8939 22.4246 0.2005 0.1093 0 3
8.4572 24.1047 0.2123 0.9414 0 3
8.1537 26.6140 0.2313 0.2868 0 3
9.2906 35.3307 0.3036 0.0730 0 2
3.1141 14.1252 0.1202 0.5043 0 9
3.3355 24.2486 0.2034 0.1067 0 9
1.3912 14.3638 0.1199 0.6426 0 9
0.4245 26.1085 0.2170 0.4107 0 9
-31.8332 37.3067 0.4076 0.6076 0 3
-30.0949 32.5292 0.3683 0.2194 0 3
-30.0870 30.0091 0.3532 0.2354 0 3
-30.2181 27.8118 0.3413 0.6818 0 3
-31.7390 26.9407 0.3460 0.7158 0 3
-35.3676 27.6570 0.3732 0.6210 0 3
-30.0266 21.5959 0.3074 0.2659 0 3
-30.2412 19.9588 0.3011 0.2732 0 3
-29.8459 18.0213 0.2898 0.5142 0 3
-29.8273 16.4139 0.2830 0.7530 0 3
-35.5818 17.7587 0.3305 0.4522 0 3
-36.3617 -33.3017 0.4098 0.5441 0 20
-34.7089 -34.4496 0.4064 0.8729 0 20
-33.9163 -36.4797 0.4140 0.8570 0 20
5.7664 -42.6961 0.3581 0.9924 0 3
7.9499 -45.1234 0.3808 0.1600 0 3
5.3732 -24.6600 0.2098 0.9955 0 6
8.4912 -32.6157 0.2801 0.9730 0 3
8.5342 -28.1022 0.2441 0.9480 0 3
9.0689 -26.0524 0.2293 0.0966 0 2
8.9935 -22.8391 0.2040 0.1086 0 2
8.9340 -20.2621 0.1840 0.1204 0 2
8.8858 -18.1431 0.1679 0.1319 0 2
8.8461 -16.3646 0.1546 0.1433 0 2
9.1141 -14.0373 0.1391 0.1555 0 1
9.0976 -12.8513 0.1309 0.1745 0 1
9.0930 -11.8095 0.1239 0.1823 0 1
9.0792 -10.8603 0.1177 0.1900 0 1
9.0460 -9.9778 0.1119 0.1997 0 1
8.9943 -9.1539 0.1067 0.2019 0 1
8.9551 -8.4104 0.1021 0.2257 0 1
8.9340 -7.7398 0.0982 0.2346 0 1
8.9241 -7.1248 0.0949 0.2462 0 1
8.9343 -6.5635 0.0921 0.2766 0 1
6.2440 -4.2120 0.0626 0.9947 14 6
8.6613 -5.3498 0.0846 0.2625 0 25
8.6552 -4.8774 0.0826 0.2690 0 25
8.6498 -4.4266 0.0808 0.2751 0 25
8.6450 -3.9948 0.0792 0.2807 0 25
8.6408 -3.5793 0.0777 0.2858 0 25
8.6371 -3.1780 0.0765 0.2904 0 25
8.6339 -2.7887 0.0754 0.2946 0 25
8.6311 -2.4099 0.0745 0.2983 0 25
8.9396 -2.1132 0.0763 0.3009 0 1
8.9226 -1.7343 0.0755 0.3042 0 24
4.1431 -0.6339 0.0348 0.2602 25 14
3.9604 -0.4442 0.0331 0.9668 25 14
3.9368 -0.2821 0.0328 0.9690 25 14
3.9109 -0.1228 0.0325 0.9774 25 14
3.8916 0.0341 0.0323 0.9827 25 14
3.9167 0.1917 0.0326 0.9753 25 14
3.9422 0.3520 0.0329 0.9663 25 14
3.9639 0.5150 0.0332 0.9639 25 14
9.1590 1.5661 0.0772 0.2983 0 1
9.1955 1.9551 0.0781 0.2948 0 1
9.2367 2.3550 0.0792 0.2900 0 1
9.2809 2.7674 0.0805 0.2854 0 1
9.3271 3.1941 0.0819 0.2804 0 1
9.3741 3.6368 0.0836 0.2727 0 1
9.4179 4.0959 0.0854 0.2670 0 1
9.4177 4.5537 0.0869 0.2761 0 1
9.4103 5.0257 0.0887 0.2708 0 1
9.4031 5.5180 0.0906 0.2649 0 1
9.3923 6.0311 0.0928 0.2584 0 1
9.3015 6.5144 0.0944 0.2873 0 1
9.1929 7.0047 0.0961 0.2823 0 1
9.0977 7.5280 0.0981 0.2745 0 1
9.1464 8.2086 0.1021 0.2398 0 2
8.6853 8.4482 0.1007 0.2200 0 2
8.6983 9.1684 0.1050 0.2109 0 2
8.7129 9.9554 0.1100 0.2015 0 2
8.7297 10.8218 0.1156 0.1917 0 2
6.7122 9.0407 0.0936 0.6436 22 6
8.7709 12.8618 0.1294 0.1712 0 2
8.7966 14.0823 0.1380 0.1605 0 2
8.3679 14.6759 0.1404 0.8655 0 3
8.2506 15.9234 0.1491 0.4448 0 3
8.2347 17.5868 0.1614 0.4108 0 3
8.0544 19.1699 0.1728 0.3761 0 3
9.0088 24.1082 0.2139 0.9344 0 3
8.0041 24.3595 0.2131 0.3050 0 3
8.1345 28.5767 0.2469 0.2687 0 3
8.7279 36.1072 0.3087 0.9722 0 6
2.8660 14.3575 0.1217 0.1323 0 9
1.8399 15.6902 0.1313 0.6822 0 9
1.9484 25.3919 0.2117 0.1824 0 9
0.8607 23.6114 0.1964 0.7822 0 9
-30.0760 31.2339 0.3604 0.2216 0 3
-30.1348 28.8797 0.3469 0.2458 0 3
-31.5695 27.9121 0.3502 0.9553 0 3
-33.9448 27.6660 0.3640 0.6367 0 3
-30.0133 22.5189 0.3119 0.2621 0 3
-30.2322 20.8406 0.3052 0.2676 0 3
-29.8630 18.8642 0.2936 0.2119 0 3
-29.8353 17.2115 0.2863 0.7443 0 3
-34.2500 17.9662 0.3214 0.2894 0 3
-37.0721 17.5868 0.3410 0.9489 0 3
-35.0969 -33.4563 0.4030 0.8803 0 20
-34.3183 -35.4500 0.4101 0.8651 0 20
7.2692 -36.9283 0.3128 0.0531 0 3
8.3370 -2.5082 -0.0241 0.3070 0 25
8.6197 -2.2202 -0.0247 0.3103 0 2
8.6455 -1.8603 -0.0245 0.3137 0 1
8.6600 -1.5026 -0.0244 0.3156 0 1
3.9562 -0.5239 -0.0111 0.9655 25 14
3.9462 -0.3621 -0.0110 0.9652 25 14
3.9201 -0.2015 -0.0109 0.9744 25 14
3.8944 -0.0437 -0.0108 0.9820 25 14
3.9008 0.1129 -0.0108 0.9801 25 14
3.9261 0.2717 -0.0109 0.9718 25 14
3.9508 0.4333 -0.0110 0.9695 25 14
3.9986 0.6018 -0.0112 0.3081 25 14
8.8631 1.7002 -0.0250 0.3071 0 1
8.8952 2.0797 -0.0253 0.3026 0 1
8.9324 2.4704 -0.0257 0.2982 0 1
8.9706 2.8732 -0.0261 0.2934 0 1
9.0088 3.2896 -0.0266 0.2860 0 1
9.0431 3.7200 -0.0271 0.2805 0 1
9.0783 4.1680 -0.0277 0.2892 0 1
9.0650 4.6111 -0.0282 0.2840 0 1
9.0510 5.0711 -0.0287 0.2784 0 1
9.0340 5.5494 -0.0294 0.2720 0 1
9.0143 6.0486 -0.0301 0.2657 0 1
8.9184 6.5182 -0.0306 0.2953 0 1
8.8101 6.9984 -0.0312 0.2880 0 1
8.7141 7.5119 -0.0319 0.2817 0 1
8.7448 8.1726 -0.0332 0.2467 0 2
8.2896 8.3954 -0.0327 0.2253 0 2
8.2833 9.0916 -0.0341 0.2167 0 2
8.2786 9.8534 -0.0357 0.2071 0 2
8.2733 10.6905 -0.0374 0.1972 0 2
6.4400 9.0501 -0.0308 0.9831 22 6
8.2601 12.6539 -0.0419 0.1764 0 2
8.2519 13.8235 -0.0446 0.1656 0 2
8.2424 15.1586 -0.0478 0.1545 0 2
8.2311 16.7024 -0.0516 0.1431 0 2
8.2176 18.5141 -0.0561 0.1316 0 2
8.2009 20.6772 -0.0616 0.1198 0 2
8.1805 23.3159 -0.0685 0.1079 0 2
8.1546 26.6171 -0.0771 0.0957 0 2
8.1211 30.8830 -0.0885 0.0835 0 2
8.0750 36.6273 -0.1039 0.0711 0 2
8.3781 46.8803 -0.1319 0.0725 0 1
2.5367 26.1909 -0.0729 0.0502 0 9
1.2723 22.5328 -0.0625 0.2177 0 6
-29.8015 37.9072 -0.1336 0.6615 0 3
-31.6498 37.0917 -0.1351 0.6112 0 3
-31.4061 31.3248 -0.1229 0.6674 0 3
-31.3904 28.8907 -0.1182 0.6939 0 3
-31.5836 26.8087 -0.1148 0.7194 0 3
-35.3662 27.6559 -0.1244 0.6210 0 3
-31.3259 22.5304 -0.1069 0.7667 0 3
-31.3137 20.6667 -0.1039 0.7885 0 3
-31.3020 18.9005 -0.1013 0.8090 0 3
-29.6298 16.3052 -0.0937 0.8657 0 3
-35.5814 17.7585 -0.1102 0.4985 0 3
-36.2222 -33.1740 -0.1361 0.3947 0 20
-34.5815 -34.3231 -0.1350 0.8802 0 20
-33.5385 -36.0733 -0.1365 0.9273 0 20
2.0996 -38.8810 -0.1079 0.5117 0 6
7.9418 -45.0775 -0.1268 0.8661 0 3
5.3997 -24.7817 -0.0703 0.7842 0 6
8.1187 -31.1848 -0.0893 0.0827 0 2
8.1531 -26.8472 -0.0777 0.0950 0 2
8.1794 -23.4971 -0.0689 0.1071 0 2
8.2000 -20.8240 -0.0620 0.1191 0 2
8.2167 -18.6353 -0.0564 0.1309 0 2
8.2303 -16.8047 -0.0518 0.1424 0 2
8.6936 -16.0824 -0.0506 0.1690 0 2
8.5542 -14.4101 -0.0464 0.1553 0 1
8.5594 -13.1829 -0.0435 0.1738 0 1
8.5794 -12.1194 -0.0411 0.1851 0 1
8.5960 -11.1640 -0.0390 0.1929 0 1
8.6031 -10.2908 -0.0372 0.2005 0 1
8.5824 -9.4664 -0.0354 0.2027 0 1
8.5639 -8.7158 -0.0339 0.2269 0 1
8.5578 -8.0373 -0.0325 0.2362 0 1
8.5564 -7.4126 -0.0314 0.2483 0 1
8.5772 -6.8478 -0.0304 0.2794 0 1
8.5309 -6.2672 -0.0293 0.2728 0 24
6.2168 -4.1937 -0.0208 0.8093 14 6
8.3280 -5.1439 -0.0271 0.2731 0 25
8.3299 -4.6940 -0.0265 0.2795 0 25
8.3316 -4.2638 -0.0259 0.2856 0 25
8.3331 -3.8507 -0.0254 0.2912 0 25
8.3344 -3.4524 -0.0250 0.2963 0 25
8.3355 -3.0670 -0.0246 0.3009 0 25
8.3365 -2.6927 -0.0243 0.3051 0 25
8.3404 -2.3287 -0.0240 0.3010 0 2
8.6385 -2.0420 -0.0246 0.3123 0 1
8.6243 -1.6763 -0.0243 0.3144 0 24
4.0648 -0.6220 -0.0114 0.2652 25 14
3.9518 -0.4432 -0.0110 0.9689 25 14
3.9331 -0.2818 -0.0109 0.9699 25 14
3.9073 -0.1227 -0.0108 0.9784 25 14
3.8883 0.0341 -0.0108 0.9836 25 14
3.9134 0.1915 -0.0109 0.9762 25 14
3.9388 0.3517 -0.0110 0.9672 25 14
3.9554 0.5139 -0.0111 0.9660 25 14
5.4891 0.9386 -0.0154 0.0021 25 14
8.8789 1.8878 -0.0251 0.3053 0 1
8.9136 2.2726 -0.0255 0.3005 0 1
8.9513 2.6691 -0.0259 0.2959 0 1
8.9900 3.0787 -0.0263 0.2909 0 1
9.0257 3.5016 -0.0268 0.2833 0 1
9.0607 3.9406 -0.0274 0.2776 0 1
