ply
format ascii 1.0
element vertex 1373
property float32 x
property float32 y
property float32 z
property float32 CosAngle
property uint32 ObjIdx
property uint32 ObjTag
end_header
-31.3244 22.3007 -0.1065 0.7693 0 3
-31.3122 20.4455 -0.1036 0.7911 0 3
-31.3006 18.6867 -0.1010 0.8115 0 3
-31.2895 17.0116 -0.0987 0.8306 0 3
-36.0398 17.7548 -0.1113 0.4476 0 3
-35.3277 -32.8651 -0.1337 0.4018 0 20
-34.4276 -34.7138 -0.1354 0.8772 0 20
5.6183 -38.7069 -0.1084 0.9445 0 6
8.0193 -42.9999 -0.1212 0.1663 0 3
7.8395 -34.3133 -0.0975 0.5441 0 3
8.1284 -29.9697 -0.0860 0.0858 0 2
8.1605 -25.9133 -0.0753 0.0981 0 2
8.1852 -22.7535 -0.0670 0.1102 0 2
8.2047 -20.2153 -0.0604 0.1222 0 2
8.2205 -18.1255 -0.0551 0.1339 0 2
8.2336 -16.3698 -0.0508 0.1455 0 2
8.5491 -14.0542 -0.0456 0.1582 0 1
8.5638 -12.8813 -0.0429 0.1766 0 1
8.5852 -11.8503 -0.0405 0.1857 0 1
8.5998 -10.9176 -0.0385 0.1955 0 1
8.6004 -10.0581 -0.0367 0.2033 0 1
8.5728 -9.2454 -0.0349 0.2055 0 1
8.5621 -8.5194 -0.0335 0.2296 0 1
8.5561 -7.8543 -0.0322 0.2388 0 1
8.5574 -7.2433 -0.0311 0.2507 0 1
8.5868 -6.6944 -0.0302 0.2816 0 1
8.6189 -6.1786 -0.0294 0.2892 0 1
6.2527 -4.1119 -0.0207 0.7714 14 6
8.3286 -5.0093 -0.0269 0.2750 0 25
8.3305 -4.5645 -0.0263 0.2814 0 25
8.3321 -4.1387 -0.0258 0.2873 0 25
8.3335 -3.7293 -0.0253 0.2928 0 25
8.3348 -3.3343 -0.0249 0.2977 0 25
8.3359 -2.9516 -0.0245 0.3023 0 25
8.3368 -2.5796 -0.0242 0.3063 0 25
8.4058 -2.2347 -0.0241 0.3175 0 2
8.6428 -1.9291 -0.0245 0.3131 0 1
8.6573 -1.5697 -0.0244 0.3153 0 1
3.9579 -0.5543 -0.0111 0.9641 25 14
3.9490 -0.3918 -0.0110 0.9709 25 14
3.9248 -0.2305 -0.0109 0.9728 25 14
3.8990 -0.0719 -0.0108 0.9808 25 14
3.8964 0.0850 -0.0108 0.9814 25 14
3.9216 0.2436 -0.0109 0.9734 25 14
3.9473 0.4051 -0.0110 0.9639 25 14
3.9585 0.5680 -0.0111 0.9635 25 14
8.8578 1.6370 -0.0250 0.3077 0 1
8.8897 2.0157 -0.0253 0.3041 0 1
8.9262 2.4053 -0.0256 0.2990 0 1
8.9644 2.8069 -0.0260 0.2942 0 1
9.0034 3.2222 -0.0265 0.2868 0 1
7.3218 24.6586 -0.3563 0.1036 0 2
7.1783 28.3010 -0.4045 0.0913 0 2
6.9878 33.0823 -0.4684 0.0788 0 2
7.1174 41.9833 -0.5899 0.0696 0 1
2.0066 15.6282 -0.2183 0.9866 0 9
2.3697 27.0253 -0.3758 0.6856 0 9
1.2789 27.0611 -0.3753 0.9463 0 9
0.1029 14.7181 -0.2039 0.2992 0 9
-30.4789 37.9225 -0.6740 0.7345 0 3
-32.8520 37.6660 -0.6924 0.7578 0 3
-31.4553 33.2631 -0.6342 0.6509 0 3
-16.8038 16.3951 -0.3252 0.2435 0 6
-31.4362 28.2948 -0.5859 0.7045 0 3
-33.3448 27.6678 -0.6002 0.6434 0 3
-36.1918 27.6496 -0.6309 0.6121 0 3
-31.4074 22.0519 -0.5316 0.7764 0 3
-35.1978 22.6559 -0.5799 0.5466 0 3
-31.3911 18.4635 -0.5045 0.8181 0 3
-32.6936 17.4991 -0.5137 0.2671 0 3
-36.6322 17.7501 -0.5639 0.4418 0 3
-35.1676 -33.1476 -0.6695 0.9481 0 20
-34.1129 -34.8491 -0.6755 0.9396 0 20
6.5751 -43.3052 -0.6068 0.0608 0 2
6.8856 -35.6271 -0.5027 0.0734 0 2
7.1037 -30.1828 -0.4295 0.0859 0 2
7.2651 -26.1101 -0.3754 0.0983 0 2
7.3891 -22.9395 -0.3339 0.1106 0 2
7.4873 -20.3940 -0.3010 0.1227 0 2
7.5667 -18.2993 -0.2743 0.1346 0 2
7.6323 -16.5402 -0.2523 0.1463 0 2
8.1208 -15.8860 -0.2472 0.1737 0 2
8.0044 -14.2166 -0.2260 0.1528 0 1
8.0446 -13.0323 -0.2122 0.1783 0 1
8.0899 -11.9977 -0.2005 0.1899 0 1
8.1302 -11.0692 -0.1903 0.1979 0 1
8.1653 -10.2277 -0.1813 0.2076 0 1
8.1699 -9.4291 -0.1728 0.2223 0 1
8.1806 -8.7076 -0.1655 0.2321 0 1
8.1897 -8.0430 -0.1590 0.2416 0 1
8.2018 -7.4308 -0.1533 0.2770 0 1
8.2458 -6.8875 -0.1488 0.2854 0 1
8.2867 -6.3738 -0.1448 0.2933 0 1
6.2382 -4.4105 -0.1058 0.6232 14 6
6.3164 -4.0949 -0.1043 0.5810 14 6
8.0236 -4.7546 -0.1292 0.2866 0 25
8.0319 -4.3328 -0.1264 0.2929 0 25
8.0392 -3.9279 -0.1239 0.2987 0 25
8.0458 -3.5376 -0.1218 0.3041 0 25
8.0516 -3.1601 -0.1198 0.3090 0 25
8.0566 -2.7936 -0.1181 0.3134 0 25
8.0610 -2.4366 -0.1167 0.3174 0 25
8.3489 -2.1612 -0.1195 0.3214 0 1
8.3647 -1.8097 -0.1186 0.3241 0 1
8.3804 -1.4630 -0.1178 0.3260 0 1
3.9479 -0.5266 -0.0552 0.9673 25 14
3.9391 -0.3649 -0.0548 0.9739 25 14
3.9169 -0.2044 -0.0543 0.9750 25 14
3.8912 -0.0463 -0.0539 0.9827 25 14
3.8972 0.1105 -0.0540 0.9809 25 14
3.9224 0.2694 -0.0545 0.9727 25 14
3.9423 0.4307 -0.0549 0.9715 25 14
3.9516 0.5934 -0.0554 0.9642 25 14
8.5696 1.6417 -0.1209 0.3176 0 1
8.5971 2.0086 -0.1223 0.3139 0 1
8.6283 2.3856 -0.1240 0.3087 0 1
8.6604 2.7740 -0.1260 0.3039 0 1
8.6890 3.1739 -0.1281 0.2964 0 1
8.7161 3.5874 -0.1306 0.2909 0 1
8.7437 4.0173 -0.1333 0.2850 0 1
8.7408 4.4502 -0.1359 0.2945 0 1
8.7209 4.8914 -0.1385 0.2889 0 1
8.6968 5.3488 -0.1414 0.2825 0 1
8.6700 5.8255 -0.1447 0.2761 0 1
8.6100 6.3023 -0.1478 0.3057 0 1
8.4987 6.7622 -0.1505 0.2984 0 1
8.3991 7.2535 -0.1537 0.2920 0 1
8.3865 7.8532 -0.1592 0.2570 0 2
8.1620 8.2839 -0.1611 0.8003 0 2
7.8997 8.6907 -0.1627 0.2269 0 2
7.8782 9.4005 -0.1699 0.2173 0 2
7.8538 10.1764 -0.1781 0.2073 0 2
6.4501 9.0915 -0.1544 0.5706 22 6
7.7944 11.9798 -0.1980 0.1865 0 2
7.7579 13.0430 -0.2102 0.1756 0 2
7.7155 14.2466 -0.2244 0.1645 0 2
7.6658 15.6249 -0.2411 0.1531 0 2
7.6069 17.2244 -0.2608 0.1415 0 2
7.5362 19.1095 -0.2846 0.1297 0 2
7.4495 21.3712 -0.3135 0.1177 0 2
7.3419 24.1465 -0.3496 0.1056 0 2
7.2043 27.6442 -0.3957 0.0933 0 2
7.0229 32.2060 -0.4566 0.0808 0 2
2.4676 13.9998 -0.1969 0.1805 0 9
2.1102 15.6258 -0.2184 0.8826 0 9
1.4770 27.4467 -0.3808 0.2896 0 9
0.1998 14.7673 -0.2046 0.9849 0 9
-31.5551 36.6601 -0.6701 0.7620 0 3
-30.4588 32.6340 -0.6184 0.7774 0 3
-16.5405 16.3506 -0.3222 0.6900 0 6
-31.4377 28.6703 -0.5894 0.7003 0 3
-32.9080 27.6706 -0.5956 0.6484 0 3
-35.7095 27.6527 -0.6257 0.6173 0 3
-31.4088 22.3608 -0.5341 0.7728 0 3
-34.7023 22.6591 -0.5741 0.5520 0 3
-31.3924 18.7415 -0.5065 0.8150 0 3
-36.4360 19.8097 -0.5745 0.8341 0 3
-36.0379 17.7539 -0.5565 0.4476 0 3
-39.9664 17.7287 -0.6057 0.4113 0 3
-40.5041 16.0501 -0.6035 0.3743 0 3
-35.3372 -32.8740 -0.6686 0.9493 0 20
-34.2856 -34.5705 -0.6745 0.9411 0 20
6.5118 -44.8626 -0.6280 0.0588 0 2
6.8427 -36.6910 -0.5170 0.0714 0 2
5.6356 -24.6670 -0.3505 0.8240 0 6
7.2418 -26.7009 -0.3832 0.0963 0 2
7.3710 -23.4063 -0.3399 0.1086 0 2
7.4728 -20.7732 -0.3058 0.1207 0 2
7.5549 -18.6142 -0.2783 0.1327 0 2
7.6224 -16.8068 -0.2556 0.1444 0 2
8.1014 -16.1070 -0.2498 0.1719 0 2
8.0090 -14.4448 -0.2288 0.1509 0 1
8.0369 -13.2122 -0.2142 0.1766 0 1
8.0818 -12.1562 -0.2022 0.1883 0 1
8.1240 -11.2137 -0.1918 0.1962 0 1
8.1599 -10.3591 -0.1827 0.2061 0 1
8.1693 -9.5539 -0.1741 0.2061 0 1
8.1789 -8.8206 -0.1666 0.2305 0 1
8.1883 -8.1474 -0.1600 0.2400 0 1
8.1989 -7.5264 -0.1542 0.2526 0 1
8.2388 -6.9737 -0.1495 0.2841 0 1
8.2803 -6.4555 -0.1454 0.2920 0 1
8.2943 -5.9459 -0.1414 0.2518 0 1
6.2525 -4.1118 -0.1037 0.9797 14 6
8.0221 -4.8249 -0.1297 0.2855 0 25
8.0306 -4.4002 -0.1269 0.2919 0 25
8.0381 -3.9926 -0.1243 0.2978 0 25
8.0448 -3.6001 -0.1221 0.3032 0 25
8.0507 -3.2206 -0.1201 0.3082 0 25
8.0558 -2.8525 -0.1184 0.3127 0 25
8.0603 -2.4940 -0.1169 0.3168 0 25
8.3465 -2.2189 -0.1196 0.3200 0 1
8.3620 -1.8664 -0.1187 0.3237 0 1
8.3779 -1.5191 -0.1179 0.3258 0 1
3.9493 -0.5531 -0.0552 0.9661 25 14
3.9405 -0.3910 -0.0549 0.9729 25 14
3.9211 -0.2303 -0.0544 0.9736 25 14
3.8953 -0.0718 -0.0540 0.9816 25 14
3.8931 0.0849 -0.0539 0.9821 25 14
3.9183 0.2434 -0.0544 0.9741 25 14
3.9408 0.4045 -0.0549 0.9725 25 14
3.9501 0.5668 -0.0553 0.9655 25 14
8.5651 1.5829 -0.1207 0.3182 0 1
8.5926 1.9484 -0.1221 0.3145 0 1
8.6231 2.3236 -0.1237 0.3095 0 1
8.6552 2.7101 -0.1256 0.3047 0 1
8.6846 3.1081 -0.1278 0.2973 0 1
6.6477 22.3882 -0.5824 0.1141 0 2
6.4373 25.3796 -0.6530 0.1018 0 2
6.1657 29.1900 -0.7440 0.0893 0 2
2.4222 14.2881 -0.3614 0.9770 0 9
2.0099 15.6543 -0.3936 0.6737 0 9
2.0477 23.3529 -0.5846 0.7821 0 9
1.2959 27.4208 -0.6846 0.0386 0 20
0.1009 14.4314 -0.3599 0.4098 0 9
-31.5297 36.1499 -1.1962 0.6259 0 3
-31.1153 32.9035 -1.1294 0.9711 0 3
-33.4775 32.6634 -1.1664 0.7027 0 3
-31.2798 28.1540 -1.0495 0.7079 0 3
-33.3436 27.6668 -1.0805 0.6433 0 3
-31.2772 23.8949 -0.9816 0.2895 0 3
-31.2656 21.9523 -0.9527 0.7798 0 3
-35.1963 22.6549 -1.0439 0.5465 0 3
-31.2564 18.3843 -0.9043 0.8215 0 3
-31.4572 16.8373 -0.8898 0.6322 0 3
-33.8204 16.3876 -0.9372 0.2623 0 3
-36.6185 15.9580 -0.9962 0.8226 0 3
-41.9175 16.2939 -1.1216 0.8186 0 3
-35.0587 -33.0450 -1.2015 0.9508 0 20
-33.9280 -34.6602 -1.2096 0.9730 0 20
5.0062 -45.1435 -1.1327 0.0587 0 2
5.6066 -36.9266 -0.9314 0.0713 0 2
6.0236 -31.1671 -0.7916 0.0839 0 2
6.3297 -26.8942 -0.6890 0.0964 0 2
6.5636 -23.5889 -0.6106 0.1088 0 2
6.7478 -20.9485 -0.5489 0.1211 0 2
6.8964 -18.7846 -0.4990 0.1332 0 2
7.0186 -16.9738 -0.4581 0.1451 0 2
7.5098 -16.2747 -0.4470 0.1732 0 2
7.4685 -14.6100 -0.4092 0.1468 0 1
7.4734 -13.2734 -0.3799 0.1760 0 24
7.5627 -12.2516 -0.3591 0.1924 0 24
7.6350 -11.3230 -0.3406 0.1999 0 24
7.6977 -10.4803 -0.3243 0.2094 0 24
7.7425 -9.6981 -0.3095 0.2185 0 24
7.7721 -8.9700 -0.2960 0.2294 0 24
7.7960 -8.2982 -0.2839 0.2435 0 24
7.8216 -7.6814 -0.2734 0.2583 0 24
7.8499 -7.1120 -0.2642 0.2705 0 24
7.9551 -6.6447 -0.2585 0.2957 0 1
8.0022 -6.1550 -0.2518 0.3036 0 1
6.2560 -4.4231 -0.1911 0.6405 14 6
6.3029 -4.0862 -0.1873 0.7683 14 6
7.7397 -4.5864 -0.2244 0.2970 0 25
7.7536 -4.1827 -0.2197 0.3033 0 25
7.7660 -3.7944 -0.2156 0.3091 0 25
7.7770 -3.4194 -0.2119 0.3145 0 25
7.7867 -3.0561 -0.2086 0.3194 0 25
7.7952 -2.7030 -0.2058 0.3239 0 25
7.8025 -2.3585 -0.2033 0.3279 0 2
8.0843 -2.0927 -0.2083 0.3319 0 1
8.0741 -1.7468 -0.2060 0.3343 0 24
4.1756 -0.7289 -0.1057 0.2572 25 14
3.9394 -0.5254 -0.0991 0.9692 25 14
3.9306 -0.3641 -0.0984 0.9758 25 14
3.9132 -0.2042 -0.0977 0.9757 25 14
3.8876 -0.0462 -0.0970 0.9834 25 14
3.8939 0.1104 -0.0971 0.9815 25 14
3.9191 0.2692 -0.0980 0.9733 25 14
3.9340 0.4298 -0.0987 0.9733 25 14
3.9432 0.5921 -0.0994 0.9660 25 14
8.2950 1.5891 -0.2106 0.3281 0 1
8.3185 1.9435 -0.2130 0.3243 0 1
8.3441 2.3071 -0.2159 0.3192 0 1
8.3699 2.6810 -0.2192 0.3120 0 1
8.3909 3.0650 -0.2228 0.3069 0 1
8.4116 3.4621 -0.2268 0.3014 0 1
8.4321 3.8742 -0.2314 0.2955 0 1
8.4389 4.2965 -0.2362 0.3050 0 1
8.4141 4.7193 -0.2406 0.2993 0 1
8.3839 5.1564 -0.2455 0.2929 0 1
8.3512 5.6113 -0.2509 0.2866 0 1
8.3157 6.0869 -0.2570 0.2798 0 1
8.2101 6.5326 -0.2617 0.3088 0 1
8.1079 7.0020 -0.2672 0.3024 0 1
8.0001 7.4914 -0.2733 0.2956 0 1
8.0008 8.1202 -0.2843 0.2597 0 2
7.6025 8.3637 -0.2819 0.8579 0 2
7.5147 8.9668 -0.2918 0.2277 0 2
6.9171 8.9626 -0.2823 0.9099 22 6
6.4742 9.1255 -0.2790 0.5684 22 6
7.3785 11.3406 -0.3374 0.1969 0 2
7.3198 12.3065 -0.3571 0.1861 0 2
7.2521 13.3910 -0.3798 0.1750 0 2
7.1735 14.6214 -0.4062 0.1636 0 2
7.0811 16.0338 -0.4371 0.1520 0 2
6.9714 17.6774 -0.4739 0.1402 0 2
6.8393 19.6206 -0.5182 0.1282 0 2
6.6775 21.9614 -0.5724 0.1161 0 2
6.4750 24.8458 -0.6403 0.1038 0 2
6.2150 28.5010 -0.7275 0.0913 0 2
5.8696 33.3010 -0.8433 0.0788 0 2
2.1085 15.6136 -0.3929 0.9532 0 9
2.8914 30.6700 -0.7683 0.9060 0 20
1.4423 26.8020 -0.6694 0.7257 0 20
0.1942 14.3547 -0.3580 0.4119 0 9
-31.5300 36.6310 -1.2053 0.6212 0 3
-31.2864 33.5206 -1.1435 0.6497 0 3
-33.0455 32.6661 -1.1588 0.7074 0 3
-30.2916 27.6251 -1.0224 0.9620 0 3
-32.9068 27.6696 -1.0722 0.6483 0 3
-35.7081 27.6516 -1.1263 0.6172 0 3
-31.2662 22.2593 -0.9571 0.7762 0 3
-34.7008 22.6581 -1.0335 0.5519 0 3
-31.2572 18.6608 -0.9079 0.8183 0 3
-36.2828 19.7264 -1.0299 0.8374 0 3
-33.8302 16.6663 -0.9405 0.2614 0 3
-39.9641 17.7277 -1.0903 0.4112 0 3
-41.9183 16.6104 -1.1245 0.8166 0 3
-35.2280 -32.7723 -1.1999 0.9521 0 20
-34.1401 -34.4238 -1.2091 0.9734 0 20
4.8829 -46.8237 -1.1740 0.0566 0 2
5.5242 -38.0586 -0.9591 0.0693 0 2
5.9648 -31.9833 -0.8114 0.0819 0 2
5.6364 -24.6705 -0.6311 0.9437 0 6
6.5294 -24.0743 -0.6221 0.1068 0 2
6.7206 -21.3410 -0.5580 0.1191 0 2
6.8743 -19.1095 -0.5065 0.1312 0 2
7.0003 -17.2478 -0.4642 0.1431 0 2
7.4197 -16.3598 -0.4480 0.9818 0 2
7.4668 -14.8452 -0.4144 0.1449 0 1
7.5089 -13.5428 -0.3862 0.1767 0 1
7.5486 -12.4096 -0.3622 0.1907 0 24
7.6240 -11.4677 -0.3434 0.1982 0 24
7.6883 -10.6123 -0.3268 0.2085 0 24
7.7365 -9.8216 -0.3118 0.2168 0 24
7.7679 -9.0845 -0.2981 0.2275 0 24
7.7919 -8.4032 -0.2858 0.2417 0 24
7.8172 -7.7782 -0.2750 0.2549 0 24
7.8450 -7.2016 -0.2656 0.2690 0 24
7.9471 -6.7267 -0.2597 0.2944 0 1
7.9054 -6.1632 -0.2500 0.2884 0 24
7.7038 -5.5226 -0.2364 0.2819 0 25
6.2575 -4.1151 -0.1868 0.9826 14 6
7.7373 -4.6536 -0.2252 0.2959 0 25
7.7515 -4.2472 -0.2204 0.3023 0 25
7.7641 -3.8565 -0.2162 0.3082 0 25
7.7753 -3.4795 -0.2124 0.3137 0 25
7.7852 -3.1144 -0.2091 0.3187 0 25
7.7939 -2.7597 -0.2062 0.3232 0 25
7.8015 -2.4139 -0.2037 0.3272 0 25
8.0815 -2.1485 -0.2085 0.3314 0 1
8.0989 -1.8077 -0.2069 0.3342 0 1
8.1159 -1.4716 -0.2057 0.3362 0 1
3.9408 -0.5519 -0.0992 0.9680 25 14
3.9320 -0.3901 -0.0985 0.9748 25 14
3.9174 -0.2301 -0.0979 0.9743 25 14
3.8917 -0.0717 -0.0971 0.9823 25 14
3.8898 0.0848 -0.0970 0.9827 25 14
3.9150 0.2432 -0.0978 0.9748 25 14
3.9325 0.4036 -0.0986 0.9744 25 14
3.9417 0.5656 -0.0993 0.9673 25 14
8.2912 1.5323 -0.2103 0.3296 0 1
8.3147 1.8853 -0.2126 0.3250 0 1
8.3397 2.2473 -0.2154 0.3199 0 1
8.3664 2.6197 -0.2186 0.3127 0 1
8.3875 3.0018 -0.2222 0.3078 0 1
6.0868 20.4992 -0.7705 0.1246 0 2
5.8345 23.0030 -0.8551 0.1122 0 2
5.5163 26.1156 -0.9617 0.0998 0 2
5.1034 30.1038 -1.1001 0.0872 0 2
2.0184 15.7204 -0.5711 0.3161 0 9
2.2149 25.2592 -0.9136 0.9808 0 9
0.7310 15.4675 -0.5579 0.4891 0 9
-31.1067 38.7037 -1.7891 0.5998 0 3
-31.1132 35.6725 -1.7055 0.6292 0 3
-31.1183 32.9067 -1.6318 0.6576 0 3
-31.1221 30.3652 -1.5666 0.6849 0 3
-31.1248 28.0145 -1.5088 0.7112 0 3
-33.3423 27.6658 -1.5610 0.6431 0 3
-31.1274 23.7805 -1.4114 0.7603 0 3
-31.1249 21.8535 -1.3703 0.7830 0 3
-35.1948 22.6540 -1.5081 0.5463 0 3
-31.1229 18.3057 -1.3010 0.8247 0 3
-36.1303 19.3386 -1.4765 0.8436 0 3
-35.3875 17.1469 -1.4168 0.2517 0 3
-40.6666 17.7221 -1.5983 0.4052 0 3
-43.5536 16.9299 -1.6836 0.2661 0 3
-35.1339 -33.1159 -1.7396 0.9788 0 20
-33.8346 -34.5648 -1.7427 0.9770 0 20
3.3116 -47.0892 -1.7008 0.0564 0 2
4.2454 -38.2825 -1.3878 0.0692 0 2
4.8864 -32.1835 -1.1729 0.0818 0 2
5.3531 -27.6978 -1.0164 0.0944 0 2
5.7075 -24.2504 -0.8976 0.1069 0 2
5.9853 -21.5106 -0.8045 0.1193 0 2
6.2086 -19.2747 -0.7296 0.1315 0 2
6.3917 -17.4100 -0.6682 0.1436 0 2
6.8320 -16.5223 -0.6442 0.9968 0 2
6.9171 -14.9904 -0.5948 0.1458 0 1
6.9939 -13.6815 -0.5536 0.1791 0 1
7.1026 -12.6148 -0.5216 0.1889 0 1
7.1979 -11.6607 -0.4937 0.2022 0 1
7.2822 -10.7997 -0.4693 0.2117 0 1
7.3548 -10.0135 -0.4476 0.2220 0 1
7.4082 -9.2793 -0.4278 0.2259 0 1
7.4517 -8.6002 -0.4100 0.2357 0 1
7.4925 -7.9751 -0.3943 0.2599 0 1
7.5528 -7.4174 -0.3814 0.2782 0 1
7.5583 -6.8479 -0.3675 0.2820 0 24
7.5981 -6.3466 -0.3567 0.2913 0 24
7.7032 -5.9250 -0.3502 0.2483 0 1
6.2738 -4.4356 -0.2768 0.6385 14 6
6.2977 -4.0828 -0.2704 0.7687 14 6
7.4751 -4.4296 -0.3131 0.3074 0 25
7.4938 -4.0426 -0.3068 0.3137 0 25
7.5106 -3.6696 -0.3012 0.3195 0 25
7.5254 -3.3088 -0.2962 0.3249 0 25
7.5386 -2.9588 -0.2918 0.3298 0 25
7.5501 -2.6180 -0.2879 0.3343 0 25
7.5610 -2.2855 -0.2846 0.3395 0 2
7.8359 -2.0284 -0.2916 0.3423 0 1
7.8279 -1.6936 -0.2886 0.3450 0 24
4.1027 -0.7162 -0.1501 0.2989 25 14
3.9309 -0.5243 -0.1429 0.9710 25 14
3.9222 -0.3633 -0.1419 0.9776 25 14
3.9095 -0.2040 -0.1411 0.9763 25 14
3.8839 -0.0462 -0.1399 0.9840 25 14
3.8906 0.1103 -0.1402 0.9820 25 14
3.9158 0.2689 -0.1414 0.9738 25 14
3.9256 0.4288 -0.1423 0.9751 25 14
3.9348 0.5908 -0.1434 0.9678 25 14
8.0380 1.5399 -0.2949 0.3395 0 1
8.0572 1.8824 -0.2981 0.3348 0 1
8.0779 2.2335 -0.3020 0.3296 0 1
8.0965 2.5934 -0.3063 0.3224 0 1
8.1125 2.9633 -0.3112 0.3173 0 1
8.1276 3.3452 -0.3167 0.3118 0 1
8.1418 3.7408 -0.3228 0.3059 0 1
8.1551 4.1520 -0.3297 0.2995 0 1
8.1276 4.5586 -0.3358 0.3093 0 1
8.0927 4.9772 -0.3423 0.3034 0 1
8.0548 5.4122 -0.3496 0.2970 0 1
8.0137 5.8658 -0.3578 0.2902 0 1
7.9404 6.3180 -0.3656 0.3213 0 1
7.8361 6.7672 -0.3730 0.3128 0 1
7.7259 7.2346 -0.3814 0.3060 0 1
7.5905 8.3505 -0.4066 0.8597 0 2
7.1837 8.5718 -0.4030 0.2386 0 2
6.8902 8.9278 -0.4063 0.7873 22 6
6.4985 9.1597 -0.4047 0.5661 22 6
7.0046 10.7659 -0.4628 0.2074 0 2
6.9284 11.6484 -0.4883 0.1965 0 2
6.8411 12.6319 -0.5176 0.1854 0 2
6.7403 13.7385 -0.5514 0.1741 0 2
6.6231 14.9966 -0.5907 0.1625 0 2
6.4852 16.4444 -0.6369 0.1507 0 2
6.3211 18.1339 -0.6919 0.1387 0 2
6.1229 20.1375 -0.7584 0.1265 0 2
5.8794 22.5602 -0.8400 0.1142 0 2
5.5735 25.5591 -0.9425 0.1018 0 2
5.1786 29.3808 -1.0749 0.0893 0 2
1.9147 14.1786 -0.5155 0.2134 0 9
2.8594 30.3298 -1.0976 0.5367 0 20
1.4420 26.7960 -0.9669 0.9976 0 20
0.2264 16.7334 -0.6030 0.1654 0 9
-0.4127 15.4500 -0.5569 0.8442 0 9
-31.1123 36.1456 -1.7183 0.6245 0 3
-31.1176 33.3398 -1.6432 0.6530 0 3
-31.1216 30.7643 -1.5767 0.6806 0 3
-18.1228 16.5275 -0.8837 0.5531 0 6
-32.9056 27.6686 -1.5490 0.6481 0 3
-29.2612 22.6592 -1.3334 0.9333 0 3
-31.1249 22.1587 -1.3766 0.7794 0 3
-34.6993 22.6571 -1.4931 0.5518 0 3
-31.1232 18.5808 -1.3060 0.8215 0 3
-36.1307 19.6437 -1.4818 0.8407 0 3
-35.4029 17.4410 -1.4220 0.2508 0 3
-39.9620 17.7268 -1.5751 0.4532 0 3
-43.5679 17.2641 -1.6885 0.2653 0 3
-35.3446 -32.8808 -1.7393 0.9789 0 20
-34.0460 -34.3290 -1.7420 0.9774 0 20
2.4720 -38.7707 -1.3998 0.9977 0 6
4.1180 -39.4884 -1.4305 0.0671 0 2
4.7964 -33.0443 -1.2031 0.0798 0 2
5.2862 -28.3446 -1.0389 0.0924 0 2
4.2370 -18.5452 -0.6854 0.7045 0 6
5.9444 -21.9171 -0.8182 0.1173 0 2
6.1754 -19.6098 -0.7408 0.1296 0 2
6.3643 -17.6918 -0.6774 0.1417 0 2
6.7212 -16.5600 -0.6439 0.9972 0 2
6.9113 -15.2388 -0.6029 0.1400 0 1
6.9740 -13.8656 -0.5592 0.1773 0 1
7.0863 -12.7806 -0.5265 0.1871 0 1
7.1825 -11.8077 -0.4980 0.2005 0 1
7.2695 -10.9344 -0.4731 0.2100 0 1
7.3435 -10.1364 -0.4510 0.2203 0 1
7.4006 -9.3951 -0.4309 0.2243 0 1
7.4450 -8.7068 -0.4128 0.2342 0 1
7.4841 -8.0713 -0.3966 0.2437 0 1
7.5417 -7.5040 -0.3833 0.2768 0 1
7.5516 -6.9323 -0.3693 0.2806 0 24
7.5919 -6.4261 -0.3584 0.2899 0 24
7.7137 -6.0138 -0.3524 0.2530 0 1
7.4269 -5.3240 -0.3292 0.2923 0 25
6.2686 -4.1224 -0.2703 0.9192 14 6
7.4719 -4.4940 -0.3142 0.3064 0 25
7.4909 -4.1045 -0.3078 0.3127 0 25
7.5080 -3.7293 -0.3020 0.3186 0 25
7.5231 -3.3667 -0.2970 0.3241 0 25
7.5366 -3.0150 -0.2925 0.3291 0 25
7.5484 -2.6728 -0.2885 0.3336 0 25
7.5595 -2.3391 -0.2851 0.3391 0 2
7.8328 -2.0823 -0.2920 0.3418 0 1
7.8246 -1.7465 -0.2889 0.3446 0 24
4.1803 -0.7580 -0.1531 0.2565 25 14
3.9323 -0.5507 -0.1431 0.9698 25 14
3.9236 -0.3893 -0.1421 0.9766 25 14
3.9137 -0.2299 -0.1413 0.9749 25 14
3.8881 -0.0717 -0.1401 0.9829 25 14
3.8866 0.0848 -0.1401 0.9832 25 14
3.9117 0.2430 -0.1412 0.9753 25 14
3.9242 0.4027 -0.1421 0.9761 25 14
3.9333 0.5644 -0.1432 0.9691 25 14
4.4882 0.8294 -0.1644 0.0886 25 14
8.0240 1.8194 -0.2964 0.3348 0 24
8.0743 2.1757 -0.3013 0.3303 0 1
8.0938 2.5343 -0.3056 0.3232 0 1
8.1099 2.9024 -0.3104 0.3182 0 1
5.6128 18.9029 -0.9294 0.1350 0 2
5.3345 21.0320 -1.0226 0.1227 0 2
4.9903 23.6254 -1.1381 0.1103 0 2
4.5543 26.8646 -1.2842 0.0977 0 2
2.6482 20.6257 -0.9801 0.3617 0 20
2.2202 25.3197 -1.1979 0.9921 0 9
1.2663 26.7942 -1.2642 0.9976 0 20
-29.5442 36.7596 -2.2227 0.1448 0 3
-29.2457 33.5313 -2.0970 0.6324 0 3
-30.0345 31.7606 -2.0602 0.8988 0 3
-30.9627 30.2097 -2.0388 0.6881 0 3
-30.9712 27.8763 -1.9639 0.7144 0 3
-29.2033 24.2315 -1.7885 0.5769 0 3
-30.0051 22.9231 -1.7796 0.9746 0 3
-30.9853 21.7555 -1.7844 0.7862 0 3
-30.9884 19.9464 -1.7369 0.8077 0 3
-30.9904 18.2278 -1.6945 0.8279 0 3
-35.9799 19.2581 -1.9234 0.8468 0 3
-36.3090 17.5935 -1.9016 0.9338 0 3
-40.2729 17.5506 -2.0705 0.7869 0 3
-45.5083 17.6897 -2.3012 0.3679 0 3
-35.1938 -33.1723 -2.2794 0.9762 0 20
-33.6561 -34.3824 -2.2676 0.9813 0 20
1.8462 -26.2514 -1.2403 0.2807 0 20
3.6849 -33.2283 -1.5757 0.0796 0 2
4.3299 -28.5176 -1.3595 0.0923 0 2
4.8165 -24.9215 -1.1963 0.1049 0 2
4.3673 -18.5563 -0.8985 0.7027 0 6
5.5003 -19.7677 -0.9671 0.1297 0 2
5.7489 -17.8475 -0.8837 0.1420 0 2
6.1585 -16.7746 -0.8422 0.9987 0 2
6.3658 -15.3950 -0.7852 0.1405 0 1
6.4584 -13.9964 -0.7265 0.1784 0 1
6.6048 -12.9204 -0.6839 0.1884 0 1
6.7275 -11.9486 -0.6463 0.2020 0 1
6.8413 -11.0829 -0.6139 0.2127 0 1
6.9370 -10.2878 -0.5848 0.2221 0 1
7.0162 -9.5526 -0.5586 0.2262 0 1
7.0781 -8.8660 -0.5347 0.2364 0 1
7.1375 -8.2376 -0.5137 0.2608 0 1
7.2016 -7.6656 -0.4957 0.2703 0 1
7.2780 -7.1476 -0.4808 0.2885 0 1
7.3485 -6.6578 -0.4674 0.2968 0 1
7.3985 -6.1799 -0.4543 0.2626 0 1
7.1428 -5.4940 -0.4247 0.2943 0 2
6.2916 -4.4482 -0.3632 0.6364 14 6
6.3016 -4.0854 -0.3540 0.9791 14 6
7.2278 -4.2831 -0.3960 0.3178 0 25
7.2507 -3.9115 -0.3883 0.3241 0 25
7.2712 -3.5527 -0.3814 0.3299 0 25
7.2895 -3.2051 -0.3753 0.3353 0 25
7.3056 -2.8673 -0.3699 0.3402 0 25
7.3198 -2.5381 -0.3651 0.3446 0 25
7.4501 -2.2520 -0.3668 0.4286 0 2
7.6013 -1.9677 -0.3701 0.3502 0 1
7.6223 -1.6491 -0.3676 0.3561 0 1
4.0390 -0.7051 -0.1932 0.3035 25 14
3.9224 -0.5232 -0.1865 0.9726 25 14
3.9138 -0.3625 -0.1853 0.9792 25 14
3.9053 -0.2038 -0.1843 0.9842 25 14
3.8803 -0.0462 -0.1829 0.9845 25 14
3.8873 0.1102 -0.1833 0.9824 25 14
3.9084 0.2684 -0.1846 0.9824 25 14
3.9174 0.4279 -0.1857 0.9767 25 14
3.9264 0.5896 -0.1871 0.9694 25 14
4.7156 0.9034 -0.2263 0.0055 25 14
7.7823 1.8182 -0.3767 0.3447 0 24
7.8272 2.1642 -0.3827 0.3373 0 1
7.8402 2.5113 -0.3880 0.3328 0 1
7.8517 2.8681 -0.3940 0.3277 0 1
7.8619 3.2359 -0.4007 0.3222 0 1
7.8706 3.6162 -0.4082 0.3163 0 1
7.8779 4.0109 -0.4166 0.3099 0 1
7.8595 4.4083 -0.4247 0.3197 0 1
7.8207 4.8100 -0.4327 0.3138 0 1
7.7786 5.2266 -0.4417 0.3074 0 1
7.7327 5.6601 -0.4517 0.3006 0 1
7.6827 6.1130 -0.4627 0.2953 0 1
7.5826 6.5483 -0.4722 0.3275 0 1
7.4714 6.9963 -0.4824 0.3205 0 1
7.3535 7.4633 -0.4938 0.3131 0 1
7.3262 8.0598 -0.5133 0.2727 0 2
7.0908 8.4609 -0.5203 0.9092 0 2
6.8165 8.8323 -0.5258 0.2386 0 2
6.4814 9.1355 -0.5279 0.5385 22 6
6.6665 10.2462 -0.5761 0.2178 0 2
6.5764 11.0566 -0.6063 0.2069 0 2
6.4738 11.9538 -0.6407 0.1958 0 2
6.3562 12.9556 -0.6801 0.1845 0 2
6.2204 14.0848 -0.7257 0.1729 0 2
6.0620 15.3714 -0.7788 0.1611 0 2
5.8755 16.8556 -0.8413 0.1491 0 2
5.6530 18.5922 -0.9159 0.1370 0 2
5.3837 20.6583 -1.0062 0.1247 0 2
5.0516 23.1659 -1.1175 0.1123 0 2
4.6328 26.2842 -1.2579 0.0998 0 2
2.1141 15.6548 -0.7445 0.9498 0 9
2.0254 21.4835 -1.0170 0.8185 0 20
1.4420 26.7953 -1.2647 0.9972 0 20
-29.6417 37.3786 -2.2484 0.1480 0 3
-29.2436 33.9747 -2.1127 0.6277 0 3
-29.7884 31.9157 -2.0576 0.9121 0 3
-30.9611 30.6057 -2.0519 0.6838 0 3
-30.9700 28.2438 -1.9755 0.7102 0 3
-29.2189 24.5686 -1.7992 0.3380 0 3
-30.9829 23.9925 -1.8469 0.7596 0 3
-30.9847 22.0589 -1.7926 0.7826 0 3
-30.9880 20.2338 -1.7443 0.8043 0 3
-30.9902 18.5014 -1.7011 0.8247 0 3
-30.0104 16.3162 -1.6100 0.9218 0 3
-36.0322 17.7511 -1.8931 0.4472 0 3
-36.0624 15.9969 -1.8594 0.5017 0 3
-44.6559 17.6952 -2.2639 0.3740 0 3
-35.3053 -32.8443 -2.2727 0.1869 0 20
-33.9049 -34.1867 -2.2693 0.9805 0 20
1.6659 -26.1275 -1.2339 0.8972 0 20
3.5599 -34.1363 -1.6176 0.0776 0 2
4.2376 -29.1947 -1.3904 0.0902 0 2
4.7458 -25.4471 -1.2200 0.1028 0 2
4.2190 -18.4665 -0.8928 0.8711 0 6
5.4552 -20.1134 -0.9822 0.1277 0 2
5.7117 -18.1373 -0.8962 0.1400 0 2
6.0508 -16.8203 -0.8425 0.9983 0 2
6.3526 -15.6520 -0.7961 0.1386 0 1
6.4360 -14.1909 -0.7344 0.1544 0 1
6.5824 -13.0869 -0.6904 0.1877 0 1
6.7084 -12.0990 -0.6520 0.1976 0 1
6.8237 -11.2179 -0.6188 0.2109 0 1
6.9223 -10.4122 -0.5893 0.2204 0 1
7.0055 -9.6697 -0.5628 0.2246 0 1
7.0686 -8.9737 -0.5384 0.2347 0 1
7.1264 -8.3343 -0.5168 0.2593 0 1
7.1917 -7.7559 -0.4985 0.2688 0 1
7.2660 -7.2297 -0.4831 0.2871 0 1
7.3375 -6.7356 -0.4694 0.2955 0 1
7.3958 -6.2601 -0.4567 0.2612 0 1
7.1371 -5.5642 -0.4265 0.2927 0 2
7.1689 -5.1391 -0.4157 0.3027 0 25
6.2816 -4.1310 -0.3543 0.8064 14 6
6.7047 -4.0325 -0.3687 0.7077 14 6
7.2472 -3.9709 -0.3895 0.3231 0 25
7.2681 -3.6101 -0.3825 0.3290 0 25
7.2867 -3.2608 -0.3762 0.3344 0 25
7.3031 -2.9216 -0.3707 0.3394 0 25
7.3176 -2.5911 -0.3659 0.3439 0 25
7.3354 -2.2697 -0.3619 0.4345 0 2
7.5978 -2.0199 -0.3705 0.3498 0 1
7.5927 -1.6947 -0.3667 0.3550 0 24
4.1104 -0.7453 -0.1969 0.2978 25 14
3.9238 -0.5495 -0.1867 0.9714 25 14
3.9152 -0.3885 -0.1854 0.9782 25 14
3.9067 -0.2294 -0.1844 0.9835 25 14
3.8844 -0.0716 -0.1831 0.9834 25 14
3.8833 0.0847 -0.1831 0.9836 25 14
3.9069 0.2427 -0.1845 0.9832 25 14
3.9159 0.4019 -0.1855 0.9777 25 14
3.9249 0.5632 -0.1869 0.9707 25 14
4.1406 0.7652 -0.1985 0.2956 25 14
7.7794 1.7640 -0.3760 0.3453 0 24
7.8250 2.1086 -0.3820 0.3380 0 1
7.8382 2.4543 -0.3871 0.3335 0 1
7.8499 2.8094 -0.3930 0.3286 0 1
5.2069 17.5360 -1.0654 0.1455 0 2
4.9131 19.3705 -1.1639 0.1331 0 2
4.5555 21.5667 -1.2838 0.1207 0 2
4.1114 24.2523 -1.4327 0.1082 0 2
2.6148 20.3651 -1.1959 0.9839 0 20
2.5425 28.9953 -1.6953 0.9606 0 20
1.2663 26.7936 -1.5623 0.9970 0 20
0.3335 47.7020 -2.7784 0.0650 0 1
-30.7450 38.2536 -2.8584 0.6062 0 3
-30.7682 35.2768 -2.7263 0.6356 0 3
-30.5476 32.3032 -2.5895 0.6639 0 3
-30.2442 29.5087 -2.4611 0.1720 0 3
-29.7787 26.8030 -2.3335 0.7175 0 3
-29.5812 24.5449 -2.2388 0.1891 0 3
-29.3524 22.4244 -2.1514 0.1934 0 3
-29.1595 20.4736 -2.0752 0.7893 0 3
-30.8536 19.8597 -2.1371 0.8107 0 3
-30.8589 18.1505 -2.0852 0.8309 0 3
-35.8306 19.1782 -2.3670 0.8498 0 3
-36.6244 17.7463 -2.3704 0.4412 0 3
-40.6618 17.7200 -2.5834 0.4048 0 3
-41.0399 15.9528 -2.5645 0.8093 0 3
-35.1147 -33.0978 -2.8105 0.9796 0 20
-33.4653 -34.1876 -2.7864 0.9562 0 20
1.3021 -43.4255 -2.5304 0.0646 0 2
1.8416 -26.1862 -1.5289 0.7652 0 20
3.2547 -29.3495 -1.7199 0.0901 0 2
3.8867 -25.5987 -1.5080 0.1028 0 2
4.3773 -22.6489 -1.3436 0.1153 0 2
4.3382 -18.4325 -1.1029 0.9518 0 6
5.0877 -18.2846 -1.1054 0.1402 0 2
5.5049 -17.0898 -1.0457 0.9863 0 2
5.8007 -15.8000 -0.9803 0.1390 0 1
5.9229 -14.3239 -0.9028 0.1552 0 1
6.0977 -13.2146 -0.8476 0.1888 0 1
6.2546 -12.2353 -0.8003 0.1988 0 1
6.3936 -11.3556 -0.7590 0.2124 0 1
6.5172 -10.5579 -0.7226 0.2220 0 1
6.6227 -9.8217 -0.6899 0.2262 0 1
6.7039 -9.1273 -0.6596 0.2366 0 1
6.7825 -8.4957 -0.6332 0.2614 0 1
6.8612 -7.9187 -0.6103 0.2712 0 1
6.9408 -7.3880 -0.5904 0.2902 0 1
7.0223 -6.8965 -0.5733 0.2989 0 1
7.0848 -6.4189 -0.5568 0.2646 0 1
7.1116 -5.9402 -0.5397 0.2730 0 1
6.8972 -5.3051 -0.5068 0.3067 0 25
6.3121 -4.4627 -0.4502 0.7558 14 6
6.3313 -4.1046 -0.4395 0.7741 14 6
6.7373 -3.9924 -0.4561 0.5143 14 6
7.0227 -3.7884 -0.4647 0.3344 0 25
7.0465 -3.4428 -0.4568 0.3402 0 25
7.0676 -3.1075 -0.4497 0.3456 0 25
7.0864 -2.7813 -0.4434 0.3505 0 25
7.1048 -2.4636 -0.4380 0.3546 0 2
7.3561 -2.2235 -0.4476 0.3576 0 1
7.3801 -1.9104 -0.4440 0.3625 0 1
7.4035 -1.6018 -0.4412 0.3664 0 1
3.9771 -0.6943 -0.2351 0.3080 25 14
3.9140 -0.5221 -0.2300 0.9741 25 14
3.9055 -0.3618 -0.2284 0.9807 25 14
3.8970 -0.2033 -0.2273 0.9857 25 14
3.8767 -0.0461 -0.2258 0.9848 25 14
3.8841 0.1101 -0.2263 0.9827 25 14
3.9002 0.2679 -0.2277 0.9839 25 14
3.9091 0.4270 -0.2290 0.9782 25 14
3.9180 0.5883 -0.2308 0.9709 25 14
4.1566 0.7963 -0.2465 0.2939 25 14
7.5846 1.7720 -0.4537 0.3614 0 1
7.5957 2.1001 -0.4590 0.3574 0 1
7.6047 2.4359 -0.4651 0.3527 0 1
7.6120 2.7805 -0.4720 0.3475 0 1
7.6175 3.1353 -0.4798 0.3419 0 1
7.6212 3.5016 -0.4885 0.3358 0 1
7.6230 3.8811 -0.4982 0.3292 0 1
7.6094 4.2680 -0.5081 0.3321 0 1
7.5675 4.6542 -0.5174 0.3262 0 1
7.5218 5.0540 -0.5278 0.3198 0 1
7.4721 5.4694 -0.5393 0.3129 0 1
7.4179 5.9022 -0.5521 0.3057 0 1
7.3474 6.3452 -0.5654 0.3378 0 1
7.2349 6.7748 -0.5773 0.3308 0 1
7.1153 7.2215 -0.5905 0.3234 0 1
6.9997 7.7006 -0.6061 0.3095 0 1
6.9650 8.3108 -0.6316 0.2738 0 2
6.6320 8.5932 -0.6322 0.9466 0 2
6.4488 9.0896 -0.6491 0.2387 0 2
6.3592 9.7739 -0.6791 0.2282 0 2
6.2581 10.5215 -0.7130 0.2173 0 2
6.1437 11.3442 -0.7514 0.2062 0 2
6.0132 12.2564 -0.7951 0.1949 0 2
5.8635 13.2767 -0.8453 0.1833 0 2
5.6903 14.4289 -0.9034 0.1715 0 2
5.4882 15.7446 -0.9711 0.1596 0 2
5.2497 17.2658 -1.0511 0.1474 0 2
4.9647 19.0506 -1.1466 0.1352 0 2
4.6187 21.1807 -1.2626 0.1227 0 2
4.1907 23.7757 -1.4061 0.1102 0 2
2.7632 20.4618 -1.2026 0.8290 0 20
2.3834 25.2814 -1.4790 0.7233 0 9
1.2486 23.2011 -1.3533 0.9966 0 20
0.6253 46.2205 -2.6923 0.0694 0 1
-30.7409 38.7647 -2.8816 0.6013 0 3
-30.7647 35.7418 -2.7467 0.6309 0 3
-30.7849 32.9834 -2.6278 0.6594 0 3
-30.3068 29.9589 -2.4820 0.1705 0 3
-29.7766 27.1555 -2.3472 0.7133 0 3
-29.6285 24.9130 -2.2546 0.1877 0 3
-29.1666 22.5859 -2.1486 0.5052 0 3
-29.1584 20.7586 -2.0847 0.7857 0 3
-30.8526 20.1455 -2.1461 0.8073 0 3
-30.8582 18.4226 -2.0932 0.8277 0 3
-31.0414 16.8767 -2.0579 0.7365 0 3
-36.0303 17.7501 -2.3394 0.4470 0 3
-38.4466 17.0545 -2.4497 0.2349 0 3
-44.6530 17.6941 -2.7975 0.3738 0 3
-35.3654 -32.9002 -2.8133 0.9787 0 20
-33.7517 -34.0322 -2.7917 0.9544 0 20
-19.5938 -27.4272 -1.9632 0.6838 0 6
1.0508 -44.8231 -2.6114 0.0583 0 1
1.6652 -26.1174 -1.5243 0.9834 0 20
3.1346 -30.0581 -1.7602 0.0880 0 2
3.7950 -26.1456 -1.5388 0.1007 0 2
4.3052 -23.0848 -1.3677 0.1133 0 2
4.2313 -18.5203 -1.1065 0.7775 0 6
5.0399 -18.5825 -1.1214 0.1382 0 2
5.4007 -17.1497 -1.0472 0.9691 0 2
5.7787 -16.0640 -0.9943 0.1371 0 1
5.9034 -14.5451 -0.9143 0.1491 0 1
6.0699 -13.3835 -0.8559 0.1870 0 1
6.2310 -12.3884 -0.8077 0.1970 0 1
6.3719 -11.4922 -0.7653 0.2107 0 1
6.4988 -10.6837 -0.7283 0.2214 0 1
6.6064 -9.9371 -0.6950 0.2309 0 1
6.6914 -9.2362 -0.6643 0.2350 0 1
6.7690 -8.5933 -0.6371 0.2598 0 1
6.8490 -8.0098 -0.6138 0.2696 0 1
6.9269 -7.4704 -0.5934 0.2887 0 1
7.0096 -6.9746 -0.5759 0.2975 0 1
7.0801 -6.4994 -0.5598 0.2632 0 1
7.1076 -6.0161 -0.5424 0.2717 0 1
6.8909 -5.3723 -0.5089 0.3054 0 25
6.9280 -4.9664 -0.4965 0.3130 0 25
6.2982 -4.1419 -0.4390 0.8038 14 6
6.6390 -3.9930 -0.4512 0.5199 14 6
7.0186 -3.8457 -0.4661 0.3334 0 25
7.0428 -3.4982 -0.4580 0.3393 0 25
7.0644 -3.1614 -0.4508 0.3448 0 25
7.0835 -2.8337 -0.4444 0.3498 0 25
7.1003 -2.5141 -0.4387 0.3543 0 25
7.3097 -2.2618 -0.4457 0.4384 0 2
7.3760 -1.9609 -0.4445 0.3621 0 1
7.4002 -1.6517 -0.4416 0.3661 0 1
4.0463 -0.7337 -0.2395 0.3024 25 14
3.9154 -0.5483 -0.2303 0.9729 25 14
3.9068 -0.3876 -0.2287 0.9798 25 14
3.8984 -0.2290 -0.2274 0.9850 25 14
3.8808 -0.0715 -0.2261 0.9837 25 14
3.8800 0.0846 -0.2260 0.9838 25 14
3.8988 0.2422 -0.2275 0.9847 25 14
3.9077 0.4011 -0.2288 0.9792 25 14
3.9166 0.5620 -0.2305 0.9722 25 14
4.0818 0.7543 -0.2418 0.2996 25 14
7.5827 1.7194 -0.4529 0.3621 0 1
7.5941 2.0463 -0.4581 0.3579 0 1
7.6033 2.3807 -0.4640 0.3535 0 1
7.6109 2.7238 -0.4708 0.3484 0 1
4.8554 16.3520 -1.1833 0.1559 0 2
4.5530 17.9506 -1.2847 0.1436 0 2
4.1899 19.8361 -1.4064 0.1311 0 2
3.7466 22.1005 -1.5550 0.1186 0 2
2.2591 17.5947 -1.2306 0.0912 0 20
2.4889 28.3850 -1.9766 0.0933 0 2
1.6347 34.5881 -2.4021 0.0808 0 1
0.2870 41.0536 -2.8480 0.0707 0 1
-1.6415 49.3610 -3.4261 0.0632 0 1
-30.5670 38.0321 -3.3848 0.6093 0 3
-30.5982 35.0820 -3.2292 0.6386 0 3
-30.6251 32.3851 -3.0920 0.6670 0 3
-30.6482 29.9028 -2.9704 0.6943 0 3
-30.6681 27.6035 -2.8623 0.7205 0 3
-30.6852 25.4610 -2.7660 0.7456 0 3
-30.1386 23.0251 -2.6310 0.5701 0 3
-30.7095 21.5619 -2.6030 0.7922 0 3
-30.2387 19.4639 -2.4946 0.2014 0 3
-30.0178 17.6558 -2.4158 0.2131 0 3
-33.1953 17.7676 -2.6119 0.4765 0 3
-36.6224 17.7453 -2.8230 0.4409 0 3
-40.2688 17.5487 -3.0472 0.2155 0 3
-45.5024 17.6874 -3.3866 0.3675 0 3
-46.3174 15.8910 -3.3969 0.7824 0 3
-35.1793 -33.1586 -3.3536 0.9455 0 20
-33.4033 -34.1242 -3.3126 0.9580 0 20
-19.3329 -27.4394 -2.3285 0.6935 0 6
-0.4511 -43.9713 -3.0505 0.0640 0 1
1.1205 -37.3701 -2.5935 0.0751 0 2
1.8378 -26.1328 -1.8173 0.9052 0 20
2.9141 -26.2780 -1.8341 0.1006 0 2
3.5254 -23.2191 -1.6292 0.1132 0 2
4.0111 -20.7539 -1.4663 0.1258 0 2
4.3347 -18.4175 -1.3125 0.8710 0 6
4.8646 -17.4830 -1.2589 0.9353 0 2
5.2121 -16.1808 -1.1793 0.1429 0 1
5.3904 -14.6826 -1.0850 0.1488 0 1
5.5838 -13.5037 -1.0137 0.1894 0 1
5.7747 -12.5146 -0.9561 0.1993 0 1
5.9418 -11.6235 -0.9056 0.2119 0 1
6.0909 -10.8181 -0.8612 0.2228 0 1
6.2216 -10.0791 -0.8217 0.2324 0 1
6.3277 -9.3841 -0.7851 0.2366 0 1
6.4264 -8.7495 -0.7531 0.2616 0 1
6.5203 -8.1673 -0.7250 0.2717 0 1
6.6052 -7.6232 -0.6997 0.2815 0 1
6.6982 -7.1296 -0.6786 0.3005 0 1
6.7732 -6.6518 -0.6585 0.2663 0 1
6.8120 -6.1717 -0.6376 0.2750 0 1
6.8434 -5.7161 -0.6185 0.2770 0 1
6.6682 -5.1289 -0.5836 0.3170 0 25
6.2795 -4.4397 -0.5335 0.8020 14 6
6.2949 -4.0810 -0.5204 0.6000 14 6
6.7376 -3.9926 -0.5433 0.5139 14 6
6.8083 -3.6728 -0.5366 0.3447 0 25
6.8349 -3.3395 -0.5277 0.3505 0 25
6.8586 -3.0156 -0.5197 0.3559 0 25
6.8797 -2.7001 -0.5127 0.3608 0 25
6.8995 -2.3924 -0.5066 0.3633 0 2
7.1455 -2.1599 -0.5178 0.3687 0 1
7.1715 -1.8564 -0.5139 0.3728 0 1
7.1960 -1.5569 -0.5107 0.3751 0 1
3.9171 -0.6838 -0.2758 0.3125 25 14
3.9056 -0.5209 -0.2733 0.9756 25 14
3.8971 -0.3610 -0.2715 0.9821 25 14
3.8887 -0.2029 -0.2701 0.9871 25 14
3.8731 -0.0461 -0.2687 0.9851 25 14
3.8808 0.1100 -0.2693 0.9828 25 14
3.8920 0.2673 -0.2706 0.9853 25 14
3.9009 0.4261 -0.2722 0.9796 25 14
3.9097 0.5871 -0.2743 0.9722 25 14
4.0972 0.7849 -0.2894 0.2979 25 14
7.3702 1.7219 -0.5250 0.3717 0 1
7.3785 2.0401 -0.5311 0.3675 0 1
7.3845 2.3653 -0.5379 0.3629 0 1
7.3884 2.6988 -0.5457 0.3578 0 1
7.3902 3.0417 -0.5544 0.3521 0 1
7.3898 3.3953 -0.5641 0.3460 0 1
7.3870 3.7610 -0.5750 0.3395 0 1
7.3714 4.1345 -0.5863 0.3296 0 1
7.3303 4.5083 -0.5970 0.3365 0 1
7.2815 4.8926 -0.6086 0.3301 0 1
7.2283 5.2909 -0.6214 0.3233 0 1
7.1703 5.7053 -0.6356 0.3158 0 1
7.1167 6.1460 -0.6523 0.3077 0 1
7.0125 6.5666 -0.6664 0.3411 0 1
6.8918 6.9947 -0.6812 0.3337 0 1
6.7708 7.4488 -0.6983 0.3198 0 1
6.6514 7.9366 -0.7183 0.3108 0 1
6.6047 8.5579 -0.7499 0.2748 0 2
6.2068 8.7485 -0.7441 0.9758 0 2
6.0786 9.3427 -0.7732 0.2385 0 2
5.9689 10.0353 -0.8100 0.2277 0 2
5.8452 10.7930 -0.8515 0.2166 0 2
5.7049 11.6280 -0.8985 0.2053 0 2
5.5449 12.5554 -0.9521 0.1937 0 2
5.3612 13.5943 -1.0137 0.1819 0 2
5.1484 14.7698 -1.0850 0.1700 0 2
4.8998 16.1147 -1.1684 0.1579 0 2
4.6058 17.6734 -1.2670 0.1456 0 2
4.2537 19.5068 -1.3850 0.1332 0 2
3.8251 21.7019 -1.5287 0.1207 0 2
2.6086 19.3163 -1.3521 0.1195 0 20
2.3851 25.2989 -1.7628 0.8925 0 9
1.2744 23.6813 -1.6451 0.9960 0 20
0.5401 39.9252 -2.7699 0.0743 0 1
-1.2771 47.8079 -3.3176 0.0656 0 1
-30.5615 38.5384 -3.4120 0.6044 0 3
-30.5934 35.5429 -3.2532 0.6339 0 3
-30.4446 32.6188 -3.0952 0.9585 0 3
-30.6447 30.2929 -2.9892 0.6899 0 3
-30.6651 27.9657 -2.8790 0.7163 0 3
-19.6187 16.4963 -1.7781 0.8736 0 6
-30.6976 23.7715 -2.6933 0.7657 0 3
-30.7077 21.8616 -2.6149 0.7886 0 3
-30.2797 19.7714 -2.5086 0.2003 0 3
-30.0425 17.9356 -2.4272 0.2121 0 3
-29.9229 16.2686 -2.3627 0.2191 0 3
-35.7723 17.6231 -2.7663 0.4731 0 3
-36.0237 15.9798 -2.7338 0.9470 0 3
-41.6089 16.4879 -3.1048 0.8717 0 3
-35.4721 -32.9995 -3.3609 0.9435 0 20
-33.6890 -33.9690 -3.3188 0.9562 0 20
-0.7617 -45.3458 -3.1461 0.0543 0 1
0.8920 -38.0513 -2.6403 0.0723 0 1
1.6655 -26.1212 -1.8157 0.9914 0 20
2.7997 -26.8467 -1.8725 0.0985 0 2
3.4357 -23.6703 -1.6592 0.1112 0 2
3.9391 -21.1216 -1.4905 0.1237 0 2
4.2403 -18.5597 -1.3207 0.7753 0 6
4.7619 -17.5572 -1.2619 0.9330 0 2
5.3645 -14.9125 -1.0994 0.1468 0 1
5.5505 -13.6757 -1.0238 0.1875 0 1
5.7454 -12.6681 -0.9649 0.1974 0 1
5.9158 -11.7617 -0.9133 0.2101 0 1
6.0679 -10.9439 -0.8681 0.2211 0 1
6.2019 -10.1956 -0.8278 0.2307 0 1
6.3120 -9.4942 -0.7909 0.2349 0 1
6.4102 -8.8480 -0.7579 0.2599 0 1
6.5057 -8.2591 -0.7293 0.2701 0 1
6.5920 -7.7092 -0.7036 0.2799 0 1
6.6836 -7.2079 -0.6819 0.2990 0 1
6.7664 -6.7326 -0.6622 0.2648 0 1
6.8060 -6.2478 -0.6409 0.2736 0 1
6.8406 -5.7902 -0.6217 0.2821 0 1
6.6612 -5.1932 -0.5859 0.3157 0 25
6.2853 -4.5057 -0.5365 0.5665 14 6
6.2992 -4.1426 -0.5230 0.3306 14 6
6.6393 -3.9932 -0.5375 0.5195 14 6
6.8036 -3.7279 -0.5382 0.3437 0 25
6.8308 -3.3929 -0.5291 0.3496 0 25
6.8550 -3.0676 -0.5210 0.3551 0 25
6.8764 -2.7509 -0.5138 0.3600 0 25
6.8969 -2.4421 -0.5075 0.3622 0 2
7.1412 -2.2096 -0.5186 0.3682 0 1
7.1673 -1.9054 -0.5145 0.3724 0 1
7.1922 -1.6053 -0.5112 0.3748 0 1
3.9840 -0.7224 -0.2809 0.3069 25 14
3.9069 -0.5471 -0.2737 0.9743 25 14
3.8985 -0.3868 -0.2718 0.9812 25 14
3.8901 -0.2285 -0.2703 0.9864 25 14
3.8772 -0.0715 -0.2690 0.9839 25 14
3.8767 0.0845 -0.2690 0.9840 25 14
3.8906 0.2417 -0.2704 0.9861 25 14
3.8994 0.4002 -0.2719 0.9806 25 14
3.9083 0.5608 -0.2739 0.9735 25 14
4.0246 0.7438 -0.2839 0.3037 25 14
7.3687 1.6708 -0.5241 0.3723 0 1
7.3773 1.9879 -0.5300 0.3682 0 1
7.3837 2.3120 -0.5367 0.3637 0 1
7.3879 2.6440 -0.5443 0.3586 0 1
4.5478 15.3163 -1.2864 0.1663 0 2
4.2416 16.7229 -1.3891 0.1540 0 2
3.8782 18.3604 -1.5109 0.1416 0 2
2.3238 13.7072 -1.1194 0.1500 0 20
2.3238 18.0985 -1.4691 0.1250 0 20
1.9646 22.4046 -1.8108 0.7336 0 6
1.3775 29.1456 -2.3492 0.0910 0 2
0.2486 35.5584 -2.8630 0.0779 0 1
-1.4042 42.2235 -3.4015 0.0711 0 1
-30.2244 37.6059 -3.8845 0.9896 0 3
-30.3145 34.7567 -3.7133 0.6131 0 3
-30.4637 32.2145 -3.5698 0.6700 0 3
-30.4930 29.7514 -3.4301 0.6973 0 3
-30.5185 27.4688 -3.3059 0.7235 0 3
-30.5405 25.3409 -3.1952 0.7485 0 3
-30.5595 23.3466 -3.0963 0.7724 0 3
-30.5732 21.4661 -3.0077 0.7951 0 3
-30.5870 19.6881 -2.9287 0.8165 0 3
-30.5987 17.9974 -2.8582 0.8367 0 3
-30.4415 16.2937 -2.7800 0.8712 0 3
-36.6204 17.7444 -3.2763 0.4405 0 3
-40.6571 17.7180 -3.5708 0.4042 0 3
-41.0229 15.9462 -3.5437 0.9582 0 3
-35.1159 -33.0989 -3.8853 0.9472 0 20
-33.2043 -33.9209 -3.8218 0.9012 0 20
-2.2941 -45.3937 -3.6595 0.0484 0 1
-0.3871 -37.7306 -3.0380 0.0727 0 1
0.9807 -32.7075 -2.6346 0.0834 0 1
1.8360 -26.1067 -2.1071 0.9946 0 20
2.6377 -23.7850 -1.9268 0.1110 0 2
3.2251 -21.2414 -1.7298 0.1237 0 2
3.7009 -19.1492 -1.5703 0.1362 0 2
4.2289 -17.9682 -1.4862 0.8886 0 2
4.6015 -16.5374 -1.3821 0.1273 0 1
4.8429 -15.0346 -1.2717 0.1472 0 1
5.0651 -13.7963 -1.1833 0.1906 0 1
5.2889 -12.7906 -1.1144 0.1997 0 1
5.4852 -11.8873 -1.0541 0.2123 0 1
5.6596 -11.0715 -1.0011 0.2223 0 1
5.8152 -10.3284 -0.9543 0.2332 0 1
5.9482 -9.6361 -0.9117 0.2363 0 1
6.0678 -8.9987 -0.8738 0.2614 0 1
6.1779 -8.4111 -0.8403 0.2719 0 1
6.2773 -7.8628 -0.8101 0.2820 0 1
6.3748 -7.3574 -0.7838 0.3017 0 1
6.4624 -6.8787 -0.7599 0.2676 0 1
6.5137 -6.3969 -0.7351 0.2767 0 1
6.5589 -5.9424 -0.7126 0.2854 0 1
6.5913 -5.5056 -0.6915 0.2874 0 1
6.4536 -4.9639 -0.6555 0.3272 0 25
6.2985 -4.4531 -0.6211 0.7423 14 6
6.2899 -4.0778 -0.6035 0.7638 14 6
6.5738 -3.8955 -0.6152 0.3487 0 25
6.6062 -3.5638 -0.6044 0.3549 0 25
6.6354 -3.2420 -0.5946 0.3608 0 25
6.6613 -2.9289 -0.5859 0.3661 0 25
6.6844 -2.6235 -0.5782 0.3710 0 25
6.8483 -2.3746 -0.5836 0.6545 0 2
6.9466 -2.0998 -0.5843 0.3790 0 1
6.9741 -1.8053 -0.5800 0.3831 0 1
6.9991 -1.5143 -0.5766 0.3854 0 1
3.9056 -0.6818 -0.3192 0.9687 25 14
3.8972 -0.5198 -0.3166 0.9768 25 14
3.8888 -0.3602 -0.3144 0.9834 25 14
3.8804 -0.2025 -0.3129 0.9884 25 14
3.8695 -0.0460 -0.3116 0.9852 25 14
3.8751 0.1099 -0.3121 0.9907 25 14
3.8839 0.2668 -0.3134 0.9865 25 14
3.8926 0.4252 -0.3153 0.9808 25 14
3.9014 0.5858 -0.3176 0.9735 25 14
4.0394 0.7739 -0.3311 0.3019 25 14
7.1673 1.6745 -0.5926 0.3819 0 1
7.1731 1.9833 -0.5992 0.3777 0 1
7.1764 2.2987 -0.6067 0.3731 0 1
7.1773 2.6217 -0.6152 0.3680 0 1
7.1757 2.9534 -0.6248 0.3624 0 1
7.1717 3.2951 -0.6354 0.3563 0 1
7.1637 3.6473 -0.6472 0.3463 0 1
7.1425 4.0061 -0.6593 0.3399 0 1
7.1072 4.3711 -0.6718 0.3468 0 1
7.0557 4.7409 -0.6844 0.3404 0 1
6.9996 5.1235 -0.6984 0.3335 0 1
6.9387 5.5210 -0.7139 0.3260 0 1
6.8810 5.9424 -0.7320 0.3180 0 1
6.8031 6.3705 -0.7504 0.3513 0 1
6.6816 6.7813 -0.7665 0.3439 0 1
6.5561 7.2125 -0.7848 0.3300 0 1
6.4346 7.6779 -0.8066 0.3211 0 1
6.3034 8.1675 -0.8307 0.3117 0 1
6.2023 8.7422 -0.8630 0.9757 0 2
5.8214 8.9473 -0.8594 0.2489 0 2
5.7048 9.5913 -0.8985 0.2381 0 2
5.5740 10.2922 -0.9424 0.2270 0 2
5.4263 11.0601 -0.9919 0.2156 0 2
5.2588 11.9075 -1.0481 0.2041 0 2
5.0676 12.8499 -1.1121 0.1923 0 2
4.8478 13.9074 -1.1858 0.1804 0 2
4.5931 15.1061 -1.2712 0.1683 0 2
4.2949 16.4802 -1.3712 0.1560 0 2
3.9417 18.0761 -1.4896 0.1436 0 2
3.5178 19.9583 -1.6317 0.1311 0 2
2.3954 17.7377 -1.4411 0.1176 0 20
2.3370 24.7891 -2.0047 0.9447 0 9
1.4419 26.7935 -2.1604 0.9951 0 20
0.4688 34.6511 -2.7901 0.0800 0 1
-1.0961 41.0326 -3.3049 0.0707 0 1
-3.3117 49.3983 -3.9862 0.0663 0 1
-30.3838 38.3144 -3.9371 0.6075 0 3
-30.2748 35.1727 -3.7365 0.5083 0 3
-30.4585 32.6337 -3.5941 0.6654 0 3
-30.4885 30.1386 -3.4517 0.6929 0 3
-30.5146 27.8284 -3.3251 0.7193 0 3
-30.5371 25.6770 -3.2123 0.7445 0 3
-29.5951 22.9178 -3.0137 0.9810 0 3
-30.5707 21.7641 -3.0214 0.7915 0 3
-30.5849 19.9707 -2.9410 0.8131 0 3
-30.5969 18.2666 -2.8691 0.8335 0 3
-31.5194 17.1366 -2.8886 0.2023 0 3
-36.0264 17.7482 -3.2335 0.4464 0 3
-39.9525 17.7226 -3.5190 0.4102 0 3
-42.0151 16.6488 -3.6387 0.2185 0 3
-35.4080 -32.9398 -3.8937 0.9452 0 20
-33.5307 -33.8094 -3.8338 0.8984 0 20
-33.2543 -36.3447 -3.9663 0.3775 0 20
-19.5947 -27.4285 -2.7140 0.9568 0 6
-2.7055 -47.3881 -3.8216 0.0502 0 1
-0.6507 -38.7378 -3.1194 0.0742 0 1
0.7779 -33.1821 -2.6724 0.0836 0 1
1.6686 -26.1711 -2.1114 0.8115 0 20
2.5290 -24.2516 -1.9632 0.1090 0 2
3.1382 -21.6203 -1.7590 0.1216 0 2
3.6299 -19.4637 -1.5941 0.1342 0 2
4.1250 -18.0552 -1.4912 0.8857 0 2
4.5627 -16.8230 -1.4034 0.1254 0 1
4.8087 -15.2697 -1.2889 0.1452 0 1
5.0244 -13.9670 -1.1951 0.1888 0 1
5.2546 -12.9467 -1.1250 0.1979 0 1
5.4547 -12.0271 -1.0633 0.2108 0 1
5.6326 -11.1986 -1.0093 0.2205 0 1
5.7911 -10.4447 -0.9616 0.2314 0 1
5.9292 -9.7472 -0.9186 0.2345 0 1
6.0488 -9.0982 -0.8797 0.2597 0 1
6.1608 -8.5038 -0.8455 0.2702 0 1
6.2618 -7.9494 -0.8148 0.2804 0 1
6.3583 -7.4359 -0.7877 0.3002 0 1
6.4534 -6.9597 -0.7642 0.2661 0 1
6.5058 -6.4733 -0.7389 0.2752 0 1
6.5520 -6.0146 -0.7161 0.2840 0 1
6.5879 -5.5763 -0.6949 0.2859 0 1
6.4460 -5.0254 -0.6581 0.3260 0 25
6.3157 -4.5275 -0.6257 0.1080 14 6
6.2912 -4.1373 -0.6062 0.7604 14 6
6.5682 -3.9504 -0.6171 0.3476 0 25
6.6012 -3.6170 -0.6060 0.3539 0 25
6.6308 -3.2936 -0.5961 0.3598 0 25
6.6573 -2.9792 -0.5872 0.3653 0 25
6.6808 -2.6726 -0.5793 0.3703 0 25
6.7817 -2.4013 -0.5792 0.6595 0 2
6.9422 -2.1480 -0.5851 0.3785 0 1
6.9698 -1.8529 -0.5807 0.3826 0 1
6.9952 -1.5614 -0.5771 0.3850 0 1
3.9236 -0.7114 -0.3211 0.3114 25 14
3.8985 -0.5459 -0.3169 0.9756 25 14
3.8902 -0.3860 -0.3148 0.9824 25 14
3.8818 -0.2280 -0.3131 0.9877 25 14
3.8734 -0.0714 -0.3119 0.9914 25 14
3.8735 0.0845 -0.3119 0.9840 25 14
3.8825 0.2412 -0.3132 0.9873 25 14
3.8912 0.3994 -0.3149 0.9818 25 14
3.9000 0.5596 -0.3172 0.9748 25 14
3.9689 0.7335 -0.3250 0.3077 25 14
7.1661 1.6249 -0.5916 0.3825 0 1
7.1723 1.9327 -0.5981 0.3784 0 1
7.1761 2.2470 -0.6054 0.3739 0 1
7.1773 2.5687 -0.6138 0.3689 0 1
4.2765 14.4024 -1.3774 0.1767 0 2
3.9696 15.6506 -1.4802 0.1644 0 2
3.6092 17.0870 -1.6011 0.1520 0 2
2.2992 13.5624 -1.2611 0.4897 0 20
1.7381 13.5369 -1.2512 0.1158 0 20
1.9621 22.3766 -2.0593 0.8955 0 6
1.2344 26.1190 -2.3972 0.1015 0 2
0.2191 31.3399 -2.8732 0.0879 0 1
-1.2115 36.4312 -3.3418 0.0768 0 1
-3.1949 43.4028 -3.9898 0.0665 0 1
-30.2162 37.5957 -4.4219 0.6153 0 3
-28.4501 32.6191 -3.9681 0.9857 0 3
-30.3037 32.0453 -4.0434 0.6729 0 3
-33.4707 32.6567 -4.2871 0.7002 0 3
-18.3677 16.5322 -2.2655 0.6862 0 22
-30.3968 25.2218 -3.6211 0.7513 0 3
-30.4202 23.2402 -3.5096 0.7752 0 3
-30.4378 21.3711 -3.4096 0.7979 0 3
-30.4551 19.6031 -3.3204 0.8193 0 3
-30.4699 17.9216 -3.2408 0.8394 0 3
-33.1920 17.7659 -3.4514 0.4757 0 3
-36.6184 17.7434 -3.7304 0.4401 0 3
-40.6547 17.7169 -4.0657 0.4038 0 3
-45.4965 17.6851 -4.4750 0.3669 0 3
-35.1999 -33.1780 -4.4346 0.8841 0 20
-32.9678 -33.6793 -4.3207 0.8167 0 20
-33.0127 -36.5576 -4.5158 0.5285 0 20
-4.3169 -47.4487 -4.3680 0.0461 0 1
-1.9519 -38.6233 -3.5454 0.0713 0 1
-0.3380 -32.9463 -3.0206 0.0844 0 1
0.8660 -28.8824 -2.6491 0.0963 0 1
1.7119 -24.3420 -2.2371 0.1088 0 2
2.4087 -21.7207 -2.0035 0.1214 0 2
2.9716 -19.5715 -1.8148 0.1341 0 2
3.5886 -18.5678 -1.7338 0.8057 0 2
3.9745 -16.8871 -1.5905 0.1258 0 1
4.2758 -15.3667 -1.4623 0.1520 0 1
4.5317 -14.0685 -1.3550 0.1894 0 1
4.7961 -13.0636 -1.2758 0.1985 0 1
5.0232 -12.1479 -1.2051 0.2101 0 1
5.2252 -11.3237 -1.1433 0.2226 0 1
5.4039 -10.5712 -1.0884 0.2338 0 1
5.5633 -9.8809 -1.0396 0.2448 0 1
5.7057 -9.2432 -0.9958 0.2609 0 1
5.8328 -8.6502 -0.9565 0.2717 0 1
5.9475 -8.0975 -0.9211 0.2821 0 1
6.0513 -7.5798 -0.8892 0.2922 0 1
6.1514 -7.0995 -0.8612 0.2686 0 1
6.2157 -6.6161 -0.8322 0.2780 0 1
6.2729 -6.1605 -0.8060 0.2870 0 1
6.3237 -5.7293 -0.7823 0.2957 0 1
6.3568 -5.3097 -0.7593 0.2977 0 1
6.2520 -4.8088 -0.7231 0.3375 0 25
6.2993 -4.4537 -0.7073 0.3450 0 25
6.3192 -4.0968 -0.6904 0.7596 14 6
6.3807 -3.7811 -0.6800 0.3589 0 25
6.4155 -3.4609 -0.6683 0.3651 0 25
6.4468 -3.1498 -0.6578 0.3710 0 25
6.4748 -2.8469 -0.6484 0.3763 0 25
6.5010 -2.5515 -0.6403 0.3789 0 2
6.7290 -2.3332 -0.6529 0.3858 0 1
6.7587 -2.0430 -0.6473 0.3905 0 1
6.7869 -1.7569 -0.6427 0.3933 0 1
4.2271 -0.9145 -0.3965 0.3221 25 14
3.8971 -0.6803 -0.3627 0.9699 25 14
3.8888 -0.5187 -0.3597 0.9780 25 14
3.8805 -0.3594 -0.3573 0.9846 25 14
3.8722 -0.2020 -0.3555 0.9896 25 14
3.8639 -0.0460 -0.3543 0.9930 25 14
3.8670 0.1096 -0.3547 0.9918 25 14
3.8758 0.2662 -0.3562 0.9877 25 14
3.8845 0.4243 -0.3582 0.9819 25 14
3.8932 0.5846 -0.3609 0.9746 25 14
3.9832 0.7631 -0.3718 0.3059 25 14
6.9749 1.6296 -0.6567 0.3920 0 1
6.9785 1.9295 -0.6638 0.3878 0 1
6.9794 2.2356 -0.6719 0.3833 0 1
6.9775 2.5487 -0.6810 0.3782 0 1
6.9730 2.8700 -0.6913 0.3725 0 1
6.9657 3.2004 -0.7028 0.3665 0 1
6.9514 3.5392 -0.7151 0.3565 0 1
6.9270 3.8852 -0.7281 0.3501 0 1
6.8969 4.2418 -0.7423 0.3570 0 1
6.8432 4.5981 -0.7558 0.3506 0 1
6.7845 4.9661 -0.7708 0.3438 0 1
6.7213 5.3480 -0.7874 0.3363 0 1
6.6601 5.7516 -0.8068 0.3282 0 1
6.5928 6.1736 -0.8280 0.3198 0 1
6.4835 6.5803 -0.8469 0.3541 0 1
6.3542 6.9904 -0.8661 0.3401 0 1
6.2311 7.4351 -0.8894 0.3312 0 1
6.0983 7.9018 -0.9151 0.3219 0 1
6.0144 8.4773 -0.9529 0.2857 0 2
5.7990 8.9130 -0.9748 0.9934 0 2
5.4627 9.1843 -0.9797 0.2484 0 2
5.3264 9.8351 -1.0254 0.2373 0 2
5.1732 10.5443 -1.0767 0.2260 0 2
5.0003 11.3222 -1.1347 0.2144 0 2
4.8041 12.1817 -1.2005 0.2027 0 2
4.5799 13.1389 -1.2756 0.1907 0 2
4.3221 14.2148 -1.3621 0.1786 0 2
4.0228 15.4361 -1.4624 0.1664 0 2
3.6719 16.8389 -1.5800 0.1540 0 2
3.2558 18.4717 -1.7195 0.1415 0 2
1.8242 13.5080 -1.2496 0.8392 0 20
2.1426 22.7265 -2.0927 0.1163 0 2
1.3771 25.5894 -2.3494 0.1036 0 2
0.4141 30.6099 -2.8065 0.0900 0 1
-0.9484 35.5014 -3.2558 0.0788 0 1
-2.8249 42.1363 -3.8716 0.0711 0 1
-30.0522 37.8963 -4.4341 0.8884 0 3
-28.6562 33.2922 -4.0271 0.4540 0 3
-30.2975 32.4611 -4.0708 0.6683 0 3
-33.0388 32.6596 -4.2590 0.7048 0 3
-18.1347 16.5384 -2.2501 0.6909 0 22
-30.3928 25.5557 -3.6404 0.7634 0 3
-30.4166 23.5539 -3.5269 0.7714 0 3
-30.4347 21.6673 -3.4250 0.7943 0 3
-30.4525 19.8842 -3.3343 0.8159 0 3
-30.4676 18.1894 -3.2531 0.8363 0 3
-32.6829 17.7692 -3.4105 0.4814 0 3
-32.9116 16.2137 -3.3635 0.1974 0 3
-39.9502 17.7215 -4.0067 0.4098 0 3
-44.7135 17.7181 -4.4093 0.9043 0 3
-35.5389 -33.0616 -4.4500 0.8810 0 20
-33.3412 -33.6183 -4.3407 0.8130 0 20
-32.9259 -35.9857 -4.4717 0.5351 0 20
-2.2689 -39.7404 -3.6492 0.0711 0 1
-0.5664 -33.7192 -3.0917 0.0821 0 1
0.6902 -29.4438 -2.7001 0.0943 0 1
1.5828 -24.8239 -2.2804 0.1067 0 2
2.3058 -22.1105 -2.0380 0.1194 0 2
2.8876 -19.8942 -1.8430 0.1320 0 2
3.4835 -18.6786 -1.7419 0.8019 0 2
3.9214 -17.1639 -1.6141 0.1296 0 1
4.2288 -15.5918 -1.4811 0.1501 0 1
4.4848 -14.2413 -1.3688 0.1875 0 1
4.7563 -13.2218 -1.2882 0.1966 0 1
4.9882 -12.2903 -1.2160 0.2082 0 1
5.1941 -11.4525 -1.1529 0.2208 0 1
5.3762 -10.6889 -1.0969 0.2320 0 1
5.5386 -9.9892 -1.0471 0.2431 0 1
5.6837 -9.3437 -1.0026 0.2592 0 1
5.8130 -8.7437 -0.9626 0.2700 0 1
5.9297 -8.1848 -0.9266 0.2804 0 1
6.0351 -7.6617 -0.8941 0.2906 0 1
6.1402 -7.1809 -0.8662 0.2671 0 1
6.2058 -6.6927 -0.8367 0.2765 0 1
6.2641 -6.2328 -0.8101 0.2856 0 1
6.3158 -5.7978 -0.7860 0.2943 0 1
6.3523 -5.3769 -0.7630 0.2962 0 1
6.2439 -4.8679 -0.7258 0.3362 0 25
6.2919 -4.5104 -0.7097 0.3438 0 25
6.3206 -4.1566 -0.6935 0.7562 14 6
6.3747 -3.8341 -0.6820 0.3578 0 25
6.4101 -3.5123 -0.6701 0.3642 0 25
6.4420 -3.1998 -0.6594 0.3700 0 25
6.4704 -2.8956 -0.6499 0.3755 0 25
6.4968 -2.5990 -0.6415 0.3781 0 2
6.7239 -2.3808 -0.6539 0.3852 0 1
6.7539 -2.0898 -0.6481 0.3900 0 1
6.7826 -1.8031 -0.6434 0.3928 0 1
6.8084 -1.5197 -0.6395 0.3952 0 1
3.8985 -0.7069 -0.3632 0.9684 25 14
3.8902 -0.5448 -0.3601 0.9768 25 14
3.8819 -0.3852 -0.3576 0.9836 25 14
3.8736 -0.2275 -0.3557 0.9888 25 14
3.8652 -0.0712 -0.3544 0.9925 25 14
3.8656 0.0843 -0.3545 0.9924 25 14
