ply
format ascii 1.0
element vertex 1378
property float32 x
property float32 y
property float32 z
property float32 CosAngle
property uint32 ObjIdx
property uint32 ObjTag
end_header
1.1359 17.4376 -2.5844 0.1594 0 2
0.4680 18.8579 -2.7898 0.1454 0 1
-0.3213 20.8278 -3.0807 0.1331 0 1
-1.2908 23.1653 -3.4313 0.1225 0 1
-2.4661 25.6361 -3.8089 0.1203 0 1
-3.9072 28.5222 -4.2576 0.1030 0 1
-5.7535 32.2811 -4.8494 0.0841 0 1
-8.2294 37.3942 -5.6627 0.0707 0 1
-11.7716 44.8170 -6.8530 0.0624 0 1
-16.2750 46.4021 -7.2724 0.8703 0 15
-30.7149 16.6682 -5.5647 0.4939 0 3
-39.6447 19.4921 -7.0347 0.8873 0 3
-39.6314 17.5428 -6.9014 0.2218 0 3
-44.7289 17.6832 -7.6589 0.3693 0 3
-45.6822 15.9668 -7.7058 0.1472 0 3
-27.9230 8.5156 -4.6485 0.9140 0 6
-24.3081 -4.5957 -3.9393 0.9176 16 6
-31.7237 -16.0556 -5.6617 0.9216 0 6
-32.6629 -32.9933 -7.3928 0.9096 0 20
-31.8188 -34.8385 -7.5131 0.9566 0 20
-14.2061 -46.3337 -7.7170 0.0572 0 1
-9.9933 -37.9833 -6.2541 0.0665 0 1
-7.1487 -32.4203 -5.2865 0.0830 0 1
-5.0228 -28.1146 -4.5477 0.0843 0 1
-3.3858 -24.6405 -3.9605 0.0973 0 1
-2.1402 -22.1529 -3.5440 0.1139 0 1
-1.1292 -20.1170 -3.2084 0.1326 0 1
-0.2938 -18.5490 -2.9541 0.1516 0 1
0.4154 -17.0193 -2.7109 0.1398 0 1
1.0198 -15.7537 -2.5138 0.1777 0 1
1.5460 -14.6861 -2.3515 0.1666 0 1
2.0022 -13.7000 -2.2047 0.2092 0 1
2.4047 -12.8246 -2.0777 0.2163 0 1
2.7571 -12.0132 -1.9627 0.2243 0 1
3.0683 -11.2691 -1.8598 0.2387 0 1
3.3470 -10.5916 -1.7688 0.2510 0 1
3.5999 -9.9760 -1.6888 0.2596 0 1
3.8289 -9.4070 -1.6173 0.2729 0 1
4.0363 -8.8761 -1.5527 0.2843 0 1
4.2244 -8.3780 -1.4941 0.2949 0 1
4.3949 -7.9078 -1.4406 0.3059 0 1
4.5514 -7.4652 -1.3922 0.3194 0 1
4.6957 -7.0475 -1.3485 0.3297 0 1
4.8214 -6.6409 -1.3068 0.3313 0 1
4.9238 -6.2377 -1.2654 0.3422 0 1
5.0166 -5.8547 -1.2277 0.3527 0 1
5.1011 -5.4900 -1.1933 0.3662 0 1
5.1804 -5.1439 -1.1625 0.3759 0 1
5.2526 -4.8117 -1.1343 0.3853 0 1
5.3181 -4.4920 -1.1085 0.3943 0 1
5.3777 -4.1836 -1.0849 0.4028 0 1
5.4307 -3.8845 -1.0632 0.4171 0 1
5.4925 -3.6038 -1.0461 0.4240 0 1
5.5497 -3.3299 -1.0306 0.4303 0 1
5.6023 -3.0620 -1.0166 0.4362 0 1
5.6505 -2.7992 -1.0041 0.4417 0 1
5.6945 -2.5411 -0.9930 0.4466 0 1
5.7345 -2.2870 -0.9831 0.4512 0 1
5.7709 -2.0364 -0.9745 0.4552 0 1
5.8043 -1.7891 -0.9672 0.4501 0 1
5.8348 -1.5445 -0.9611 0.4530 0 1
3.9174 -0.8699 -0.6390 0.5509 25 14
3.8370 -0.6914 -0.6208 0.9646 25 14
3.8323 -0.5324 -0.6161 0.8580 25 14
3.8183 -0.3747 -0.6109 0.8652 25 14
3.8049 -0.2193 -0.6069 0.8710 25 14
3.7921 -0.0657 -0.6039 0.8753 25 14
3.7917 0.0869 -0.6039 0.8752 25 14
3.8004 0.2403 -0.6064 0.8717 25 14
3.8096 0.3953 -0.6099 0.8667 25 14
3.8193 0.5523 -0.6145 0.8602 25 14
3.8295 0.7121 -0.6203 0.8522 25 14
4.0154 0.9152 -0.6558 0.3494 25 14
5.9949 1.6227 -0.9890 0.4433 0 1
5.9863 1.8818 -0.9992 0.4438 0 1
5.9738 2.1456 -1.0107 0.4389 0 1
5.9575 2.4145 -1.0236 0.4334 0 1
5.9308 2.6863 -1.0368 0.4236 0 1
5.8989 2.9633 -1.0512 0.4178 0 1
5.8626 3.2468 -1.0671 0.4115 0 1
5.8216 3.5374 -1.0847 0.4048 0 1
5.7757 3.8358 -1.1041 0.3977 0 1
5.7245 4.1431 -1.1252 0.3903 0 1
5.6590 4.4533 -1.1467 0.3978 0 1
5.5867 4.7724 -1.1700 0.3898 0 1
5.5077 5.1022 -1.1955 0.3815 0 1
5.4208 5.4430 -1.2232 0.3688 0 1
5.3258 5.7963 -1.2534 0.3599 0 1
5.2223 6.1640 -1.2864 0.3507 0 1
5.1062 6.5435 -1.3217 0.3759 0 1
4.9599 6.9123 -1.3547 0.3667 0 1
4.8026 7.2957 -1.3909 0.3572 0 1
4.6331 7.6955 -1.4303 0.3473 0 1
4.4597 8.1308 -1.4767 0.3278 0 1
4.2774 8.6021 -1.5298 0.3164 0 1
4.0747 9.0948 -1.5869 0.3106 0 1
3.8903 9.7125 -1.6660 0.2810 0 2
3.6529 10.3025 -1.7406 0.2684 0 2
3.3369 10.7685 -1.7952 0.8188 0 2
2.9816 11.1964 -1.8450 0.7966 0 2
2.6398 11.8039 -1.9260 0.2176 0 2
2.2933 12.6183 -2.0422 0.2052 0 2
1.8992 13.5220 -2.1743 0.1928 0 2
1.4479 14.5329 -2.3256 0.1802 0 2
0.9788 16.5510 -2.6401 0.1678 0 2
0.3354 17.8129 -2.8370 0.1493 0 1
-0.4188 19.5579 -3.1150 0.1378 0 1
-1.3354 21.6339 -3.4515 0.1288 0 1
-2.4336 23.8025 -3.8100 0.1217 0 1
-3.7637 26.3028 -4.2310 0.1163 0 1
-5.4105 29.3389 -4.7506 0.0992 0 1
-7.5341 33.2848 -5.4342 0.0808 0 1
-10.4957 39.0080 -6.4324 0.0690 0 1
-14.6278 46.7769 -7.8043 0.0564 0 1
-18.2556 36.4760 -6.4951 0.7751 0 6
-27.3484 37.9068 -7.4431 0.6739 0 3
-29.1726 37.1857 -7.5260 0.6227 0 3
-29.2661 34.3631 -7.1874 0.6520 0 3
-27.6686 29.9573 -6.4936 0.3249 0 3
-27.6543 27.6242 -6.2242 0.9789 0 3
-17.9709 16.5618 -3.8915 0.6439 0 22
-19.4142 16.4982 -4.0569 0.7020 0 22
-29.5902 23.1620 -5.9837 0.7832 0 3
-31.4909 22.6676 -6.1785 0.5824 0 3
-34.2949 22.6489 -6.5444 0.5498 0 3
-29.7039 17.9439 -5.5260 0.8480 0 3
-29.5881 16.2867 -5.3781 0.6420 0 3
-35.5516 17.7446 -6.3271 0.4470 0 3
-39.3908 17.7190 -6.8778 0.4112 0 3
-39.6214 15.9389 -6.8005 0.9717 0 3
-44.6428 15.9040 -7.5464 0.9607 0 3
-32.9427 -32.8801 -7.4115 0.4039 0 20
-31.9765 -34.5930 -7.5013 0.9581 0 20
-10.5253 -39.0542 -6.4407 0.0605 0 1
-7.4824 -32.9932 -5.3871 0.0812 0 24
-5.3083 -28.7189 -4.6506 0.0846 0 1
-3.6023 -25.1019 -4.0381 0.0955 0 1
-2.3096 -22.4985 -3.6014 0.1121 0 1
-1.2674 -20.3967 -3.2542 0.1286 0 1
-0.4095 -18.7619 -2.9883 0.1499 0 1
0.3178 -17.2517 -2.7476 0.1379 0 1
0.9353 -15.9273 -2.5406 0.1758 0 1
1.4745 -14.8614 -2.3781 0.1871 0 1
1.9374 -13.8350 -2.2245 0.2074 0 1
2.3484 -12.9518 -2.0960 0.2145 0 1
2.7078 -12.1309 -1.9792 0.2224 0 1
3.0241 -11.3750 -1.8742 0.2369 0 1
3.3075 -10.6888 -1.7817 0.2492 0 1
3.5640 -10.0648 -1.7002 0.2578 0 1
3.7962 -9.4890 -1.6274 0.2712 0 1
4.0067 -8.9528 -1.5619 0.2826 0 1
4.1977 -8.4504 -1.5025 0.2933 0 1
4.3706 -7.9760 -1.4483 0.3043 0 1
4.5288 -7.5292 -1.3991 0.3178 0 1
4.6750 -7.1083 -1.3548 0.3282 0 1
4.8053 -6.7027 -1.3133 0.3297 0 1
4.9092 -6.2963 -1.2713 0.3406 0 1
5.0033 -5.9104 -1.2331 0.3511 0 1
5.0887 -5.5428 -1.1982 0.3614 0 1
5.1691 -5.1945 -1.1669 0.3745 0 1
5.2423 -4.8603 -1.1383 0.3839 0 1
5.3088 -4.5388 -1.1122 0.3929 0 1
5.3692 -4.2288 -1.0883 0.4016 0 1
5.4232 -3.9284 -1.0663 0.3996 0 1
5.4836 -3.6451 -1.0485 0.4230 0 1
5.5415 -3.3703 -1.0328 0.4294 0 1
5.5948 -3.1015 -1.0186 0.4354 0 1
5.6436 -2.8380 -1.0059 0.4409 0 1
5.6882 -2.5792 -0.9945 0.4459 0 1
5.7288 -2.3245 -0.9845 0.4506 0 1
5.7657 -2.0735 -0.9757 0.4546 0 1
5.7994 -1.8257 -0.9682 0.4497 0 1
5.8305 -1.5807 -0.9619 0.4526 0 1
3.9520 -0.9025 -0.6455 0.3549 25 14
3.8374 -0.7152 -0.6216 0.9635 25 14
3.8344 -0.5561 -0.6170 0.8568 25 14
3.8203 -0.3980 -0.6116 0.8642 25 14
3.8069 -0.2423 -0.6074 0.8702 25 14
3.7939 -0.0885 -0.6043 0.8747 25 14
3.7904 0.0641 -0.6037 0.8756 25 14
3.7991 0.2174 -0.6059 0.8723 25 14
3.8082 0.3721 -0.6093 0.8675 25 14
3.8178 0.5288 -0.6137 0.8613 25 14
3.8280 0.6882 -0.6193 0.8535 25 14
3.9653 0.8789 -0.6468 0.3543 25 14
5.9956 1.5844 -0.9875 0.4440 0 1
5.9878 1.8430 -0.9976 0.4445 0 1
5.9759 2.1060 -1.0090 0.4397 0 1
5.9602 2.3741 -1.0216 0.4342 0 1
5.9352 2.6455 -1.0347 0.4244 0 1
5.9039 2.9217 -1.0489 0.4186 0 1
5.8683 3.2042 -1.0647 0.4125 0 1
5.8280 3.4937 -1.0820 0.4058 0 1
5.7829 3.7909 -1.1011 0.3988 0 1
5.7325 4.0968 -1.1220 0.3914 0 1
5.6693 4.4066 -1.1434 0.3989 0 1
5.5978 4.7243 -1.1664 0.3910 0 1
5.5198 5.0524 -1.1916 0.3828 0 1
5.4342 5.3915 -1.2190 0.3701 0 1
5.3405 5.7429 -1.2488 0.3613 0 1
5.2382 6.1083 -1.2813 0.3521 0 1
5.1271 6.4898 -1.3170 0.3772 0 1
4.9823 6.8566 -1.3496 0.3681 0 1
4.8267 7.2377 -1.3853 0.3586 0 1
4.6591 7.6349 -1.4242 0.3488 0 1
4.4855 8.0629 -1.4692 0.3295 0 1
4.3056 8.5302 -1.5215 0.3181 0 1
4.1061 9.0199 -1.5781 0.3124 0 1
3.8866 9.5375 -1.6400 0.3006 0 1
3.6897 10.2117 -1.7290 0.2702 0 2
3.3882 10.7068 -1.7882 0.8220 0 2
3.0357 11.1313 -1.8372 0.8000 0 2
2.6878 11.6895 -1.9100 0.2194 0 2
2.3477 12.4919 -2.0240 0.2071 0 2
1.9612 13.3813 -2.1535 0.1946 0 2
1.5191 14.3749 -2.3017 0.1821 0 2
1.0653 16.3532 -2.6095 0.1705 0 2
0.4363 17.5811 -2.8004 0.1568 0 1
-0.2973 19.2749 -3.0696 0.1420 0 1
-1.1872 21.3056 -3.3979 0.1308 0 1
-2.2567 23.4590 -3.7528 0.1235 0 1
-3.5497 25.9121 -4.1647 0.1182 0 1
-5.1397 28.8372 -4.6643 0.1013 0 1
-7.1757 32.6062 -5.3163 0.0834 0 1
-9.9953 38.0542 -6.2652 0.0713 0 1
-13.9184 45.4617 -7.5708 0.0613 0 1
-16.2893 46.4427 -7.8371 0.8853 0 15
-34.3828 18.6586 -6.6745 0.8717 0 3
-35.6677 17.5368 -6.7814 0.1325 0 3
-38.1431 16.8840 -7.1170 0.6029 0 3
-44.7197 17.6796 -8.2047 0.3686 0 3
-27.8464 8.4922 -4.9672 0.4969 0 6
-24.2168 -4.5784 -4.2050 0.9883 16 6
-25.5671 -14.2597 -4.9949 0.6555 15 6
-32.7597 -33.0911 -7.9448 0.9675 0 20
-31.7172 -34.7272 -8.0245 0.9578 0 20
-11.8012 -38.4899 -6.8689 0.0604 0 1
-8.6277 -32.7928 -5.7855 0.0808 0 1
-6.2855 -28.5058 -4.9805 0.0819 0 1
-4.4604 -24.9669 -4.3273 0.0953 0 1
-3.0681 -22.3289 -3.8455 0.1159 0 1
-1.9623 -20.3112 -3.4816 0.1285 0 1
-1.0461 -18.6364 -3.1847 0.1504 0 1
-0.2732 -17.2528 -2.9440 0.1377 0 1
0.3895 -15.9564 -2.7233 0.1754 0 1
0.9621 -14.8622 -2.5411 0.1880 0 1
1.4630 -13.8977 -2.3843 0.2069 0 1
1.9053 -13.0367 -2.2479 0.2195 0 1
2.2922 -12.2242 -2.1220 0.2266 0 1
2.6324 -11.4699 -2.0079 0.2345 0 1
2.9375 -10.7886 -1.9078 0.2489 0 1
3.2109 -10.1611 -1.8182 0.2612 0 1
3.4585 -9.5844 -1.7385 0.2716 0 1
3.6848 -9.0530 -1.6677 0.2831 0 1
3.8903 -8.5550 -1.6035 0.2944 0 1
4.0770 -8.0855 -1.5450 0.3050 0 1
4.2469 -7.6415 -1.4916 0.3188 0 1
4.4043 -7.2239 -1.4436 0.3294 0 1
4.5485 -6.8267 -1.3996 0.3398 0 1
4.6720 -6.4350 -1.3568 0.3413 0 1
4.7758 -6.0502 -1.3151 0.3521 0 1
4.8702 -5.6838 -1.2771 0.3626 0 1
4.9576 -5.3356 -1.2427 0.3761 0 1
5.0384 -5.0029 -1.2114 0.3858 0 1
5.1119 -4.6829 -1.1828 0.3952 0 1
5.1789 -4.3744 -1.1566 0.4041 0 1
5.2390 -4.0756 -1.1325 0.4024 0 1
5.2957 -3.7879 -1.1109 0.4269 0 1
5.3581 -3.5156 -1.0934 0.4338 0 1
5.4159 -3.2496 -1.0776 0.4402 0 1
5.4690 -2.9891 -1.0634 0.4461 0 1
5.5176 -2.7334 -1.0506 0.4515 0 1
5.5621 -2.4820 -1.0392 0.4564 0 1
5.6025 -2.2343 -1.0291 0.4610 0 1
5.6392 -1.9900 -1.0203 0.4650 0 1
5.6721 -1.7484 -1.0127 0.4685 0 1
5.7016 -1.5092 -1.0063 0.4714 0 1
3.9113 -0.8686 -0.6836 0.5507 25 14
3.8381 -0.6916 -0.6654 0.9626 25 14
3.8355 -0.5329 -0.6607 0.9695 25 14
3.8330 -0.3761 -0.6571 0.9747 25 14
3.8213 -0.2202 -0.6531 0.8657 25 14
3.8083 -0.0660 -0.6499 0.8699 25 14
3.8081 0.0872 -0.6499 0.8699 25 14
3.8169 0.2413 -0.6525 0.8664 25 14
3.8262 0.3970 -0.6563 0.8614 25 14
3.8311 0.5540 -0.6605 0.9698 25 14
3.8323 0.7127 -0.6651 0.9631 25 14
3.9534 0.9011 -0.6918 0.3542 25 14
5.8542 1.5846 -1.0348 0.4531 0 1
5.8461 1.8378 -1.0456 0.4536 0 1
5.8324 2.0948 -1.0574 0.4487 0 1
5.8137 2.3562 -1.0703 0.4388 0 1
5.7849 2.6202 -1.0835 0.4335 0 1
5.7518 2.8895 -1.0982 0.4277 0 1
5.7143 3.1646 -1.1145 0.4214 0 1
5.6720 3.4464 -1.1324 0.4148 0 1
5.6247 3.7355 -1.1520 0.4077 0 1
5.5720 4.0327 -1.1736 0.4002 0 1
5.5114 4.3371 -1.1966 0.4077 0 1
5.4372 4.6448 -1.2201 0.3955 0 1
5.3563 4.9620 -1.2458 0.3873 0 1
5.2683 5.2898 -1.2738 0.3788 0 1
5.1724 5.6293 -1.3043 0.3699 0 1
5.0679 5.9818 -1.3377 0.3607 0 1
4.9582 6.3539 -1.3751 0.3493 0 1
4.8200 6.7174 -1.4106 0.3767 0 1
4.6636 7.0847 -1.4472 0.3671 0 1
4.4954 7.4667 -1.4870 0.3573 0 1
4.3202 7.8764 -1.5327 0.3378 0 1
4.1390 8.3236 -1.5861 0.3264 0 1
3.9405 8.7952 -1.6444 0.3206 0 1
3.7204 9.2884 -1.7072 0.3088 0 1
3.4836 9.8250 -1.7786 0.2925 0 1
3.2554 10.5053 -1.8765 0.2659 0 2
2.9695 11.1509 -1.9689 0.2530 0 2
2.6216 11.7225 -2.0495 0.7096 0 2
2.2456 12.3558 -2.1427 0.6122 0 2
1.8530 13.1929 -2.2731 0.5042 0 2
1.4414 14.4678 -2.4807 0.1951 0 2
0.9208 15.5717 -2.6615 0.1804 0 2
0.3139 16.6706 -2.8448 0.1651 0 1
-0.3893 18.1808 -3.1027 0.1503 0 1
-1.2334 19.9815 -3.4157 0.1344 0 1
-2.2357 21.8670 -3.7504 0.1295 0 1
-3.4392 24.0353 -4.1427 0.1197 0 1
-4.8928 26.5318 -4.6032 0.1143 0 1
-6.6894 29.5528 -5.1698 0.0987 0 1
-9.0800 33.7463 -5.9626 0.0782 0 1
-12.3705 39.5584 -7.0718 0.0664 0 1
-23.1029 41.8634 -8.1582 0.5514 0 5
-27.1502 37.6320 -7.9174 0.7402 0 3
-29.0062 36.9735 -8.0180 0.6251 0 3
-29.1066 34.1758 -7.6592 0.6544 0 3
-28.2094 30.5428 -7.0938 0.6827 0 3
-29.0257 28.9941 -6.9999 0.7085 0 3
-17.9695 16.5605 -4.1694 0.6428 0 22
-19.4074 16.4924 -4.3454 0.7334 0 22
-29.2846 22.9228 -6.3452 0.8898 0 3
-31.4896 22.6667 -6.6199 0.5813 0 3
-34.2858 22.6429 -7.0104 0.9405 0 3
-29.5793 17.8686 -5.8962 0.8500 0 3
-32.0516 17.6427 -6.2424 0.9273 0 3
-35.5496 17.7437 -6.7790 0.4462 0 3
-39.3885 17.7179 -7.3691 0.4105 0 3
-43.9673 17.6872 -8.0859 0.3741 0 3
-44.7470 15.9411 -8.1047 0.2373 0 3
-16.8079 -4.4955 -2.9686 0.2777 16 6
-32.9135 -32.8509 -7.9342 0.9688 0 20
-31.8723 -34.4803 -8.0114 0.9594 0 20
-16.4743 -46.0257 -8.3408 0.3080 0 2
-12.4078 -39.6207 -7.0838 0.0572 0 1
-9.0286 -33.5006 -5.9198 0.0769 0 1
-6.5997 -29.1009 -5.0913 0.0846 0 1
-4.7013 -25.4347 -4.4132 0.0933 0 1
-3.2518 -22.6594 -3.9057 0.1141 0 1
-2.1138 -20.5908 -3.5316 0.1289 0 1
-1.1714 -18.8511 -3.2226 0.1462 0 1
-0.3816 -17.4869 -2.9843 0.1358 0 1
0.2971 -16.1297 -2.7525 0.1749 0 1
0.8819 -15.0169 -2.5666 0.1861 0 1
1.3924 -14.0333 -2.4061 0.2051 0 1
1.8428 -13.1595 -2.2672 0.2176 0 1
2.2376 -12.3403 -2.1398 0.2247 0 1
2.5843 -11.5778 -2.0240 0.2326 0 1
2.8942 -10.8863 -1.9219 0.2471 0 1
3.1721 -10.2514 -1.8309 0.2594 0 1
3.4230 -9.6665 -1.7496 0.2698 0 1
3.6525 -9.1298 -1.6778 0.2814 0 1
3.8609 -8.6271 -1.6126 0.2928 0 1
4.0503 -8.1537 -1.5534 0.3034 0 1
4.2225 -7.7058 -1.4992 0.3143 0 1
4.3817 -7.2847 -1.4504 0.3279 0 1
4.5278 -6.8846 -1.4059 0.3383 0 1
4.6556 -6.4939 -1.3633 0.3397 0 1
4.7610 -6.1063 -1.3211 0.3505 0 1
4.8567 -5.7372 -1.2825 0.3611 0 1
4.9450 -5.3863 -1.2476 0.3747 0 1
5.0268 -5.0515 -1.2159 0.3844 0 1
5.1014 -4.7297 -1.1869 0.3938 0 1
5.1693 -4.4196 -1.1604 0.4028 0 1
5.2309 -4.1199 -1.1361 0.4012 0 1
5.2862 -3.8292 -1.1137 0.4259 0 1
5.3491 -3.5557 -1.0959 0.4328 0 1
5.4076 -3.2888 -1.0799 0.4392 0 1
5.4614 -3.0275 -1.0654 0.4452 0 1
5.5107 -2.7711 -1.0524 0.4507 0 1
5.5557 -2.5191 -1.0408 0.4557 0 1
5.5967 -2.2709 -1.0305 0.4604 0 1
5.6339 -2.0261 -1.0215 0.4644 0 1
5.6675 -1.7842 -1.0138 0.4680 0 1
5.6974 -1.5446 -1.0072 0.4710 0 1
3.9413 -0.9000 -0.6898 0.5458 25 14
3.8385 -0.7154 -0.6662 0.9614 25 14
3.8359 -0.5563 -0.6613 0.9685 25 14
3.8333 -0.3993 -0.6576 0.9741 25 14
3.8233 -0.2433 -0.6536 0.8649 25 14
3.8102 -0.0889 -0.6503 0.8694 25 14
3.8068 0.0644 -0.6496 0.8703 25 14
3.8156 0.2183 -0.6521 0.8670 25 14
3.8248 0.3737 -0.6557 0.8622 25 14
3.8309 0.5306 -0.6599 0.9707 25 14
3.8322 0.6889 -0.6643 0.9642 25 14
3.9145 0.8676 -0.6841 0.5504 25 14
5.8551 1.5472 -1.0333 0.4538 0 1
5.8478 1.7999 -1.0439 0.4543 0 1
5.8347 2.0563 -1.0555 0.4493 0 1
5.8176 2.3173 -1.0684 0.4441 0 1
5.7894 2.5806 -1.0815 0.4343 0 1
5.7570 2.8490 -1.0960 0.4285 0 1
5.7201 3.1233 -1.1120 0.4224 0 1
5.6786 3.4041 -1.1296 0.4158 0 1
5.6320 3.6920 -1.1490 0.4088 0 1
5.5802 3.9879 -1.1702 0.4013 0 1
5.5217 4.2920 -1.1932 0.4088 0 1
5.4486 4.5984 -1.2165 0.3967 0 1
5.3688 4.9142 -1.2418 0.3886 0 1
5.2818 5.2403 -1.2695 0.3801 0 1
5.1871 5.5780 -1.2996 0.3713 0 1
5.0840 5.9285 -1.3325 0.3621 0 1
4.9750 6.2973 -1.3693 0.3508 0 1
4.8423 6.6639 -1.4055 0.3780 0 1
4.6876 7.0291 -1.4415 0.3686 0 1
4.5212 7.4089 -1.4809 0.3588 0 1
4.3458 7.8119 -1.5252 0.3394 0 1
4.1669 8.2555 -1.5778 0.3281 0 1
3.9716 8.7243 -1.6355 0.3224 0 1
3.7544 9.2131 -1.6974 0.3106 0 1
3.5201 9.7426 -1.7674 0.2943 0 1
3.2955 10.4139 -1.8637 0.2681 0 2
3.0140 11.0516 -1.9545 0.2549 0 2
2.6768 11.6416 -2.0381 0.7136 0 2
2.3026 12.2522 -2.1271 0.6167 0 2
1.9132 13.0535 -2.2510 0.5092 0 2
1.5084 14.2729 -2.4488 0.3067 0 2
1.0031 15.3982 -2.6328 0.1823 0 2
0.4087 16.4696 -2.8109 0.1671 0 1
-0.2767 17.9389 -3.0611 0.1480 0 1
-1.0951 19.6522 -3.3583 0.1375 0 24
-2.0753 21.5736 -3.6979 0.1320 0 1
-3.2453 23.6905 -4.0798 0.1215 0 1
-4.6588 26.1393 -4.5302 0.1150 0 1
-6.3957 29.0619 -5.0772 0.1005 0 1
-8.6609 32.9741 -5.8169 0.0757 0 1
-11.8108 38.5776 -6.8837 0.0692 0 1
-34.2422 18.5823 -7.0924 0.8736 0 3
-39.3273 19.3361 -7.9779 0.8911 0 3
-38.1690 16.8954 -7.5988 0.4043 0 3
-44.2936 17.5112 -8.6707 0.8181 0 3
-27.7453 9.6975 -5.3505 0.9441 0 22
-27.6910 8.4449 -5.2702 0.9168 0 22
-24.1304 -4.5621 -4.4706 0.9899 16 6
-31.4315 -17.5304 -6.5518 0.8709 0 22
-32.6513 -32.9816 -8.4487 0.9688 0 20
-31.5585 -34.5535 -8.5190 0.9929 0 20
-17.7866 -44.7941 -8.7739 0.0544 0 2
-13.6787 -38.9486 -7.5150 0.0615 0 1
-10.1313 -33.0437 -6.2918 0.0778 0 1
-7.5804 -28.8124 -5.4237 0.0846 0 1
-5.5632 -25.2299 -4.7033 0.0921 0 1
-4.0248 -22.5284 -4.1661 0.1109 0 1
-2.8104 -20.4531 -3.7584 0.1289 0 1
-1.8148 -18.7847 -3.4356 0.1506 0 1
-0.9762 -17.3915 -3.1710 0.1609 0 1
-0.2555 -16.1310 -2.9369 0.1746 0 1
0.3671 -15.0408 -2.7389 0.1857 0 1
0.9112 -14.0767 -2.5680 0.2045 0 1
1.3912 -13.2164 -2.4193 0.2172 0 1
1.8097 -12.3825 -2.2781 0.2269 0 24
2.1873 -11.6652 -2.1606 0.2321 0 1
2.5188 -10.9752 -2.0499 0.2467 0 1
2.8169 -10.3457 -1.9520 0.2591 0 1
3.0850 -9.7626 -1.8639 0.2709 0 1
3.3282 -9.2230 -1.7850 0.2841 0 1
3.5507 -8.7235 -1.7146 0.2932 0 1
3.7539 -8.2552 -1.6509 0.3045 0 1
3.9389 -7.8117 -1.5926 0.3151 0 1
4.1092 -7.3936 -1.5399 0.3289 0 1
4.2659 -6.9969 -1.4918 0.3395 0 1
4.4098 -6.6185 -1.4478 0.3498 0 1
4.5310 -6.2408 -1.4040 0.3513 0 1
4.6360 -5.8731 -1.3621 0.3620 0 1
4.7318 -5.5223 -1.3239 0.3760 0 1
4.8215 -5.1891 -1.2895 0.3860 0 1
4.9034 -4.8688 -1.2579 0.3957 0 1
4.9781 -4.5603 -1.2290 0.4050 0 1
5.0459 -4.2621 -1.2024 0.4036 0 1
5.1039 -3.9706 -1.1772 0.4123 0 1
5.1669 -3.6958 -1.1565 0.4367 0 1
5.2297 -3.4313 -1.1387 0.4436 0 1
5.2879 -3.1728 -1.1226 0.4499 0 1
5.3414 -2.9194 -1.1081 0.4558 0 1
5.3904 -2.6704 -1.0951 0.4612 0 1
5.4352 -2.4254 -1.0835 0.4662 0 1
5.4759 -2.1838 -1.0732 0.4707 0 1
5.5128 -1.9454 -1.0642 0.4747 0 1
5.5460 -1.7095 -1.0565 0.4782 0 1
5.5756 -1.4758 -1.0500 0.4811 0 1
3.8977 -0.8656 -0.7268 0.5550 25 14
3.8376 -0.6915 -0.7099 0.9731 25 14
3.8359 -0.5329 -0.7050 0.9798 25 14
3.8341 -0.3762 -0.7013 0.9725 25 14
3.8316 -0.2208 -0.6987 0.9762 25 14
3.8247 -0.0663 -0.6964 0.8645 25 14
3.8247 0.0876 -0.6964 0.8644 25 14
3.8299 0.2422 -0.6986 0.9763 25 14
3.8311 0.3975 -0.7012 0.9728 25 14
3.8323 0.5542 -0.7049 0.9676 25 14
3.8335 0.7129 -0.7098 0.9609 25 14
3.9412 0.8983 -0.7359 0.5449 25 14
5.7195 1.5481 -1.0787 0.4629 0 1
5.7106 1.7952 -1.0897 0.4582 0 1
5.6970 2.0462 -1.1020 0.4583 0 1
5.6753 2.3001 -1.1148 0.4486 0 1
5.6455 2.5570 -1.1282 0.4433 0 1
5.6114 2.8189 -1.1432 0.4375 0 1
5.5727 3.0863 -1.1597 0.4313 0 1
5.5293 3.3597 -1.1778 0.4241 0 1
5.4807 3.6399 -1.1977 0.4170 0 1
5.4267 3.9275 -1.2195 0.4096 0 1
5.3672 4.2236 -1.2433 0.4017 0 1
5.2940 4.5224 -1.2675 0.4054 0 1
5.2123 4.8286 -1.2935 0.3972 0 1
5.1235 5.1445 -1.3218 0.3887 0 1
5.0270 5.4711 -1.3526 0.3799 0 1
4.9219 5.8095 -1.3861 0.3707 0 1
4.8111 6.1654 -1.4237 0.3593 0 1
4.6873 6.5325 -1.4637 0.3866 0 1
4.5320 6.8847 -1.5005 0.3771 0 1
4.3651 7.2504 -1.5407 0.3672 0 1
4.1886 7.6366 -1.5856 0.3477 0 1
4.0087 8.0616 -1.6390 0.3364 0 1
3.8126 8.5098 -1.6976 0.3248 0 1
3.5969 8.9801 -1.7610 0.3188 0 1
3.3619 9.4819 -1.8314 0.3025 0 1
3.1061 10.0236 -1.9104 0.2900 0 1
2.8240 10.6047 -1.9978 0.2773 0 1
2.5387 11.3519 -2.1176 0.2495 0 2
2.1925 12.0637 -2.2321 0.2355 0 2
1.8047 12.8489 -2.3621 0.2213 0 2
1.3673 13.7232 -2.5106 0.2068 0 2
0.8609 14.5578 -2.6548 0.1910 0 1
0.2949 15.6596 -2.8513 0.1694 0 1
-0.3631 16.9566 -3.0876 0.1620 0 1
-1.1411 18.4859 -3.3717 0.1460 0 24
-2.0656 20.2029 -3.6970 0.1376 0 1
-3.1553 22.0513 -4.0552 0.1276 0 1
-4.4636 24.2041 -4.4805 0.1181 0 1
-6.0388 26.6784 -4.9795 0.1124 0 1
-7.9498 29.5461 -5.5700 0.0914 0 24
-10.6726 34.1288 -6.5097 0.0762 0 1
-14.2557 39.8791 -7.7097 0.0673 0 1
-16.1392 29.2450 -6.0808 0.5249 0 15
-16.4198 27.1143 -5.7706 0.4725 0 15
-28.8410 36.7630 -8.5063 0.6275 0 3
-28.0345 32.9170 -7.8712 0.9646 0 3
-29.0426 31.4449 -7.7924 0.6849 0 3
-29.1258 29.0942 -7.4944 0.7122 0 3
-17.9758 16.5663 -4.4502 0.7748 0 22
-19.4227 16.5054 -4.6401 0.7314 0 22
-29.3221 22.9521 -6.7788 0.7874 0 3
-29.3706 21.1414 -6.5879 0.8101 0 3
-29.4156 19.4265 -6.4174 0.8316 0 3
-29.4675 17.8011 -6.2673 0.9890 0 3
-34.2367 18.8455 -7.1145 0.8709 0 3
-35.5477 17.7427 -7.2326 0.4454 0 3
-38.1342 17.1537 -7.6122 0.1044 0 3
-39.6090 15.9339 -7.7722 0.9723 0 3
-27.7439 9.8837 -5.3616 0.9634 0 22
-27.7056 8.6309 -5.2827 0.9457 0 22
-27.7628 7.4377 -5.2323 0.2480 0 22
-32.8048 -32.7423 -8.4376 0.9701 0 20
-31.7482 -34.3460 -8.5146 0.9935 0 20
-14.3259 -40.0237 -7.7388 0.0598 0 1
-10.5760 -33.7716 -6.4424 0.0738 0 1
-7.9207 -29.3896 -5.5412 0.0841 0 1
-5.8316 -25.7141 -4.8000 0.0902 0 1
-4.2303 -22.8869 -4.2370 0.1091 0 1
-2.9744 -20.7260 -3.8117 0.1271 0 1
-1.9509 -19.0046 -3.4779 0.1488 0 1
-1.0920 -17.5742 -3.2055 0.1591 0 1
-0.3558 -16.3034 -2.9687 0.1727 0 1
0.2799 -15.1957 -2.7668 0.1839 0 1
0.8346 -14.2117 -2.5916 0.2027 0 1
1.3235 -13.3394 -2.4403 0.2153 0 1
1.7556 -12.5363 -2.3044 0.2222 0 1
2.1348 -11.7737 -2.1783 0.2302 0 1
2.4717 -11.0733 -2.0655 0.2448 0 1
2.7746 -10.4362 -1.9659 0.2572 0 1
3.0469 -9.8467 -1.8764 0.2691 0 1
3.2935 -9.3008 -1.7962 0.2823 0 1
3.5188 -8.7956 -1.7246 0.2915 0 1
3.7249 -8.3231 -1.6600 0.3029 0 1
3.9125 -7.8762 -1.6010 0.3135 0 1
4.0847 -7.4543 -1.5474 0.3273 0 1
4.2434 -7.0547 -1.4987 0.3379 0 1
4.3892 -6.6737 -1.4541 0.3483 0 1
4.5145 -6.2970 -1.4105 0.3496 0 1
4.6210 -5.9267 -1.3681 0.3605 0 1
4.7179 -5.5733 -1.3293 0.3710 0 1
4.8087 -5.2378 -1.2944 0.3845 0 1
4.8917 -4.9157 -1.2625 0.3943 0 1
4.9674 -4.6055 -1.2332 0.4036 0 1
5.0365 -4.3061 -1.2063 0.4126 0 1
5.0957 -4.0133 -1.1808 0.4110 0 1
5.1573 -3.7358 -1.1593 0.4356 0 1
5.2206 -3.4702 -1.1412 0.4426 0 1
5.2796 -3.2109 -1.1249 0.4490 0 1
5.3337 -2.9568 -1.1102 0.4550 0 1
5.3834 -2.7072 -1.0970 0.4605 0 1
5.4288 -2.4616 -1.0851 0.4655 0 1
5.4701 -2.2196 -1.0747 0.4701 0 1
5.5076 -1.9807 -1.0655 0.4741 0 1
5.5413 -1.7444 -1.0576 0.4777 0 1
5.5714 -1.5105 -1.0509 0.4807 0 1
3.9270 -0.8968 -0.7333 0.5501 25 14
3.8379 -0.7153 -0.7107 0.9720 25 14
3.8362 -0.5564 -0.7057 0.9789 25 14
3.8344 -0.3994 -0.7018 0.9843 25 14
3.8320 -0.2439 -0.6990 0.9758 25 14
3.8266 -0.0892 -0.6968 0.8640 25 14
3.8234 0.0647 -0.6961 0.8648 25 14
3.8298 0.2191 -0.6983 0.9767 25 14
3.8309 0.3743 -0.7007 0.9734 25 14
3.8321 0.5308 -0.7043 0.9685 25 14
3.8333 0.6891 -0.7090 0.9620 25 14
3.9112 0.8669 -0.7293 0.5498 25 14
5.7205 1.5117 -1.0771 0.4636 0 1
5.7121 1.7582 -1.0880 0.4589 0 1
5.6995 2.0086 -1.1001 0.4591 0 1
5.6794 2.2623 -1.1129 0.4494 0 1
5.6502 2.5185 -1.1261 0.4441 0 1
5.6167 2.7796 -1.1409 0.4384 0 1
5.5788 3.0461 -1.1571 0.4322 0 1
5.5360 3.3186 -1.1750 0.4256 0 1
5.4882 3.5978 -1.1947 0.4181 0 1
5.4351 3.8842 -1.2161 0.4107 0 1
5.3763 4.1789 -1.2396 0.4029 0 1
5.3055 4.4776 -1.2638 0.4066 0 1
5.2249 4.7825 -1.2895 0.3985 0 1
5.1372 5.0968 -1.3174 0.3900 0 1
5.0418 5.4218 -1.3478 0.3812 0 1
4.9381 5.7583 -1.3810 0.3721 0 1
4.8280 6.1113 -1.4178 0.3608 0 1
4.7095 6.4811 -1.4585 0.3879 0 1
4.5558 6.8315 -1.4948 0.3785 0 1
4.3907 7.1951 -1.5345 0.3687 0 1
4.2141 7.5752 -1.5781 0.3494 0 1
4.0364 7.9969 -1.6307 0.3381 0 1
3.8429 8.4416 -1.6885 0.3265 0 1
3.6305 8.9090 -1.7513 0.3206 0 1
3.3979 9.4043 -1.8203 0.3043 0 1
3.1458 9.9407 -1.8981 0.2919 0 1
2.8678 10.5156 -1.9842 0.2792 0 1
2.5871 11.2514 -2.1017 0.2514 0 2
2.2464 11.9533 -2.2141 0.2374 0 2
1.8653 12.7268 -2.3416 0.2232 0 2
1.4359 13.5868 -2.4872 0.2088 0 2
0.9385 14.4062 -2.6281 0.1930 0 1
0.3842 15.4789 -2.8187 0.1799 0 1
-0.2584 16.7528 -3.0501 0.1640 0 1
-1.0185 18.2781 -3.3326 0.1490 0 1
-1.9189 19.9480 -3.6482 0.1395 0 1
-2.9804 21.7564 -3.9976 0.1294 0 1
-4.2530 23.8623 -4.4125 0.1199 0 1
-5.7862 26.2923 -4.9009 0.1132 0 1
-7.6186 29.0057 -5.4595 0.0942 0 24
-10.2278 33.4072 -6.3603 0.0781 0 1
-13.6520 38.9235 -7.5091 0.0685 0 1
-29.5525 16.0374 -6.5068 0.0921 0 3
-34.2161 16.8231 -7.3785 0.9864 0 3
-40.0128 17.7116 -8.4679 0.4035 0 3
-40.5094 16.0151 -8.4297 0.3672 0 3
-27.6600 9.6677 -5.6702 0.9663 0 22
-27.6563 7.2320 -5.5319 0.9576 0 22
-24.0480 -4.5465 -4.7362 0.9066 16 6
-19.5454 -4.5165 -3.8821 0.1733 16 6
-31.3638 -15.8735 -6.8025 0.9028 0 22
-31.3190 -17.4677 -6.9397 0.8479 0 22
-32.7356 -33.0667 -9.0044 0.9965 0 20
-31.4753 -34.4624 -9.0320 0.9939 0 20
-19.9023 -44.7807 -9.4832 0.0534 0 2
-15.5275 -39.1048 -8.1422 0.0652 0 1
-11.6403 -33.1443 -6.7981 0.0755 0 1
-8.8848 -28.9781 -5.8654 0.0858 0 1
-6.7001 -25.4663 -5.0959 0.0902 0 1
-5.0063 -22.7044 -4.4993 0.1095 0 1
-3.6557 -20.4627 -4.0226 0.1256 0 24
-2.5961 -18.8939 -3.6907 0.1487 0 1
-1.6915 -17.5083 -3.4039 0.1564 0 1
-0.9138 -16.2787 -3.1552 0.1724 0 1
-0.2407 -15.1971 -2.9413 0.1835 0 1
0.3474 -14.2310 -2.7548 0.2029 0 1
0.8659 -13.3771 -2.5941 0.2148 0 1
1.3260 -12.5965 -2.4511 0.2274 0 1
1.7315 -11.8479 -2.3171 0.2295 0 1
2.0912 -11.1525 -2.1958 0.2422 0 1
2.4143 -10.5199 -2.0887 0.2568 0 1
2.7054 -9.9361 -1.9928 0.2688 0 1
2.9683 -9.3932 -1.9064 0.2822 0 1
3.2075 -8.8888 -1.8287 0.2942 0 1
3.4255 -8.4160 -1.7584 0.3033 0 1
3.6264 -7.9746 -1.6953 0.3146 0 1
3.8100 -7.5562 -1.6376 0.3280 0 1
3.9796 -7.1604 -1.5853 0.3389 0 1
4.1354 -6.7829 -1.5373 0.3494 0 1
4.2788 -6.4218 -1.4933 0.3597 0 1
4.3977 -6.0572 -1.4485 0.3612 0 1
4.5036 -5.7054 -1.4066 0.3719 0 1
4.6015 -5.3703 -1.3686 0.3858 0 1
4.6921 -5.0498 -1.3340 0.3958 0 1
4.7749 -4.7413 -1.3022 0.4055 0 1
4.8506 -4.4435 -1.2730 0.4148 0 1
4.9160 -4.1523 -1.2453 0.4134 0 1
4.9763 -3.8713 -1.2201 0.4391 0 1
5.0437 -3.6076 -1.2000 0.4465 0 1
5.1067 -3.3507 -1.1820 0.4533 0 1
5.1653 -3.0993 -1.1657 0.4597 0 1
5.2192 -2.8525 -1.1510 0.4655 0 1
5.2685 -2.6100 -1.1378 0.4709 0 1
5.3135 -2.3710 -1.1260 0.4759 0 1
5.3545 -2.1354 -1.1155 0.4804 0 1
5.3916 -1.9026 -1.1064 0.4844 0 1
5.4249 -1.6722 -1.0986 0.4878 0 1
5.4545 -1.4438 -1.0919 0.4908 0 1
3.8875 -0.8633 -0.7706 0.6401 25 14
3.8356 -0.6912 -0.7542 0.9716 25 14
3.8339 -0.5326 -0.7491 0.9783 25 14
3.8322 -0.3760 -0.7452 0.9834 25 14
3.8304 -0.2208 -0.7425 0.9869 25 14
3.8283 -0.0664 -0.7410 0.9973 25 14
3.8286 0.0877 -0.7411 0.9888 25 14
3.8296 0.2421 -0.7426 0.9868 25 14
3.8306 0.3974 -0.7453 0.9832 25 14
3.8315 0.5541 -0.7492 0.9781 25 14
3.8324 0.7127 -0.7543 0.9714 25 14
3.9300 0.8958 -0.7800 0.5486 25 14
5.5903 1.5131 -1.1207 0.4726 0 1
5.5803 1.7542 -1.1320 0.4679 0 1
5.5666 1.9993 -1.1446 0.4628 0 1
5.5427 2.2464 -1.1574 0.4578 0 1
5.5120 2.4966 -1.1710 0.4525 0 1
5.4770 2.7514 -1.1861 0.4467 0 1
5.4373 3.0113 -1.2028 0.4405 0 1
5.3928 3.2768 -1.2212 0.4339 0 1
5.3432 3.5486 -1.2413 0.4268 0 1
5.2882 3.8273 -1.2633 0.4194 0 1
5.2276 4.1138 -1.2873 0.4116 0 1
5.1575 4.4059 -1.3127 0.4152 0 1
5.0753 4.7017 -1.3388 0.4071 0 1
4.9860 5.0064 -1.3673 0.3986 0 1
4.8890 5.3209 -1.3983 0.3898 0 1
4.7836 5.6461 -1.4321 0.3806 0 1
4.6720 5.9870 -1.4696 0.3693 0 1
4.5520 6.3438 -1.5110 0.3591 0 1
4.4071 6.6950 -1.5511 0.3869 0 1
4.2417 7.0454 -1.5914 0.3771 0 1
4.0644 7.4100 -1.6355 0.3576 0 1
3.8859 7.8146 -1.6889 0.3463 0 1
3.6918 8.2401 -1.7473 0.3347 0 1
3.4803 8.6891 -1.8114 0.3229 0 1
3.2480 9.1606 -1.8809 0.3125 0 1
2.9965 9.6699 -1.9591 0.3000 0 1
2.7197 10.2131 -2.0453 0.2849 0 1
2.4139 10.7936 -2.1403 0.2702 0 1
2.0792 11.4404 -2.2502 0.2486 0 1
1.7067 12.1509 -2.3745 0.2356 0 1
1.2885 12.9326 -2.5151 0.2209 0 1
0.8158 13.7963 -2.6745 0.2084 0 1
0.2780 14.7660 -2.8580 0.1882 0 1
-0.3408 15.9129 -3.0801 0.1722 0 1
-1.0637 17.2326 -3.3412 0.1551 0 24
-1.9153 18.7329 -3.6440 0.1464 0 1
-2.9112 20.3449 -3.9772 0.1357 0 1
-4.0883 22.1694 -4.3625 0.1266 0 1
-5.5016 24.3052 -4.8225 0.1156 0 1
-7.1887 26.7173 -5.3542 0.1109 0 1
-9.3446 29.8821 -6.0589 0.0883 0 1
-12.2771 34.3441 -7.0581 0.0745 0 1
-16.0505 39.7739 -8.3001 0.0669 0 1
-16.0126 29.0155 -6.4133 0.5316 0 15
-16.2334 26.8065 -6.0646 0.5662 0 15
-17.3335 26.1844 -6.0768 0.7511 0 15
-28.7603 36.6601 -9.0170 0.7767 0 3
-28.7910 33.8052 -8.5930 0.6589 0 3
-28.8913 31.2811 -8.2403 0.6871 0 3
-28.9798 28.9484 -7.9268 0.7143 0 3
-17.9356 16.5293 -4.7200 0.5281 0 22
-19.4260 16.5082 -4.9333 0.7162 0 22
-27.5901 21.5964 -6.7804 0.7893 0 3
-29.2411 21.0482 -6.9722 0.8120 0 3
-29.2893 19.3431 -6.7925 0.8335 0 3
-29.4375 17.7830 -6.6554 0.5134 0 3
-32.1386 17.6906 -7.0994 0.4048 0 3
-39.1637 19.5476 -8.4705 0.8903 0 3
-39.3838 17.7159 -8.3571 0.4089 0 3
-40.6147 16.3385 -8.4718 0.9215 0 3
-27.6396 9.8466 -5.6780 0.9602 0 22
-27.6595 7.4100 -5.5414 0.9398 0 22
-26.0652 -11.7119 -5.5299 0.8108 15 6
-31.3787 -15.6458 -6.7853 0.9100 0 22
-32.9233 -32.8607 -9.0017 0.9968 0 20
-31.6626 -34.2534 -9.0268 0.9945 0 20
-16.3539 -40.4780 -8.4484 0.0703 0 2
-12.1217 -33.8655 -6.9607 0.0725 0 1
-9.2517 -29.5426 -5.9908 0.0840 0 1
-6.9944 -25.9526 -5.2015 0.0883 0 1
-5.2298 -23.0605 -4.5759 0.1077 0 1
-3.8569 -20.8668 -4.1065 0.1225 0 1
-2.7427 -19.1120 -3.7364 0.1469 0 1
-1.8177 -17.7071 -3.4446 0.1545 0 1
-1.0222 -16.4505 -3.1896 0.1705 0 1
-0.3350 -15.3517 -2.9715 0.1816 0 1
0.2646 -14.3650 -2.7804 0.2011 0 1
0.7927 -13.4992 -2.6168 0.2129 0 1
1.2609 -12.7085 -2.4714 0.2255 0 1
1.6744 -11.9567 -2.3364 0.2277 0 1
2.0402 -11.2521 -2.2130 0.2403 0 1
2.3684 -10.6105 -2.1039 0.2550 0 1
2.6640 -10.0203 -2.0065 0.2674 0 1
2.9307 -9.4711 -1.9186 0.2804 0 1
3.1734 -8.9618 -1.8398 0.2924 0 1
3.3941 -8.4838 -1.7683 0.3016 0 1
3.5976 -8.0387 -1.7043 0.3129 0 1
3.7836 -7.6167 -1.6458 0.3264 0 1
3.9553 -7.2181 -1.5928 0.3373 0 1
4.1130 -6.8380 -1.5442 0.3479 0 1
4.2582 -6.4746 -1.4996 0.3582 0 1
4.3811 -6.1110 -1.4551 0.3595 0 1
4.4884 -5.7567 -1.4126 0.3703 0 1
4.5874 -5.4191 -1.3740 0.3843 0 1
4.6791 -5.0967 -1.3389 0.3944 0 1
4.7631 -4.7865 -1.3067 0.4041 0 1
4.8398 -4.4872 -1.2772 0.4134 0 1
4.9067 -4.1950 -1.2493 0.4121 0 1
4.9668 -3.9118 -1.2235 0.4208 0 1
5.0340 -3.6465 -1.2029 0.4454 0 1
5.0976 -3.3885 -1.1845 0.4523 0 1
5.1569 -3.1364 -1.1680 0.4587 0 1
5.2114 -2.8890 -1.1531 0.4647 0 1
5.2614 -2.6458 -1.1397 0.4702 0 1
5.3071 -2.4064 -1.1277 0.4752 0 1
5.3486 -2.1703 -1.1170 0.4798 0 1
5.3863 -1.9370 -1.1077 0.4838 0 1
5.4201 -1.7063 -1.0996 0.4873 0 1
5.4503 -1.4776 -1.0928 0.4904 0 1
3.9123 -0.8934 -0.7766 0.5510 25 14
3.8359 -0.7149 -0.7551 0.9704 25 14
3.8342 -0.5561 -0.7497 0.9774 25 14
3.8325 -0.3992 -0.7457 0.9827 25 14
3.8307 -0.2438 -0.7428 0.9865 25 14
3.8289 -0.0893 -0.7412 0.9887 25 14
3.8284 0.0648 -0.7410 0.9889 25 14
3.8294 0.2191 -0.7423 0.9872 25 14
3.8304 0.3743 -0.7448 0.9839 25 14
3.8314 0.5307 -0.7485 0.9790 25 14
3.8323 0.6889 -0.7535 0.9725 25 14
3.9005 0.8645 -0.7731 0.5535 25 14
5.5914 1.4776 -1.1192 0.4733 0 1
5.5820 1.7181 -1.1302 0.4687 0 1
5.5689 1.9626 -1.1426 0.4636 0 1
5.5469 2.2095 -1.1555 0.4585 0 1
5.5169 2.4591 -1.1689 0.4533 0 1
5.4825 2.7132 -1.1838 0.4476 0 1
5.4435 2.9723 -1.2002 0.4414 0 1
5.3998 3.2369 -1.2183 0.4349 0 1
5.3509 3.5077 -1.2382 0.4279 0 1
5.2967 3.7854 -1.2599 0.4205 0 1
5.2369 4.0706 -1.2836 0.4128 0 1
5.1692 4.3626 -1.3090 0.4164 0 1
5.0880 4.6571 -1.3348 0.4084 0 1
4.9998 4.9605 -1.3629 0.3999 0 1
4.9039 5.2734 -1.3936 0.3911 0 1
4.7998 5.5970 -1.4269 0.3820 0 1
4.6889 5.9352 -1.4638 0.3707 0 1
4.5705 6.2898 -1.5046 0.3607 0 1
4.4308 6.6440 -1.5454 0.3884 0 1
4.2671 6.9925 -1.5852 0.3786 0 1
4.0912 7.3542 -1.6286 0.3685 0 1
3.9134 7.7532 -1.6807 0.3480 0 1
3.7217 8.1754 -1.7383 0.3364 0 1
3.5130 8.6207 -1.8015 0.3246 0 1
3.2835 9.0876 -1.8699 0.3143 0 1
3.0354 9.5920 -1.9470 0.3019 0 1
2.7627 10.1304 -2.0320 0.2868 0 1
2.4612 10.7039 -2.1254 0.2742 0 1
2.1311 11.3398 -2.2329 0.2505 0 1
1.7648 12.0413 -2.3551 0.2375 0 1
1.3537 12.8098 -2.4927 0.2229 0 1
0.8901 13.6645 -2.6499 0.2103 0 1
0.3627 14.6135 -2.8289 0.1902 0 1
-0.2427 15.7298 -3.0444 0.1683 0 1
-0.9493 17.0361 -3.3019 0.1550 0 1
-1.7807 18.5106 -3.5987 0.1482 0 1
-2.7523 20.0913 -3.9243 0.1376 0 1
-3.9001 21.8824 -4.3014 0.1284 0 1
-5.2741 23.9652 -4.7487 0.1173 0 1
-6.9179 26.3382 -5.2698 0.1127 0 1
-8.9807 29.3337 -5.9367 0.0913 0 1
-11.7873 33.6072 -6.8920 0.0763 0 1
-29.4576 15.9859 -6.8720 0.2930 0 3
-39.0125 19.1813 -8.9137 0.8944 0 3
-40.0104 17.7105 -8.9715 0.4027 0 3
-44.7109 17.6761 -9.8579 0.3664 0 3
-27.5341 9.6237 -5.9805 0.9105 0 22
-27.5531 7.2051 -5.8394 0.9590 0 22
-23.9667 -4.5311 -5.0012 0.7941 16 6
-31.2385 -15.8101 -7.1787 0.9093 0 22
-31.1853 -17.3931 -7.3215 0.8357 0 22
-32.6438 -32.9740 -9.5137 0.9975 0 20
-31.3225 -34.2951 -9.5233 0.9977 0 20
-16.5771 -37.2990 -8.3691 0.3606 0 2
-13.1303 -33.0677 -7.2951 0.0702 0 1
-10.1902 -29.0154 -6.3055 0.0866 0 1
-7.8542 -25.6169 -5.4938 0.0893 0 1
-6.0078 -22.8348 -4.8414 0.1061 0 1
-4.5422 -20.5993 -4.3251 0.1213 0 24
-3.3880 -18.9638 -3.9499 0.1454 0 1
-2.4203 -17.6140 -3.6455 0.1544 0 1
-1.5837 -16.3923 -3.3767 0.1705 0 1
-0.8602 -15.3247 -3.1471 0.1827 0 1
-0.2275 -14.3636 -2.9455 0.2007 0 1
0.3299 -13.5162 -2.7722 0.2125 0 1
0.8248 -12.7412 -2.6179 0.2250 0 1
1.2649 -12.0164 -2.4774 0.2270 0 1
1.6545 -11.3205 -2.3458 0.2397 0 1
1.9982 -10.6567 -2.2231 0.2529 0 24
2.3178 -10.0991 -2.1245 0.2669 0 1
2.6018 -9.5557 -2.0306 0.2788 0 1
2.8598 -9.0499 -1.9460 0.2923 0 1
3.0949 -8.5766 -1.8695 0.3042 0 1
3.3094 -8.1306 -1.7999 0.3160 0 1
3.5066 -7.7112 -1.7369 0.3270 0 1
3.6893 -7.3167 -1.6801 0.3380 0 1
3.8574 -6.9406 -1.6281 0.3488 0 1
4.0121 -6.5808 -1.5803 0.3594 0 1
4.1548 -6.2357 -1.5364 0.3697 0 1
4.2715 -5.8834 -1.4908 0.3710 0 1
4.3781 -5.5464 -1.4488 0.3853 0 1
4.4777 -5.2258 -1.4110 0.3956 0 1
4.5690 -4.9173 -1.3763 0.4056 0 1
4.6525 -4.6197 -1.3443 0.4152 0 1
4.7257 -4.3291 -1.3141 0.4142 0 1
4.7921 -4.0477 -1.2862 0.4232 0 1
4.8580 -3.7793 -1.2620 0.4488 0 1
4.9257 -3.5233 -1.2417 0.4561 0 1
4.9890 -3.2734 -1.2235 0.4630 0 1
5.0478 -3.0288 -1.2070 0.4693 0 1
5.1019 -2.7885 -1.1921 0.4752 0 1
5.1514 -2.5520 -1.1787 0.4806 0 1
5.1966 -2.3189 -1.1668 0.4855 0 1
5.2378 -2.0889 -1.1562 0.4900 0 1
5.2750 -1.8615 -1.1470 0.4940 0 1
5.3084 -1.6363 -1.1390 0.4974 0 1
5.3381 -1.4130 -1.1322 0.5004 0 1
3.8848 -0.8627 -0.8159 0.6392 25 14
3.8336 -0.6908 -0.7987 0.9699 25 14
3.8319 -0.5324 -0.7932 0.9766 25 14
3.8302 -0.3758 -0.7891 0.9817 25 14
3.8278 -0.2206 -0.7861 0.9937 25 14
3.8222 -0.0663 -0.7838 0.9967 25 14
3.8235 0.0876 -0.7842 0.9962 25 14
3.8276 0.2420 -0.7864 0.9851 25 14
3.8286 0.3972 -0.7892 0.9816 25 14
3.8295 0.5538 -0.7934 0.9764 25 14
3.8304 0.7123 -0.7989 0.9698 25 14
3.9181 0.8930 -0.8240 0.5491 25 14
5.4682 1.4801 -1.1615 0.4898 0 1
5.4574 1.7156 -1.1730 0.4851 0 1
5.4428 1.9548 -1.1858 0.4798 0 1
5.4155 2.1948 -1.1981 0.4675 0 1
5.3841 2.4386 -1.2119 0.4622 0 1
5.3482 2.6867 -1.2272 0.4564 0 1
5.3077 2.9395 -1.2441 0.4503 0 1
5.2624 3.1976 -1.2626 0.4437 0 1
5.2119 3.4614 -1.2829 0.4366 0 1
5.1560 3.7316 -1.3050 0.4292 0 1
5.0946 4.0091 -1.3293 0.4214 0 1
5.0274 4.2947 -1.3557 0.4250 0 1
4.9448 4.5808 -1.3821 0.4169 0 1
4.8551 4.8750 -1.4107 0.4085 0 1
4.7578 5.1781 -1.4418 0.3997 0 1
4.6522 5.4911 -1.4757 0.3905 0 1
4.5401 5.8180 -1.5131 0.3791 0 1
4.4200 6.1598 -1.5545 0.3691 0 1
4.2885 6.5148 -1.5992 0.3968 0 1
4.1246 6.8509 -1.6396 0.3870 0 1
3.9488 7.1992 -1.6836 0.3769 0 1
3.7699 7.5813 -1.7361 0.3561 0 1
3.5779 7.9859 -1.7943 0.3446 0 1
3.3692 8.4115 -1.8579 0.3328 0 1
3.1413 8.8596 -1.9274 0.3267 0 1
2.8936 9.3379 -2.0045 0.3074 0 1
2.6217 9.8450 -2.0890 0.2950 0 1
2.3228 10.3863 -2.1822 0.2823 0 1
1.9944 10.9737 -2.2869 0.2674 0 1
1.6328 11.6252 -2.4070 0.2457 0 1
1.2221 12.2664 -2.5276 0.2304 0 24
0.7761 13.1239 -2.6956 0.2186 0 1
0.2631 13.9744 -2.8658 0.2056 0 1
-0.3203 14.9577 -3.0676 0.1765 0 1
-0.9961 16.1377 -3.3152 0.1692 0 1
-1.7838 17.4468 -3.5959 0.1538 0 1
-2.6974 18.8512 -3.9046 0.1444 0 1
-3.7684 20.4347 -4.2606 0.1371 0 1
-5.0310 22.2262 -4.6725 0.1232 0 1
-6.5391 24.3029 -5.1603 0.1155 0 1
-8.3469 26.6918 -5.7342 0.1037 0 1
-10.7262 30.0057 -6.5336 0.0833 0 1
-13.8261 34.2619 -7.5755 0.0728 0 1
-17.2072 38.1423 -8.5797 0.0624 0 2
-15.7262 31.4221 -7.2046 0.3535 0 15
-15.8875 28.7888 -6.7421 0.5364 0 15
-16.1076 26.5987 -6.3759 0.5742 0 15
-17.2906 26.1196 -6.4227 0.7743 0 15
-29.5506 37.6675 -9.8164 0.7750 0 3
-28.6347 33.6217 -9.0552 0.6610 0 3
-30.1717 32.6675 -9.1179 0.7243 0 3
-27.9380 27.9077 -8.0968 0.8235 0 3
-17.9329 16.5268 -5.0003 0.6635 0 22
-19.4270 16.5091 -5.2273 0.6679 0 22
-29.0543 22.7425 -7.5653 0.7912 0 3
-28.6794 20.6439 -7.2454 0.0596 0 3
-27.5686 18.2067 -6.7741 0.6557 0 3
-29.4361 17.7821 -7.0514 0.5123 0 3
-32.2701 17.7630 -7.5528 0.4783 0 3
-32.5918 16.2674 -7.4688 0.4821 0 3
-38.9994 17.5429 -8.7682 0.5773 0 3
-43.9588 17.6838 -9.7153 0.3718 0 3
-27.5359 9.8096 -5.9935 0.9528 0 22
-27.5188 8.5727 -5.9099 0.2797 0 6
-27.5607 7.3836 -5.8503 0.9411 0 22
-25.5421 -15.4156 -6.1171 0.5967 15 6
-32.8291 -32.7667 -9.5104 0.9975 0 20
-31.5403 -34.1212 -9.5273 0.9973 0 20
-17.2551 -38.2066 -8.5957 0.0623 0 2
-13.6937 -33.8936 -7.4953 0.0626 0 1
-10.5759 -29.5467 -6.4346 0.0848 0 1
-8.1720 -26.0949 -5.6067 0.0875 0 1
-6.2528 -23.2008 -4.9268 0.1043 0 1
-4.7376 -20.8901 -4.3921 0.1196 0 24
-3.5472 -19.1909 -4.0015 0.1383 0 1
-2.5558 -17.8090 -3.6890 0.1573 0 1
-1.7002 -16.5626 -3.4138 0.1679 0 1
-0.9617 -15.4766 -3.1794 0.1808 0 1
-0.3164 -14.4968 -2.9731 0.1988 0 1
0.2512 -13.6377 -2.7967 0.2106 0 1
0.7547 -12.8521 -2.6397 0.2232 0 1
1.2030 -12.1252 -2.4984 0.2251 0 1
1.5993 -11.4203 -2.3645 0.2378 0 1
1.9487 -10.7474 -2.2396 0.2509 0 24
2.2730 -10.1832 -2.1393 0.2651 0 1
2.5613 -9.6341 -2.0440 0.2770 0 1
2.8229 -9.1228 -1.9580 0.2905 0 1
3.0613 -8.6452 -1.8805 0.3024 0 1
3.2787 -8.1953 -1.8099 0.3142 0 1
3.4782 -7.7719 -1.7459 0.3224 0 1
3.6631 -7.3742 -1.6883 0.3364 0 1
3.8333 -6.9954 -1.6356 0.3472 0 1
3.9899 -6.6333 -1.5872 0.3578 0 1
4.1343 -6.2862 -1.5427 0.3682 0 1
4.2549 -5.9349 -1.4973 0.3694 0 1
4.3628 -5.5955 -1.4548 0.3802 0 1
4.4635 -5.2727 -1.4165 0.3941 0 1
4.5559 -4.9625 -1.3813 0.4041 0 1
4.6406 -4.6634 -1.3489 0.4138 0 1
4.7153 -4.3718 -1.3184 0.4128 0 1
4.7826 -4.0890 -1.2902 0.4219 0 1
4.8475 -3.8179 -1.2652 0.4477 0 1
4.9160 -3.5610 -1.2446 0.4551 0 1
4.9798 -3.3102 -1.2261 0.4620 0 1
5.0394 -3.0649 -1.2094 0.4684 0 1
5.0941 -2.8239 -1.1943 0.4743 0 1
5.1443 -2.5869 -1.1806 0.4798 0 1
5.1902 -2.3534 -1.1685 0.4848 0 1
5.2319 -2.1229 -1.1577 0.4894 0 1
5.2697 -1.8951 -1.1483 0.4934 0 1
5.3037 -1.6696 -1.1401 0.4969 0 1
5.3340 -1.4461 -1.1332 0.5000 0 1
3.9070 -0.8922 -0.8217 0.6347 25 14
3.8339 -0.7146 -0.7996 0.9688 25 14
3.8322 -0.5558 -0.7940 0.9757 25 14
3.8305 -0.3990 -0.7897 0.9811 25 14
3.8286 -0.2437 -0.7866 0.9932 25 14
3.8230 -0.0892 -0.7841 0.9963 25 14
3.8226 0.0647 -0.7839 0.9966 25 14
3.8275 0.2190 -0.7861 0.9855 25 14
3.8285 0.3741 -0.7887 0.9822 25 14
3.8294 0.5304 -0.7927 0.9773 25 14
3.8303 0.6886 -0.7980 0.9709 25 14
3.8901 0.8622 -0.8170 0.6384 25 14
5.4695 1.4454 -1.1600 0.4905 0 1
5.4592 1.6803 -1.1712 0.4858 0 1
5.4452 1.9190 -1.1838 0.4806 0 1
5.4199 2.1589 -1.1962 0.4683 0 1
5.3890 2.4021 -1.2098 0.4630 0 1
5.3538 2.6495 -1.2248 0.4573 0 1
5.3141 2.9016 -1.2414 0.4512 0 1
5.2695 3.1588 -1.2597 0.4447 0 1
5.2198 3.4218 -1.2797 0.4377 0 1
5.1647 3.6910 -1.3016 0.4304 0 1
5.1040 3.9673 -1.3255 0.4226 0 1
5.0379 4.2518 -1.3517 0.4144 0 1
4.9575 4.5377 -1.3780 0.4182 0 1
4.8689 4.8307 -1.4063 0.4098 0 1
4.7728 5.1324 -1.4370 0.4010 0 1
4.6685 5.4439 -1.4704 0.3919 0 1
4.5571 5.7683 -1.5073 0.3806 0 1
4.4385 6.1081 -1.5481 0.3706 0 1
4.3094 6.4620 -1.5926 0.3602 0 1
4.1497 6.8002 -1.6334 0.3885 0 1
3.9757 7.1466 -1.6768 0.3784 0 1
3.7971 7.5228 -1.7278 0.3578 0 1
3.6075 7.9245 -1.7853 0.3463 0 1
3.4013 8.3468 -1.8481 0.3346 0 1
3.1768 8.7923 -1.9168 0.3226 0 1
2.9320 9.2651 -1.9926 0.3092 0 1
2.6638 9.7675 -2.0759 0.2968 0 1
2.3691 10.3035 -2.1677 0.2842 0 1
2.0453 10.8833 -2.2706 0.2693 0 1
1.6890 11.5243 -2.3882 0.2476 0 1
1.2923 12.2281 -2.5212 0.2346 0 1
0.8419 12.9233 -2.6554 0.2181 0 24
0.3435 13.8424 -2.8391 0.2076 0 1
-0.2283 14.8000 -3.0350 0.1874 0 1
-0.8891 15.9569 -3.2769 0.1711 0 1
-1.6594 17.2499 -3.5532 0.1557 0 1
-2.5522 18.6308 -3.8557 0.1462 0 1
-3.5981 20.1880 -4.2046 0.1357 0 1
-4.8278 21.9375 -4.6057 0.1250 0 1
-6.2981 23.9782 -5.0832 0.1172 0 1
-8.0470 26.2840 -5.6362 0.1101 0 1
-10.3270 29.4435 -6.3976 0.0863 0 1
-32.7250 17.7590 -8.0652 0.4721 0 3
-33.1040 16.2763 -7.9906 0.4659 0 3
-40.0080 17.7095 -9.4774 0.4017 0 3
-44.7080 17.6750 -10.4137 0.3656 0 3
-27.4106 9.5805 -6.2897 0.9053 0 22
-27.4518 7.1785 -6.1464 0.9441 0 22
-23.8913 -4.5168 -5.2668 0.4190 16 6
-25.6685 -9.3060 -5.9143 0.7348 15 6
-31.1142 -15.7471 -7.5538 0.9108 0 22
-32.7214 -33.0524 -10.0746 0.9931 0 20
-31.1579 -34.1149 -10.0080 0.9686 0 20
-22.7125 -41.7040 -10.2865 0.6011 0 9
-18.2294 -36.9368 -8.9224 0.0632 0 2
-14.7347 -33.1535 -7.8588 0.0663 0 1
-11.4606 -28.8626 -6.7269 0.0855 0 1
-9.0084 -25.6503 -5.8889 0.0878 0 1
-7.0264 -22.9168 -5.1922 0.1047 0 1
-5.4416 -20.6829 -4.6327 0.1199 0 24
-4.1989 -19.0425 -4.2239 0.1381 0 1
-3.1562 -17.6665 -3.8874 0.1573 0 1
-2.2636 -16.4739 -3.6020 0.1677 0 1
-1.4897 -15.4191 -3.3555 0.1808 0 1
-0.8124 -14.4728 -3.1399 0.1984 0 1
-0.2159 -13.6333 -2.9535 0.2109 0 1
0.3140 -12.8656 -2.7877 0.2227 0 1
0.7869 -12.1565 -2.6388 0.2252 0 1
1.2079 -11.4745 -2.4993 0.2371 0 1
1.5836 -10.8360 -2.3722 0.2498 0 1
1.9168 -10.2226 -2.2530 0.2628 0 24
2.2281 -9.7086 -2.1577 0.2766 0 1
2.5054 -9.2017 -2.0658 0.2889 0 1
2.7585 -8.7293 -1.9831 0.3023 0 1
2.9895 -8.2844 -1.9078 0.3142 0 1
3.2007 -7.8635 -1.8390 0.3259 0 1
3.3950 -7.4658 -1.7765 0.3399 0 1
3.5755 -7.0910 -1.7202 0.3480 0 1
3.7420 -6.7329 -1.6685 0.3588 0 1
3.8955 -6.3895 -1.6210 0.3693 0 1
4.0351 -6.0561 -1.5764 0.3698 0 1
4.1519 -5.7186 -1.5308 0.3808 0 1
4.2599 -5.3967 -1.4893 0.3951 0 1
4.3599 -5.0883 -1.4515 0.4054 0 1
4.4516 -4.7910 -1.4166 0.4153 0 1
4.5328 -4.5009 -1.3837 0.4146 0 1
4.6065 -4.2199 -1.3532 0.4239 0 1
4.6737 -3.9477 -1.3252 0.4329 0 1
4.7447 -3.6911 -1.3021 0.4585 0 1
4.8126 -3.4424 -1.2817 0.4658 0 1
4.8760 -3.1993 -1.2633 0.4726 0 1
4.9350 -2.9611 -1.2467 0.4789 0 1
4.9893 -2.7269 -1.2316 0.4848 0 1
5.0390 -2.4963 -1.2181 0.4902 0 1
5.0843 -2.2688 -1.2060 0.4951 0 1
5.1256 -2.0441 -1.1953 0.4996 0 1
5.1629 -1.8219 -1.1859 0.5035 0 1
5.1964 -1.6017 -1.1779 0.5070 0 1
5.2261 -1.3833 -1.1710 0.5099 0 1
3.8820 -0.8621 -0.8614 0.6381 25 14
3.8316 -0.6905 -0.8433 0.9682 25 14
3.8300 -0.5321 -0.8376 0.9748 25 14
3.8270 -0.3755 -0.8330 0.9885 25 14
3.8216 -0.2203 -0.8292 0.9930 25 14
3.8161 -0.0661 -0.8267 0.9959 25 14
3.8174 0.0875 -0.8271 0.9955 25 14
3.8229 0.2417 -0.8298 0.9923 25 14
3.8267 0.3970 -0.8334 0.9798 25 14
3.8276 0.5535 -0.8377 0.9747 25 14
3.8284 0.7119 -0.8435 0.9680 25 14
3.9116 0.8916 -0.8690 0.6326 25 14
5.3512 1.4484 -1.2008 0.4994 0 1
5.3394 1.6785 -1.2124 0.4946 0 1
5.3216 1.9113 -1.2248 0.4823 0 1
5.2935 2.1454 -1.2372 0.4772 0 1
5.2614 2.3831 -1.2511 0.4719 0 1
5.2249 2.6247 -1.2666 0.4661 0 1
5.1837 2.8708 -1.2836 0.4600 0 1
5.1376 3.1217 -1.3022 0.4534 0 1
5.0864 3.3780 -1.3226 0.4464 0 1
5.0297 3.6402 -1.3449 0.4390 0 1
4.9676 3.9092 -1.3693 0.4312 0 1
4.8998 4.1857 -1.3959 0.4230 0 1
4.8203 4.4654 -1.4233 0.4267 0 1
4.7304 4.7497 -1.4521 0.4183 0 1
4.6329 5.0422 -1.4833 0.4095 0 1
4.5273 5.3437 -1.5171 0.4003 0 1
4.4149 5.6575 -1.5545 0.3890 0 1
4.2948 5.9855 -1.5958 0.3789 0 1
4.1644 6.3262 -1.6406 0.3686 0 1
4.0133 6.6661 -1.6855 0.3968 0 1
3.8394 6.9999 -1.7294 0.3867 0 1
3.6601 7.3606 -1.7807 0.3660 0 1
3.4704 7.7459 -1.8386 0.3544 0 1
3.2644 8.1500 -1.9017 0.3427 0 1
3.0396 8.5728 -1.9703 0.3229 0 1
2.7965 9.0243 -2.0465 0.3173 0 1
2.5301 9.5009 -2.1298 0.3049 0 1
2.2381 10.0078 -2.2214 0.2923 0 1
1.9179 10.5526 -2.3233 0.2774 0 1
1.5650 11.1424 -2.4373 0.2644 0 1
1.1689 11.7327 -2.5540 0.2493 0 24
0.7399 12.5114 -2.7149 0.2288 0 1
0.2501 13.2831 -2.8778 0.2158 0 1
-0.3027 14.1370 -3.0630 0.1957 0 1
-0.9356 15.1565 -3.2894 0.1735 0 1
-1.6673 16.3071 -3.5508 0.1642 0 1
-2.5100 17.5413 -3.8384 0.1541 0 1
-3.4889 18.9187 -4.1671 0.1443 0 1
-4.6296 20.4528 -4.5424 0.1355 0 1
-5.9770 22.2139 -4.9830 0.1236 0 1
-7.5698 24.2069 -5.4939 0.1135 0 1
-9.5388 26.6838 -6.1383 0.1021 0 1
-12.0932 29.9676 -7.0000 0.0819 0 1
-15.2896 33.8915 -8.0538 0.0766 0 1
-15.5833 31.1366 -7.5422 0.4648 0 15
-15.7720 28.5795 -7.0708 0.5363 0 15
-15.9895 26.4037 -6.6864 0.5776 0 15
-17.2686 26.0864 -6.7766 0.7606 0 15
-27.3442 37.9009 -10.1235 0.6635 0 3
-29.5497 37.6664 -10.3702 0.7732 0 3
-28.4795 33.4394 -9.5144 0.6631 0 3
-30.1707 32.6664 -9.6323 0.7226 0 3
-28.6903 28.6592 -8.7842 0.7182 0 3
-28.9335 26.6648 -8.5230 0.6674 0 3
-19.4431 16.5228 -5.5270 0.6305 0 22
-28.9226 22.6394 -7.9561 0.7929 0 3
-28.9839 20.8630 -7.7357 0.8155 0 3
-29.0382 19.1773 -7.5380 0.8369 0 3
-29.2263 17.6554 -7.3963 0.8570 0 3
-32.2685 17.7621 -7.9787 0.4772 0 3
-33.1371 16.5395 -8.0224 0.4641 0 3
-39.3792 17.7137 -9.3533 0.4071 0 3
-43.9498 17.6801 -10.2616 0.3710 0 3
-27.4242 9.7699 -6.3062 0.9489 0 22
-27.3911 8.5329 -6.2145 0.8884 0 6
-27.4611 7.3569 -6.1582 0.9468 0 22
-25.6850 -9.1384 -5.9054 0.4177 15 6
-31.0214 -17.0590 -7.6687 0.9139 0 6
-25.3669 -16.7378 -6.5832 0.8775 15 6
-32.9420 -32.8793 -10.0818 0.9924 0 20
-31.4087 -33.9788 -10.0231 0.9671 0 20
-31.4169 -36.8579 -10.4907 0.2120 0 20
-18.1514 -27.3956 -7.1186 0.8718 0 6
-23.1406 -41.8913 -10.3667 0.5619 0 9
-18.9490 -37.8227 -9.1636 0.0616 0 2
-15.3359 -33.9570 -8.0709 0.0649 0 1
-11.8711 -29.3827 -6.8645 0.0828 0 1
-9.3500 -26.1218 -6.0099 0.0860 0 1
-7.2897 -23.2776 -5.2837 0.1028 0 1
-5.6514 -20.9694 -4.7043 0.1182 0 24
-4.3713 -19.2749 -4.2812 0.1309 0 1
-3.2997 -17.8519 -3.9325 0.1555 0 1
-2.3883 -16.6421 -3.6418 0.1659 0 1
-1.5982 -15.5682 -3.3900 0.1790 0 1
-0.9076 -14.6066 -3.1701 0.1897 0 1
-0.3002 -13.7532 -2.9798 0.2091 0 1
0.2387 -12.9600 -2.8078 0.2206 0 24
0.7201 -12.2616 -2.6606 0.2334 0 1
1.1445 -11.5347 -2.5108 0.2350 0 24
1.5303 -10.9278 -2.3902 0.2480 0 1
1.8688 -10.3064 -2.2689 0.2609 0 24
2.1845 -9.7869 -2.1721 0.2748 0 1
2.4659 -9.2750 -2.0789 0.2871 0 1
2.7223 -8.7977 -1.9949 0.3005 0 1
2.9564 -8.3490 -1.9185 0.3124 0 1
3.1704 -7.9247 -1.8489 0.3242 0 1
3.3671 -7.5237 -1.7855 0.3382 0 1
3.5496 -7.1457 -1.7283 0.3464 0 1
3.7180 -6.7852 -1.6760 0.3572 0 1
3.8734 -6.4397 -1.6278 0.3677 0 1
4.0169 -6.1076 -1.5835 0.3681 0 1
4.1352 -5.7679 -1.5373 0.3792 0 1
4.2443 -5.4435 -1.4952 0.3935 0 1
4.3456 -5.1334 -1.4569 0.4038 0 1
4.4385 -4.8346 -1.4216 0.4139 0 1
4.5213 -4.5435 -1.3884 0.4132 0 1
4.5960 -4.2611 -1.3576 0.4226 0 1
4.6641 -3.9877 -1.3292 0.4316 0 1
4.7341 -3.7286 -1.3053 0.4573 0 1
4.8029 -3.4790 -1.2846 0.4647 0 1
4.8668 -3.2351 -1.2659 0.4717 0 1
4.9266 -2.9963 -1.2490 0.4780 0 1
4.9815 -2.7615 -1.2338 0.4839 0 1
5.0318 -2.5304 -1.2200 0.4894 0 1
5.0778 -2.3024 -1.2077 0.4944 0 1
5.1197 -2.0774 -1.1968 0.4989 0 1
5.1576 -1.8548 -1.1873 0.5030 0 1
5.1916 -1.6344 -1.1790 0.5065 0 1
5.2219 -1.4157 -1.1720 0.5095 0 1
3.9042 -0.8916 -0.8675 0.6337 25 14
3.8319 -0.7142 -0.8443 0.9671 25 14
3.8302 -0.5555 -0.8384 0.9739 25 14
3.8278 -0.3987 -0.8336 0.9877 25 14
3.8224 -0.2433 -0.8297 0.9924 25 14
3.8169 -0.0890 -0.8270 0.9956 25 14
3.8166 0.0646 -0.8268 0.9958 25 14
3.8221 0.2187 -0.8293 0.9929 25 14
3.8265 0.3739 -0.8328 0.9804 25 14
3.8274 0.5302 -0.8370 0.9755 25 14
3.8283 0.6882 -0.8426 0.9691 25 14
3.8895 0.8621 -0.8630 0.6370 25 14
5.3526 1.4145 -1.1992 0.5000 0 1
5.3414 1.6440 -1.2106 0.4953 0 1
5.3255 1.8768 -1.2231 0.4830 0 1
5.2979 2.1103 -1.2353 0.4779 0 1
5.2665 2.3475 -1.2490 0.4727 0 1
5.2306 2.5885 -1.2642 0.4670 0 1
5.1901 2.8339 -1.2809 0.4609 0 1
5.1448 3.0841 -1.2993 0.4544 0 1
5.0943 3.3395 -1.3195 0.4474 0 1
5.0385 3.6008 -1.3415 0.4401 0 1
4.9772 3.8687 -1.3655 0.4324 0 1
4.9103 4.1441 -1.3918 0.4242 0 1
4.8330 4.4238 -1.4192 0.4279 0 1
4.7442 4.7069 -1.4476 0.4196 0 1
4.6479 4.9982 -1.4785 0.4108 0 1
4.5436 5.2983 -1.5119 0.4017 0 1
4.4319 5.6098 -1.5486 0.3905 0 1
4.3133 5.9359 -1.5894 0.3804 0 1
4.1845 6.2747 -1.6337 0.3701 0 1
4.0382 6.6174 -1.6792 0.3983 0 1
3.8661 6.9495 -1.7226 0.3882 0 1
3.6871 7.3048 -1.7725 0.3677 0 1
3.4996 7.6874 -1.8296 0.3562 0 1
3.2961 8.0886 -1.8920 0.3444 0 1
3.0750 8.5105 -1.9601 0.3325 0 1
2.8341 8.9558 -2.0348 0.3192 0 1
2.5712 9.4282 -2.1169 0.3068 0 1
2.2833 9.9303 -2.2072 0.2942 0 1
1.9674 10.4685 -2.3073 0.2793 0 1
1.6198 11.0518 -2.4196 0.2664 0 1
1.2294 11.6335 -2.5340 0.2503 0 24
0.8032 12.3291 -2.6763 0.2346 0 24
0.3267 13.1637 -2.8523 0.2177 0 1
-0.2160 14.0005 -3.0331 0.2048 0 1
-0.8354 14.9918 -3.2525 0.1755 0 1
-1.5472 16.0831 -3.4999 0.1637 0 24
-2.3768 17.3504 -3.7934 0.1559 0 1
-3.3338 18.7048 -4.1156 0.1462 0 1
-4.4474 20.2087 -4.4822 0.1332 0 1
-5.7619 21.9368 -4.9130 0.1235 0 1
-7.3141 23.8903 -5.4121 0.1153 0 1
-9.2175 26.2801 -6.0326 0.1025 0 1
-31.0823 16.8675 -8.0716 0.4709 0 3
-33.6875 16.5632 -8.5681 0.4567 0 3
-40.0056 17.7084 -9.9856 0.4008 0 3
