ply
format ascii 1.0
element vertex 1393
property float32 x
property float32 y
property float32 z
property float32 CosAngle
property uint32 ObjIdx
property uint32 ObjTag
end_header
3.2822 2.2215 -1.8951 0.6396 0 1
3.2262 2.3781 -1.9165 0.6325 0 1
3.1654 2.5359 -1.9394 0.6250 0 1
3.0998 2.6949 -1.9640 0.6172 0 1
3.0290 2.8551 -1.9904 0.6090 0 1
2.9529 3.0167 -2.0185 0.6005 0 1
2.8714 3.1796 -2.0486 0.5917 0 1
2.7840 3.3439 -2.0806 0.5826 0 1
2.6906 3.5096 -2.1146 0.5733 0 1
2.5910 3.6768 -2.1508 0.5636 0 1
2.4825 3.8421 -2.1873 0.5586 0 1
2.3668 4.0080 -2.2257 0.5490 0 1
2.2441 4.1750 -2.2665 0.5391 0 1
2.1140 4.3430 -2.3096 0.5290 0 1
1.9640 4.4846 -2.3410 0.5203 0 24
1.8194 4.6555 -2.3901 0.5096 0 24
1.6749 4.8527 -2.4547 0.4983 0 1
1.5109 5.0242 -2.5087 0.4880 0 1
1.3374 5.1964 -2.5657 0.4771 0 1
1.1539 5.3691 -2.6260 0.4662 0 1
0.9599 5.5429 -2.6899 0.4553 0 1
0.7549 5.7185 -2.7581 0.4440 0 1
0.5381 5.8944 -2.8302 0.4327 0 1
0.3088 6.0705 -2.9064 0.4222 0 1
0.0663 6.2458 -2.9867 0.4108 0 1
-0.1901 6.4207 -3.0715 0.3995 0 1
-0.4612 6.5949 -3.1612 0.3881 0 1
-0.7477 6.7680 -3.2559 0.3760 0 1
-1.0507 6.9398 -3.3562 0.3648 0 1
-1.3699 7.1050 -3.4599 0.3577 0 1
-1.7064 7.2653 -3.5686 0.3468 0 1
-2.0612 7.4216 -3.6831 0.3360 0 1
-2.4352 7.5731 -3.8038 0.3253 0 1
-2.8292 7.7187 -3.9309 0.3149 0 1
-3.2441 7.8575 -4.0648 0.3045 0 1
-3.6805 7.9879 -4.2055 0.2945 0 1
-4.1392 8.1088 -4.3533 0.2845 0 1
-4.6220 8.2206 -4.5095 0.2718 0 1
-5.1299 8.3219 -4.6746 0.2622 0 1
-5.6624 8.4091 -4.8476 0.2528 0 1
-6.2154 8.4739 -5.0250 0.2460 0 1
-6.7895 8.5161 -5.2079 0.2403 0 1
-7.3859 8.5362 -5.3975 0.2319 0 1
-8.0074 8.5353 -5.5962 0.2154 0 1
-8.6720 8.5290 -5.8161 0.2072 0 1
-9.3610 8.4939 -6.0441 0.1994 0 1
-10.0738 8.4275 -6.2803 0.1918 0 1
-10.8116 8.3294 -6.5260 0.1834 0 1
-11.5682 8.1928 -6.7783 0.1761 0 1
-12.3450 8.0177 -7.0387 0.1696 0 1
-13.1314 7.7964 -7.3023 0.1636 0 1
-13.9311 7.5307 -7.5724 0.1569 0 1
-14.7362 7.2160 -7.8458 0.1485 0 1
-15.5386 6.8487 -8.1197 0.1442 0 1
-16.3184 6.4219 -8.3854 0.1391 0 1
-17.0086 5.9155 -8.6108 0.1345 0 24
-17.7608 5.3870 -8.8747 0.1309 0 1
-16.3640 4.2530 -8.0847 0.9216 26 14
-16.1428 3.5093 -7.8992 0.9591 26 14
-16.1593 2.8378 -7.8451 0.9656 26 14
-16.4234 2.2078 -7.9238 0.1274 26 14
-20.1094 1.8839 -9.6577 0.1222 0 1
-20.2991 1.0808 -9.7201 0.1214 0 1
-20.3755 0.2645 -9.7437 0.1217 0 1
-20.3431 -0.5542 -9.7310 0.1220 0 1
-20.2053 -1.3650 -9.6835 0.1237 0 1
-19.9565 -2.1571 -9.5981 0.1248 0 1
-19.6104 -2.9214 -9.4805 0.1264 0 1
-19.1865 -3.6522 -9.3391 0.1299 0 1
-18.6806 -4.3408 -9.1704 0.1309 0 1
-18.0983 -4.9803 -8.9757 0.1337 0 1
-17.4522 -5.5664 -8.7592 0.1368 0 1
-16.7557 -6.0967 -8.5259 0.1396 0 1
-16.0114 -6.5663 -8.2749 0.1436 0 1
-15.2352 -6.9761 -8.0124 0.1468 0 1
-14.4277 -7.3218 -7.7363 0.1519 0 1
-13.5610 -7.5825 -7.4292 0.1571 0 24
-12.7978 -7.8472 -7.1783 0.1633 0 1
-12.0007 -8.0397 -6.9070 0.1745 0 1
-11.2295 -8.1958 -6.6476 0.1826 0 1
-10.4756 -8.3112 -6.3941 0.1898 0 1
-9.7525 -8.3981 -6.1541 0.2048 0 1
-9.0641 -8.4632 -5.9297 0.2125 0 1
-8.3978 -8.4982 -5.7129 0.2206 0 1
-7.7537 -8.5048 -5.5031 0.2259 0 1
-7.1277 -8.4792 -5.2967 0.2342 0 1
-6.5280 -8.4321 -5.0990 0.2433 0 1
-5.9550 -8.3663 -4.9104 0.2527 0 1
-5.4079 -8.2837 -4.7303 0.2617 0 1
-4.8855 -8.1845 -4.5578 0.2706 0 1
-4.3888 -8.0731 -4.3938 0.2807 0 1
-3.9044 -7.9258 -4.2247 0.2905 0 24
-3.4685 -7.8192 -4.0902 0.3020 0 1
-3.0428 -7.6786 -3.9494 0.3106 0 1
-2.6300 -7.5048 -3.8025 0.3223 0 24
-2.2564 -7.3764 -3.6885 0.3325 0 1
-1.8944 -7.2188 -3.5687 0.3466 0 1
-1.5523 -7.0603 -3.4566 0.3578 0 1
-1.2284 -6.8988 -3.3507 0.3692 0 1
-0.9214 -6.7334 -3.2497 0.3796 0 1
-0.6307 -6.5651 -3.1537 0.3912 0 1
-0.3557 -6.3958 -3.0630 0.4026 0 1
-0.0953 -6.2108 -2.9702 0.4148 0 24
0.1506 -6.0550 -2.8962 0.4258 0 1
0.3835 -5.8844 -2.8197 0.4374 0 1
0.6039 -5.7133 -2.7471 0.4473 0 1
0.8099 -5.5263 -2.6707 0.4606 0 24
1.0095 -5.3723 -2.6138 0.4703 0 1
1.1959 -5.2024 -2.5525 0.4818 0 1
1.3719 -5.0319 -2.4939 0.4931 0 1
1.5382 -4.8625 -2.4386 0.5043 0 1
1.6954 -4.6941 -2.3865 0.5153 0 1
1.8336 -4.5015 -2.3242 0.5235 0 24
3.5027 -0.8575 -1.7737 0.7056 0 1
3.5247 -0.7140 -1.7688 0.7075 0 1
3.5432 -0.5705 -1.7652 0.7090 0 1
3.5582 -0.4270 -1.7627 0.7100 0 1
3.5699 -0.2834 -1.7614 0.7105 0 1
3.5781 -0.1396 -1.7613 0.7106 0 1
3.5839 0.0044 -1.7627 0.7092 0 1
3.5877 0.1487 -1.7661 0.7079 0 1
3.5855 0.2934 -1.7695 0.6961 0 1
3.5791 0.4383 -1.7735 0.6944 0 1
3.5691 0.5836 -1.7788 0.6924 0 1
3.5555 0.7293 -1.7852 0.6899 0 1
3.5383 0.8753 -1.7928 0.6870 0 1
3.5174 1.0219 -1.8016 0.6836 0 1
3.4928 1.1689 -1.8116 0.6799 0 1
3.4644 1.3166 -1.8229 0.6756 0 1
3.4322 1.4648 -1.8354 0.6710 0 1
3.3959 1.6137 -1.8493 0.6660 0 1
3.3556 1.7633 -1.8645 0.6606 0 1
3.3114 1.9138 -1.8812 0.6659 0 1
3.2637 2.0655 -1.8997 0.6594 0 1
3.2106 2.2176 -1.9192 0.6462 0 1
3.1538 2.3712 -1.9407 0.6391 0 1
3.0924 2.5258 -1.9639 0.6315 0 1
3.0260 2.6815 -1.9887 0.6237 0 1
2.9546 2.8383 -2.0152 0.6155 0 1
2.8780 2.9963 -2.0435 0.6069 0 1
2.7958 3.1555 -2.0736 0.5981 0 1
2.7080 3.3159 -2.1057 0.5890 0 1
2.6142 3.4776 -2.1398 0.5796 0 1
2.5141 3.6405 -2.1761 0.5745 0 1
2.4051 3.8009 -2.2123 0.5651 0 1
2.2894 3.9621 -2.2507 0.5554 0 1
2.1668 4.1242 -2.2914 0.5456 0 1
2.0368 4.2871 -2.3345 0.5355 0 1
1.8880 4.4247 -2.3661 0.5267 0 24
1.7439 4.5899 -2.4150 0.5160 0 24
1.5992 4.7798 -2.4791 0.5048 0 1
1.4362 4.9451 -2.5328 0.4945 0 1
1.2639 5.1105 -2.5894 0.4837 0 1
1.0818 5.2762 -2.6491 0.4728 0 1
0.8897 5.4432 -2.7128 0.4619 0 1
0.6868 5.6108 -2.7803 0.4507 0 1
0.4724 5.7783 -2.8516 0.4394 0 1
0.2457 5.9360 -2.9221 0.4259 0 24
0.0070 6.1114 -3.0059 0.4176 0 1
-0.2453 6.2763 -3.0894 0.4063 0 1
-0.5117 6.4398 -3.1774 0.3951 0 1
-0.7927 6.6016 -3.2703 0.3839 0 1
-1.0891 6.7610 -3.3683 0.3727 0 1
-1.4011 6.9142 -3.4699 0.3649 0 1
-1.7292 7.0614 -3.5758 0.3541 0 1
-2.0744 7.2038 -3.6872 0.3434 0 1
-2.4374 7.3407 -3.8044 0.3328 0 1
-2.8189 7.4709 -3.9275 0.3224 0 1
-3.2196 7.5936 -4.0568 0.3121 0 1
-3.6400 7.7071 -4.1923 0.3022 0 1
-4.0805 7.8103 -4.3342 0.2923 0 1
-4.5418 7.9019 -4.4828 0.2827 0 1
-5.0259 7.9831 -4.6399 0.2703 0 1
-5.5322 8.0501 -4.8043 0.2610 0 1
-6.0571 8.0961 -4.9732 0.2543 0 1
-6.6015 8.1214 -5.1477 0.2457 0 1
-7.1630 8.1219 -5.3264 0.2404 0 1
-7.7427 8.0982 -5.5108 0.2324 0 1
-8.3550 8.0631 -5.7110 0.2159 0 1
-8.9930 8.0061 -5.9221 0.2082 0 1
-9.6497 7.9187 -6.1398 0.2007 0 1
-10.3227 7.7982 -6.3632 0.1924 0 1
-11.0112 7.6429 -6.5927 0.1853 0 1
-11.7137 7.4510 -6.8283 0.1789 0 1
-12.4207 7.2163 -7.0654 0.1730 0 1
-13.1323 6.9391 -7.3055 0.1663 0 1
-13.8422 6.6165 -7.5462 0.1603 0 1
-14.5342 6.2424 -7.7802 0.1559 0 1
-15.2098 5.8200 -8.0100 0.1490 0 1
-15.8517 5.3455 -8.2281 0.1460 0 1
-16.4437 4.8181 -8.4280 0.1425 0 1
-16.4680 4.1140 -8.3488 0.4245 26 14
-17.3898 3.6083 -8.7355 0.1371 0 24
-17.8582 2.9622 -8.9036 0.1358 0 1
-18.1703 2.2677 -9.0065 0.1342 0 1
-18.4015 1.5483 -9.0828 0.1333 0 1
-18.5422 0.8113 -9.1288 0.1331 0 1
-18.5888 0.0653 -9.1431 0.1329 0 1
-18.5450 -0.6810 -9.1276 0.1338 0 1
-18.4067 -1.4186 -9.0803 0.1345 0 1
-18.1785 -2.1392 -9.0029 0.1357 0 1
-17.8697 -2.8353 -8.8992 0.1372 0 1
-17.4862 -3.5004 -8.7713 0.1398 0 1
-17.0327 -4.1282 -8.6202 0.1425 0 1
-16.5110 -4.7121 -8.4453 0.1450 0 1
-15.9353 -5.2493 -8.2521 0.1483 0 1
-15.2569 -5.7155 -8.0135 0.1525 0 24
-14.6466 -6.1692 -7.8170 0.1555 0 1
-13.9439 -6.5452 -7.5763 0.1587 0 1
-13.2272 -6.8708 -7.3312 0.1640 0 1
-12.4991 -7.1448 -7.0813 0.1693 0 1
-11.7851 -7.3807 -6.8395 0.1804 0 1
-11.0810 -7.5765 -6.6024 0.1868 0 1
-10.3864 -7.7322 -6.3688 0.1936 0 1
-9.7166 -7.8600 -6.1470 0.2080 0 1
-9.0712 -7.9622 -5.9367 0.2154 0 1
-8.4419 -8.0332 -5.7317 0.2231 0 1
-7.8305 -8.0756 -5.5327 0.2291 0 1
-7.2311 -8.0840 -5.3348 0.2349 0 1
-6.6537 -8.0691 -5.1441 0.2436 0 1
-6.0988 -8.0336 -4.9610 0.2526 0 1
-5.5671 -7.9802 -4.7858 0.2619 0 1
-5.0566 -7.9081 -4.6168 0.2715 0 1
-4.5692 -7.8218 -4.4555 0.2813 0 1
-4.1044 -7.7233 -4.3018 0.2914 0 1
-3.6508 -7.5915 -4.1433 0.3023 0 24
-3.2413 -7.4977 -4.0176 0.3124 0 1
-2.8396 -7.3686 -3.8841 0.3231 0 1
-2.4582 -7.2330 -3.7574 0.3340 0 1
-2.0962 -7.0919 -3.6374 0.3450 0 1
-1.7534 -6.9487 -3.5249 0.3590 0 1
-1.4281 -6.8015 -3.4183 0.3702 0 1
-1.1194 -6.6509 -3.3173 0.3815 0 1
-0.8262 -6.4951 -3.2204 0.3919 0 1
-0.5483 -6.3371 -3.1286 0.4033 0 1
-0.2850 -6.1774 -3.0416 0.4148 0 1
-0.0353 -6.0025 -2.9524 0.4269 0 24
0.2011 -5.8550 -2.8815 0.4363 0 1
0.4252 -5.6923 -2.8076 0.4478 0 1
0.6357 -5.5142 -2.7302 0.4610 0 24
0.8384 -5.3664 -2.6715 0.4708 0 1
1.0289 -5.2036 -2.6090 0.4821 0 1
1.2091 -5.0406 -2.5496 0.4935 0 1
1.3794 -4.8770 -2.4929 0.5047 0 1
1.5405 -4.7141 -2.4393 0.5158 0 1
1.6930 -4.5520 -2.3887 0.5267 0 1
1.8264 -4.3650 -2.3273 0.5354 0 24
1.9600 -4.2014 -2.2803 0.5476 0 24
2.0913 -4.0495 -2.2417 0.5415 0 1
2.2073 -3.8828 -2.1968 0.5753 0 1
2.3198 -3.7237 -2.1579 0.5857 0 1
2.4258 -3.5660 -2.1213 0.5958 0 1
2.5257 -3.4094 -2.0869 0.6056 0 1
2.6196 -3.2541 -2.0547 0.6151 0 1
2.7079 -3.0999 -2.0245 0.6243 0 1
2.7908 -2.9468 -1.9962 0.6331 0 1
2.8686 -2.7947 -1.9698 0.6416 0 1
2.9414 -2.6437 -1.9452 0.6498 0 1
3.0095 -2.4936 -1.9223 0.6575 0 1
3.0726 -2.3441 -1.9009 0.6611 0 1
3.1312 -2.1954 -1.8809 0.6681 0 1
3.1867 -2.0483 -1.8633 0.6790 0 1
3.2386 -1.9022 -1.8474 0.6849 0 1
3.2865 -1.7565 -1.8329 0.6903 0 1
3.3305 -1.6114 -1.8198 0.6952 0 1
3.3707 -1.4667 -1.8081 0.6997 0 1
3.4075 -1.3224 -1.7978 0.6961 0 1
3.4410 -1.1785 -1.7890 0.6996 0 1
3.4708 -1.0348 -1.7814 0.7025 0 1
3.4971 -0.8912 -1.7750 0.7051 0 1
3.5198 -0.7477 -1.7699 0.7071 0 1
3.5391 -0.6043 -1.7659 0.7087 0 1
3.5550 -0.4608 -1.7632 0.7098 0 1
3.5675 -0.3172 -1.7616 0.7104 0 1
3.5765 -0.1735 -1.7612 0.7106 0 1
3.5825 -0.0295 -1.7621 0.7095 0 1
3.5871 0.1147 -1.7652 0.7082 0 1
3.5865 0.2594 -1.7687 0.6964 0 1
3.5809 0.4042 -1.7725 0.6949 0 1
3.5717 0.5494 -1.7774 0.6929 0 1
3.5590 0.6949 -1.7836 0.6905 0 1
3.5427 0.8409 -1.7909 0.6877 0 1
3.5227 0.9873 -1.7994 0.6845 0 1
3.4990 1.1343 -1.8091 0.6808 0 1
3.4715 1.2818 -1.8201 0.6767 0 1
3.4401 1.4298 -1.8324 0.6722 0 1
3.4048 1.5786 -1.8459 0.6672 0 1
3.3655 1.7280 -1.8608 0.6619 0 1
3.3221 1.8782 -1.8770 0.6674 0 1
3.2753 2.0297 -1.8952 0.6610 0 1
3.2233 2.1816 -1.9144 0.6479 0 1
3.1676 2.3349 -1.9355 0.6408 0 1
3.1073 2.4893 -1.9583 0.6333 0 1
3.0421 2.6448 -1.9827 0.6255 0 1
2.9719 2.8013 -2.0088 0.6174 0 1
2.8965 2.9590 -2.0366 0.6090 0 1
2.8157 3.1179 -2.0663 0.6002 0 1
2.7292 3.2780 -2.0980 0.5912 0 1
2.6368 3.4394 -2.1316 0.5818 0 1
2.5383 3.6020 -2.1674 0.5722 0 1
2.4314 3.7630 -2.2036 0.5673 0 1
2.3173 3.9241 -2.2415 0.5577 0 1
2.1963 4.0860 -2.2816 0.5479 0 1
2.0681 4.2487 -2.3242 0.5379 0 1
1.9207 4.3859 -2.3550 0.5292 0 24
1.7785 4.5509 -2.4033 0.5185 0 24
1.6363 4.7409 -2.4668 0.5073 0 1
1.4754 4.9062 -2.5199 0.4970 0 1
1.3053 5.0715 -2.5758 0.4863 0 1
1.1255 5.2372 -2.6348 0.4754 0 1
0.9358 5.4038 -2.6974 0.4645 0 1
0.7355 5.5713 -2.7641 0.4533 0 1
0.5239 5.7389 -2.8344 0.4421 0 1
0.3005 5.9062 -2.9087 0.4308 0 1
0.0644 6.0724 -2.9869 0.4203 0 1
-0.1847 6.2376 -3.0693 0.4090 0 1
-0.4477 6.4015 -3.1563 0.3977 0 1
-0.7252 6.5637 -3.2480 0.3865 0 1
-1.0179 6.7237 -3.3448 0.3753 0 1
-1.3263 6.8790 -3.4458 0.3674 0 1
-1.6504 7.0271 -3.5504 0.3566 0 1
-1.9915 7.1708 -3.6605 0.3459 0 1
-2.3503 7.3090 -3.7763 0.3353 0 1
-2.7274 7.4409 -3.8980 0.3248 0 1
-3.1235 7.5654 -4.0258 0.3145 0 1
-3.5392 7.6813 -4.1599 0.3046 0 1
-3.9750 7.7870 -4.3002 0.2947 0 1
-4.4313 7.8814 -4.4472 0.2849 0 1
-4.9099 7.9651 -4.6022 0.2725 0 1
-5.4110 8.0357 -4.7650 0.2632 0 1
-5.9319 8.0873 -4.9331 0.2564 0 1
-6.4715 8.1173 -5.1061 0.2477 0 1
-7.0292 8.1239 -5.2839 0.2424 0 1
-7.6047 8.1061 -5.4669 0.2342 0 1
-8.2077 8.0723 -5.6623 0.2178 0 1
-8.8412 8.0222 -5.8719 0.2100 0 1
-9.4936 7.9422 -6.0880 0.2025 0 1
-10.1623 7.8292 -6.3097 0.1940 0 1
-10.8482 7.6829 -6.5383 0.1873 0 1
-11.5478 7.5000 -6.7726 0.1803 0 1
-12.2542 7.2756 -7.0096 0.1743 0 1
-12.9640 7.0079 -7.2484 0.1677 0 1
-13.6764 6.6970 -7.4900 0.1622 0 1
-14.3738 6.3353 -7.7261 0.1570 0 1
-15.0049 5.9050 -7.9312 0.1500 0 24
-15.7058 5.4624 -8.1789 0.1469 0 1
-16.3087 4.9466 -8.3824 0.1433 0 1
-16.5793 4.3090 -8.4255 0.0555 26 14
-17.3517 3.7721 -8.7339 0.1373 0 1
-17.7716 3.1210 -8.8748 0.1351 0 1
-16.4134 2.2064 -8.1456 0.1268 26 14
-18.3544 1.7195 -9.0672 0.1336 0 1
-18.5175 0.9860 -9.1208 0.1332 0 1
-18.5864 0.2412 -9.1426 0.1329 0 1
-18.5637 -0.5058 -9.1340 0.1331 0 1
-18.4475 -1.2462 -9.0942 0.1343 0 1
-18.2401 -1.9715 -9.0237 0.1354 0 1
-17.9496 -2.6740 -8.9260 0.1368 0 1
-17.5827 -3.3469 -8.8034 0.1393 0 1
-17.1458 -3.9842 -8.6579 0.1416 0 1
-16.6392 -4.5788 -8.4883 0.1442 0 1
-16.0751 -5.1272 -8.2990 0.1475 0 1
-15.4081 -5.6064 -8.0646 0.1518 0 24
-14.8045 -6.0713 -7.8702 0.1545 0 1
-14.1109 -6.4613 -7.6335 0.1576 0 1
-13.3449 -6.7723 -7.3606 0.1627 0 24
-12.6706 -7.0846 -7.1401 0.1679 0 1
-11.9516 -7.3283 -6.8955 0.1789 0 1
-11.2461 -7.5342 -6.6580 0.1852 0 1
-10.4956 -7.6602 -6.3910 0.2002 0 24
-9.8705 -7.8312 -6.1973 0.2064 0 1
-9.2218 -7.9410 -5.9857 0.2136 0 1
-8.5885 -8.0191 -5.7794 0.2213 0 1
-7.9728 -8.0682 -5.5791 0.2292 0 1
-7.3703 -8.0842 -5.3807 0.2329 0 1
-6.7876 -8.0745 -5.1883 0.2415 0 1
-6.2273 -8.0437 -5.0034 0.2505 0 1
-5.6900 -7.9940 -4.8262 0.2597 0 1
-5.1747 -7.9264 -4.6559 0.2692 0 1
-4.6818 -7.8433 -4.4928 0.2790 0 1
-4.2118 -7.7475 -4.3373 0.2890 0 1
-3.7529 -7.6184 -4.1771 0.3003 0 24
-3.3271 -7.5006 -4.0358 0.3101 0 24
-2.9323 -7.3996 -3.9149 0.3206 0 1
-2.5462 -7.2655 -3.7867 0.3314 0 1
-2.1797 -7.1256 -3.6650 0.3424 0 1
-1.8325 -6.9828 -3.5508 0.3564 0 1
-1.5031 -6.8365 -3.4429 0.3676 0 1
-1.1906 -6.6866 -3.3406 0.3788 0 1
-0.8938 -6.5320 -3.2427 0.3892 0 1
-0.6124 -6.3744 -3.1497 0.4007 0 1
-0.3457 -6.2151 -3.0617 0.4121 0 1
-0.0927 -6.0405 -2.9714 0.4242 0 24
0.1466 -5.8931 -2.8994 0.4352 0 1
0.3735 -5.7306 -2.8246 0.4451 0 1
0.5869 -5.5526 -2.7463 0.4585 0 24
0.7921 -5.4047 -2.6867 0.4681 0 1
0.9850 -5.2419 -2.6234 0.4795 0 1
1.1676 -5.0792 -2.5634 0.4909 0 1
1.3401 -4.9155 -2.5059 0.5021 0 1
1.5034 -4.7524 -2.4517 0.5132 0 1
1.6578 -4.5901 -2.4004 0.5242 0 1
1.7938 -4.4036 -2.3387 0.5327 0 24
3.4454 -0.8434 -1.7938 0.7134 0 1
3.4672 -0.7023 -1.7889 0.7153 0 1
3.4855 -0.5612 -1.7853 0.7168 0 1
3.5004 -0.4200 -1.7828 0.7178 0 1
3.5119 -0.2788 -1.7815 0.7183 0 1
3.5200 -0.1373 -1.7814 0.7183 0 1
3.5255 0.0043 -1.7828 0.7170 0 1
3.5287 0.1463 -1.7860 0.7051 0 1
3.5257 0.2885 -1.7889 0.7040 0 1
3.5193 0.4310 -1.7930 0.7024 0 1
3.5092 0.5738 -1.7982 0.7003 0 1
3.4957 0.7170 -1.8045 0.6979 0 1
3.4785 0.8605 -1.8121 0.6949 0 1
3.4577 1.0045 -1.8208 0.6916 0 1
3.4332 1.1490 -1.8308 0.6878 0 1
3.4049 1.2940 -1.8420 0.6837 0 1
3.3728 1.4395 -1.8545 0.6791 0 1
3.3368 1.5856 -1.8682 0.6741 0 1
3.2974 1.7327 -1.8837 0.6800 0 1
3.2541 1.8806 -1.9006 0.6739 0 1
3.2066 2.0294 -1.9190 0.6674 0 1
3.1532 2.1779 -1.9379 0.6544 0 1
3.0968 2.3283 -1.9593 0.6472 0 1
3.0358 2.4796 -1.9822 0.6397 0 1
2.9700 2.6319 -2.0067 0.6319 0 1
2.8992 2.7851 -2.0330 0.6238 0 1
2.8232 2.9393 -2.0610 0.6153 0 1
2.7419 3.0946 -2.0908 0.6065 0 1
2.6549 3.2510 -2.1226 0.5974 0 1
2.5622 3.4084 -2.1563 0.5881 0 1
2.4633 3.5669 -2.1921 0.5785 0 1
2.3559 3.7231 -2.2280 0.5737 0 1
2.2418 3.8797 -2.2659 0.5641 0 1
2.1209 4.0369 -2.3060 0.5543 0 1
1.9806 4.1689 -2.3340 0.5459 0 24
1.8574 4.3530 -2.3933 0.5341 0 1
1.7050 4.4875 -2.4276 0.5249 0 24
1.5627 4.6706 -2.4906 0.5138 0 1
1.4027 4.8297 -2.5433 0.5035 0 1
1.2338 4.9887 -2.5988 0.4928 0 1
1.0554 5.1477 -2.6573 0.4819 0 1
0.8675 5.3077 -2.7197 0.4711 0 1
0.6693 5.4677 -2.7856 0.4599 0 1
0.4601 5.6273 -2.8552 0.4487 0 1
0.2395 5.7861 -2.9285 0.4375 0 1
0.0068 5.9368 -3.0022 0.4243 0 24
-0.2384 6.0993 -3.0867 0.4158 0 1
-0.4968 6.2532 -3.1721 0.4046 0 1
-0.7691 6.4048 -3.2621 0.3935 0 1
-1.0557 6.5536 -3.3569 0.3824 0 1
-1.3572 6.6973 -3.4556 0.3749 0 1
-1.6733 6.8333 -3.5577 0.3639 0 1
-2.0053 6.9641 -3.6648 0.3532 0 1
-2.3538 7.0889 -3.7773 0.3427 0 1
-2.7192 7.2067 -3.8952 0.3323 0 1
-3.1021 7.3165 -4.0187 0.3222 0 1
-3.5030 7.4171 -4.1480 0.3123 0 1
-3.9219 7.5068 -4.2830 0.3025 0 1
-4.3595 7.5847 -4.4239 0.2928 0 1
-4.8157 7.6492 -4.5709 0.2834 0 1
-5.2927 7.7016 -4.7256 0.2713 0 1
-5.7880 7.7365 -4.8860 0.2647 0 1
-6.2984 7.7485 -5.0496 0.2561 0 1
-6.8259 7.7396 -5.2186 0.2478 0 1
-7.3675 7.7058 -5.3913 0.2429 0 1
-7.9225 7.6457 -5.5677 0.2264 0 1
-8.5112 7.5771 -5.7625 0.2188 0 1
-9.1146 7.4796 -5.9624 0.2114 0 1
-9.7297 7.3501 -6.1664 0.2044 0 1
-10.3543 7.1869 -6.3738 0.1964 0 1
-10.9903 6.9909 -6.5868 0.1896 0 1
-11.6287 6.7561 -6.8010 0.1836 0 1
-12.2645 6.4805 -7.0146 0.1792 0 1
-12.8956 6.1641 -7.2279 0.1711 0 1
-13.4652 5.7833 -7.4107 0.1655 0 24
-14.1043 5.3970 -7.6368 0.1624 0 1
-14.6654 4.9454 -7.8265 0.1559 0 1
-15.1900 4.4507 -8.0044 0.1534 0 1
-15.6642 3.9132 -8.1647 0.1506 0 1
-16.0809 3.3367 -8.3052 0.1492 0 1
-16.4279 2.7250 -8.4210 0.1471 0 1
-16.7055 2.0849 -8.5134 0.1455 0 1
-16.9087 1.4227 -8.5808 0.1443 0 1
-17.0332 0.7453 -8.6218 0.1436 0 1
-17.0759 0.0600 -8.6352 0.1438 0 1
-17.0389 -0.6257 -8.6223 0.1441 0 1
-16.9219 -1.3042 -8.5827 0.1448 0 1
-16.7261 -1.9682 -8.5166 0.1463 0 1
-16.4602 -2.6116 -8.4279 0.1482 0 1
-16.1256 -3.2280 -8.3164 0.1502 0 1
-15.7275 -3.8119 -8.1836 0.1526 0 1
-15.2184 -4.3432 -8.0031 0.1557 0 24
-14.7584 -4.8616 -7.8577 0.1584 0 1
-14.2010 -5.3199 -7.6687 0.1608 0 1
-13.6052 -5.7305 -7.4654 0.1643 0 1
-12.9823 -6.0938 -7.2523 0.1696 0 1
-12.3407 -6.4103 -7.0323 0.1743 0 1
-11.7028 -6.6897 -6.8167 0.1851 0 1
-11.0629 -6.9284 -6.6010 0.1911 0 1
-10.4239 -7.1272 -6.3857 0.1975 0 1
-9.7996 -7.2954 -6.1780 0.2116 0 1
-9.1946 -7.4378 -5.9805 0.2186 0 1
-8.5998 -7.5483 -5.7865 0.2260 0 1
-7.9874 -7.6007 -5.5757 0.2326 0 24
-7.4431 -7.6762 -5.4070 0.2370 0 1
-6.8855 -7.6976 -5.2227 0.2453 0 1
-6.3465 -7.6966 -5.0447 0.2540 0 1
-5.8274 -7.6761 -4.8736 0.2649 0 1
-5.3091 -7.6104 -4.6924 0.2729 0 24
-4.8303 -7.5542 -4.5343 0.2828 0 24
-4.3855 -7.5074 -4.3967 0.2915 0 1
-3.9450 -7.4235 -4.2512 0.3040 0 1
-3.5253 -7.3306 -4.1134 0.3142 0 1
-3.1235 -7.2253 -3.9806 0.3223 0 1
-2.7398 -7.1096 -3.8530 0.3330 0 1
-2.3745 -6.9868 -3.7316 0.3439 0 1
-2.0275 -6.8596 -3.6172 0.3577 0 1
-1.6977 -6.7280 -3.5089 0.3688 0 1
-1.3840 -6.5918 -3.4061 0.3799 0 1
-1.0858 -6.4516 -3.3084 0.3901 0 1
-0.8021 -6.3058 -3.2145 0.4015 0 1
-0.5328 -6.1575 -3.1254 0.4128 0 1
-0.2771 -6.0071 -3.0410 0.4243 0 1
-0.0343 -5.8416 -2.9541 0.4364 0 24
0.1958 -5.7012 -2.8848 0.4456 0 1
0.4132 -5.5327 -2.8056 0.4591 0 24
0.6215 -5.3912 -2.7443 0.4684 0 1
0.8180 -5.2355 -2.6797 0.4799 0 1
1.0043 -5.0796 -2.6185 0.4911 0 1
1.1810 -4.9234 -2.5604 0.5025 0 1
1.3480 -4.7661 -2.5047 0.5136 0 1
1.5062 -4.6091 -2.4521 0.5247 0 1
1.6560 -4.4527 -2.4024 0.5355 0 1
1.7874 -4.2718 -2.3417 0.5446 0 24
1.9190 -4.1136 -2.2954 0.5562 0 24
2.0472 -3.9641 -2.2561 0.5501 0 1
2.1635 -3.8056 -2.2137 0.5838 0 1
2.2745 -3.6510 -2.1753 0.5941 0 1
2.3792 -3.4975 -2.1391 0.6041 0 1
2.4779 -3.3450 -2.1051 0.6139 0 1
2.5708 -3.1935 -2.0732 0.6233 0 1
2.6582 -3.0430 -2.0433 0.6325 0 1
2.7403 -2.8934 -2.0153 0.6413 0 1
2.8174 -2.7448 -1.9891 0.6497 0 1
2.8895 -2.5970 -1.9647 0.6578 0 1
2.9568 -2.4499 -1.9418 0.6617 0 1
3.0193 -2.3034 -1.9204 0.6691 0 1
3.0774 -2.1577 -1.9006 0.6760 0 1
3.1328 -2.0137 -1.8833 0.6869 0 1
3.1843 -1.8703 -1.8675 0.6927 0 1
3.2318 -1.7273 -1.8531 0.6981 0 1
3.2755 -1.5848 -1.8401 0.7030 0 1
3.3154 -1.4426 -1.8284 0.7075 0 1
3.3516 -1.3007 -1.8180 0.7115 0 1
3.3842 -1.1591 -1.8090 0.7151 0 1
3.4138 -1.0178 -1.8014 0.7103 0 1
3.4398 -0.8767 -1.7951 0.7128 0 1
3.4624 -0.7355 -1.7900 0.7149 0 1
3.4815 -0.5944 -1.7860 0.7165 0 1
3.4972 -0.4533 -1.7833 0.7176 0 1
3.5095 -0.3120 -1.7817 0.7182 0 1
3.5184 -0.1706 -1.7813 0.7184 0 1
3.5242 -0.0291 -1.7822 0.7172 0 1
3.5286 0.1129 -1.7853 0.7160 0 1
3.5268 0.2550 -1.7881 0.7043 0 1
3.5211 0.3975 -1.7919 0.7028 0 1
3.5119 0.5402 -1.7968 0.7008 0 1
3.4992 0.6833 -1.8029 0.6985 0 1
3.4829 0.8267 -1.8102 0.6957 0 1
3.4629 0.9706 -1.8187 0.6924 0 1
3.4393 1.1149 -1.8283 0.6888 0 1
3.4119 1.2598 -1.8392 0.6847 0 1
3.3807 1.4052 -1.8514 0.6802 0 1
3.3456 1.5511 -1.8649 0.6753 0 1
3.3070 1.6980 -1.8799 0.6813 0 1
3.2647 1.8457 -1.8965 0.6754 0 1
3.2182 1.9943 -1.9146 0.6690 0 1
3.1662 2.1429 -1.9334 0.6623 0 1
3.1105 2.2928 -1.9541 0.6489 0 1
3.0506 2.4439 -1.9766 0.6415 0 1
2.9859 2.5959 -2.0008 0.6338 0 1
2.9163 2.7489 -2.0267 0.6257 0 1
2.8416 2.9029 -2.0542 0.6173 0 1
2.7615 3.0580 -2.0836 0.6086 0 1
2.6759 3.2141 -2.1149 0.5996 0 1
2.5845 3.3712 -2.1482 0.5903 0 1
2.4871 3.5295 -2.1834 0.5808 0 1
2.3818 3.6863 -2.2194 0.5759 0 1
2.2692 3.8428 -2.2568 0.5664 0 1
2.1500 3.9998 -2.2964 0.5566 0 1
2.0111 4.1316 -2.3237 0.5483 0 24
1.8900 4.3157 -2.3825 0.5365 0 1
1.7390 4.4499 -2.4160 0.5274 0 24
1.5991 4.6331 -2.4786 0.5163 0 1
1.4412 4.7923 -2.5306 0.5056 0 1
1.2744 4.9513 -2.5854 0.4953 0 1
1.0983 5.1103 -2.6432 0.4845 0 1
0.9126 5.2700 -2.7047 0.4737 0 1
0.7169 5.4301 -2.7698 0.4625 0 1
0.5103 5.5898 -2.8385 0.4513 0 1
0.2925 5.7488 -2.9109 0.4401 0 1
0.0627 5.9067 -2.9871 0.4297 0 1
-0.1795 6.0628 -3.0672 0.4185 0 1
-0.4348 6.2171 -3.1516 0.4073 0 1
-0.7037 6.3693 -3.2405 0.3961 0 1
-0.9869 6.5189 -3.3341 0.3850 0 1
-1.2850 6.6645 -3.4323 0.3751 0 1
-1.5975 6.8017 -3.5332 0.3664 0 1
-1.9257 6.9339 -3.6391 0.3557 0 1
-2.2703 7.0601 -3.7503 0.3452 0 1
-2.6316 7.1797 -3.8669 0.3348 0 1
-3.0104 7.2915 -3.9892 0.3246 0 1
-3.4070 7.3944 -4.1171 0.3145 0 1
-3.8217 7.4867 -4.2507 0.3048 0 1
-4.2548 7.5675 -4.3902 0.2951 0 1
-4.7066 7.6353 -4.5358 0.2856 0 1
-5.1786 7.6906 -4.6886 0.2735 0 1
-5.6703 7.7307 -4.8482 0.2645 0 1
-6.1767 7.7475 -5.0106 0.2581 0 1
-6.7002 7.7437 -5.1783 0.2498 0 1
-7.2390 7.7162 -5.3504 0.2447 0 1
-7.7906 7.6622 -5.5258 0.2369 0 1
-8.3713 7.5958 -5.7162 0.2206 0 1
-8.9713 7.5053 -5.9150 0.2131 0 1
-9.5840 7.3836 -6.1181 0.2060 0 1
-10.2061 7.2282 -6.3244 0.1979 0 1
-10.8400 7.0403 -6.5364 0.1911 0 1
-11.4786 6.8150 -6.7506 0.1850 0 1
-12.1158 6.5494 -6.9648 0.1801 0 1
-12.7478 6.2423 -7.1779 0.1723 0 1
-13.3221 5.8718 -7.3623 0.1668 0 24
-13.9678 5.4969 -7.5907 0.1633 0 1
-14.5355 5.0554 -7.7824 0.1593 0 1
-15.0715 4.5713 -7.9644 0.1542 0 1
-15.5572 4.0433 -8.1285 0.1513 0 1
-15.9898 3.4760 -8.2748 0.1497 0 1
-16.3522 2.8717 -8.3957 0.1476 0 1
-16.6467 2.2378 -8.4938 0.1459 0 1
-16.8679 1.5802 -8.5673 0.1445 0 1
-17.0112 0.9058 -8.6146 0.1437 0 1
-17.0736 0.2216 -8.6347 0.1434 0 1
-17.0547 -0.4646 -8.6277 0.1440 0 1
-16.9566 -1.1455 -8.5944 0.1446 0 1
-16.7790 -1.8136 -8.5345 0.1456 0 1
-16.5290 -2.4624 -8.4509 0.1478 0 1
-16.2103 -3.0857 -8.3446 0.1497 0 1
-15.7687 -3.6642 -8.1866 0.1519 0 24
-15.3831 -4.2332 -8.0683 0.1551 0 1
-14.8835 -4.7471 -7.9001 0.1576 0 1
-14.3359 -5.2162 -7.7145 0.1598 0 1
-13.7010 -5.6188 -7.4885 0.1639 0 24
-13.1307 -6.0125 -7.3031 0.1680 0 1
-12.4935 -6.3402 -7.0849 0.1731 0 1
-11.8531 -6.6275 -6.8674 0.1837 0 1
-11.2135 -6.8758 -6.6517 0.1896 0 1
-10.5739 -7.0839 -6.4362 0.1959 0 1
-9.9431 -7.2570 -6.2249 0.2101 0 1
-9.3362 -7.4072 -6.0267 0.2170 0 1
-8.7387 -7.5251 -5.8318 0.2242 0 1
-8.1228 -7.5843 -5.6198 0.2308 0 24
-7.5536 -7.6440 -5.4345 0.2375 0 24
-7.0151 -7.6947 -5.2655 0.2433 0 1
-6.4716 -7.6987 -5.0860 0.2519 0 1
-5.9476 -7.6823 -4.9131 0.2627 0 1
-5.4247 -7.6214 -4.7307 0.2705 0 24
-4.9412 -7.5687 -4.5709 0.2803 0 24
-4.4921 -7.5254 -4.4320 0.2892 0 1
-4.0467 -7.4440 -4.2846 0.2991 0 1
-3.6224 -7.3534 -4.1453 0.3118 0 1
-3.2166 -7.2514 -4.0116 0.3199 0 1
-2.8284 -7.1375 -3.8824 0.3305 0 1
-2.4588 -7.0163 -3.7596 0.3413 0 1
-2.1076 -6.8898 -3.6435 0.3551 0 1
-1.7739 -6.7594 -3.5339 0.3662 0 1
-1.4565 -6.6242 -3.4298 0.3773 0 1
-1.1547 -6.4849 -3.3310 0.3885 0 1
-0.8676 -6.3403 -3.2361 0.3988 0 1
-0.5949 -6.1926 -3.1460 0.4101 0 1
-0.3361 -6.0426 -3.0604 0.4216 0 1
-0.0902 -5.8776 -2.9726 0.4336 0 24
0.1427 -5.7375 -2.9023 0.4429 0 1
0.3630 -5.5692 -2.8223 0.4564 0 24
0.5737 -5.4278 -2.7601 0.4658 0 1
0.7727 -5.2722 -2.6946 0.4773 0 1
0.9614 -5.1163 -2.6326 0.4885 0 1
1.1403 -4.9604 -2.5738 0.4997 0 1
1.3095 -4.8031 -2.5175 0.5110 0 1
1.4698 -4.6460 -2.4642 0.5221 0 1
1.6215 -4.4895 -2.4138 0.5330 0 1
1.7648 -4.3324 -2.3656 0.5247 0 1
3.3894 -0.8297 -1.8134 0.7211 0 1
3.4109 -0.6909 -1.8086 0.7230 0 1
3.4290 -0.5521 -1.8050 0.7244 0 1
3.4438 -0.4132 -1.8025 0.7254 0 1
3.4551 -0.2743 -1.8012 0.7259 0 1
3.4631 -0.1351 -1.8011 0.7260 0 1
3.4685 0.0042 -1.8025 0.7247 0 1
3.4703 0.1439 -1.8050 0.7129 0 1
3.4673 0.2837 -1.8079 0.7118 0 1
3.4608 0.4239 -1.8120 0.7102 0 1
3.4507 0.5643 -1.8171 0.7082 0 1
3.4372 0.7050 -1.8235 0.7057 0 1
3.4201 0.8461 -1.8310 0.7028 0 1
3.3994 0.9876 -1.8397 0.6995 0 1
3.3750 1.1295 -1.8495 0.6957 0 1
3.3468 1.2719 -1.8607 0.6916 0 1
3.3153 1.4149 -1.8733 0.6987 0 1
3.2802 1.5587 -1.8873 0.6935 0 1
3.2412 1.7031 -1.9028 0.6878 0 1
3.1981 1.8483 -1.9196 0.6818 0 1
3.1509 1.9942 -1.9379 0.6754 0 1
3.0976 2.1396 -1.9565 0.6688 0 1
3.0412 2.2865 -1.9773 0.6553 0 1
2.9807 2.4346 -2.0000 0.6479 0 1
2.9154 2.5835 -2.0244 0.6401 0 1
2.8452 2.7332 -2.0503 0.6320 0 1
2.7700 2.8839 -2.0781 0.6236 0 1
2.6894 3.0354 -2.1076 0.6148 0 1
2.6034 3.1878 -2.1389 0.6058 0 1
2.5116 3.3411 -2.1722 0.5965 0 1
2.4139 3.4954 -2.2076 0.5870 0 1
2.3081 3.6476 -2.2432 0.5823 0 1
2.1956 3.7997 -2.2806 0.5727 0 1
2.0764 3.9522 -2.3201 0.5630 0 1
1.9386 4.0804 -2.3477 0.5546 0 24
1.8067 4.2342 -2.3924 0.5442 0 24
1.6762 4.4117 -2.4526 0.5326 0 1
1.5274 4.5651 -2.5017 0.5227 0 1
1.3704 4.7184 -2.5534 0.5121 0 1
1.2047 4.8713 -2.6078 0.5018 0 1
1.0300 5.0239 -2.6652 0.4910 0 1
0.8462 5.1774 -2.7263 0.4802 0 1
0.6524 5.3303 -2.7908 0.4691 0 1
0.4482 5.4824 -2.8586 0.4580 0 1
0.2331 5.6334 -2.9301 0.4468 0 1
0.0066 5.7829 -3.0053 0.4364 0 1
-0.2316 5.9245 -3.0812 0.4240 0 24
-0.4827 6.0751 -3.1671 0.4141 0 1
-0.7465 6.2174 -3.2543 0.4030 0 1
-1.0240 6.3564 -3.3460 0.3920 0 1
-1.3153 6.4907 -3.4417 0.3823 0 1
-1.6204 6.6173 -3.5405 0.3739 0 1
-1.9401 6.7375 -3.6436 0.3634 0 1
-2.2749 6.8513 -3.7517 0.3526 0 1
-2.6253 6.9579 -3.8648 0.3423 0 1
-2.9918 7.0562 -3.9830 0.3321 0 1
-3.3745 7.1451 -4.1065 0.3222 0 1
-3.7736 7.2229 -4.2351 0.3126 0 1
-4.1894 7.2888 -4.3690 0.3030 0 1
-4.6219 7.3413 -4.5083 0.2936 0 1
-5.0709 7.3789 -4.6529 0.2845 0 1
-5.5381 7.4024 -4.8044 0.2727 0 1
-6.0189 7.4047 -4.9590 0.2665 0 1
-6.5133 7.3852 -5.1174 0.2583 0 1
-7.0212 7.3436 -5.2800 0.2503 0 1
-7.5408 7.2773 -5.4461 0.2457 0 1
-8.0736 7.1876 -5.6176 0.2293 0 1
-8.6305 7.0824 -5.8020 0.2220 0 1
-9.1963 6.9472 -5.9896 0.2150 0 1
-9.7676 6.7797 -6.1790 0.2084 0 1
-10.3453 6.5806 -6.3718 0.2011 0 1
-10.9268 6.3484 -6.5674 0.1951 0 1
-11.5031 6.0782 -6.7612 0.1895 0 1
-12.0660 5.7675 -6.9501 0.1848 0 1
-12.6152 5.4182 -7.1351 0.1771 0 1
-13.1460 5.0303 -7.3149 0.1732 0 1
-13.6448 4.6012 -7.4833 0.1693 0 1
-14.1086 4.1339 -7.6403 0.1661 0 1
-14.5240 3.6284 -7.7799 0.1642 0 1
-14.8931 3.0903 -7.9046 0.1589 0 1
-15.2045 2.5220 -8.0096 0.1581 0 1
-15.4496 1.9282 -8.0912 0.1566 0 1
-15.6301 1.3152 -8.1515 0.1554 0 1
-15.7400 0.6887 -8.1877 0.1552 0 1
-15.7778 0.0554 -8.1995 0.1549 0 1
-15.7473 -0.5782 -8.1892 0.1552 0 1
-15.6457 -1.2058 -8.1550 0.1562 0 1
-15.4741 -1.8209 -8.0972 0.1573 0 1
-15.2397 -2.4180 -8.0189 0.1587 0 1
-14.9453 -2.9917 -7.9210 0.1607 0 1
-14.5940 -3.5372 -7.8039 0.1631 0 1
-14.1869 -4.0488 -7.6671 0.1643 0 1
-13.7256 -4.5214 -7.5101 0.1678 0 1
-13.2268 -4.9550 -7.3403 0.1708 0 1
-12.6917 -5.3458 -7.1569 0.1751 0 1
-12.0935 -5.6766 -6.9428 0.1811 0 24
-11.5751 -6.0126 -6.7786 0.1898 0 1
-10.9989 -6.2873 -6.5840 0.1958 0 1
-10.4171 -6.5240 -6.3877 0.2017 0 1
-9.8414 -6.7290 -6.1957 0.2157 0 1
-9.2789 -6.9077 -6.0116 0.2223 0 1
-8.7198 -7.0537 -5.8286 0.2272 0 1
-8.1675 -7.1689 -5.6477 0.2344 0 1
-7.5991 -7.2312 -5.4514 0.2429 0 24
-7.0884 -7.3104 -5.2918 0.2474 0 1
-6.5681 -7.3427 -5.1198 0.2557 0 1
-6.0643 -7.3544 -4.9538 0.2663 0 1
-5.5775 -7.3470 -4.7937 0.2732 0 1
-5.1051 -7.3180 -4.6370 0.2824 0 1
-4.6506 -7.2731 -4.4864 0.2919 0 1
-4.2143 -7.2143 -4.3420 0.3042 0 1
-3.7969 -7.1448 -4.2048 0.3141 0 1
-3.3971 -7.0640 -4.0735 0.3242 0 1
-3.0129 -6.9693 -3.9458 0.3323 0 1
-2.6457 -6.8655 -3.8237 0.3429 0 1
-2.2958 -6.7551 -3.7077 0.3566 0 1
-1.9561 -6.6179 -3.5863 0.3664 0 24
-1.6449 -6.5185 -3.4938 0.3785 0 1
-1.3422 -6.3924 -3.3945 0.3895 0 1
-1.0539 -6.2616 -3.2998 0.3996 0 1
-0.7792 -6.1252 -3.2089 0.4108 0 1
-0.5179 -5.9859 -3.1224 0.4222 0 1
-0.2696 -5.8439 -3.0402 0.4321 0 1
-0.0334 -5.6875 -2.9558 0.4456 0 24
0.1903 -5.5413 -2.8815 0.4570 0 24
0.4038 -5.4066 -2.8175 0.4662 0 1
0.6062 -5.2584 -2.7508 0.4777 0 1
0.7983 -5.1095 -2.6876 0.4890 0 1
0.9807 -4.9601 -2.6276 0.5001 0 1
1.1538 -4.8103 -2.5708 0.5114 0 1
1.3177 -4.6589 -2.5162 0.5225 0 1
1.4731 -4.5076 -2.4645 0.5334 0 1
1.6203 -4.3566 -2.4156 0.5442 0 1
1.7573 -4.1998 -2.3659 0.5361 0 1
1.8793 -4.0284 -2.3101 0.5646 0 24
2.0017 -3.8760 -2.2671 0.5764 0 24
2.1208 -3.7306 -2.2301 0.5921 0 1
2.2304 -3.5803 -2.1921 0.6024 0 1
2.3339 -3.4308 -2.1564 0.6124 0 1
2.4314 -3.2822 -2.1228 0.6221 0 1
2.5233 -3.1345 -2.0912 0.6315 0 1
2.6098 -2.9875 -2.0616 0.6406 0 1
2.6911 -2.8414 -2.0338 0.6493 0 1
2.7674 -2.6961 -2.0079 0.6577 0 1
2.8387 -2.5513 -1.9835 0.6619 0 1
2.9052 -2.4071 -1.9607 0.6696 0 1
2.9672 -2.2636 -1.9395 0.6770 0 1
3.0251 -2.1210 -1.9200 0.6885 0 1
3.0801 -1.9798 -1.9029 0.6947 0 1
3.1312 -1.8391 -1.8871 0.7005 0 1
3.1783 -1.6987 -1.8728 0.7058 0 1
3.2216 -1.5587 -1.8599 0.7107 0 1
3.2612 -1.4190 -1.8483 0.7152 0 1
3.2971 -1.2796 -1.8380 0.7192 0 1
3.3295 -1.1403 -1.8290 0.7227 0 1
3.3584 -1.0013 -1.8212 0.7258 0 1
3.3838 -0.8624 -1.8147 0.7205 0 1
3.4062 -0.7236 -1.8096 0.7226 0 1
3.4251 -0.5848 -1.8057 0.7241 0 1
3.4406 -0.4459 -1.8030 0.7252 0 1
3.4528 -0.3070 -1.8014 0.7259 0 1
3.4615 -0.1679 -1.8010 0.7260 0 1
3.4671 -0.0286 -1.8019 0.7249 0 1
3.4705 0.1110 -1.8045 0.7131 0 1
3.4683 0.2508 -1.8071 0.7121 0 1
3.4626 0.3909 -1.8109 0.7106 0 1
3.4534 0.5312 -1.8158 0.7087 0 1
3.4407 0.6718 -1.8219 0.7063 0 1
3.4244 0.8128 -1.8291 0.7035 0 1
3.4046 0.9542 -1.8375 0.7003 0 1
3.3810 1.0960 -1.8471 0.6967 0 1
3.3538 1.2383 -1.8579 0.6926 0 1
3.3230 1.3812 -1.8702 0.6998 0 1
3.2888 1.5248 -1.8839 0.6947 0 1
3.2507 1.6691 -1.8990 0.6892 0 1
3.2086 1.8140 -1.9155 0.6833 0 1
3.1624 1.9598 -1.9335 0.6769 0 1
3.1106 2.1053 -1.9520 0.6704 0 1
3.0548 2.2518 -1.9722 0.6570 0 1
2.9953 2.3996 -1.9946 0.6497 0 1
2.9312 2.5483 -2.0185 0.6420 0 1
2.8622 2.6979 -2.0441 0.6339 0 1
2.7881 2.8483 -2.0714 0.6256 0 1
2.7089 2.9996 -2.1004 0.6169 0 1
2.6241 3.1519 -2.1314 0.6080 0 1
2.5337 3.3050 -2.1642 0.5987 0 1
2.4374 3.4590 -2.1991 0.5893 0 1
2.3337 3.6119 -2.2348 0.5845 0 1
2.2226 3.7638 -2.2716 0.5750 0 1
2.1050 3.9163 -2.3106 0.5653 0 1
1.9685 4.0443 -2.3375 0.5571 0 24
1.8384 4.1980 -2.3817 0.5467 0 24
1.7100 4.3756 -2.4414 0.5350 0 1
1.5554 4.5066 -2.4776 0.5255 0 24
1.4081 4.6823 -2.5410 0.5146 0 1
1.2445 4.8354 -2.5948 0.5043 0 1
1.0720 4.9880 -2.6514 0.4936 0 1
0.8904 5.1413 -2.7116 0.4828 0 1
0.6990 5.2944 -2.7753 0.4717 0 1
0.4973 5.4467 -2.8423 0.4606 0 1
0.2848 5.5980 -2.9130 0.4494 0 1
0.0610 5.7480 -2.9873 0.4382 0 1
-0.1744 5.8900 -3.0623 0.4250 0 24
-0.4225 6.0412 -3.1472 0.4168 0 1
-0.6832 6.1841 -3.2334 0.4057 0 1
-0.9574 6.3240 -3.3240 0.3946 0 1
-1.2455 6.4600 -3.4190 0.3848 0 1
-1.5473 6.5882 -3.5170 0.3764 0 1
-1.8635 6.7097 -3.6189 0.3658 0 1
-2.1947 6.8251 -3.7258 0.3550 0 1
-2.5414 6.9335 -3.8377 0.3447 0 1
-2.9041 7.0339 -3.9547 0.3345 0 1
-3.2829 7.1251 -4.0770 0.3245 0 1
-3.6782 7.2057 -4.2044 0.3149 0 1
-4.0901 7.2745 -4.3370 0.3052 0 1
-4.5186 7.3302 -4.4751 0.2958 0 1
-4.9638 7.3715 -4.6184 0.2866 0 1
-5.4266 7.3984 -4.7682 0.2748 0 1
-5.9046 7.4062 -4.9224 0.2685 0 1
-6.3957 7.3917 -5.0797 0.2602 0 1
-6.9005 7.3555 -5.2414 0.2521 0 1
-7.4179 7.2956 -5.4070 0.2444 0 1
-7.9442 7.2083 -5.5747 0.2311 0 1
-8.4985 7.1097 -5.7583 0.2236 0 1
-9.0625 6.9819 -5.9453 0.2166 0 1
-9.6328 6.8221 -6.1343 0.2099 0 1
-10.2082 6.6300 -6.3258 0.2026 0 1
-10.7902 6.4064 -6.5214 0.1965 0 1
-11.3682 6.1453 -6.7158 0.1908 0 1
-11.9350 5.8443 -6.9062 0.1860 0 1
-12.4867 5.5036 -7.0915 0.1782 0 1
-13.0240 5.1254 -7.2737 0.1737 0 1
-13.5304 4.7058 -7.4447 0.1702 0 1
-14.0028 4.2472 -7.6044 0.1668 0 1
-14.4309 3.7506 -7.7487 0.1648 0 1
-14.8108 3.2197 -7.8768 0.1595 0 1
-15.1379 2.6584 -7.9874 0.1585 0 1
-15.3412 2.0623 -8.0443 0.1569 0 24
-15.5937 1.4609 -8.1393 0.1556 0 1
-15.7207 0.8371 -8.1814 0.1553 0 1
-15.7753 0.2047 -8.1989 0.1549 0 1
-15.7609 -0.4294 -8.1938 0.1551 0 1
-15.6762 -1.0590 -8.1653 0.1560 0 1
-15.4613 -1.6712 -8.0818 0.1568 0 24
-15.2444 -2.2710 -8.0098 0.1584 0 24
-15.0199 -2.8591 -7.9458 0.1602 0 1
-14.6815 -3.4116 -7.8331 0.1625 0 1
-14.2876 -3.9317 -7.7011 0.1628 0 1
-13.8378 -4.4136 -7.5482 0.1669 0 1
-13.3078 -4.8421 -7.3595 0.1698 0 24
-12.8200 -5.2575 -7.2008 0.1741 0 1
-12.2266 -5.5985 -6.9885 0.1799 0 24
-11.7092 -5.9422 -6.8238 0.1886 0 1
-11.1352 -6.2261 -6.6300 0.1944 0 1
-10.5544 -6.4716 -6.4340 0.2003 0 1
-9.9741 -6.6820 -6.2391 0.2142 0 1
-9.4110 -6.8686 -6.0548 0.2207 0 1
-8.8509 -7.0222 -5.8716 0.2255 0 1
-8.2966 -7.1444 -5.6900 0.2327 0 1
-7.7511 -7.2373 -5.5111 0.2376 0 1
-7.2131 -7.2994 -5.3330 0.2455 0 1
-6.6892 -7.3371 -5.1598 0.2538 0 1
-6.1813 -7.3534 -4.9923 0.2642 0 1
-5.6906 -7.3504 -4.8309 0.2730 0 1
-5.2147 -7.3263 -4.6734 0.2802 0 1
-4.7560 -7.2850 -4.5213 0.2897 0 1
-4.3153 -7.2292 -4.3753 0.2993 0 1
-3.8822 -7.1412 -4.2241 0.3110 0 24
-3.4897 -7.0840 -4.1039 0.3218 0 1
-3.1018 -6.9926 -3.9754 0.3298 0 1
-2.7306 -6.8906 -3.8519 0.3404 0 1
-2.3765 -6.7813 -3.7343 0.3541 0 1
-2.0395 -6.6674 -3.6235 0.3649 0 1
-1.7183 -6.5475 -3.5179 0.3759 0 1
-1.4121 -6.4225 -3.4174 0.3869 0 1
-1.1205 -6.2930 -3.3218 0.3980 0 1
-0.8426 -6.1576 -3.2299 0.4083 0 1
-0.5782 -6.0189 -3.1423 0.4195 0 1
-0.3269 -5.8776 -3.0592 0.4294 0 1
-0.0878 -5.7215 -2.9738 0.4429 0 24
0.1387 -5.5759 -2.8986 0.4543 0 24
0.3547 -5.4413 -2.8338 0.4636 0 1
0.5595 -5.2933 -2.7662 0.4751 0 1
0.7540 -5.1446 -2.7021 0.4863 0 1
0.9386 -4.9953 -2.6414 0.4975 0 1
1.1139 -4.8456 -2.5839 0.5086 0 1
1.2799 -4.6946 -2.5287 0.5199 0 1
1.4372 -4.5432 -2.4764 0.5309 0 1
1.5863 -4.3921 -2.4268 0.5417 0 1
1.7261 -4.2376 -2.3779 0.5334 0 1
3.3351 -0.8164 -1.8330 0.7365 0 1
3.3561 -0.6798 -1.8280 0.7385 0 1
3.3738 -0.5432 -1.8243 0.7320 0 1
3.3883 -0.4066 -1.8218 0.7330 0 1
3.3995 -0.2698 -1.8205 0.7335 0 1
3.4074 -0.1329 -1.8204 0.7336 0 1
3.4126 0.0042 -1.8218 0.7322 0 1
3.4131 0.1415 -1.8237 0.7206 0 1
3.4101 0.2791 -1.8265 0.7195 0 1
3.4035 0.4169 -1.8305 0.7179 0 1
3.3935 0.5549 -1.8357 0.7159 0 1
3.3800 0.6933 -1.8420 0.7135 0 1
3.3630 0.8320 -1.8494 0.7106 0 1
3.3423 0.9710 -1.8581 0.7194 0 1
3.3185 1.1106 -1.8681 0.7155 0 1
3.2911 1.2507 -1.8795 0.7112 0 1
3.2599 1.3913 -1.8922 0.7064 0 1
3.2250 1.5325 -1.9061 0.7012 0 1
3.1862 1.6742 -1.9215 0.6956 0 1
3.1434 1.8167 -1.9382 0.6896 0 1
3.0965 1.9597 -1.9563 0.6831 0 1
3.0435 2.1022 -1.9746 0.6768 0 1
2.9869 2.2457 -1.9950 0.6634 0 1
2.9269 2.3906 -2.0175 0.6560 0 1
2.8622 2.5363 -2.0415 0.6482 0 1
2.7926 2.6827 -2.0673 0.6401 0 1
2.7181 2.8298 -2.0947 0.6318 0 1
2.6383 2.9777 -2.1238 0.6231 0 1
2.5532 3.1264 -2.1548 0.6141 0 1
2.4625 3.2758 -2.1877 0.6049 0 1
2.3659 3.4259 -2.2226 0.5954 0 1
2.2617 3.5743 -2.2580 0.5907 0 1
2.1507 3.7221 -2.2949 0.5813 0 1
2.0333 3.8701 -2.3338 0.5716 0 1
1.9091 4.0183 -2.3749 0.5617 0 1
1.7680 4.1435 -2.4049 0.5529 0 24
1.6394 4.3149 -2.4641 0.5413 0 1
1.4862 4.4418 -2.5004 0.5318 0 24
1.3392 4.6109 -2.5632 0.5210 0 1
1.1767 4.7581 -2.6166 0.5108 0 1
1.0056 4.9048 -2.6728 0.5002 0 1
0.8257 5.0519 -2.7327 0.4892 0 1
0.6363 5.1981 -2.7957 0.4782 0 1
0.4369 5.3432 -2.8620 0.4672 0 1
0.2271 5.4869 -2.9317 0.4560 0 1
0.0065 5.6289 -3.0050 0.4449 0 1
-0.2255 5.7683 -3.0817 0.4347 0 1
-0.4692 5.9050 -3.1623 0.4236 0 1
-0.7251 6.0386 -3.2468 0.4126 0 1
-0.9937 6.1687 -3.3356 0.4016 0 1
-1.2754 6.2940 -3.4283 0.3919 0 1
-1.5702 6.4123 -3.5243 0.3813 0 1
-1.8783 6.5229 -3.6237 0.3731 0 1
-2.2003 6.6268 -3.7276 0.3627 0 1
-2.5367 6.7231 -3.8361 0.3525 0 1
-2.8878 6.8110 -3.9493 0.3421 0 1
-3.2538 6.8894 -4.0674 0.3321 0 1
-3.6346 6.9568 -4.1902 0.3227 0 1
-4.0304 7.0121 -4.3177 0.3131 0 1
-4.4411 7.0541 -4.4499 0.3038 0 1
-4.8664 7.0813 -4.5869 0.2948 0 1
-5.3061 7.0923 -4.7285 0.2859 0 1
-5.7604 7.0866 -4.8753 0.2768 0 1
-6.2250 7.0583 -5.0241 0.2686 0 1
-6.7010 7.0086 -5.1765 0.2607 0 1
-7.1870 6.9359 -5.3320 0.2531 0 1
-7.6812 6.8382 -5.4901 0.2458 0 1
-8.1917 6.7222 -5.6570 0.2354 0 1
-8.7163 6.5846 -5.8316 0.2283 0 1
-9.2451 6.4170 -6.0078 0.2216 0 1
-9.7736 6.2169 -6.1837 0.2160 0 1
-10.2519 5.9562 -6.3295 0.2093 0 24
-10.8229 5.7188 -6.5347 0.2003 0 1
-11.3353 5.4182 -6.7070 0.1956 0 1
-11.8287 5.0804 -6.8725 0.1909 0 1
-12.3002 4.7066 -7.0307 0.1866 0 1
-12.7488 4.2991 -7.1824 0.1804 0 1
-13.1647 3.8573 -7.3233 0.1769 0 1
-13.5415 3.3829 -7.4512 0.1751 0 1
-13.8662 2.8772 -7.5601 0.1725 0 1
-14.0902 2.3372 -7.6247 0.1705 0 24
-14.3592 1.7921 -7.7250 0.1687 0 1
-14.5181 1.2216 -7.7778 0.1676 0 1
-14.6164 0.6396 -7.8103 0.1657 0 1
-14.6516 0.0515 -7.8217 0.1659 0 1
-14.6249 -0.5370 -7.8127 0.1661 0 1
-14.5352 -1.1203 -7.7825 0.1669 0 1
-14.3297 -1.6862 -7.7026 0.1678 0 24
-14.1721 -2.2486 -7.6603 0.1697 0 1
-13.9055 -2.7836 -7.5706 0.1691 0 1
-13.5885 -3.2934 -7.4641 0.1715 0 1
-13.2248 -3.7742 -7.3418 0.1744 0 1
-12.8165 -4.2219 -7.2036 0.1786 0 1
-12.3655 -4.6323 -7.0492 0.1816 0 1
-11.8954 -5.0104 -6.8906 0.1914 0 1
-11.4040 -5.3530 -6.7253 0.1954 0 1
-10.8317 -5.6264 -6.5160 0.2055 0 24
-10.3677 -5.9265 -6.3752 0.2061 0 1
-9.8431 -6.1645 -6.2001 0.2181 0 1
-9.3230 -6.3745 -6.0292 0.2243 0 1
-8.8023 -6.5530 -5.8583 0.2308 0 1
-8.2843 -6.7014 -5.6883 0.2377 0 1
-7.7711 -6.8210 -5.5200 0.2422 0 1
-7.2615 -6.9100 -5.3512 0.2499 0 1
-6.7625 -6.9743 -5.1860 0.2597 0 1
-6.2768 -7.0171 -5.0260 0.2680 0 1
-5.7846 -7.0152 -4.8540 0.2753 0 24
-5.3444 -7.0398 -4.7184 0.2835 0 1
-4.8984 -7.0216 -4.5705 0.2926 0 1
-4.4683 -6.9880 -4.4279 0.3046 0 1
-4.0552 -6.9420 -4.2919 0.3142 0 1
-3.6580 -6.8834 -4.1613 0.3241 0 1
-3.2762 -6.8126 -4.0356 0.3318 0 1
-2.9086 -6.7282 -3.9131 0.3422 0 1
-2.5570 -6.6353 -3.7961 0.3557 0 1
-2.2215 -6.5367 -3.6856 0.3664 0 1
-1.9009 -6.4311 -3.5800 0.3772 0 1
-1.5946 -6.3195 -3.4794 0.3881 0 1
-1.3023 -6.2026 -3.3834 0.3991 0 1
-1.0234 -6.0805 -3.2917 0.4091 0 1
-0.7572 -5.9528 -3.2035 0.4203 0 1
-0.5037 -5.8215 -3.1194 0.4301 0 1
-0.2623 -5.6873 -3.0393 0.4414 0 1
-0.0326 -5.5396 -2.9574 0.4550 0 24
0.1859 -5.4121 -2.8909 0.4641 0 1
0.3938 -5.2720 -2.8222 0.4753 0 1
0.5914 -5.1305 -2.7570 0.4868 0 1
0.7793 -4.9881 -2.6952 0.4980 0 1
0.9579 -4.8448 -2.6364 0.5091 0 1
1.1276 -4.7009 -2.5807 0.5200 0 1
1.2884 -4.5553 -2.5272 0.5312 0 1
1.4410 -4.4094 -2.4764 0.5421 0 1
1.5857 -4.2635 -2.4283 0.5529 0 1
1.7194 -4.1093 -2.3780 0.5447 0 1
1.8408 -3.9459 -2.3244 0.5739 0 24
1.9615 -3.7981 -2.2820 0.5848 0 24
2.0794 -3.6577 -2.2461 0.6004 0 1
2.1876 -3.5115 -2.2086 0.6106 0 1
2.2898 -3.3659 -2.1732 0.6206 0 1
2.3861 -3.2211 -2.1400 0.6302 0 1
2.4770 -3.0769 -2.1087 0.6395 0 1
2.5626 -2.9335 -2.0794 0.6486 0 1
2.6430 -2.7907 -2.0519 0.6573 0 1
2.7184 -2.6484 -2.0260 0.6618 0 1
2.7889 -2.5066 -2.0018 0.6698 0 1
2.8548 -2.3654 -1.9792 0.6775 0 1
2.9163 -2.2248 -1.9582 0.6848 0 1
2.9740 -2.0852 -1.9390 0.6962 0 1
3.0286 -1.9467 -1.9220 0.7024 0 1
3.0792 -1.8085 -1.9064 0.7081 0 1
3.1260 -1.6707 -1.8922 0.7135 0 1
3.1689 -1.5332 -1.8793 0.7183 0 1
3.2082 -1.3959 -1.8678 0.7228 0 1
3.2438 -1.2589 -1.8575 0.7268 0 1
3.2759 -1.1220 -1.8486 0.7303 0 1
3.3045 -0.9852 -1.8408 0.7333 0 1
3.3297 -0.8486 -1.8344 0.7359 0 1
3.3515 -0.7120 -1.8291 0.7381 0 1
3.3699 -0.5754 -1.8250 0.7397 0 1
3.3852 -0.4388 -1.8223 0.7328 0 1
3.3972 -0.3020 -1.8207 0.7334 0 1
3.4059 -0.1652 -1.8203 0.7336 0 1
3.4113 -0.0281 -1.8212 0.7325 0 1
3.4134 0.1092 -1.8231 0.7208 0 1
3.4111 0.2467 -1.8257 0.7198 0 1
3.4054 0.3844 -1.8295 0.7183 0 1
3.3962 0.5224 -1.8344 0.7164 0 1
3.3835 0.6607 -1.8404 0.7141 0 1
3.3673 0.7993 -1.8476 0.7113 0 1
3.3475 0.9382 -1.8559 0.7081 0 1
3.3244 1.0777 -1.8657 0.7164 0 1
3.2979 1.2177 -1.8767 0.7122 0 1
3.2676 1.3581 -1.8891 0.7076 0 1
3.2336 1.4992 -1.9027 0.7025 0 1
3.1957 1.6408 -1.9177 0.6970 0 1
3.1538 1.7831 -1.9341 0.6911 0 1
3.1079 1.9260 -1.9519 0.6848 0 1
3.0563 2.0686 -1.9702 0.6783 0 1
3.0004 2.2117 -1.9899 0.6650 0 1
2.9414 2.3565 -2.0120 0.6577 0 1
2.8778 2.5020 -2.0357 0.6501 0 1
2.8094 2.6482 -2.0611 0.6421 0 1
2.7361 2.7951 -2.0881 0.6338 0 1
2.6576 2.9429 -2.1168 0.6252 0 1
2.5737 3.0913 -2.1474 0.6163 0 1
2.4844 3.2405 -2.1798 0.6071 0 1
2.3892 3.3905 -2.2142 0.5977 0 1
2.2869 3.5395 -2.2497 0.5929 0 1
2.1774 3.6873 -2.2860 0.5835 0 1
2.0615 3.8352 -2.3244 0.5739 0 1
1.9273 3.9596 -2.3509 0.5656 0 24
1.7992 4.1084 -2.3944 0.5554 0 24
1.6727 4.2800 -2.4531 0.5438 0 1
1.5284 4.4282 -2.5008 0.5334 0 1
1.3762 4.5761 -2.5510 0.5235 0 1
1.2157 4.7235 -2.6038 0.5133 0 1
1.0467 4.8701 -2.6593 0.5026 0 1
0.8689 5.0173 -2.7183 0.4918 0 1
0.6817 5.1638 -2.7806 0.4808 0 1
0.4847 5.3092 -2.8461 0.4698 0 1
0.2774 5.4533 -2.9149 0.4587 0 1
0.0594 5.5957 -2.9874 0.4475 0 1
-0.1697 5.7293 -3.0599 0.4344 0 24
-0.4107 5.8730 -3.1429 0.4262 0 1
-0.6625 5.9965 -3.2207 0.4169 0 24
-0.9293 6.1384 -3.3143 0.4042 0 1
-1.2080 6.2654 -3.4064 0.3932 0 1
-1.4996 6.3849 -3.5013 0.3838 0 1
-1.8045 6.4974 -3.5999 0.3756 0 1
-2.1232 6.6030 -3.7027 0.3652 0 1
-2.4562 6.7012 -3.8101 0.3549 0 1
-2.8038 6.7912 -3.9223 0.3447 0 1
-3.1663 6.8719 -4.0392 0.3345 0 1
-3.5437 6.9421 -4.1609 0.3249 0 1
-3.9359 7.0003 -4.2872 0.3154 0 1
-4.3431 7.0455 -4.4184 0.3060 0 1
-4.7650 7.0763 -4.5543 0.2969 0 1
-5.2013 7.0913 -4.6948 0.2880 0 1
-5.6526 7.0901 -4.8407 0.2764 0 1
-6.1145 7.0668 -4.9887 0.2705 0 1
-6.5880 7.0224 -5.1403 0.2626 0 1
-7.0718 6.9552 -5.2951 0.2549 0 1
-7.5642 6.8635 -5.4527 0.2475 0 1
-8.0691 6.7505 -5.6162 0.2371 0 1
-8.5923 6.6196 -5.7904 0.2300 0 1
-9.1204 6.4592 -5.9662 0.2232 0 1
-9.6501 6.2675 -6.1428 0.2174 0 1
-10.1736 6.0402 -6.3162 0.2072 0 1
-10.7002 5.7842 -6.4934 0.2015 0 1
-11.2165 5.4925 -6.6672 0.1968 0 1
-11.7144 5.1632 -6.8341 0.1920 0 1
-12.1915 4.7978 -6.9942 0.1876 0 1
-12.6000 4.3822 -7.1216 0.1812 0 24
-13.0701 3.9643 -7.2913 0.1777 0 1
-13.4042 3.4838 -7.3935 0.1752 0 24
-13.7941 2.9987 -7.5359 0.1731 0 1
-14.0810 2.4728 -7.6321 0.1709 0 1
-14.3132 1.9241 -7.7097 0.1691 0 1
-14.4861 1.3571 -7.7672 0.1678 0 1
-14.5989 0.7773 -7.8045 0.1658 0 1
-14.6492 0.1901 -7.8210 0.1654 0 1
-14.6369 -0.3988 -7.8167 0.1660 0 1
-14.5620 -0.9837 -7.7915 0.1666 0 1
-14.4250 -1.5592 -7.7455 0.1677 0 1
-14.2276 -2.1195 -7.6791 0.1692 0 1
-13.9728 -2.6598 -7.5932 0.1686 0 1
-13.6675 -3.1759 -7.4907 0.1709 0 1
-13.2681 -3.6511 -7.3464 0.1743 0 24
-12.9168 -4.1198 -7.2378 0.1778 0 1
-12.4748 -4.5391 -7.0868 0.1806 0 1
-12.0078 -4.9244 -6.9284 0.1903 0 1
-11.4685 -5.2514 -6.7337 0.1901 0 24
-10.9510 -5.5574 -6.5558 0.1993 0 24
-10.4918 -5.8664 -6.4171 0.2048 0 1
-9.9651 -6.1103 -6.2402 0.2167 0 1
-9.4456 -6.3280 -6.0695 0.2228 0 1
-8.9248 -6.5137 -5.8984 0.2293 0 1
-8.4058 -6.6691 -5.7282 0.2361 0 1
-7.8917 -6.7957 -5.5597 0.2432 0 1
-7.3806 -6.8913 -5.3906 0.2481 0 1
-6.8789 -6.9612 -5.2245 0.2559 0 1
-6.3900 -7.0090 -5.0633 0.2660 0 1
-5.9142 -7.0356 -4.9067 0.2745 0 1
-5.4516 -7.0417 -4.7540 0.2813 0 1
-5.0019 -7.0274 -4.6048 0.2905 0 1
-4.5680 -6.9971 -4.4609 0.2998 0 1
-4.1510 -6.9540 -4.3235 0.3120 0 1
-3.7501 -6.8983 -4.1916 0.3218 0 1
-3.3649 -6.8308 -4.0650 0.3318 0 1
-2.9937 -6.7489 -3.9414 0.3397 0 1
-2.6383 -6.6577 -3.8231 0.3503 0 1
-2.2991 -6.5605 -3.7111 0.3639 0 1
-1.9684 -6.4350 -3.5924 0.3736 0 24
-1.6655 -6.3463 -3.5027 0.3855 0 1
-1.3699 -6.2306 -3.4056 0.3965 0 1
-1.0879 -6.1100 -3.3131 0.4065 0 1
-0.8187 -5.9832 -3.2238 0.4176 0 1
-0.5623 -5.8527 -3.1388 0.4274 0 1
-0.3181 -5.7191 -3.0578 0.4387 0 1
-0.0855 -5.5719 -2.9749 0.4523 0 24
0.1354 -5.4449 -2.9076 0.4614 0 1
0.3458 -5.3051 -2.8381 0.4727 0 1
0.5458 -5.1639 -2.7721 0.4841 0 1
0.7360 -5.0217 -2.7094 0.4953 0 1
0.9167 -4.8786 -2.6500 0.5064 0 1
1.0884 -4.7348 -2.5936 0.5175 0 1
1.2513 -4.5896 -2.5396 0.5287 0 1
1.4058 -4.4438 -2.4881 0.5396 0 1
1.5523 -4.2978 -2.4394 0.5504 0 1
1.6888 -4.1459 -2.3898 0.5420 0 1
3.2821 -0.8035 -1.8523 0.7439 0 1
3.3029 -0.6691 -1.8473 0.7459 0 1
3.3204 -0.5346 -1.8436 0.7474 0 1
3.3346 -0.4001 -1.8410 0.7485 0 1
3.3454 -0.2656 -1.8396 0.7490 0 1
3.3530 -0.1308 -1.8394 0.7491 0 1
3.3570 0.0041 -1.8402 0.7414 0 1
3.3573 0.1392 -1.8419 0.7407 0 1
3.3541 0.2745 -1.8448 0.7395 0 1
3.3477 0.4100 -1.8488 0.7379 0 1
3.3378 0.5458 -1.8540 0.7359 0 1
3.3246 0.6819 -1.8604 0.7333 0 1
3.3079 0.8183 -1.8680 0.7304 0 1
3.2878 0.9551 -1.8768 0.7269 0 1
3.2641 1.0924 -1.8868 0.7231 0 1
3.2367 1.2300 -1.8981 0.7188 0 1
3.2058 1.3682 -1.9106 0.7140 0 1
3.1710 1.5068 -1.9245 0.7089 0 1
3.1324 1.6460 -1.9397 0.7033 0 1
3.0899 1.7857 -1.9563 0.6974 0 1
3.0432 1.9260 -1.9742 0.6909 0 1
2.9906 2.0656 -1.9924 0.6846 0 1
2.9340 2.2059 -2.0122 0.6713 0 1
2.8744 2.3478 -2.0345 0.6639 0 1
2.8102 2.4903 -2.0583 0.6562 0 1
2.7413 2.6334 -2.0838 0.6482 0 1
2.6675 2.7772 -2.1109 0.6399 0 1
2.5886 2.9216 -2.1397 0.6313 0 1
2.5044 3.0666 -2.1704 0.6224 0 1
2.4147 3.2122 -2.2028 0.6132 0 1
2.3193 3.3583 -2.2373 0.6037 0 1
2.2166 3.5030 -2.2724 0.5991 0 1
2.1072 3.6467 -2.3087 0.5897 0 1
1.9792 3.7672 -2.3327 0.5818 0 24
1.8691 3.9342 -2.3876 0.5702 0 1
1.7305 4.0556 -2.4171 0.5615 0 24
1.6038 4.2212 -2.4753 0.5500 0 1
1.4602 4.3643 -2.5227 0.5397 0 1
1.3034 4.4878 -2.5617 0.5299 0 24
1.1497 4.6487 -2.6250 0.5196 0 1
0.9821 4.7898 -2.6803 0.5091 0 1
0.8059 4.9309 -2.7388 0.4983 0 1
0.6207 5.0709 -2.8004 0.4873 0 1
0.4259 5.2094 -2.8652 0.4763 0 1
0.2213 5.3463 -2.9332 0.4652 0 1
0.0063 5.4811 -3.0045 0.4542 0 1
-0.2194 5.6133 -3.0794 0.4440 0 1
-0.4562 5.7422 -3.1576 0.4330 0 1
-0.7046 5.8679 -3.2397 0.4220 0 1
-0.9623 5.9736 -3.3167 0.4136 0 24
-1.2375 6.1068 -3.4156 0.4015 0 1
-1.5222 6.2163 -3.5083 0.3909 0 1
-1.8196 6.3192 -3.6047 0.3829 0 1
-2.1297 6.4141 -3.7048 0.3725 0 1
-2.4530 6.5013 -3.8091 0.3623 0 1
-2.7898 6.5799 -3.9177 0.3523 0 1
-3.1401 6.6488 -4.0307 0.3424 0 1
-3.5041 6.7071 -4.1482 0.3322 0 1
-3.8814 6.7530 -4.2697 0.3245 0 1
-4.2720 6.7856 -4.3954 0.3152 0 1
-4.6756 6.8037 -4.5254 0.3062 0 1
-5.0919 6.8060 -4.6594 0.2974 0 1
-5.5201 6.7910 -4.7973 0.2888 0 1
-5.9590 6.7567 -4.9385 0.2841 0 1
-6.4073 6.7015 -5.0824 0.2761 0 1
-6.8643 6.6244 -5.2292 0.2683 0 1
-7.3284 6.5241 -5.3784 0.2609 0 1
-7.7978 6.3990 -5.5295 0.2538 0 1
-8.2813 6.2560 -5.6893 0.2389 0 1
-8.7704 6.0875 -5.8523 0.2322 0 1
-9.2145 5.8613 -5.9864 0.2265 0 24
-9.7389 5.6582 -6.1741 0.2208 0 1
-10.2119 5.3959 -6.3313 0.2110 0 1
-10.6805 5.1052 -6.4892 0.2059 0 1
-11.1299 4.7803 -6.6400 0.2017 0 1
-11.5071 4.4031 -6.7538 0.1953 0 24
-11.9632 4.0342 -6.9207 0.1955 0 1
-12.3305 3.6129 -7.0433 0.1921 0 1
-12.6689 3.1649 -7.1581 0.1848 0 1
-12.9657 2.6903 -7.2588 0.1834 0 1
-13.2120 2.1915 -7.3414 0.1812 0 1
-13.3581 1.6671 -7.3793 0.1796 0 24
-13.5492 1.1401 -7.4535 0.1785 0 1
-13.6368 0.5967 -7.4824 0.1778 0 1
-13.6682 0.0480 -7.4925 0.1776 0 1
-13.6426 -0.5010 -7.4835 0.1778 0 1
-13.5614 -1.0452 -7.4560 0.1778 0 1
-13.3770 -1.5741 -7.3835 0.1794 0 24
-13.2373 -2.1003 -7.3470 0.1806 0 1
-12.9959 -2.6015 -7.2653 0.1826 0 1
-12.7087 -3.0802 -7.1682 0.1851 0 1
-12.3799 -3.5331 -7.0572 0.1880 0 1
-12.0170 -3.9585 -6.9355 0.1934 0 1
-11.6190 -4.3526 -6.8014 0.1979 0 1
-11.1941 -4.7150 -6.6584 0.2022 0 1
-10.7450 -5.0437 -6.5067 0.2061 0 1
-10.2775 -5.3386 -6.3485 0.2113 0 1
-9.7724 -5.5862 -6.1704 0.2234 0 24
-9.3296 -5.8429 -6.0344 0.2290 0 1
-8.8490 -6.0504 -5.8762 0.2349 0 1
-8.3669 -6.2288 -5.7179 0.2414 0 1
-7.8858 -6.3790 -5.5600 0.2482 0 1
-7.4044 -6.4991 -5.4006 0.2527 0 1
-6.9298 -6.5942 -5.2437 0.2622 0 1
-6.4638 -6.6662 -5.0900 0.2701 0 1
-6.0077 -6.7163 -4.9396 0.2783 0 1
-5.5627 -6.7460 -4.7930 0.2848 0 1
-5.1274 -6.7541 -4.6484 0.2937 0 1
-4.7057 -6.7455 -4.5085 0.3053 0 1
-4.2989 -6.7231 -4.3744 0.3147 0 1
-3.8944 -6.6666 -4.2323 0.3238 0 24
-3.5274 -6.6376 -4.1204 0.3341 0 1
-3.1620 -6.5752 -3.9994 0.3417 0 1
-2.8102 -6.5006 -3.8821 0.3521 0 1
-2.4736 -6.4189 -3.7709 0.3655 0 1
-2.1511 -6.3295 -3.6646 0.3761 0 1
-1.8423 -6.2330 -3.5629 0.3869 0 1
-1.5469 -6.1302 -3.4657 0.3977 0 1
-1.2644 -6.0217 -3.3729 0.4086 0 1
-0.9943 -5.9076 -3.2839 0.4170 0 1
